# This PCD file was generated using the MATLAB® pcwrite function
# from Computer Vision Toolbox®.
# .PCD v.7 - Point Cloud Data file format
VERSION .7
FIELDS x y z
SIZE 4 4 4
TYPE F F F
COUNT 1 1 1
WIDTH 1432
HEIGHT 1
VIEWPOINT 0 0 0 1 0 0 0
POINTS 1432
DATA ascii
-75.618988 89.148659 -277.247345
-73.902840 77.505913 -275.200439
-73.205597 131.684204 -278.627075
-71.673889 81.038139 -277.228882
-72.941086 76.220650 -278.654266
-73.814507 174.611130 -280.164520
-81.348816 170.643463 -273.876129
-73.310005 166.072922 -275.273590
-73.524223 142.100983 -279.083740
-70.913246 135.431442 -281.576233
-78.211494 152.851364 -280.283356
-72.238403 217.476059 -278.651031
-73.223488 163.144257 -277.704132
-70.633034 159.922699 -275.425720
-74.238289 218.304092 -275.915924
-75.224426 106.556396 -279.679504
-71.411339 144.152237 -280.919678
-74.316025 143.349380 -284.624939
-78.492996 130.933044 -280.045837
-72.614922 94.585152 -286.370026
-69.512291 166.297546 -284.408966
-78.125275 165.395157 -282.099030
-76.502533 161.020599 -281.990540
-77.306686 78.538116 -282.877838
-73.526062 175.038223 -280.455200
-73.173599 168.846329 -281.196594
-74.872215 157.561554 -281.967255
-73.255165 67.295746 -283.118835
-70.152748 173.812927 -281.714325
-74.494614 193.742035 -283.838226
-73.273872 42.325188 -280.501709
-74.339836 34.251034 -281.662048
-68.913223 209.521912 -282.822784
-73.727486 209.358704 -285.157837
-72.583511 177.501755 -283.812317
-75.844635 207.091721 -288.206573
-74.484955 205.498703 -284.212341
-69.044670 193.812973 -291.743286
-69.872711 204.075653 -292.439789
-72.882729 193.325500 -298.799713
-71.302818 211.234451 -299.033417
-73.501968 198.129440 -299.890198
-74.044365 200.122818 -302.378387
-71.763680 199.451294 -301.436401
-75.355148 23.175600 -5.303606
-76.869591 27.167362 -10.002738
-73.496101 26.900043 -9.388319
-73.992683 28.812540 -14.116641
-73.236862 30.902542 -17.275126
-74.907227 23.492493 -13.295755
-78.058975 29.809038 -23.110130
-78.199287 27.412481 -22.864384
-73.303421 27.349546 -26.640284
-71.037094 17.984806 -32.087666
-69.886642 110.559013 -40.476292
-68.215721 104.454552 -37.383781
-72.072021 105.614738 -46.125332
-69.366631 111.702477 -39.505077
-71.318542 95.894653 -40.774456
-70.273087 88.554398 -42.797714
-68.696960 123.321472 -43.461174
-70.627205 81.227448 -42.609325
-73.739471 131.348541 -46.449711
-72.550888 70.707748 -59.556847
-75.966606 -33.147034 -60.008915
-71.899147 66.222839 -60.303940
-76.192558 -39.427853 -60.487362
-76.417320 -41.235504 -61.544281
-76.030510 -26.440207 -62.234112
-73.621346 142.798309 -67.441010
-71.341896 -17.126410 -66.002228
-71.340691 74.432716 -70.007362
-76.792145 84.340576 -69.472237
-69.737663 80.356712 -64.219666
-71.548492 90.082237 -68.429398
-74.229744 -46.273621 -64.322227
-72.826904 -44.594913 -68.000999
-75.809166 143.139847 -68.036392
-72.474533 -46.293018 -69.504997
-72.671951 -20.657183 -68.412384
-70.242645 88.495804 -72.055000
-73.831856 146.528137 -74.282173
-72.100258 -47.235920 -78.585152
-75.694962 93.147476 -75.675018
-75.893219 103.630440 -86.357285
-74.792191 -52.512676 -79.034431
-76.954544 -7.087188 -79.830055
-75.941566 -51.437809 -81.078453
-72.456940 110.015717 -78.783920
-72.428017 -24.090048 -80.286156
-78.027039 -46.140919 -83.516190
-74.941231 -10.344751 -86.763199
-76.562248 -3.578309 -93.306656
-70.861359 -20.085833 -81.754677
-75.051025 3.435673 -89.650848
-73.567474 -57.108936 -88.977707
-73.730240 130.148438 -91.662514
-72.634590 -48.946869 -84.843636
-76.800316 -56.129585 -92.035805
-70.103592 -38.138660 -89.518074
-73.148468 -40.549358 -88.515007
-72.946655 -35.783974 -90.736626
-77.071388 -52.462898 -93.709099
-75.300323 -61.877110 -99.002159
-74.289940 10.811422 -95.373085
-72.528816 2.279374 -100.589363
-78.012802 13.214972 -99.296204
-73.104668 3.540972 -101.154793
-76.594398 138.324127 -103.652115
-76.745293 9.086466 -104.758728
-71.959854 -63.411751 -104.965607
-67.618599 137.502350 -110.135872
-70.510620 -57.156296 -99.769814
-72.579597 144.739136 -107.011658
-71.998230 15.745113 -114.670258
-71.871025 -56.395164 -110.699829
-70.426010 -60.060074 -107.956734
-74.412735 -63.023682 -103.719879
-74.753441 8.338331 -112.441406
-73.994453 -63.820099 -113.357277
-71.946281 20.581615 -114.733444
-74.593567 5.207653 -115.571190
-69.074112 16.056778 -122.266701
-78.988396 8.431515 -117.867241
-74.250931 -65.837318 -120.489655
-78.016785 -57.837749 -115.820930
-74.849922 12.606956 -118.705208
-72.260124 -65.479736 -125.962280
-74.436089 11.846180 -122.748192
-76.498642 105.025864 -117.514305
-76.012360 -65.658241 -119.100212
-73.534492 24.539587 -124.921150
-70.861168 -62.415154 -119.573051
-70.918472 103.217606 -123.476959
-71.741188 101.175331 -124.497009
-76.248634 124.427574 -127.250420
-70.654839 99.369041 -126.694244
-69.599213 107.826935 -128.149765
-73.151329 -62.541061 -122.508995
-76.017838 14.154007 -126.449219
-71.387215 -64.631783 -126.906425
-71.792046 -60.222893 -129.431061
-69.842361 -59.727695 -130.264038
-71.701706 26.611588 -129.835693
-73.948494 119.688896 -130.853638
-69.192619 121.923218 -137.667465
-74.325638 108.104759 -130.745651
-68.695839 13.960310 -133.171600
-72.781609 -62.484978 -132.190033
-74.434036 93.450417 -134.626831
-71.571716 28.116726 -134.776199
-70.293419 115.681290 -137.667343
-73.282578 120.332344 -138.834579
-69.902840 94.425583 -139.707397
-77.184853 129.761292 -131.371536
-73.780045 14.140643 -133.425873
-77.670113 27.704739 -136.382935
-74.508766 -65.386215 -137.834808
-75.901062 122.795341 -137.316055
-76.325340 120.661888 -134.847412
-73.428360 101.946037 -143.682129
-74.533195 116.178223 -142.734894
-76.204376 -65.071091 -138.378052
-77.223099 118.038231 -138.278458
-74.601112 -60.496140 -141.098053
-70.359169 96.176826 -142.345963
-72.067863 -60.946899 -143.458038
-75.833649 39.328484 -146.216614
-73.251785 32.449528 -145.890305
-74.787041 38.477222 -143.088364
-71.038971 -68.625191 -144.404251
-73.712402 91.787369 -146.173615
-71.500435 120.700691 -146.668900
-72.465019 49.141190 -149.127090
-76.755592 124.253365 -148.669220
-74.764153 19.703524 -145.612823
-70.991035 -58.598057 -144.555267
-74.565666 49.598499 -149.201462
-74.095787 -59.822598 -145.990891
-73.820229 -61.869015 -146.856216
-74.495300 84.655525 -146.639938
-73.634453 -61.347683 -148.720566
-75.028870 114.800545 -145.745819
-75.119957 87.843307 -148.584747
-77.093605 -64.071976 -143.894348
-76.310707 96.297302 -148.348633
-75.477783 27.911652 -150.312485
-75.002655 43.569714 -154.428650
-70.828369 46.441586 -156.625473
-69.209404 115.841637 -152.679291
-76.386360 94.514153 -157.547211
-69.679276 46.157776 -150.792297
-72.928574 -57.758312 -152.259689
-72.872231 51.572163 -155.711243
-74.730133 46.466225 -156.388916
-76.494209 114.875160 -158.510834
-72.854973 82.857811 -157.000107
-74.983139 -61.870365 -151.816269
-72.992783 -57.535088 -157.125595
-69.814339 85.533058 -152.396118
-68.344803 97.333069 -158.580811
-71.536453 109.564095 -155.278244
-69.413269 109.801392 -160.162308
-73.898651 -55.860825 -158.517487
-73.319504 86.465118 -160.624954
-71.584435 88.500229 -162.235947
-70.652504 82.355240 -164.440750
-75.668434 -62.929169 -167.393707
-71.920708 -63.310673 -161.072739
-73.873192 90.812180 -171.159180
-75.951118 28.398439 -165.435379
-72.450607 -53.497288 -167.458939
-77.133804 197.636307 -164.970993
-74.612366 21.120094 -172.621536
-74.385277 -54.242825 -169.051208
-72.535141 199.496964 -172.862823
-73.413757 77.083183 -169.004868
-72.505890 73.431618 -169.621048
-74.808319 27.804892 -165.799728
-74.238907 27.884874 -173.475037
-71.121788 31.866222 -170.076004
-71.821304 21.681721 -170.078537
-71.226494 -57.113689 -172.503464
-72.644669 -59.154366 -172.462387
-77.501015 199.309113 -180.882645
-74.908134 72.085129 -176.908905
-77.820671 -59.311600 -175.655304
-76.562271 -52.766514 -178.168198
-75.042671 -51.537975 -182.939651
-68.001823 -52.241451 -172.227112
-74.609795 200.894440 -175.655365
-74.268448 69.899437 -179.807953
-74.747475 -48.657669 -180.059555
-69.056908 80.310562 -184.370377
-77.538132 73.655937 -184.919815
-68.712418 199.494324 -184.805786
-72.814873 35.519112 -173.823257
-73.775108 201.138397 -189.422852
-69.860291 -55.288113 -180.414352
-74.041969 -54.297676 -180.376846
-73.805634 -56.628475 -185.237656
-69.343491 76.056381 -187.747330
-76.471359 -55.284733 -179.162888
-75.813576 178.730209 -187.104416
-71.048836 77.841759 -181.551987
-71.961464 199.831024 -184.397522
-68.302216 189.291397 -189.006271
-75.257027 -45.307205 -188.771317
-74.410118 42.053391 -183.752350
-74.414558 24.955385 -182.942871
-68.840576 188.926437 -185.270584
-74.938148 74.418953 -187.699738
-69.074173 184.162857 -187.246948
-74.108498 174.450485 -188.551559
-74.507202 199.471954 -188.387543
-73.745430 188.234741 -186.606506
-74.898232 -51.129539 -193.199936
-70.848618 -57.086842 -188.948730
-73.116592 38.854675 -189.252838
-71.210510 63.374462 -191.358765
-71.455536 177.838043 -195.923904
-69.800690 174.091034 -195.952225
-74.049423 28.325138 -191.463501
-70.111397 28.875334 -192.427963
-69.354980 190.947144 -190.151093
-69.983337 57.960968 -192.056671
-68.549583 40.682224 -191.922409
-73.184601 69.749611 -195.038559
-70.588943 25.043293 -188.996750
-73.812721 60.753593 -198.654068
-72.849030 38.550201 -196.673843
-70.377983 -37.130703 -196.509262
-70.598618 199.341705 -198.624161
-74.959549 65.196960 -199.841797
-75.987343 72.458824 -200.369919
-72.656189 -40.514713 -199.308884
-74.517151 -46.231056 -195.807312
-73.673370 200.729996 -206.754074
-75.638893 -48.641777 -200.602051
-73.728455 218.185608 -197.824463
-75.442772 128.453735 -200.607697
-73.090431 43.511284 -199.469467
-73.583191 -36.973946 -204.166824
-73.952751 70.454926 -201.638504
-74.617271 41.348171 -201.122345
-72.653404 78.920357 -200.327042
-72.130714 135.981918 -202.157639
-77.266884 134.077255 -205.846817
-75.197830 193.455566 -207.743927
-75.832886 81.583267 -197.790741
-70.540527 76.626839 -204.346237
-71.237457 205.201675 -202.825821
-72.161491 74.173431 -208.784714
-72.859978 78.197433 -208.464172
-73.198853 -30.328226 -204.220398
-74.880608 -39.495193 -205.132477
-72.916336 -34.316990 -204.012955
-75.559799 129.561310 -206.709229
-72.374344 52.914875 -207.758606
-74.434425 150.720718 -203.525253
-74.814011 82.346825 -203.771301
-72.708351 203.523621 -202.876999
-70.240402 136.865753 -202.743423
-73.058609 -36.601345 -211.250671
-70.383980 52.049831 -205.247513
-73.523911 -39.975269 -210.970856
-73.031792 212.683578 -204.590500
-70.641548 61.125446 -207.975815
-73.886314 147.731277 -210.453339
-72.908493 35.540398 -213.095779
-73.877380 -36.644794 -217.205475
-74.598022 37.981522 -208.218964
-72.555862 199.511459 -215.956741
-73.083916 -35.964127 -214.349518
-74.270981 213.649689 -208.716949
-73.835983 209.191605 -210.527451
-70.232376 204.974228 -211.794785
-71.599876 152.360336 -213.362289
-74.747147 72.576164 -216.308105
-67.984161 200.810547 -217.377838
-70.657471 157.829849 -212.764603
-68.510620 54.785625 -214.160843
-69.369469 152.753113 -214.712448
-76.283257 60.940266 -215.700058
-72.027985 40.549965 -212.297424
-67.106171 216.761200 -211.452042
-76.693260 62.902977 -217.081650
-73.718628 211.652237 -216.016830
-76.039101 -36.346645 -212.678406
-72.218552 46.590160 -217.325043
-76.627213 30.719503 -213.818985
-74.267532 200.318436 -219.863358
-64.019974 188.950729 -220.315659
-70.902596 173.759598 -213.997940
-70.397301 154.107407 -218.164536
-72.650711 68.026543 -214.482086
-67.647591 158.845505 -215.910583
-75.119690 211.600952 -214.906845
-73.141380 190.824631 -219.205368
-70.663452 158.626465 -219.000092
-74.523842 153.170364 -209.508011
-73.973007 62.765423 -216.045044
-75.457626 43.941750 -217.152252
-73.914459 -29.547256 -218.460251
-69.613205 213.441544 -217.741821
-75.882492 208.824631 -220.214050
-67.240211 193.177124 -214.187286
-71.779068 174.104568 -217.222641
-72.062660 -36.481483 -215.315186
-72.923409 163.307953 -221.251205
-74.978508 201.616943 -221.459457
-76.154877 206.069885 -221.302505
-71.896584 193.880249 -218.986343
-71.001160 171.480698 -221.469879
-73.251213 55.694485 -219.728516
-67.181854 205.493011 -220.271622
-74.723785 173.513702 -222.006470
-71.868469 61.840618 -220.117874
-74.315773 215.662216 -220.466003
-75.364716 192.434387 -221.105957
-75.339897 183.459885 -223.630936
-73.727104 203.124466 -223.051117
-73.610779 180.746140 -225.627045
-69.187721 170.162125 -224.732269
-73.567802 201.229233 -222.723389
-69.512222 195.365753 -217.734100
-73.212822 203.441406 -218.818481
-74.685074 -21.290850 -217.481171
-71.158302 -22.898872 -225.709625
-73.231636 207.037399 -228.086349
-71.117836 199.758652 -223.380630
-70.113319 -18.216593 -225.919235
-74.946617 66.204369 -229.489044
-73.067871 55.639957 -222.311630
-74.491478 40.249359 -226.123779
-73.189926 41.753990 -228.919052
-72.622086 219.762070 -218.832596
-72.046967 204.061234 -237.586060
-71.801285 36.184746 -231.154434
-73.014488 -12.904457 -229.753510
-71.084679 37.053696 -230.035736
-72.134415 35.956139 -230.506393
-77.406921 40.134777 -228.590424
-73.335777 -13.230649 -229.616302
-75.206444 58.484547 -236.191711
-71.991211 69.904953 -229.349350
-75.828804 67.377235 -232.706802
-77.253212 67.004105 -231.530304
-71.108139 52.159100 -231.803619
-73.815468 50.241585 -232.133911
-73.133896 48.134720 -233.705383
-74.973137 -5.868182 -235.467453
-74.930588 30.030849 -231.458862
-68.817627 105.747009 -240.239288
-69.798363 28.103052 -234.712967
-73.390991 -7.480627 -237.584106
-75.176384 109.773811 -231.029617
-70.387947 33.010471 -238.996597
-75.377579 127.504646 -237.458649
-76.785088 108.238312 -237.687210
-72.766830 0.925695 -241.741928
-67.554451 62.592136 -242.502655
-71.108948 107.761314 -244.142471
-70.684952 105.751518 -238.487717
-73.714157 118.002670 -234.746994
-70.435051 57.469769 -241.241577
-75.027885 66.629372 -239.767395
-74.365898 135.622818 -244.539230
-73.720490 133.997803 -240.130386
-72.722755 121.588440 -238.611115
-69.220795 60.451797 -241.231079
-71.730614 194.501755 -240.772049
-70.050819 126.692856 -242.102203
-70.556549 173.954071 -241.285416
-72.885773 149.550812 -249.504745
-70.432167 66.957329 -245.368530
-75.673592 28.917564 -243.449371
-72.254753 162.748642 -247.238113
-72.980301 144.363022 -244.975113
-70.534309 159.332703 -246.165314
-76.023285 153.658234 -248.540451
-75.726517 155.152435 -250.208954
-74.657692 154.228348 -249.781982
-72.319679 161.962372 -249.886963
-70.662552 175.678925 -252.681320
-75.496613 215.000748 -249.372070
-68.926353 192.452881 -253.022858
-71.524651 196.333801 -254.740311
-75.685036 60.930984 -261.371155
-71.502983 217.299240 -259.288544
-71.009926 195.011719 -268.259918
-73.752113 35.917412 -270.787628
-72.268127 175.653366 -276.110474
-73.264648 187.514908 -273.113434
-75.784775 102.027832 -271.844055
-72.754555 135.699173 -275.216492
-71.532272 117.280914 -276.453735
-75.817909 92.967987 -273.304260
-71.207619 169.132599 -272.188995
-74.324623 78.455330 -272.237244
-70.976463 149.919403 -278.345184
-71.872673 81.561943 -277.903381
-74.872406 74.117867 -276.964813
-74.542503 53.475906 -276.480164
-72.577042 221.015274 -277.787140
-71.287666 64.436386 -279.915436
-76.171616 46.425163 -276.597809
-76.756218 78.002403 -275.718353
-73.126259 30.575762 -277.227356
-76.861794 105.461510 -279.928284
-77.365265 86.089775 -280.234589
-71.297630 77.375618 -280.838013
-72.532562 36.399094 -281.331055
-70.792854 117.498138 -278.410675
-77.622261 115.309212 -283.598114
-71.373550 85.631691 -282.855591
-69.191170 64.042397 -278.212952
-70.885246 133.415329 -283.394318
-73.237312 66.019409 -285.093201
-68.822762 58.642445 -283.018280
-71.571167 146.383499 -281.597534
-71.680908 33.006516 -277.049561
-71.192612 56.269089 -279.963531
-70.800743 47.465313 -281.132538
-76.408348 29.831842 -284.155548
-73.866791 37.915367 -287.867249
-69.709862 183.300507 -284.575989
-75.741333 190.266510 -294.030853
-75.049919 205.017426 -299.002014
-70.984627 206.409958 -301.176056
-74.280678 197.153946 -300.685211
-70.599312 18.254021 -6.618684
-75.118607 16.059891 1.775258
-76.252068 11.120498 -4.319362
-67.906708 18.327614 -2.048497
-75.688652 15.242444 -10.399250
-75.348114 22.895884 -2.985834
-70.133446 14.985889 -4.594075
-68.390160 5.908723 -12.965860
-74.447121 6.078879 -6.639273
-73.511734 25.703880 -4.780252
-71.213364 7.136749 -12.581606
-68.498840 3.495446 -16.673862
-71.550102 24.734953 -18.821339
-73.996613 2.123301 -17.422674
-73.926140 25.191389 -12.964083
-74.185425 28.849028 -11.965776
-70.461967 26.598173 -22.838573
-73.585152 3.162474 -18.468836
-71.141884 6.066990 -24.705257
-75.297234 16.954016 -23.891960
-69.908920 10.911798 -22.138742
-69.479393 8.290877 -26.786552
-73.304924 2.688787 -24.061064
-75.305725 17.325014 -23.430981
-70.352753 14.386251 -24.087269
-72.149139 16.714296 -31.167547
-74.147942 7.224010 -31.130613
-72.659111 11.806556 -28.889509
-70.431305 121.624084 -38.561512
-74.334564 97.933434 -39.717205
-70.423996 88.368126 -40.277905
-72.224304 86.986382 -40.007355
-73.823189 80.612701 -45.214851
-64.970566 135.594086 -51.405289
-71.615639 135.284882 -50.817028
-70.583618 -29.721226 -58.277348
-69.291771 -30.392948 -62.789658
-70.133858 -18.717756 -57.438629
-72.808487 67.459244 -61.766361
-73.905853 140.321121 -62.193375
-75.320267 75.210388 -69.667618
-74.836380 -16.596596 -75.662704
-70.842064 94.892372 -73.436455
-70.634682 -14.194152 -74.761436
-68.866737 -4.531682 -84.063438
-75.355568 -3.617877 -85.880547
-72.607681 -48.925247 -82.186745
-73.220650 -0.176840 -81.616936
-65.123283 -7.456428 -83.139923
-72.815872 116.305077 -77.724388
-68.775497 108.803696 -83.897888
-72.670670 3.139483 -88.071373
-69.938416 -19.954361 -84.563965
-70.514412 117.221260 -85.579506
-74.400284 -59.951599 -91.129509
-70.230995 117.427750 -85.770447
-75.135170 -43.751732 -87.376472
-73.241943 3.729802 -90.663078
-78.956276 -57.726254 -89.941963
-74.074242 119.831680 -93.403938
-74.448334 -30.772533 -87.163475
-72.588585 -2.882502 -95.714844
-70.544594 -50.332211 -86.915298
-71.370941 -54.654469 -91.833221
-71.654922 -51.194157 -89.521149
-73.863281 9.903410 -95.778214
-71.015251 142.082428 -93.800636
-75.181595 -53.048824 -100.410995
-72.195496 8.711089 -98.838791
-74.262436 -56.449207 -101.586517
-74.630211 -0.774846 -97.768394
-73.374550 -54.403645 -95.716171
-76.579880 136.244003 -101.367691
-70.001907 5.465626 -105.260422
-72.107216 16.647387 -98.735649
-69.350883 3.743908 -102.273880
-76.897186 -56.552792 -103.423462
-68.561867 -52.722374 -102.435501
-73.884346 -58.278534 -102.753387
-69.301651 -53.590328 -108.051361
-73.612717 -58.788296 -104.422218
-69.700890 -57.979725 -106.298538
-70.651924 13.539014 -105.145134
-74.065224 20.625544 -112.014633
-69.823051 7.312829 -105.384872
-73.779694 -56.147892 -109.298187
-68.298958 11.749004 -112.972885
-77.107857 7.405302 -115.514763
-73.316933 -56.330322 -119.906685
-71.777916 -60.982952 -115.059914
-72.200378 16.800140 -116.384605
-68.167389 -56.568905 -112.785049
-71.170593 127.313385 -120.261421
-74.049004 128.559799 -125.837151
-71.289696 -60.299194 -120.324577
-70.424965 -59.767750 -120.421822
-72.116463 -69.435204 -124.098083
-73.921471 9.411520 -120.905853
-72.260803 -61.355057 -125.030312
-71.406464 107.275490 -124.934914
-75.978233 14.664389 -124.018860
-72.423531 122.626335 -123.745918
-77.600212 112.443344 -129.726532
-70.187897 98.817780 -127.586555
-68.193550 20.248650 -122.837273
-74.665115 12.166738 -130.562271
-74.870438 133.022720 -130.407410
-72.724480 97.536263 -134.176254
-74.447243 -63.485214 -130.608994
-70.945175 120.512344 -128.389496
-76.255508 -60.677464 -134.537643
-73.669136 125.018120 -133.780746
-74.556435 -68.506096 -128.838959
-74.230232 -66.864914 -133.895386
-78.904465 26.755171 -133.633026
-72.956436 95.085503 -136.393341
-70.734962 23.942787 -130.078186
-67.977463 120.402962 -138.743515
-75.388962 19.488825 -140.679611
-68.954758 119.499802 -144.765198
-73.033653 22.443804 -137.755432
-77.272148 38.598106 -142.469498
-73.042679 102.892799 -140.857498
-72.624542 42.756866 -137.630585
-71.399788 100.293007 -141.789703
-75.247299 99.318977 -149.042084
-71.727493 -72.327858 -135.446838
-74.544052 44.737465 -141.926361
-72.416924 22.157787 -139.767685
-72.564354 -58.165058 -150.461151
-70.972824 88.405960 -143.276810
-72.388481 119.975044 -141.573669
-74.676048 99.079414 -146.806442
-71.563629 95.830048 -148.698395
-73.013336 44.081360 -147.954346
-70.908989 27.458380 -144.114532
-71.432281 113.916977 -148.856873
-69.763115 -67.274109 -145.648285
-78.382965 19.025997 -151.855667
-71.282234 44.765537 -149.695297
-73.904182 34.956402 -148.375015
-71.976303 15.630257 -147.488022
-69.336365 82.013451 -149.931793
-69.417374 50.396244 -149.962372
-71.534370 99.764679 -149.648895
-77.195023 21.620823 -152.183258
-69.519157 118.173233 -149.873932
-71.878479 113.720383 -154.026184
-75.694763 19.180944 -156.623688
-74.347115 118.339668 -150.493179
-70.882889 -66.426933 -151.115021
-76.079391 94.404900 -154.487411
-73.990723 29.442610 -152.589859
-68.102592 112.929222 -155.790131
-73.467216 -57.397350 -160.485962
-68.534943 109.742271 -155.041092
-71.225014 90.258636 -147.056503
-72.078880 -63.366405 -156.913376
-72.895721 88.241623 -160.241013
-74.934860 82.493332 -157.898666
-71.302467 83.148582 -157.617935
-72.488693 78.751472 -162.664139
-73.083488 -57.123814 -163.009567
-74.183167 -60.694218 -161.465881
-73.281097 74.440239 -164.603333
-73.070335 83.390114 -158.020111
-75.704842 35.202793 -163.924103
-71.484589 -63.078320 -165.950607
-69.883904 196.776505 -167.609634
-74.127274 37.008038 -164.891968
-70.090324 19.514631 -161.915146
-72.853355 22.551849 -165.859131
-73.814087 192.382767 -166.089355
-72.922989 -59.751461 -167.852661
-73.952339 77.452988 -167.608353
-70.527504 201.443741 -169.578049
-74.410851 190.052124 -168.313629
-71.932182 23.192490 -168.580200
-70.241600 191.000381 -173.503738
-72.130768 84.565117 -176.514847
-73.022041 71.186516 -174.250488
-74.794006 78.896133 -181.433578
-71.743591 71.447914 -170.535156
-78.674316 36.020695 -169.209549
-78.084084 26.283932 -174.714462
-67.708107 191.582489 -174.771194
-72.257576 194.793106 -175.457214
-69.758736 67.002022 -173.787689
-76.882622 24.930120 -168.601654
-73.180000 80.165245 -180.392426
-65.807823 35.753113 -177.642014
-71.082870 202.302277 -181.754898
-72.653030 83.968651 -177.501648
-71.523979 72.058418 -179.624496
-73.970291 34.806656 -181.903427
-71.327789 -52.592987 -175.978363
-71.412582 28.935301 -179.599670
-71.468567 -56.413345 -177.712997
-74.762436 28.313705 -183.119186
-74.472328 67.032372 -185.431442
-70.891556 75.183922 -183.612869
-67.111565 202.952621 -188.135422
-69.400085 177.212524 -188.643723
-74.760254 172.498718 -183.945679
-69.013496 68.476685 -184.522797
-68.001068 209.281158 -185.934616
-72.128456 170.262100 -187.392563
-69.850754 70.664909 -189.940765
-73.726639 40.278004 -184.502838
-69.894974 -46.780319 -184.361542
-69.155266 198.320618 -187.710800
-78.919174 68.140457 -185.499725
-73.126717 205.510391 -192.570282
-72.513924 198.360413 -188.052414
-73.922775 65.708565 -187.714615
-68.592659 201.216980 -184.480423
-74.537102 172.324814 -186.773727
-74.965004 162.488449 -191.904037
-68.759071 199.825027 -189.126266
-74.558235 73.820107 -187.158813
-74.980141 201.272125 -193.299683
-69.492287 197.643265 -192.078217
-73.398048 173.071930 -190.621841
-70.163086 165.540848 -188.949051
-74.238510 62.265854 -184.885376
-72.774078 194.748810 -187.512695
-70.003937 74.762825 -191.497696
-73.578705 65.376251 -193.292801
-72.517479 208.876434 -189.524124
-75.443184 179.881165 -190.038589
-69.524170 190.970932 -191.713776
-74.333229 29.401112 -194.915436
-70.529648 176.368454 -195.035660
-71.726715 204.188522 -191.073975
-69.842041 210.953125 -192.394043
-77.273766 200.061707 -196.694656
-74.043457 193.386536 -194.105270
-72.084557 38.273087 -190.680740
-70.156746 203.307053 -195.928497
-66.466637 68.520180 -192.578568
-73.336311 -36.662830 -194.426041
-72.949303 -47.356045 -199.016235
-74.203453 213.323517 -197.674942
-68.827293 57.047428 -197.143402
-75.114922 214.525757 -202.000641
-71.618721 41.829952 -196.113708
-75.863152 128.171692 -200.929764
-71.111176 26.650356 -202.236465
-72.614571 129.206848 -201.025803
-76.949165 -38.366718 -203.334961
-69.943214 129.291153 -205.130814
-74.464470 43.318981 -197.932449
-67.178291 55.565178 -202.061966
-69.580727 205.670303 -209.305878
-67.723335 143.092972 -206.014389
-71.197983 138.560181 -199.982712
-74.339691 57.894154 -207.586212
-71.352959 34.162750 -209.880539
-72.342339 193.202667 -208.780396
-73.800171 61.682220 -215.079086
-68.506241 146.555069 -211.941376
-74.566429 54.350857 -207.930252
-69.020775 78.219330 -204.669174
-73.506241 66.249413 -205.492035
-74.860405 -39.391663 -204.891937
-68.619118 67.730225 -206.494247
-77.961662 144.334503 -209.024261
-75.432213 73.925438 -206.916473
-73.161346 152.798752 -209.966492
-70.776329 65.410812 -211.964157
-69.720512 -46.171604 -208.101669
-73.540001 -27.159134 -213.069580
-69.274704 43.779251 -208.259140
-71.859825 142.650360 -213.456100
-71.919930 60.083370 -214.764435
-74.268951 -33.109787 -210.616486
-72.960045 -24.987207 -214.716354
-66.586792 168.083984 -213.941589
-70.473579 76.026985 -212.458618
-73.058144 38.901474 -212.129410
-70.507179 -33.272388 -212.928909
-70.065712 195.270508 -211.711731
-72.314674 154.974365 -216.456467
-69.400261 156.287338 -219.110138
-74.118492 41.611908 -216.934753
-72.331696 217.601776 -210.659378
-72.815987 184.194641 -222.141449
-71.697304 56.411449 -219.888458
-69.500366 -31.681374 -210.793060
-71.633789 173.149109 -213.289566
-71.332207 34.892437 -220.317749
-72.021622 34.292839 -220.307693
-74.983116 46.973137 -217.623947
-71.656525 161.801514 -218.337585
-75.213898 45.990505 -218.672546
-73.656128 165.183350 -223.659531
-72.073387 64.424202 -213.818680
-69.173325 -29.470861 -216.731766
-70.773598 61.401882 -219.456924
-70.685066 63.631012 -216.220657
-77.758484 52.601082 -215.127380
-69.479424 33.696190 -219.199097
-75.485191 -33.644024 -215.052246
-73.814980 39.425114 -221.871078
-69.741844 172.510040 -218.260086
-69.736282 166.241333 -217.111008
-70.647728 -29.654947 -223.167313
-66.370018 39.054562 -220.468124
-72.584557 45.141193 -219.685364
-78.105995 -26.454702 -222.261597
-75.312027 190.326950 -229.206589
-73.473671 60.013538 -220.508453
-70.912430 60.765057 -224.146255
-74.217087 33.023510 -220.033630
-74.794968 60.205215 -224.875092
-71.404022 36.784397 -224.095871
-72.307144 58.910786 -221.448441
-71.860191 -22.067345 -224.411530
-70.000366 66.713585 -228.942078
-75.452148 63.185352 -227.078445
-76.175804 54.468632 -224.410675
-68.196800 -21.740339 -225.322159
-73.087715 60.843601 -228.177795
-72.662743 70.659248 -229.007034
-68.324631 31.772123 -233.039673
-70.992126 60.695026 -228.863495
-73.099457 50.645428 -229.929749
-71.977303 216.182068 -228.549957
-74.583908 67.367706 -226.969803
-71.680679 49.548504 -227.894348
-68.962257 -16.129017 -231.949738
-70.270264 -13.189227 -231.104111
-73.058365 64.033966 -230.779648
-69.208778 60.482025 -230.187790
-76.490860 44.831566 -233.468582
-72.945992 36.533691 -233.208237
-71.351341 -15.063977 -228.878799
-73.433250 218.082626 -239.662476
-72.151337 118.709396 -237.219406
-71.268661 62.349247 -236.133209
-70.526093 34.564854 -235.513168
-72.780396 -3.031071 -233.772369
-75.042740 115.515938 -237.930389
-73.187073 192.593140 -230.285049
-69.225800 121.997986 -240.065994
-69.267632 117.658264 -240.298233
-76.620613 114.112709 -238.418869
-75.633781 -2.722418 -240.073883
-69.857956 128.337906 -238.032364
-72.422272 29.141001 -237.268051
-70.237656 25.974464 -240.831528
-73.754227 114.650444 -243.906631
-68.100151 1.189844 -240.107147
-70.499878 142.514145 -244.325348
-71.559624 116.718872 -240.821091
-73.408012 5.776733 -246.046066
-72.951515 63.919785 -237.760544
-74.876434 198.131073 -239.135345
-75.742775 3.742263 -240.793427
-71.318039 126.698364 -243.074783
-74.017220 152.861053 -244.784119
-73.630592 193.253159 -247.154007
-78.756569 147.546188 -242.338196
-70.958534 170.946198 -247.903442
-70.484550 163.306488 -247.749634
-70.182457 156.866272 -244.864395
-72.020279 157.292770 -246.545639
-69.731476 156.708618 -247.095932
-71.556007 191.837448 -252.253387
-73.472359 183.697952 -256.390076
-70.681808 170.229584 -252.924377
-69.099686 186.927277 -253.629547
-71.830338 26.047613 -248.002335
-72.800194 183.652145 -255.368851
-67.547188 181.023163 -252.156921
-72.831581 66.722664 -261.256012
-68.782593 60.544357 -273.075745
-68.930611 220.999252 -272.461426
-68.399414 196.757828 -268.887054
-72.368568 185.617828 -274.434082
-68.359535 52.805817 -276.437286
-70.442505 217.184769 -273.273407
-68.313004 178.250107 -278.886566
-73.904831 146.392532 -278.085388
-72.403038 135.874649 -273.087616
-72.876114 119.306320 -273.497742
-64.817886 107.371330 -280.585236
-72.702225 159.049545 -277.984772
-67.490837 97.827698 -276.654633
-70.268463 89.047981 -277.716888
-72.992622 66.127670 -276.902924
-68.037781 205.897797 -283.490234
-71.249954 87.827866 -276.873169
-76.396790 86.014923 -278.610535
-71.993301 76.043938 -277.910004
-68.643288 75.688416 -274.873230
-73.037857 83.522774 -278.227631
-70.730209 67.297836 -276.924347
-70.720909 91.361694 -276.559113
-71.111542 89.901459 -277.113129
-72.465988 68.359016 -280.550262
-71.832436 61.971458 -280.462494
-70.793930 57.284817 -278.623871
-71.431793 106.123619 -279.669098
-71.693367 66.043465 -277.582184
-69.940201 117.691597 -282.027161
-75.608551 110.025620 -281.127075
-68.452400 98.423256 -279.957916
-70.624802 64.447876 -278.697388
-72.125664 61.835243 -283.212158
-72.443649 51.627140 -281.399963
-70.719429 49.891544 -279.981354
-70.560471 45.239788 -280.270325
-74.157600 154.979736 -282.181213
-70.343132 145.192505 -283.506348
-69.244858 140.177261 -284.850708
-68.349052 214.567963 -288.368378
-69.250313 189.108246 -281.921021
-75.322495 165.571777 -284.255798
-70.173210 186.090042 -283.073090
-69.879082 192.848175 -288.042389
-74.414650 204.529312 -290.775269
-75.536591 202.347687 -288.799377
-68.855698 194.427841 -291.747833
-71.412041 204.822281 -299.510773
-74.254219 192.426132 -295.680298
-70.166115 15.531499 -6.387127
-74.232925 9.114108 -8.641764
-74.006119 1.715390 -8.165152
-71.562042 6.193049 -7.876956
-68.100113 26.137384 -13.551351
-72.757599 1.769930 -14.073128
-69.385323 5.446750 -13.929284
-73.732117 30.596853 -18.656122
-74.716255 -0.242228 -19.574299
-70.267685 19.237133 -26.203785
-73.163574 6.971355 -24.611519
-70.527382 -0.414495 -26.407518
-67.905220 7.058414 -27.862108
-69.377747 12.803467 -33.324574
-70.590065 115.804558 -36.825905
-68.979332 106.247520 -40.698250
-68.608910 100.424400 -45.239319
-67.850815 127.660484 -41.859818
-64.577141 81.137650 -42.355774
-74.150879 67.330055 -58.887115
-74.133018 -32.085094 -54.106541
-66.936829 -36.006008 -62.760063
-69.188988 -37.885273 -58.931103
-69.445618 72.692017 -65.825928
-72.989311 -49.257900 -60.848957
-77.573158 -48.424339 -68.269119
-75.976440 86.364517 -65.762543
-69.529274 -50.821259 -72.333473
-72.027397 -47.200069 -74.326546
-71.400047 -11.292937 -77.468452
-69.763779 -17.711151 -76.302635
-70.137604 -9.015361 -82.774582
-74.767738 1.145450 -80.782196
-71.260178 -13.579762 -83.769890
-74.240997 -54.591393 -77.935402
-68.220245 117.265816 -77.374016
-69.762123 -22.243771 -83.830978
-76.134933 -0.674091 -81.482582
-75.369263 -5.992659 -87.193909
-65.325333 118.062744 -90.535622
-69.544266 126.698593 -89.350616
-69.895721 -22.118790 -90.506653
-68.059212 -49.880569 -84.531166
-71.923882 -21.753881 -91.387337
-70.312401 -53.265724 -92.093552
-68.854530 -43.396736 -89.888412
-72.038124 135.128143 -92.541351
-73.578857 3.092487 -90.685402
-78.198349 -0.436365 -98.508705
-72.476059 -24.075563 -90.420654
-71.877052 -37.720852 -94.449165
-72.001259 -43.587818 -93.937592
-71.208565 130.879791 -97.377197
-75.598976 -39.472466 -90.872971
-73.318306 -3.500989 -101.986259
-69.855766 3.927207 -93.451134
-71.643532 13.875998 -98.023811
-69.958763 -55.259220 -95.669640
-72.368721 134.768784 -102.774460
-71.938835 -56.974667 -100.265862
-74.775398 -62.237938 -106.864212
-72.319427 17.530043 -105.576988
-71.141701 11.872241 -98.524887
-69.403870 8.999946 -107.054832
-67.779846 8.771180 -108.303482
-75.177780 141.480728 -110.588913
-71.247894 11.137886 -107.143288
-73.564758 10.595321 -112.477440
-69.109192 -56.723881 -107.338539
-75.289986 -58.989601 -112.081337
-68.998154 -61.041134 -103.885048
-69.283546 -65.516899 -106.449234
-76.594116 132.641006 -108.176270
-69.483658 137.057877 -113.481018
-70.737778 -66.012466 -111.907295
-75.489319 15.589655 -109.351822
-68.908562 -61.374432 -112.643387
-68.648949 10.343721 -113.429962
-66.300819 7.059328 -112.588287
-70.769028 16.074059 -111.985435
-68.068550 22.129656 -120.667130
-71.615074 -64.152657 -112.986626
-68.582336 127.532715 -116.363579
-71.621017 109.685921 -116.101624
-72.745659 14.888736 -114.293396
-68.776421 135.392670 -112.074615
-76.036980 23.739882 -119.639984
-67.783669 128.044128 -116.850296
-72.617180 110.828804 -116.796089
-68.110069 12.105589 -126.032509
-73.338440 98.312798 -122.199249
-71.916359 106.928619 -125.403992
-70.648079 8.913271 -123.490585
-71.681023 124.844841 -124.394592
-69.907837 109.344566 -119.771957
-73.163124 92.746651 -124.056229
-68.865944 16.344612 -123.979744
-69.505524 123.169472 -126.329819
-71.594688 108.459885 -125.306999
-72.044380 96.707436 -133.636887
-71.370163 18.431707 -126.671272
-73.733284 122.603149 -131.303146
-70.415405 108.353897 -125.713936
-69.743729 21.716047 -127.986290
-71.008141 -60.038586 -130.660110
-71.694870 106.148682 -133.889877
-74.337852 -69.407784 -126.986122
-74.728912 104.509964 -133.655289
-67.140877 23.098349 -124.918877
-67.548340 125.088264 -132.995377
-72.987823 17.300310 -128.352707
-70.910721 94.319153 -131.857590
-67.916519 -61.613949 -139.870132
-71.234550 19.284519 -129.733368
-68.476074 121.530174 -134.360825
-69.249207 110.711105 -137.679947
-71.329712 18.080065 -132.764923
-70.951462 124.861832 -132.645630
-71.085770 16.555206 -134.459625
-66.561432 117.370735 -134.058899
-72.979187 128.444275 -138.760880
-69.642052 121.138474 -139.476120
-74.294472 -68.774353 -138.028824
-68.969917 121.971260 -139.287674
-67.001801 92.685944 -140.797119
-73.060692 24.577637 -138.354950
-71.346359 124.027565 -142.074738
-70.797119 35.595688 -139.025558
-72.481667 14.021437 -134.895081
-72.421761 18.035927 -144.189560
-70.014244 21.899176 -136.595612
-72.472832 40.138973 -143.167770
-68.003998 25.356579 -136.900406
-72.071503 100.297569 -142.226364
-68.877419 96.221413 -143.873474
-71.231888 117.001350 -140.937027
-68.411491 -63.831436 -145.555283
-70.140335 30.487860 -142.194107
-75.011330 18.142910 -138.107788
-71.326523 90.019798 -144.904190
-70.038879 47.931374 -146.858444
-70.522789 33.954987 -145.494263
-71.521637 25.447720 -146.274734
-74.139641 38.457314 -140.680145
-69.031967 87.707024 -143.039780
-71.227768 40.346207 -149.191101
-70.423996 121.229202 -152.632507
-66.684036 97.234909 -145.564697
-74.912552 122.823875 -143.777893
-69.676102 36.286961 -152.469910
-70.551666 -61.215000 -145.121597
-71.709198 119.253311 -153.065796
-69.893684 99.440544 -141.065125
-71.280632 35.481915 -148.782410
-76.746536 19.645931 -144.318359
-74.489418 100.082603 -151.571075
-70.116348 24.557955 -143.792877
-69.036598 49.670532 -148.740494
-69.127480 27.902182 -153.136856
-71.095322 92.278419 -149.539017
-69.033859 16.870386 -154.564117
-70.984947 93.051811 -153.741150
-68.674347 81.862419 -150.703430
-68.045692 33.200298 -154.056213
-69.398796 89.779259 -149.529099
-68.575577 91.309578 -155.584335
-70.229584 35.447639 -154.032333
-74.198082 20.330435 -148.030243
-70.945740 90.840065 -159.828964
-72.931343 18.125475 -153.714706
-75.755478 23.103127 -160.984375
-72.613480 87.113174 -157.686752
-69.453293 29.308130 -158.237320
-67.389771 22.470255 -163.346161
-73.092377 -58.990177 -157.828415
-68.875710 88.920708 -164.870651
-72.779129 83.158707 -166.226471
-69.490303 23.478752 -167.677460
-74.607056 -64.826874 -159.638855
-73.871231 84.793686 -161.473984
-69.986496 77.747131 -163.412949
-70.574051 -59.494186 -160.505356
-72.275528 84.746880 -167.014023
-72.545235 84.226463 -170.933075
-74.332550 32.110741 -165.134506
-66.839371 77.807625 -177.213852
-71.738228 30.386101 -175.864609
-69.750832 75.356644 -171.963898
-70.932533 -50.502159 -172.405563
-75.991310 74.587097 -172.642303
-71.720131 -61.341759 -171.177856
-75.394875 79.208237 -171.246613
-71.163246 205.002029 -176.747742
-72.743904 -54.951172 -176.147751
-71.819511 74.086113 -179.542816
-70.657394 -55.143440 -174.382019
-69.594734 -55.744518 -175.505341
-72.601738 27.761154 -181.971130
-71.969688 78.201729 -179.249283
-69.686157 74.375908 -175.059540
-71.167618 73.063164 -177.319000
-68.462135 200.019653 -177.442490
-71.773376 194.849899 -183.924026
-74.748352 37.318565 -176.335495
-74.019295 31.356924 -188.905472
-72.931763 163.405823 -185.376343
-69.467331 -58.802845 -182.954391
-69.672081 -54.443066 -183.586990
-70.435959 207.275879 -182.797623
-72.764008 77.323166 -180.513519
-70.057869 40.620251 -186.343399
-74.931404 41.578747 -184.058105
-72.945480 175.015747 -189.991959
-69.682663 162.410324 -186.663818
-66.624100 182.601959 -188.867905
-71.163528 157.178909 -190.427429
-70.996582 65.883430 -184.337646
-73.128769 165.040131 -191.203781
-76.893761 163.185959 -188.690674
-70.209862 64.970261 -186.954391
-74.396210 39.193573 -186.265411
-68.703278 -40.283867 -192.853210
-69.543457 29.200396 -187.925232
-74.034264 217.068451 -191.318573
-71.010185 66.584038 -196.207977
-71.235168 -46.373428 -191.485641
-72.068848 185.031876 -190.672348
-73.557716 174.926559 -192.654663
-72.130501 68.154907 -200.431915
-69.885620 180.087479 -191.231766
-73.300179 179.319839 -192.959015
-74.865540 -46.084492 -191.349121
-71.188019 63.467278 -197.697174
-69.703621 39.760944 -196.299408
-68.792038 197.497559 -198.105499
-68.825615 30.148438 -200.029633
-68.110054 -43.870842 -200.924057
-67.980003 215.898087 -193.634552
-74.100685 58.810886 -203.238922
-73.104805 54.150124 -205.774475
-70.639259 40.392719 -206.342392
-71.388779 36.350010 -201.818726
-73.217453 141.334045 -204.864746
-70.374886 -35.759632 -205.537079
-68.138000 139.153137 -210.848343
-73.488647 140.214905 -206.398682
-69.554115 42.204483 -204.100128
-69.151726 35.647312 -199.986191
-72.257851 65.723450 -205.152710
-68.261757 62.185017 -202.577621
-70.010788 140.034027 -206.133026
-70.230675 149.571594 -203.602722
-74.230988 32.460323 -209.397552
-74.084778 152.229065 -205.210190
-67.641922 53.630070 -207.424942
-68.657028 66.822823 -207.377411
-68.565834 53.149948 -211.895889
-66.477371 216.112717 -205.844437
-69.245049 38.751938 -206.085403
-72.778084 -35.305569 -209.647995
-73.424263 34.859596 -209.517578
-75.013519 198.357635 -212.516403
-72.210381 40.600971 -215.588989
-75.053680 176.666977 -210.648407
-69.708908 148.896469 -215.632553
-72.217529 59.157360 -211.931442
-71.214180 169.106079 -216.138397
-66.123924 73.313232 -217.878983
-72.094093 62.658012 -212.717545
-73.457169 186.110352 -218.776566
-73.708473 171.148605 -214.372543
-68.697617 34.205296 -216.187180
-67.318390 -25.002398 -218.781326
-73.954063 41.546238 -212.238846
-69.015434 218.596115 -214.718781
-72.216217 43.454678 -220.105713
-69.880280 155.832428 -221.595581
-73.625496 -28.075418 -222.721680
-70.214622 -27.931915 -220.980270
-68.861481 163.701706 -220.918655
-69.134865 51.201633 -220.327408
-70.932747 175.132935 -223.956757
-70.334465 168.190125 -221.665863
-70.723122 55.176762 -223.264648
-68.813339 -25.846983 -221.294754
-67.681389 59.540993 -224.378113
-70.364502 186.659256 -223.958344
-71.888023 45.463032 -224.404678
-71.531021 -23.570704 -219.403275
-68.917412 -16.892000 -225.751007
-71.229454 -20.685122 -221.180969
-73.528709 175.892471 -224.937836
-70.083961 39.689499 -222.040497
-68.685547 -22.868444 -221.223328
-70.905998 55.538628 -226.064926
-69.767105 52.160179 -224.782547
-71.731148 31.897310 -223.410217
-72.362442 -20.870323 -229.430496
-74.782433 -18.341385 -226.642288
-73.122971 -12.596828 -227.329147
-75.096344 216.182449 -224.445038
-70.440636 195.176682 -225.730118
-72.086281 34.454147 -222.809769
-77.156334 48.841389 -226.713654
-65.878113 32.006405 -232.614487
-71.861656 -9.031111 -233.555984
-68.339966 55.570835 -228.893311
-71.278816 37.050274 -231.473221
-69.736038 -11.667742 -231.298004
-74.957237 69.971420 -237.337173
-72.753723 38.337982 -229.219025
-65.175827 61.689102 -229.708450
-71.986771 51.256866 -231.042389
-70.169510 47.246098 -232.373047
-75.106544 -15.526159 -229.840912
-65.080147 58.449905 -230.895889
-73.221603 43.874401 -229.632004
-72.213852 191.971771 -231.333664
-67.734253 57.055901 -232.422165
-67.748695 215.487213 -225.357254
-72.601013 -7.087689 -232.567017
-71.540939 -10.528173 -229.577805
-69.878113 34.251408 -236.932983
-67.385788 221.106750 -239.199097
-69.997093 -9.865018 -237.804825
-69.340210 -2.301932 -235.300995
-69.026604 -0.628667 -238.686600
-72.665657 125.018692 -241.359573
-66.022858 66.725395 -240.635773
-68.163574 -7.039780 -233.389435
-70.880272 116.988571 -236.899445
-73.422913 121.252251 -238.460236
-69.303932 120.597504 -235.620529
-70.254349 139.227051 -243.827118
-69.194977 120.507896 -237.525970
-71.901192 -1.243492 -240.813171
-71.733482 140.744675 -245.306900
-74.814041 129.555832 -242.647614
-75.189835 180.190857 -238.686264
-75.709625 219.541000 -241.491867
-71.530113 185.601852 -242.524216
-70.245193 129.230865 -248.495697
-75.432564 3.949461 -242.765640
-73.353798 180.141724 -242.813751
-69.439255 162.089951 -243.374466
-67.310249 133.169754 -251.836746
-69.740082 13.276116 -250.081894
-69.812500 165.391312 -248.790359
-66.805725 140.516815 -248.579803
-70.069443 150.979904 -251.541351
-72.679153 16.158092 -249.359955
-68.828194 64.888046 -250.581787
-72.581497 161.076218 -254.208069
-68.088898 196.220062 -249.775665
-66.278656 167.105286 -251.747284
-70.331108 204.500290 -255.512451
-72.280716 179.572647 -252.660782
-74.454681 216.821228 -253.829849
-71.059097 192.778625 -256.636841
-69.599701 203.742401 -253.787369
-74.656334 65.566582 -253.968887
-68.537369 223.591675 -259.327057
-72.521011 63.155968 -263.821960
-70.966812 210.014023 -269.150604
-71.311455 199.504944 -260.418427
-71.720581 216.598389 -264.101257
-69.294548 207.308960 -267.464935
-72.077248 65.421730 -263.492004
-71.574516 210.331848 -270.742340
-70.355461 202.390442 -270.887177
-71.375053 181.177811 -280.292023
-67.080322 211.877991 -272.035370
-69.783455 191.372452 -264.340302
-71.650589 187.776749 -278.079865
-71.167366 59.669991 -271.892670
-67.212929 174.952667 -277.056519
-73.447411 188.522156 -273.202271
-74.863029 180.711823 -273.288879
-69.748642 166.694824 -277.200592
-70.012001 143.907440 -276.677734
-70.909546 125.808228 -280.487000
-68.717171 125.216530 -279.935425
-72.628601 115.310059 -276.255066
-72.304474 113.375092 -276.376190
-72.822876 106.052589 -279.601227
-72.329033 55.483936 -282.668884
-66.101440 102.224396 -276.118500
-69.595947 104.250854 -281.157562
-72.272530 102.036591 -279.148743
-69.504555 116.743958 -281.015594
-72.046501 105.133240 -275.813782
-73.229034 109.918045 -282.029236
-71.977386 143.681641 -282.848053
-70.900589 128.932083 -282.753296
-69.460876 48.651493 -280.869659
-69.253372 148.252106 -279.148407
-71.628380 173.773148 -286.350800
-69.798988 208.728073 -283.986084
-71.929512 188.495453 -285.416412
-70.705193 209.460938 -280.619934
-72.402344 177.658051 -282.907227
-74.146729 176.005234 -285.370697
-74.696098 193.233948 -290.093109
-73.110863 206.764664 -283.026123
-64.367218 209.809814 -296.496857
-69.017052 207.658936 -287.574036
-69.477409 198.986816 -304.188965
-70.798203 22.455584 -5.780088
-70.620369 0.136517 -9.416184
-67.998268 30.702087 -16.677914
-70.270271 3.604826 -19.064821
-72.968315 9.474537 -21.827509
-69.251587 -0.539337 -28.606407
-66.699211 26.435005 -29.627274
-63.367027 104.070038 -35.774799
-66.251869 107.396019 -38.172737
-69.172546 121.814827 -37.145462
-71.589195 125.052574 -41.677254
-72.428459 139.890823 -49.111122
-71.247719 67.616356 -53.912945
-66.869553 -31.762808 -54.422661
-73.826546 -35.210934 -53.510445
-72.572166 -25.471260 -58.661430
-68.744415 -24.062319 -55.966782
-70.579132 -43.199261 -60.752071
-73.084778 -45.030548 -60.558483
-70.725990 137.605759 -61.809528
-72.460724 -24.091173 -64.034424
-66.034332 142.697159 -74.020691
-74.238373 88.662636 -64.440796
-77.321434 77.259956 -64.502045
-70.432121 96.620125 -72.785889
-69.283157 147.567062 -71.282539
-71.058891 -5.456754 -79.303589
-64.939537 -10.450271 -78.639824
-67.245171 -51.716366 -76.777390
-68.573074 104.278091 -78.929649
-66.094070 -9.139147 -77.255966
-74.322655 -47.383671 -86.675232
-75.361061 2.190522 -85.788132
-73.335098 -42.500996 -86.073616
-71.776932 5.457595 -86.700554
-72.757668 -52.241234 -87.838249
-69.186760 -11.017982 -88.562340
-70.332008 -20.923155 -88.765617
-69.186119 -56.499798 -93.303078
-66.350922 -24.966824 -89.771957
-67.306137 124.556030 -85.917786
-70.224815 122.015831 -92.708931
-68.120285 -5.448661 -90.660385
-67.957924 -48.744526 -88.514870
-71.268623 -51.523426 -94.735054
-74.332344 -57.597622 -90.381180
-70.601639 -33.710205 -95.802368
-72.229050 -56.293312 -92.330399
-70.808868 -1.994514 -97.474785
-70.054596 -37.118492 -88.770393
-70.588226 -26.345732 -96.307236
-65.252502 7.259265 -92.457039
-66.088753 -54.433830 -100.021126
-73.220695 0.872317 -99.286140
-71.712021 3.350872 -101.087975
-73.492554 124.395973 -104.771652
-66.218231 -54.898739 -101.326355
-68.394089 -54.844875 -96.431007
-74.169159 6.344466 -97.893158
-71.972557 -65.358360 -101.120628
-67.037903 6.279263 -97.335930
-72.293060 -58.998779 -98.962044
-68.229179 -62.322460 -100.995285
-68.633888 127.433769 -106.487282
-68.323280 130.803558 -108.375618
-69.660957 9.385772 -110.269966
-71.338913 133.847397 -106.185257
-69.938583 5.952812 -109.577126
-70.372063 15.177522 -107.690865
-70.096077 -62.721943 -109.260933
-70.531143 -61.997280 -113.232185
-76.139603 133.040878 -112.879112
-72.726723 5.308768 -115.607185
-70.772217 -58.416348 -113.942459
-66.463226 136.462158 -119.649376
-67.337349 128.221283 -120.943184
-68.241493 122.881859 -119.072990
-68.955956 20.201504 -116.852844
-65.729843 106.974617 -120.101204
-75.270195 108.684639 -121.575165
-69.804253 102.983604 -120.321243
-66.864174 141.482468 -115.779037
-70.591194 125.971329 -120.177750
-69.490471 129.370544 -122.331604
-69.157913 99.935120 -125.344223
-73.310127 -56.605278 -120.987091
-71.211586 143.537109 -128.939972
-68.385124 18.859358 -124.808327
-68.151764 125.189514 -129.287033
-71.759537 13.617162 -132.483688
-72.295601 120.616371 -132.156235
-75.990936 15.797921 -131.890259
-74.330795 22.059738 -122.982147
-71.410149 -60.940701 -128.404236
-73.799538 102.643539 -128.266205
-66.455841 24.925144 -134.128342
-66.430290 127.089928 -130.112259
-70.184074 124.065308 -130.347977
-74.207382 94.960159 -137.557892
-67.068443 11.963562 -132.105820
-72.223030 -57.196106 -128.485336
-70.787560 93.574394 -132.957458
-68.249756 25.007633 -138.558502
-69.418747 -60.589680 -134.718170
-71.625183 18.302305 -131.815796
-68.632843 -62.694714 -132.779648
-72.708145 110.052544 -133.085861
-69.439545 26.928926 -135.885162
-68.971001 125.778404 -134.382767
-72.605247 104.016312 -140.108017
-69.338715 120.363449 -131.992233
-71.977760 26.513338 -136.784210
-71.716980 95.939804 -138.653091
-66.820328 104.470108 -142.226166
-74.717789 100.972092 -144.979156
-69.008247 20.796947 -141.993378
-72.351219 -62.736813 -135.767822
-64.355766 116.150459 -137.823135
-72.162598 95.628532 -141.641312
-67.367767 118.537445 -146.400497
-69.840996 40.701084 -141.237442
-74.979553 45.450050 -144.799179
-68.169540 91.207726 -153.165634
-69.281555 100.991234 -148.443817
-72.007767 44.042145 -145.549850
-73.912445 36.182213 -146.476913
-71.276398 -63.569016 -144.092041
-71.925690 -67.224098 -147.012924
