# This PCD file was generated using the MATLAB® pcwrite function
# from Computer Vision Toolbox®.
# .PCD v.7 - Point Cloud Data file format
VERSION .7
FIELDS x y z
SIZE 4 4 4
TYPE F F F
COUNT 1 1 1
WIDTH 1433
HEIGHT 1
VIEWPOINT 0 0 0 1 0 0 0
POINTS 1433
DATA ascii
-81.494514 202.861374 -287.646851
-79.319496 201.138702 -289.470337
-79.960075 196.871979 -290.767853
-81.028717 200.302734 -292.185333
-77.481384 101.122772 -50.738483
-77.174828 108.083015 -51.152782
-79.166725 112.257248 -52.061424
-77.195427 94.364944 -51.677364
-76.017181 115.603279 -51.524780
-77.957558 96.548416 -53.322163
-78.694603 118.776802 -52.891350
-79.421440 102.757713 -52.057774
-77.629250 93.097527 -54.441566
-78.989204 89.945564 -52.011536
-78.277122 81.757591 -56.811218
-78.122261 124.253342 -52.372036
-77.173019 82.638794 -55.845955
-80.378342 126.074280 -56.386475
-77.967247 84.593216 -58.372673
-77.617622 77.675705 -63.823868
-78.794807 78.228157 -60.637871
-79.688644 77.827629 -68.207024
-77.946808 100.802887 -84.341423
-81.447426 138.300552 -84.343132
-78.206413 112.673340 -86.611885
-80.917877 136.584702 -90.809143
-79.447044 2.376866 -94.653992
-80.299072 129.541855 -98.385651
-78.482468 7.003177 -99.795372
-78.886482 10.741255 -100.615585
-78.167336 138.523331 -99.599648
-78.885757 8.440996 -102.853958
-77.077850 13.568751 -106.387108
-77.799187 4.342651 -102.564423
-80.436607 10.213446 -107.711029
-79.588799 7.616272 -109.034958
-78.743301 7.669048 -114.322258
-78.817215 11.322428 -113.060303
-75.218231 10.724364 -121.431847
-78.281525 15.604559 -121.231430
-80.106964 17.772305 -121.057739
-80.738914 23.966747 -126.798347
-77.534302 19.955446 -130.382858
-78.709938 13.259676 -122.590668
-77.885612 13.882917 -127.820389
-79.868401 19.203047 -127.081963
-79.676453 17.452875 -132.010437
-77.717316 24.542028 -138.972290
-79.222954 95.487465 -134.743149
-78.877831 91.191582 -141.742188
-79.765648 25.320520 -142.073303
-76.957436 19.133940 -139.458405
-77.594734 102.875229 -137.540939
-79.957016 97.920174 -140.480652
-79.904053 24.318363 -141.861984
-79.976463 19.592876 -143.700226
-77.901077 98.155533 -145.397690
-78.181709 26.870440 -156.466293
-77.540619 114.505409 -146.314331
-79.526047 89.283485 -146.981308
-75.222572 23.179794 -149.938889
-78.732948 117.130714 -154.327667
-79.505371 113.611748 -152.866608
-79.668968 94.072273 -146.704880
-77.723160 87.213272 -156.520340
-77.850151 19.798109 -147.042969
-81.596458 19.585800 -150.246429
-78.376198 50.117748 -152.736526
-78.214417 84.740036 -154.616333
-78.626305 55.119167 -154.911148
-76.608177 21.474018 -151.060532
-78.759315 53.760090 -157.456635
-78.614670 109.888451 -156.055801
-77.118080 90.179237 -155.140930
-75.439369 24.010563 -153.809982
-77.203995 87.274513 -158.715225
-79.657112 81.287689 -158.065811
-80.612885 86.653656 -162.291489
-79.666481 24.559610 -162.976761
-77.368782 113.804573 -162.865250
-81.704353 54.927498 -160.906250
-80.792770 89.996521 -160.905518
-79.567307 104.905602 -162.089996
-77.412048 106.075539 -166.832474
-77.565704 75.156410 -168.479172
-78.085228 25.554108 -166.471436
-77.856133 110.178802 -167.953262
-79.773720 69.029182 -170.396652
-76.599045 103.719521 -170.300919
-77.330971 81.772209 -168.019348
-77.936928 76.032906 -170.962494
-77.215668 72.470726 -171.153473
-77.336922 65.864128 -168.592957
-78.961716 25.741676 -169.152298
-76.587585 77.176712 -173.511505
-79.091904 100.585045 -175.209473
-77.757637 83.830009 -168.416153
-76.392609 76.987595 -172.214279
-80.310234 104.302917 -172.391342
-79.502838 31.047766 -172.732620
-79.619926 96.471054 -178.370667
-80.377609 80.305603 -178.202026
-78.638168 75.716133 -177.756714
-78.954330 101.759392 -176.355148
-79.628479 91.058403 -182.670090
-78.344536 79.940826 -179.203201
-75.450935 95.789619 -180.049484
-76.981346 96.894745 -186.846390
-78.867920 31.540007 -178.972687
-78.705879 191.064545 -185.092758
-77.649887 74.279419 -181.816132
-79.614731 71.723763 -184.366302
-82.248749 185.588974 -188.738327
-79.603828 74.013580 -185.562866
-79.205765 195.259995 -186.830429
-79.427864 200.726746 -190.834335
-81.210831 184.302353 -187.649704
-79.891716 31.980263 -191.365936
-77.483376 182.423721 -190.669922
-79.390083 32.007744 -189.940567
-79.365753 69.522469 -188.360474
-76.483711 68.563988 -187.025208
-77.181175 88.940674 -190.017731
-78.014717 35.767078 -190.229401
-80.006866 202.428436 -191.288818
-77.742905 190.732727 -192.900940
-80.062683 63.440002 -193.140671
-79.932396 84.456314 -194.067307
-79.579567 198.974396 -192.528000
-78.575974 84.743752 -194.547180
-80.636765 117.806282 -198.201508
-78.997040 88.597069 -194.508301
-77.654152 118.178925 -196.782349
-78.664993 115.039314 -198.399551
-77.509483 41.203384 -200.533600
-80.686729 33.831242 -198.104797
-81.971817 131.742828 -200.702423
-75.804077 80.454544 -202.299423
-78.257294 77.225632 -199.652817
-79.503288 87.178696 -199.276489
-78.046707 35.137653 -198.560074
-78.396423 135.072540 -203.463699
-78.558586 79.617325 -203.213104
-78.653099 66.070976 -201.775742
-78.025398 58.584599 -207.031281
-78.330574 75.197655 -206.671478
-79.572716 38.773525 -202.890106
-79.420509 131.513397 -205.434402
-77.269302 138.892532 -205.395279
-78.348434 132.829361 -206.597198
-78.197624 33.927956 -203.690521
-79.606087 195.956238 -206.860733
-76.560478 58.517792 -205.893570
-77.825478 55.877083 -205.356171
-77.965973 59.689831 -210.166580
-80.166153 38.073559 -206.012085
-77.429367 35.762249 -214.042191
-79.332077 53.739639 -211.942978
-78.539238 40.584091 -215.672882
-77.143951 43.458561 -218.134872
-80.538300 36.112827 -218.077042
-80.221687 190.878891 -215.948654
-78.527679 48.605518 -216.572815
-78.007103 55.117786 -215.883041
-76.273163 185.328644 -216.122437
-77.162392 42.561600 -217.284653
-77.290115 198.240112 -221.125366
-79.466759 197.812607 -223.168610
-79.418365 32.481564 -226.050568
-75.859039 41.382210 -219.308929
-79.340668 54.861420 -220.198364
-80.585869 48.919449 -224.066696
-80.585434 45.621277 -231.779892
-77.273132 76.304497 -228.363983
-77.249664 73.607101 -229.224777
-77.376373 88.977470 -229.164734
-77.897934 199.638214 -231.128998
-82.312370 196.317322 -231.207001
-79.652184 199.319794 -232.294144
-77.215912 73.419151 -231.847641
-76.097595 40.388809 -233.460571
-78.063545 79.265121 -231.381195
-76.468651 31.574471 -229.284134
-79.122322 87.301849 -234.878265
-78.619003 104.443726 -236.511063
-79.953812 96.182617 -235.498505
-78.711197 41.381172 -236.398071
-77.843391 108.153526 -237.750839
-76.356056 101.027962 -236.345856
-80.400551 197.871613 -237.825684
-76.335625 113.020660 -237.738892
-79.098663 102.660645 -236.905777
-77.313293 28.017258 -238.251785
-75.126877 55.039383 -238.411545
-79.626244 53.916439 -239.242020
-77.802841 36.993263 -240.419449
-79.367256 60.077892 -247.139526
-81.162582 190.707626 -247.574142
-77.814278 187.302673 -246.297958
-84.063789 197.152588 -248.509537
-78.525589 184.879852 -247.425613
-78.376190 205.704895 -250.096115
-79.114433 30.412374 -248.925278
-77.288048 184.727188 -249.253418
-77.334541 194.944504 -249.089386
-79.197594 187.672501 -250.941376
-78.339630 30.000233 -250.299698
-79.439178 61.786716 -250.244675
-81.891655 33.036835 -255.531219
-80.136757 193.877686 -261.392242
-78.457909 31.057331 -260.011749
-78.621292 197.777878 -262.296814
-77.284943 35.519241 -268.239227
-78.594925 49.620407 -267.932434
-77.678604 38.752354 -270.324951
-79.527290 46.268169 -270.341492
-80.387970 198.592682 -273.121765
-80.048195 46.683353 -272.672424
-79.850449 203.945053 -273.646332
-78.801094 193.361771 -275.051849
-78.706146 191.833939 -276.442108
-78.931961 81.852386 -278.669189
-78.570000 186.879807 -278.604156
-77.382202 80.645027 -279.519318
-78.110527 68.900787 -280.301300
-80.010765 199.652557 -281.545013
-78.798553 188.744110 -282.936890
-78.522659 69.340721 -279.231995
-79.035690 192.063477 -280.752197
-77.996017 34.360634 -283.583527
-80.319527 205.496780 -282.145996
-79.641441 199.165268 -285.130829
-77.985214 197.778076 -296.268005
-77.984795 203.437027 -301.447754
-79.365967 196.250092 -301.515808
-75.643135 110.487709 -46.290527
-78.755974 102.130898 -47.926006
-78.551468 106.133720 -50.669102
-76.255638 99.714539 -49.516945
-76.266090 92.258896 -48.405712
-77.188347 117.465012 -50.189327
-77.121269 89.104950 -52.102489
-75.850861 122.753647 -53.126823
-75.639587 91.056770 -51.079082
-77.070526 130.144165 -54.719296
-77.561737 130.613876 -61.349327
-76.218575 76.300064 -58.587296
-78.937088 76.963562 -57.295460
-78.722572 77.603767 -63.812458
-78.377052 136.361984 -66.700844
-78.578339 74.744125 -65.646179
-79.906120 78.138741 -68.778252
-77.514900 -37.585789 -75.017853
-76.513313 87.300659 -72.185631
-78.598862 -35.373032 -72.751495
-77.609802 -30.626158 -77.297401
-79.244659 -37.931110 -75.833130
-75.535316 -25.183008 -77.071556
-78.494019 138.082626 -74.901192
-78.173607 -27.670624 -76.741806
-78.139137 -34.824306 -76.723930
-76.467773 -36.503471 -79.520378
-76.542427 -31.989620 -80.232796
-76.232887 -30.029966 -80.207268
-78.121216 -36.299801 -78.712387
-76.725502 -32.625961 -81.783516
-77.509422 -39.737450 -81.025131
-74.572617 144.513428 -82.827911
-75.712875 117.617775 -87.167336
-74.876266 -2.212385 -86.372437
-77.764938 0.801246 -89.918106
-77.544304 -3.036591 -91.373421
-78.885490 3.421166 -92.536560
-78.329971 -1.394925 -93.376534
-77.017578 1.451868 -97.709610
-77.069199 4.967243 -95.357071
-77.704811 4.678187 -98.488487
-80.540688 10.404083 -100.134636
-78.988029 136.880875 -103.511421
-77.492577 7.517902 -102.088326
-76.218887 4.483143 -105.892365
-78.680855 11.715976 -105.055878
-77.599380 3.398299 -101.606743
-79.939438 18.683304 -109.929497
-79.809647 5.358909 -109.590218
-77.816917 19.006641 -120.249176
-77.340553 10.537864 -114.571518
-75.550720 20.163158 -124.035477
-75.997650 24.786291 -128.083282
-76.760414 28.163523 -134.266724
-78.752197 19.005049 -135.073868
-77.104950 21.639788 -134.701797
-77.080574 102.611374 -132.759583
-77.422096 23.033255 -137.522537
-77.109322 96.937378 -139.792587
-77.619034 102.177559 -142.761963
-76.585831 117.673195 -142.410049
-77.222649 97.044411 -142.273483
-76.907425 90.831512 -144.467484
-78.957367 95.576752 -148.985748
-78.295631 18.286415 -145.394867
-77.151474 25.401920 -145.821106
-76.913399 19.593306 -146.976624
-76.922546 26.796440 -154.554062
-79.479553 116.316086 -147.636963
-76.974045 87.663292 -151.981903
-78.123772 118.431335 -156.811188
-77.843651 86.775223 -151.371140
-77.234627 48.773087 -152.718491
-77.391983 95.741753 -146.162750
-77.849716 43.472263 -152.855270
-76.322113 29.055325 -149.881226
-79.176804 109.105087 -154.499008
-78.999001 18.683920 -152.638245
-77.359253 112.917061 -158.271942
-77.057480 24.467329 -159.824570
-80.679604 31.299301 -157.597061
-80.434464 93.260002 -154.718185
-75.354004 58.840237 -156.774216
-77.346031 58.560936 -160.333740
-78.850319 52.974888 -160.870377
-76.345024 107.677109 -158.521973
-75.411926 -60.484592 -160.900253
-76.582314 110.772949 -158.889526
-75.913025 49.955563 -159.197632
-77.289001 21.819088 -163.538330
-77.018913 110.302124 -164.396057
-79.003540 90.851715 -156.724182
-77.690025 84.315018 -155.835861
-77.983910 86.645607 -162.601624
-77.693794 25.415148 -159.295105
-77.405655 25.993347 -162.850845
-78.382492 67.366547 -167.440002
-79.572205 60.078720 -166.424591
-77.896996 106.852402 -162.037125
-79.166336 86.568703 -168.986694
-78.178345 111.431526 -165.105988
-78.045235 -57.185020 -171.801666
-78.681641 31.576408 -163.142593
-79.634544 61.220039 -165.568039
-76.479256 100.497993 -170.039917
-77.847275 78.251328 -166.304657
-78.711578 102.796394 -169.635910
-76.997673 68.023964 -166.943130
-77.889511 -60.180244 -168.250000
-78.630936 99.324890 -171.735886
-76.642570 27.507124 -166.495529
-79.654144 33.661724 -174.384506
-75.451309 24.535769 -171.288895
-77.107590 106.911034 -170.177078
-79.538979 72.486671 -171.968964
-78.687004 -56.137184 -174.155090
-77.786804 105.059814 -170.714874
-76.443047 81.966866 -171.902649
-74.301262 79.939461 -175.460144
-76.983910 34.549194 -175.544388
-76.957581 80.538391 -172.937653
-78.997452 78.439796 -180.342133
-76.376556 198.878540 -176.554581
-79.762077 101.449020 -178.233719
-77.378815 101.990005 -175.744507
-75.891716 98.224937 -175.308105
-79.149124 72.561638 -179.213882
-78.164932 29.643284 -178.280518
-77.316574 199.942215 -176.251617
-77.163239 99.931686 -178.313370
-77.269737 32.349575 -177.365936
-78.725075 -54.888142 -177.512436
-73.652054 198.940506 -182.664001
-77.332497 105.088150 -178.395279
-80.578949 91.035629 -184.010193
-78.628433 35.457760 -185.008636
-79.148354 28.501806 -184.769119
-80.515488 194.958466 -186.848953
-75.088028 98.287811 -181.084717
-80.232880 70.420418 -180.779526
-78.112556 -52.431782 -186.570236
-78.759796 -51.411526 -185.234711
-80.685905 95.759132 -180.519470
-76.736900 68.615433 -181.451447
-74.943604 95.489075 -184.835052
-80.686272 199.472183 -188.021683
-78.827370 96.265160 -190.084625
-78.585106 194.472687 -191.508698
-76.347366 73.140160 -188.311646
-77.603310 86.542038 -190.341629
-76.182816 33.064407 -191.657959
-79.872139 -45.854538 -191.069870
-75.905319 187.137039 -191.860397
-76.170784 67.126892 -190.269745
-76.800972 89.693283 -192.009979
-76.121399 -50.624981 -187.284775
-77.444054 37.639828 -193.106934
-76.197052 84.706528 -196.844833
-78.350761 71.908882 -194.317490
-77.987167 66.207939 -194.184814
-75.680870 34.442467 -192.919174
-77.354546 -45.599236 -193.995270
-77.836899 40.965027 -191.884903
-77.060532 85.826378 -192.835068
-77.627350 -47.265709 -195.447571
-78.464241 58.146210 -199.113541
-79.583794 63.594795 -196.011932
-79.671295 90.940201 -192.817886
-81.716400 58.496880 -198.565674
-76.439873 40.072182 -197.581696
-76.946266 39.521629 -194.843292
-76.960419 124.108398 -200.403366
-78.138290 119.290619 -199.715897
-77.288460 117.036011 -200.625824
-76.708488 34.839012 -202.527542
-73.781548 118.162949 -199.947586
-77.832764 127.126884 -198.373093
-77.247505 83.644058 -200.185623
-77.009872 193.308609 -199.350937
-77.391602 88.409073 -198.362946
-77.509232 196.850006 -199.961227
-78.727432 -45.439430 -197.897415
-77.646416 36.030964 -200.290985
-78.569237 135.503250 -203.236969
-79.301331 120.990997 -201.416916
-78.296120 138.589035 -204.822510
-74.445259 82.209412 -202.135132
-75.604469 82.309044 -198.176422
-77.585098 62.321972 -202.071381
-79.468353 45.016365 -200.396774
-79.841629 71.404083 -206.879990
-77.738792 76.032204 -202.740112
-76.649208 142.593719 -204.212555
-81.146606 198.271851 -207.732574
-76.423721 133.795120 -206.978149
-75.447891 139.946716 -206.596329
-76.817810 135.754654 -206.629822
-76.737740 39.764557 -207.247879
-76.841072 200.634460 -206.696777
-79.788383 80.749336 -207.633453
-77.531693 62.458099 -202.837723
-78.154366 43.458870 -208.465759
-79.342178 194.255096 -206.812912
-78.431290 72.761940 -211.519287
-76.800056 40.449661 -212.814926
-80.715973 34.193954 -209.561935
-78.401527 58.800995 -212.577820
-78.340981 70.032127 -209.493607
-77.134155 53.667416 -212.919373
-76.652443 52.635044 -210.972992
-77.768723 34.895210 -209.157013
-77.950928 202.012970 -214.428864
-77.546272 192.400238 -215.260223
-76.829620 70.661118 -213.812576
-79.936378 188.396957 -216.465439
-78.741379 56.007740 -214.093933
-75.582993 63.247562 -217.189804
-78.274918 197.400162 -218.481079
-77.004364 30.441225 -221.154297
-77.764977 198.805405 -219.471695
-77.834160 50.345333 -218.719925
-80.465843 185.011139 -222.743439
-75.451096 40.612629 -224.499817
-78.738327 45.514687 -223.053467
-79.595642 30.915174 -224.366516
-78.637192 51.099300 -221.715759
-76.582512 49.396168 -227.398865
-79.343956 41.921200 -224.999390
-77.347649 202.608139 -225.962570
-76.530479 42.415154 -224.865631
-77.313698 69.325264 -228.646973
-77.488060 82.844589 -231.158722
-76.765221 43.437325 -228.614075
-75.519279 85.832588 -229.246262
-78.403923 50.535515 -225.288818
-77.601074 28.987333 -229.435974
-77.514885 69.456879 -231.807083
-77.260323 42.916489 -228.964951
-77.402740 104.121483 -233.903183
-76.507462 197.646942 -230.837021
-79.340561 90.022232 -233.504044
-75.285561 198.024841 -235.794357
-77.904694 38.400703 -236.205856
-81.073837 45.931744 -237.242142
-79.749275 204.128906 -237.586533
-80.476555 38.634964 -235.772934
-77.652267 31.872541 -236.173569
-79.834686 101.985054 -238.877991
-77.931526 116.046097 -238.634186
-75.366646 114.270180 -236.738373
-77.431091 108.936172 -238.574600
-76.201706 117.130219 -240.484055
-78.138962 110.419456 -237.803894
-76.294876 116.046341 -239.858429
-76.967033 58.609383 -240.493454
-79.959137 192.874161 -243.464279
-77.890587 33.184158 -240.972580
-79.159111 193.749161 -243.724762
-78.038704 202.197357 -243.871887
-81.165924 204.933319 -244.838242
-82.743309 199.536285 -247.054184
-77.552803 195.221985 -249.800308
-74.515648 191.070175 -249.774963
-76.619431 186.219162 -246.562851
-76.359917 187.179596 -250.568192
-79.461128 61.317204 -247.015808
-78.031059 193.802063 -251.934418
-79.993698 194.739716 -255.093704
-78.474228 61.173737 -257.310364
-79.119781 201.454697 -261.241943
-78.362129 196.945496 -265.077240
-79.436958 196.607483 -271.108917
-79.328201 201.287338 -273.288208
-77.231689 50.784763 -273.508759
-77.165123 40.325260 -275.001373
-73.285240 191.236099 -277.797974
-78.695984 81.690681 -276.411438
-78.837143 77.895256 -275.898438
-78.528877 98.879745 -276.049988
-78.141663 71.271957 -276.359955
-77.397972 84.107986 -277.015167
-78.241013 67.956375 -278.056824
-75.583862 205.097565 -278.242401
-77.680397 86.273438 -280.751648
-76.866684 56.625896 -276.346863
-78.022369 43.202564 -279.006989
-76.403214 181.683563 -277.670349
-77.347649 104.305481 -276.946503
-79.260872 175.517334 -275.618073
-79.305397 35.583580 -282.517059
-74.326027 175.801788 -281.386108
-76.754776 101.074883 -281.558258
-76.290764 40.533981 -279.391907
-76.169243 179.231598 -278.960327
-79.229034 88.337311 -277.654938
-76.285484 72.382202 -281.349365
-76.818565 63.294353 -278.385559
-78.920807 90.306793 -280.084686
-78.591843 81.415878 -281.378052
-78.297279 54.562878 -279.862915
-78.909973 45.780369 -279.913208
-77.277245 60.478519 -280.560669
-78.994484 193.227966 -282.092560
-77.021881 42.302521 -281.657288
-80.044250 199.796814 -290.786743
-78.711113 199.350800 -291.324371
-80.251091 202.109390 -296.149506
-74.843109 203.472275 -304.303894
-78.244049 196.276138 -300.283112
-75.546356 109.788963 -44.039536
-75.801514 97.366997 -45.323509
-75.366226 102.310982 -48.083950
-75.628906 115.505005 -47.220970
-77.592354 92.248680 -47.619503
-76.303246 85.153854 -48.758392
-76.426956 86.804680 -52.728439
-78.360115 75.910454 -57.016800
-74.738571 131.228607 -58.676868
-77.002884 74.125069 -58.404331
-76.299904 72.167435 -62.203690
-75.114899 79.040009 -69.725685
-76.964546 -29.959003 -66.412628
-75.992661 -28.990179 -67.313881
-73.988213 88.496216 -71.910072
-75.479271 137.603455 -72.244553
-78.453079 -33.686066 -72.285927
-77.987862 -39.619637 -71.457245
-73.920624 -33.790756 -70.805687
-77.010269 92.519714 -73.525360
-80.035744 98.197205 -74.224861
-76.756424 -42.279121 -73.370537
-75.258545 139.840530 -75.547661
-76.766281 -42.206169 -76.814339
-77.117134 -42.687424 -80.966148
-76.391930 -25.463377 -80.703819
-76.971962 -27.465763 -82.332077
-78.212540 109.695694 -84.626472
-73.630714 -34.237148 -84.261833
-77.742172 -32.433079 -83.604675
-77.193222 -38.125896 -83.677162
-79.191605 115.176605 -86.092903
-75.997650 -3.325248 -85.535728
-74.714211 120.738556 -88.777275
-75.679535 -1.100035 -93.797089
-76.200577 1.500751 -93.263718
-78.749863 6.420422 -93.897087
-78.025024 12.236734 -98.152802
-77.344414 1.278147 -97.944389
-74.844559 141.147354 -102.582222
-77.077881 11.903992 -102.454048
-77.862724 133.115784 -100.716522
-77.547157 4.671576 -103.307396
-78.805191 14.669191 -110.802277
-77.274521 5.876729 -109.471771
-76.868805 16.533430 -112.976082
-76.261116 17.393682 -114.403366
-77.563431 10.787122 -114.652153
-76.509262 9.543986 -122.150070
-78.446701 24.337278 -126.192245
-75.826950 99.608337 -124.270149
-77.053413 96.815933 -131.681732
-78.364502 11.320401 -125.325546
-76.843071 13.804828 -131.656601
-75.609734 -65.348099 -130.106201
-73.181488 101.114525 -128.719406
-75.926407 96.180992 -132.619247
-78.327446 13.054823 -133.711380
-75.903374 96.129395 -135.378769
-77.959000 -59.787960 -139.235474
-74.531311 93.655945 -137.011749
-76.657814 -60.512638 -130.029816
-77.553123 -64.634033 -138.641739
-76.270195 24.931910 -134.961502
-77.139275 16.630081 -139.198486
-76.440338 93.077065 -139.191452
-77.556076 100.247894 -141.377136
-75.746834 -63.621323 -146.682281
-76.525108 26.297457 -140.866516
-76.444016 90.725609 -144.350098
-77.236839 120.292496 -146.963028
-79.724655 -64.190689 -143.913239
-79.124260 -61.679684 -152.986252
-75.781693 97.885307 -149.164398
-78.077354 24.255266 -145.333588
-79.789154 114.413338 -146.138702
-76.356911 43.159489 -150.446167
-77.155807 88.415932 -148.783447
-73.958748 85.238419 -148.479843
-75.678566 49.437771 -154.705627
-77.709724 -60.359917 -148.281631
-76.648468 -63.515713 -154.457077
-77.891235 28.677723 -150.495071
-75.425888 114.718697 -153.544998
-76.531319 84.529526 -153.859756
-76.395180 47.100384 -155.523331
-75.848045 -63.737244 -157.503387
-75.394653 20.056261 -150.403519
-74.901688 114.234772 -154.999420
-76.736633 -60.697533 -159.876862
-75.427696 114.129059 -155.255142
-80.643654 -57.830299 -157.688522
-77.819420 81.802948 -155.071381
-77.614799 115.510330 -158.072311
-78.161133 109.902840 -154.921783
-76.920609 27.658087 -160.672791
-77.583923 101.610832 -163.566040
-75.127777 88.402138 -162.341827
-76.638313 -56.646751 -163.366409
-78.547714 107.551941 -160.846405
-75.501450 91.084846 -160.200027
-77.640465 65.996185 -163.054733
-78.937454 -62.258980 -162.165634
-78.609795 79.298088 -162.550598
-76.882301 110.080833 -161.522873
-75.418137 60.786999 -164.724030
-78.433258 58.175003 -165.460617
-77.086983 24.373440 -160.727524
-76.829163 75.786430 -165.448944
-74.409500 65.338707 -165.656433
-77.512611 63.319019 -166.338974
-78.247757 -58.556011 -162.906998
-77.069107 27.862383 -166.418869
-73.776260 108.876152 -167.025620
-77.264488 21.725967 -164.146576
-77.522682 74.437088 -170.468597
-76.741364 25.921045 -169.327927
-76.131172 104.028511 -168.218079
-75.895164 30.615664 -171.136658
-76.945198 -54.502178 -173.093109
-74.820747 106.247940 -167.055923
-77.588921 -56.139355 -173.011703
-76.119110 23.846703 -171.978271
-75.677513 100.155891 -175.322083
-77.481102 -60.969551 -172.656754
-74.471901 33.589344 -172.265549
-75.830193 108.756264 -169.759460
-77.349167 101.534416 -176.387772
-75.808167 98.092278 -174.385376
-76.466011 -56.138550 -179.564133
-78.108986 26.714033 -172.279694
-75.026939 192.823547 -177.860809
-79.295044 -52.746212 -179.394135
-76.567101 79.567871 -176.272568
-77.099731 91.715225 -183.152679
-76.943069 29.295650 -177.368912
-77.592934 37.328053 -180.977386
-77.660324 67.342545 -181.366425
-75.829979 32.543938 -179.362946
-76.713272 69.740295 -181.915451
-76.354538 79.210892 -183.401093
-76.571678 99.408150 -185.918289
-75.868362 -49.689743 -181.040421
-77.527016 35.296177 -185.776367
-77.303299 185.903229 -189.953461
-78.819298 194.873062 -186.492157
-77.193207 36.432652 -188.312759
-74.745491 93.518562 -185.850449
-77.355782 87.185768 -188.024078
-77.410469 -49.219284 -187.312515
-77.386131 199.447617 -189.491348
-82.103027 197.341766 -189.650604
-77.115379 31.948198 -188.703873
-76.291153 91.547058 -194.493454
-76.999458 83.104759 -192.960983
-76.320145 70.851746 -192.983521
-74.085960 29.252554 -190.484940
-78.570190 199.976669 -195.215179
-77.416481 90.807861 -191.768295
-76.402824 89.187286 -192.370407
-75.984520 -49.392212 -189.176636
-76.044579 69.894318 -193.385712
-77.510849 199.195251 -192.912872
-75.508720 85.768318 -194.373947
-76.551613 34.049141 -196.123535
-80.025635 195.110107 -195.056290
-77.323349 84.121826 -197.089798
-77.293091 -40.956387 -200.637283
-77.454453 81.241661 -198.390945
-80.072212 127.372398 -199.352692
-76.653824 201.015350 -199.490784
-75.677223 122.633003 -200.053223
-78.879669 -46.423119 -197.444901
-76.640503 80.698570 -197.375000
-76.899605 -43.727562 -202.316818
-77.036964 118.720963 -200.249985
-75.963120 81.495384 -201.297653
-76.517410 63.258266 -202.025757
-77.562469 43.096481 -200.730011
-76.313202 -39.154263 -203.357498
-77.805420 126.468918 -205.331253
-74.873512 -38.660282 -202.438873
-78.019745 123.964157 -204.845825
-75.857277 77.955132 -203.021469
-76.320297 52.199005 -206.618973
-76.933861 -39.903244 -200.972656
-76.510033 66.478889 -203.187866
-77.994286 126.078354 -203.946609
-75.018417 64.213203 -208.930145
-78.960518 41.223335 -203.408279
-78.042526 32.732002 -208.083405
-75.583588 198.480759 -203.977280
-75.159126 80.448318 -207.901123
-74.957962 60.142773 -202.917419
-76.939392 78.077812 -207.165863
-75.051682 41.272144 -208.028931
-78.126022 -36.348881 -205.327560
-78.117554 53.937046 -207.438431
-75.174660 142.921371 -207.031921
-77.581223 73.625809 -208.144989
-76.157234 139.753220 -208.535263
-77.460785 73.375961 -207.484436
-76.282784 70.585739 -208.352707
-78.635307 -40.595165 -203.781906
-76.495224 43.135853 -212.783585
-75.680496 34.845226 -205.509430
-76.318947 -32.174698 -211.524368
-76.323692 50.002766 -215.840149
-77.436226 -35.445335 -212.272171
-76.304909 69.482925 -214.904999
-77.572884 67.538643 -212.074005
-78.436752 33.238956 -212.955215
-75.434738 196.287598 -213.479782
-77.844048 204.931549 -217.555969
-77.230484 66.729218 -216.492325
-77.142799 46.893719 -218.805771
-76.713455 33.828430 -218.589127
-77.653008 204.099106 -217.433395
-73.911423 187.168304 -220.327576
-74.804947 200.929062 -219.418076
-76.147789 41.337055 -217.317719
-78.158920 55.992687 -219.900299
-75.999123 48.774372 -222.068588
-76.000832 62.272034 -219.637756
-75.689049 190.469788 -220.990616
-77.405052 183.264297 -221.403397
-78.354347 52.604687 -218.630737
-75.414955 44.574303 -221.483353
-74.618561 186.595642 -218.844269
-77.485405 190.585831 -220.586365
-78.329819 43.729443 -222.628250
-80.308662 194.401825 -223.335144
-75.138741 200.681229 -225.336823
-77.033676 193.928833 -224.308304
-77.768661 50.130295 -226.189926
-76.038124 31.912012 -227.084167
-76.766457 198.524567 -224.849701
-77.432198 48.762688 -226.690231
-75.404694 81.105263 -227.940231
-76.762238 196.437241 -232.027115
-76.144913 30.550116 -225.994919
-78.740913 47.983906 -231.012680
-77.596062 200.479263 -230.426010
-76.874199 198.616226 -230.880096
-78.466003 94.279907 -229.483185
-77.612862 44.423370 -228.425644
-74.502449 98.963264 -231.801163
-76.713829 80.762306 -232.661301
-80.184036 43.195606 -234.316193
-77.494064 41.481148 -232.780914
-76.427475 44.936211 -235.591095
-77.999588 91.975227 -237.756622
-77.811172 88.319603 -234.232086
-77.136719 45.437405 -234.238800
-75.707077 25.562359 -233.130997
-77.415680 28.589497 -236.805069
-77.291397 97.893211 -237.230850
-77.433777 54.675125 -240.276886
-76.434753 201.106918 -241.157822
-76.545570 105.007675 -238.707870
-77.754539 59.656223 -239.554550
-77.652534 198.949921 -242.133286
-77.375786 119.658371 -240.993393
-76.475670 119.325722 -239.852966
-75.768906 61.631367 -241.966400
-84.177490 198.035080 -250.726532
-75.626976 181.480164 -247.330856
-75.096832 197.921844 -251.629379
-77.340248 64.133141 -254.049683
-77.463402 29.464596 -253.319748
-76.311584 197.813675 -256.910767
-77.390793 199.594543 -254.470078
-75.959335 27.352259 -255.810120
-77.012367 57.715134 -262.230865
-76.868515 198.050842 -260.562714
-78.209267 53.649979 -269.741058
-74.301727 50.823536 -274.484070
-76.344574 93.124710 -276.723999
-77.485229 183.164444 -278.502350
-75.820435 181.424255 -276.175568
-75.448181 176.674774 -277.127289
-75.546539 103.489265 -276.157959
-77.106201 62.687546 -277.472992
-77.009323 110.333656 -276.494415
-78.960182 61.154808 -278.447327
-77.655128 176.644653 -276.897125
-75.937065 118.356316 -276.064270
-80.329666 197.790390 -276.634674
-76.768448 169.997238 -275.489258
-75.029610 127.298218 -276.699493
-72.995392 117.643990 -279.204956
-78.068192 38.061016 -280.475739
-77.507385 109.442032 -279.001251
-77.181427 36.314671 -279.511688
-76.370155 192.575912 -278.849792
-77.787071 165.383392 -280.260498
-75.512825 112.787682 -280.743195
-76.347870 192.151306 -280.144684
-77.245560 167.748657 -280.367981
-77.701988 96.893578 -281.297821
-75.884880 83.798294 -279.937683
-78.058372 73.965111 -282.883423
-76.567368 184.288605 -278.232544
-75.325638 177.173874 -282.837616
-73.911270 66.046318 -281.421600
-75.714630 49.006390 -282.115173
-78.933434 41.043289 -281.684479
-75.952972 32.851051 -281.866760
-77.617561 35.254936 -284.360657
-76.790207 201.370560 -286.871948
-74.443039 199.549301 -285.400513
-76.178825 201.136963 -289.367859
-77.758316 198.253174 -288.966064
-75.974236 197.669052 -287.784149
-77.845718 197.747818 -292.057556
-80.151207 203.415771 -297.067566
-78.952126 196.687302 -296.994415
-75.270004 99.333763 -42.860962
-74.390388 110.619278 -46.185139
-75.197433 121.655029 -48.076042
-75.776245 113.259102 -47.321587
-77.715431 85.579491 -48.158264
-73.958847 131.986801 -50.035679
-75.745293 78.482750 -51.150845
-74.949112 72.375656 -56.315498
-73.940903 136.240585 -60.434978
-75.543617 137.442734 -63.960949
-72.936195 -31.853214 -63.581997
-75.294380 -37.252579 -67.512138
-74.443604 -28.714962 -64.355438
-74.759895 -33.928139 -65.804756
-78.573334 -36.330051 -68.561905
-76.802032 75.557350 -68.453094
-76.697380 -33.401482 -70.755547
-74.532333 82.696724 -71.818375
-79.010696 -38.335556 -67.273041
-75.964706 -27.451553 -72.818428
-76.713974 -41.111492 -72.619644
-75.256218 142.142273 -72.158127
-76.274040 97.924194 -74.688614
-73.948341 -41.770859 -81.118210
-71.121361 114.057159 -83.545082
-74.372513 -42.378586 -84.533478
-73.225372 -23.853031 -83.006516
-74.076797 114.141968 -86.355797
-75.720657 -41.661121 -84.540604
-76.795715 -28.664982 -86.169350
-75.922729 -36.060509 -85.773651
-75.762329 -28.335497 -86.600700
-76.702446 -39.180168 -86.318169
-73.872131 -7.787134 -88.027893
-76.569176 127.409088 -88.921844
-73.336128 127.824524 -89.427925
-76.041962 4.097610 -88.314957
-74.509361 126.575691 -91.209656
-75.546608 -4.034743 -93.628197
-77.553780 140.842758 -90.448738
-74.433754 0.682643 -94.529800
-76.764404 7.528205 -98.939598
-77.677650 132.404205 -98.288933
-78.261856 142.560532 -93.977463
-76.994652 14.570098 -105.453148
-73.862816 138.350006 -105.334702
-76.910789 5.127364 -109.254395
-74.970985 -59.034428 -116.717003
-75.073799 14.836326 -108.642746
-76.852051 18.660555 -114.016594
-76.316307 -59.223141 -110.374466
-76.146500 -65.833717 -119.767639
-79.279381 -60.365837 -123.679726
-76.626076 7.973130 -118.233490
-77.388260 21.351393 -124.970673
-73.856827 -61.037209 -118.261826
-77.723953 20.478800 -121.479240
-76.046524 -62.962334 -125.404099
-75.056610 106.117989 -125.552696
-76.646233 9.677942 -126.572998
-78.031677 102.331963 -130.747635
-75.672867 14.597971 -131.707382
-76.263016 100.114815 -126.277878
-76.796066 -57.242970 -134.021317
-78.329887 99.825584 -135.556534
-76.873299 17.600208 -136.740753
-74.473328 105.751526 -128.677078
-76.592781 105.359863 -137.015915
-77.397125 -65.719330 -135.602402
-77.188904 102.328865 -131.651443
-76.523506 13.892852 -138.655243
-75.536682 121.692123 -137.492294
-75.590309 101.733231 -138.572678
-76.766327 17.088587 -142.668030
-75.608833 92.994431 -139.851013
-75.866890 116.687866 -142.472137
-75.552307 -68.213310 -142.810745
-77.191757 85.741821 -143.589890
-76.178856 104.020477 -142.412933
-77.154106 97.799675 -143.538895
-76.170097 -60.969635 -139.802002
-74.429977 99.045586 -147.099350
-78.105415 29.226637 -146.747421
-77.619728 -58.014061 -146.440872
-76.709869 114.695023 -148.364502
-76.404335 120.671410 -148.514923
-76.389496 96.824623 -146.377838
-75.529816 44.117737 -147.003891
-77.508553 116.076530 -150.598679
-73.369087 19.306002 -154.694748
-75.593208 -61.726185 -149.909241
-76.661720 110.250816 -151.194672
-73.409958 93.842911 -153.635376
-77.249641 54.827442 -151.681717
-76.139267 95.051437 -153.867096
-76.293274 91.210167 -154.119064
-75.458954 30.695734 -150.755783
-75.455376 83.210930 -153.322891
-75.239250 19.320969 -152.993240
-75.057266 115.423912 -154.581909
-75.878815 106.369659 -156.502884
-76.117607 31.699757 -159.408356
-76.475395 108.169212 -157.340805
-78.107101 82.939735 -158.326035
-74.864235 59.989872 -159.564331
-77.813080 78.257462 -161.598999
-74.078644 89.479446 -161.000870
-76.267532 111.507957 -160.881790
-76.550491 31.707407 -160.139496
-77.183601 90.389366 -162.525345
-78.092979 59.977684 -164.324738
-74.590797 106.795189 -166.432938
-76.993065 53.710407 -162.404282
-75.294365 -62.919476 -159.584488
-77.423195 33.156952 -165.475388
-78.036087 30.815371 -163.386429
-75.693527 -57.757183 -165.233856
-73.557205 110.115570 -170.528961
-77.152367 72.442352 -170.616409
-74.238441 26.192280 -170.186005
-74.465698 84.435020 -169.938934
-74.820648 -62.138130 -164.170639
-73.837074 33.232765 -170.767807
-74.531593 73.496902 -171.077652
-75.969902 98.651970 -172.882492
-75.740341 78.505318 -172.843475
-75.747047 106.089203 -171.900772
-76.817986 195.529770 -176.570389
-75.990112 73.891815 -172.850571
-74.655922 195.972855 -179.044312
-75.544991 69.751945 -177.350006
-74.840775 197.255920 -178.022995
-74.506500 201.204620 -179.061676
-74.417992 95.397346 -181.457474
-76.151573 -57.508801 -179.222305
-77.764038 -49.609085 -179.938416
-74.622780 34.987206 -182.040131
-76.269089 192.962906 -180.996628
-77.581291 191.507248 -183.744995
-74.560974 190.399780 -187.307800
-78.753044 203.875046 -185.691193
-76.867989 38.635921 -185.680222
-76.346161 24.902901 -183.261612
-74.374535 185.593658 -186.048492
-77.716988 184.823685 -190.365555
-76.980545 75.684067 -186.717178
-77.092880 -53.460194 -185.878754
-75.510834 31.056047 -183.070663
-74.748543 189.554977 -186.617035
-77.412659 -48.299023 -187.648376
-73.883560 92.931335 -189.385696
-75.471245 38.170822 -190.309113
-74.597771 185.871246 -192.645218
-75.438194 185.918884 -191.944778
-74.594772 61.590775 -193.675674
-76.690308 90.069466 -194.645065
-77.305466 72.790321 -192.352066
-77.359085 43.605080 -198.781952
-76.750771 199.457413 -195.159180
-77.148956 -42.969250 -192.194336
-74.712761 64.603233 -196.637375
-76.701981 -46.424576 -195.557022
-76.015831 80.635788 -195.959717
-73.146530 64.420464 -202.591370
-76.585533 56.504166 -197.702011
-75.820625 125.918816 -198.043350
-74.732689 198.472839 -200.717758
-75.469566 127.577698 -202.077682
-75.420677 82.064850 -199.301254
-79.088211 66.816528 -197.530548
-76.195709 40.646805 -198.773926
-76.797874 132.345459 -199.619171
-74.467163 128.375809 -200.807556
-73.970123 44.136299 -197.611267
-75.412491 197.004700 -203.040634
-75.200462 80.727707 -200.641861
-76.087585 136.375488 -203.223770
-76.905006 78.116714 -198.987350
-76.971741 74.469681 -203.187424
-78.151756 123.999802 -201.484665
-74.848930 32.407993 -203.322617
-77.008080 32.416122 -203.595703
-74.086731 197.352295 -201.414948
-75.048744 139.493271 -205.811066
-76.444229 77.239952 -204.857101
-76.517624 77.467178 -206.356979
-75.795532 65.057770 -206.627243
-75.198517 130.336273 -204.663055
-77.502571 74.680977 -204.439774
-76.355331 132.316803 -205.535507
-77.247421 43.292908 -202.977631
-73.732307 136.817642 -208.150162
-74.868530 147.017700 -211.636993
-74.140640 80.878197 -207.969330
-74.249496 70.621262 -211.652481
-77.227333 51.357147 -211.086014
-73.887680 200.492676 -207.379059
-77.469406 54.792671 -208.382629
-76.144775 31.787714 -210.642029
-77.483910 72.011353 -206.525711
-76.498741 49.264832 -215.642761
-74.895088 -33.312122 -212.264038
-77.088669 70.473381 -212.237442
-76.412010 194.268768 -215.404770
-77.099281 59.487598 -212.557236
-75.948425 -30.442657 -219.263214
-76.193230 190.806274 -215.256104
-75.162842 60.923813 -217.430008
-76.248802 34.653969 -215.144913
-78.203773 196.655380 -214.682098
-74.965248 49.395645 -215.896179
-75.857224 59.275665 -216.885208
-75.366920 -28.552803 -219.755371
-76.019775 196.506027 -220.216309
-76.296928 45.109955 -220.884903
-72.949799 34.236176 -211.069122
-75.659531 190.764236 -220.359207
-74.447739 64.491638 -219.620560
-76.104286 -28.144852 -216.229813
-76.500771 55.361568 -223.050049
-76.286636 -24.438248 -223.069199
-77.424294 203.332321 -225.406906
-75.275688 48.206890 -226.201920
-74.632629 40.379986 -223.231766
-75.782372 -19.580729 -225.311951
-75.388039 31.501326 -224.110809
-79.151123 72.921646 -227.582428
-73.454636 201.199615 -229.049515
-78.038025 68.831184 -232.065353
-77.241959 94.520813 -231.208191
-74.678879 67.387199 -231.839767
-75.469116 44.830608 -231.622833
-75.898575 39.631905 -226.179077
-76.746529 98.542931 -230.024567
-77.468048 73.885551 -231.976974
-77.270645 42.362965 -233.422775
-76.483322 107.055565 -234.153244
-75.168312 76.458183 -232.582550
-75.734787 111.980934 -233.679932
-73.959915 80.938759 -233.620819
-76.053841 46.020390 -235.719254
-74.032776 37.753254 -233.080185
-74.447380 114.667068 -237.372086
-76.479591 90.458092 -234.139008
-75.851898 94.318748 -236.006256
-77.280846 200.755096 -239.624695
-75.614731 98.783424 -236.708679
-77.982155 121.873596 -239.306290
-74.356171 104.450867 -237.320282
-75.178368 114.714920 -239.683868
-75.703773 59.056015 -242.327911
-77.879761 125.345177 -241.485214
-76.798935 127.655983 -240.179306
-73.393150 131.097107 -241.892517
-75.334679 129.393753 -240.512665
-75.240501 130.093002 -244.421448
-78.957756 207.191803 -246.557587
-77.502769 191.404861 -246.772415
-72.039078 201.000473 -249.585571
-75.031380 64.868996 -248.721710
-75.157845 189.277267 -250.757355
-73.581673 181.363892 -250.961227
-73.630890 176.115311 -251.570251
-72.483093 204.860306 -253.244537
-78.211365 29.485643 -257.115997
-77.449898 60.589973 -257.712402
-76.255501 201.374069 -265.495636
-78.052475 202.461304 -268.955994
-77.562881 193.019150 -274.417084
-73.310585 34.960590 -275.077393
-78.328682 80.696243 -275.568848
-76.663353 208.357300 -276.804108
-74.300201 100.688011 -276.834259
-75.914482 90.100510 -277.002533
-76.869423 78.662331 -278.423248
-76.704750 61.880150 -278.296143
-73.059326 119.231049 -280.296967
-73.986023 47.217014 -277.447083
-74.124413 127.111481 -276.859070
-75.890106 52.601845 -277.169464
-74.659882 130.570053 -278.537354
-77.100372 55.725624 -277.507538
-75.644676 42.827232 -277.720184
-74.814499 197.062988 -277.748169
-77.554131 185.289658 -276.026794
-74.067657 174.241028 -279.181274
-76.197327 137.999634 -278.378876
-76.107857 126.442314 -279.778351
-75.112785 196.093765 -277.903290
-75.273399 206.217926 -276.499969
-76.480461 128.420807 -281.290741
-72.628891 33.832710 -279.988892
-73.784317 145.458893 -276.794769
-74.472694 122.716049 -279.766418
-73.873192 142.540344 -280.455444
-74.672844 187.126663 -280.144226
-73.215508 132.524780 -279.753510
-77.526878 109.452278 -281.825653
-75.213814 91.195557 -280.532318
-77.323036 192.709274 -281.145569
-75.129570 77.060097 -283.294434
-74.507057 69.356438 -283.184265
-76.264526 62.387882 -281.785156
-73.273132 53.661491 -282.756195
-73.504478 204.943710 -284.200928
-75.129311 201.383224 -283.663849
-74.806076 201.520798 -290.609711
-77.765259 202.934418 -288.878418
-78.769554 196.114685 -292.161438
-75.336861 204.478729 -298.034119
-75.932190 107.067574 -43.363762
-73.662247 101.374092 -43.930824
-74.194740 115.281075 -44.749397
-76.455391 118.102669 -43.715267
-73.631004 89.675507 -45.981556
-76.008400 95.370247 -45.178928
-74.072708 86.625732 -44.385246
-73.941978 126.019348 -48.102436
-76.208511 83.712898 -50.216290
-74.678192 78.670128 -49.779816
-74.709625 73.874283 -53.648071
-76.818130 70.315048 -60.112827
-75.009735 69.138290 -63.616550
-75.172989 -27.419075 -63.175209
-73.701569 -34.144413 -66.687714
-75.418091 -35.152630 -65.999298
-74.907608 81.812462 -70.170685
-76.137535 -26.305653 -69.631104
-74.088165 -47.344036 -72.187233
-76.440453 -23.414461 -73.077118
-78.418930 -24.680807 -72.782112
-75.656303 -45.426849 -77.172096
-76.643036 -24.893446 -81.097519
-75.235336 -2.780034 -82.848648
-72.352783 -2.546609 -82.783478
-77.005707 1.556237 -86.170525
-74.528030 -1.002267 -88.114182
-73.282295 114.707344 -91.468117
-74.802536 117.770561 -91.929771
-69.286499 122.908638 -92.774826
-74.295647 3.311954 -90.721718
-71.852043 -3.452383 -91.200546
-74.684860 129.538712 -96.146431
-76.288399 0.806123 -99.363724
-73.708664 144.731903 -104.339066
-75.209557 -56.683762 -95.030991
-73.725128 135.795181 -99.665802
-78.807022 -1.284730 -102.313736
-78.194237 2.792555 -100.228737
-75.618019 -59.948158 -102.693542
-76.076263 -56.900391 -97.249695
-77.654442 1.264167 -107.039879
-76.711472 16.693031 -107.701378
-74.480843 -60.333488 -108.210403
-77.032921 3.233185 -107.116104
-74.699692 9.432965 -115.701141
-75.726448 18.627216 -114.143555
-76.766243 -63.135540 -113.212715
-73.891762 -60.427673 -117.376617
-75.187088 10.931197 -116.932983
-76.576859 11.930943 -120.315346
-75.387947 102.173065 -124.430458
-75.393219 21.775805 -120.446335
-74.586426 -60.929699 -124.829056
-74.804550 -66.866638 -124.471581
-75.261650 98.418221 -133.093216
-76.279900 24.402027 -129.707504
-73.266556 124.173996 -131.434265
-73.301125 121.256554 -134.127563
-74.678658 -67.778778 -134.766647
-76.228561 120.946617 -134.341904
-73.669388 103.286034 -131.968369
-76.218109 25.925308 -133.447083
-73.627075 96.461678 -135.613770
-73.739433 89.680359 -138.966202
-75.920105 121.755997 -139.846146
-77.149391 115.214958 -135.405212
-76.131882 89.491631 -137.870956
-72.502296 119.659752 -140.352478
-75.354752 16.765970 -140.236984
-75.170311 -62.694904 -139.945969
-73.038071 27.642315 -141.964188
-75.012161 26.884802 -142.098495
-77.899559 119.448280 -146.652908
-74.590157 -61.007782 -148.835114
-76.600319 27.575064 -141.022552
-77.487831 87.129707 -148.383240
-75.371025 -62.239799 -142.914383
-74.867348 43.313351 -146.639435
-76.335159 15.718793 -146.374863
-74.486786 117.285255 -146.270554
-75.180283 111.388306 -148.346161
-73.720505 -65.535324 -145.106506
-74.316032 118.019630 -149.809906
-74.240646 41.678406 -150.029373
-76.053787 18.576895 -142.237366
-74.585815 115.091423 -152.873428
-73.757263 113.515236 -149.637466
-75.877823 95.651459 -151.121124
-75.612717 110.617882 -155.148132
-75.702980 20.396624 -152.618362
-76.691040 116.419701 -153.028275
-76.027702 53.853683 -154.902222
-73.221268 29.868145 -152.166367
-74.734589 30.931139 -158.084991
-77.487549 -57.767727 -154.298431
-74.567307 110.550682 -155.926376
-75.358170 116.989105 -160.391998
-77.098114 79.191910 -157.733200
-73.646355 -63.134411 -153.454926
-74.097115 -58.692150 -160.831451
-75.350418 59.553139 -158.890427
-73.001190 54.840431 -157.132065
-76.972679 -62.052872 -158.989807
-75.850105 54.581680 -161.675797
-75.597870 79.993225 -162.527069
-74.373489 110.323463 -164.543594
-77.236053 77.511185 -165.215546
-73.246407 109.138557 -166.715744
-75.933350 103.883575 -167.979416
-74.448380 24.306414 -163.721039
-74.063019 -59.814537 -163.741089
-75.496117 -58.232590 -162.626358
-74.594330 -56.817955 -168.010925
-76.346748 35.719925 -169.870865
-74.232285 32.513916 -167.509003
-75.139687 90.685760 -167.644379
-73.290642 101.608315 -170.955536
-75.696724 -53.193665 -173.074478
-75.526573 69.839172 -175.729523
-75.231239 24.148384 -171.448578
-76.732491 -57.394722 -175.813522
-75.928368 -59.553745 -173.500824
-75.267174 197.157776 -174.721329
-74.737846 -57.893688 -172.938828
-74.082703 101.862915 -178.940948
-73.352058 98.781776 -175.975983
-75.545059 23.504930 -175.764191
-74.935760 103.592010 -173.745361
-74.768623 84.421539 -177.430862
-73.721085 101.220825 -177.368271
-73.482201 64.475159 -180.581711
-75.073662 99.995277 -180.727051
-75.205261 -54.615349 -180.741135
-74.316391 199.374802 -182.823730
-75.792091 88.608299 -186.482132
-73.615433 193.016098 -183.368729
-74.353951 97.352341 -181.013748
-73.936844 68.300056 -179.807068
-75.633881 -51.089916 -186.245773
-74.913452 96.764900 -182.548615
-74.172684 66.107430 -188.796249
-74.993889 26.017872 -179.721039
-76.921410 190.746628 -187.529755
-73.647263 95.570282 -185.908310
-75.835426 64.898407 -185.989151
-75.756119 -56.620880 -183.043640
-75.265221 -52.154785 -180.400375
-78.208847 98.025902 -187.164139
-77.267883 74.525635 -185.271469
-75.035217 -44.143620 -190.498886
-77.978767 200.974075 -189.772964
-74.684868 74.174103 -189.666946
-77.003227 -52.564220 -186.136993
-77.278671 204.403641 -189.585052
-76.416168 29.930494 -191.296570
-75.072014 61.390701 -190.569321
-75.051651 38.380421 -190.408691
-76.976738 202.988297 -192.435364
-73.484520 88.860733 -191.859009
-77.673576 190.783020 -192.859650
-75.124329 82.732513 -191.992935
-74.523026 -50.432636 -190.608795
-72.995346 89.570885 -191.618484
-75.442749 -45.740681 -189.502136
-72.673668 84.403870 -193.175888
-75.273621 194.742371 -195.166138
-74.634926 30.631886 -197.238770
-75.326401 88.194801 -198.189301
-74.459465 69.072395 -201.220917
-76.520355 -44.962059 -199.113815
-74.534256 -41.513496 -200.521301
-75.000275 -43.437923 -197.524628
-74.190971 58.460278 -200.533981
-76.078316 -48.326305 -200.804077
-75.698601 83.995979 -203.224152
-77.356102 133.372452 -199.887161
-77.588806 32.971481 -199.370102
-75.919342 127.126137 -200.767548
-76.314133 42.645687 -204.710968
-75.178925 53.826702 -205.471924
-76.444954 144.709335 -204.962494
-75.078125 71.275177 -206.270111
-75.959114 201.262085 -199.872864
-74.486961 72.087097 -211.404053
-75.493576 -34.223331 -206.163223
-75.717873 -41.599949 -208.910233
-74.823669 72.739014 -206.765274
-74.645943 -39.851048 -210.000214
-75.346420 57.838524 -214.806107
-73.735741 -29.351513 -214.251785
-74.161926 -40.276291 -204.991272
-75.448479 149.708466 -211.022125
-73.951614 68.309219 -215.211426
-75.377037 68.409386 -210.089630
-74.899834 59.296192 -214.391373
-75.647995 201.544769 -212.102417
-77.426888 197.180420 -212.575912
-75.096611 66.447639 -213.509903
-73.464783 -27.804399 -214.511368
-75.699532 75.392891 -208.725113
-74.462860 62.026039 -218.783234
-74.357285 58.196060 -214.761414
-77.191818 197.391571 -217.460922
-74.497963 177.074387 -216.804367
-72.726967 75.747887 -213.563126
-73.253876 176.678848 -217.757828
-72.582634 182.362396 -218.280548
-74.743698 62.957882 -217.579742
-74.199509 47.188164 -219.282227
-75.948730 32.534592 -216.187698
-73.583572 178.614319 -219.328537
-74.252319 57.058151 -221.650024
-75.762527 32.214180 -220.239380
-73.917000 183.435150 -221.244812
-75.969330 33.525223 -222.667694
-77.357834 203.064102 -222.515137
-74.093666 172.943771 -221.641388
-73.998466 -25.229586 -221.398010
-76.485641 56.653385 -221.623413
-74.674828 52.377609 -218.511017
-74.134850 57.520542 -223.871216
-74.514137 52.515900 -225.372452
-76.603500 50.031204 -221.906021
-73.791626 -17.852318 -226.627502
-76.299385 -21.937853 -227.459457
-74.967712 53.079769 -230.628860
-74.428574 29.232693 -230.161591
-77.388130 85.605644 -227.826385
-73.982765 77.318176 -229.076019
-74.340752 86.872528 -230.059555
-75.121078 41.782097 -227.553253
-75.308960 96.209969 -233.040924
-73.004128 83.540535 -230.538971
-72.896225 83.777443 -232.338150
-77.346046 72.347481 -231.681458
-73.591156 98.144814 -232.054825
-74.055077 48.307922 -233.500244
-72.681908 45.881622 -233.365662
-73.441162 104.998276 -233.700607
-74.540359 89.691467 -235.226273
-75.012138 48.330742 -232.247818
-74.491905 111.606781 -233.488129
-72.106720 94.897301 -234.819275
-72.424484 119.575920 -236.224960
-73.721497 30.572750 -236.660751
-74.832268 121.179001 -236.483978
-73.804436 30.316936 -237.811447
-78.723640 196.341293 -237.210754
-74.241776 209.068237 -236.283783
-75.959938 124.813965 -239.728058
-77.526512 35.146149 -240.182343
-72.965652 210.869919 -239.496429
-72.804420 130.119064 -239.988617
-74.223534 33.689594 -239.001724
-76.959694 128.911331 -240.127365
-74.891930 125.949432 -243.730515
-73.945518 135.299347 -241.490524
-73.982674 126.755836 -243.104797
-76.555870 29.326588 -247.025833
-72.338615 142.493057 -244.169739
