# This PCD file was generated using the MATLAB® pcwrite function
# from Computer Vision Toolbox®.
# .PCD v.7 - Point Cloud Data file format
VERSION .7
FIELDS x y z
SIZE 8 8 8
TYPE F F F
COUNT 1 1 1
WIDTH 786
HEIGHT 1
VIEWPOINT 0 0 0 1 0 0 0
POINTS 786
DATA ascii
103.350907738422706 -64.702360827560668 -99.635012759911902
111.947092986911258 -65.519478518069391 -108.217582296513555
42.000471002623826 -66.589475456842379 -110.152649802749465
114.807248397051382 -63.517224197829101 -123.352994837080800
116.144471983844241 -67.341894989009631 -123.299082822799008
33.615955432520387 -66.708636764638285 -127.545617987156220
47.121019710076148 -68.691771940279210 -122.795149492960221
117.551957513638271 -67.345730709563199 -134.654865081214155
38.537346828724125 -67.829805487500209 -130.612647223787548
117.432577726367768 -70.221053784796439 -131.957372642817177
111.105599863050458 -67.424101033505579 -126.829807547780405
28.714982166130589 -69.946626430855275 -139.324780688533394
-45.640836599063604 -70.953039222348181 -137.360485598055419
-49.855443638958455 -69.147536738536729 -138.494298467297284
113.604833562442550 -66.770043313936299 -139.468955828552112
-66.851233750094380 -75.087366821953907 -143.322092207550355
-70.518432087131330 -72.238724240662179 -143.392849050841647
-56.647790578340668 -71.892942808143090 -144.342896274282026
34.181882526025142 -69.694781440753601 -147.449021106047525
118.455745367908079 -69.863813088765795 -150.204888616272854
-67.209421406462397 -68.974406489858168 -150.445305184829323
-45.700797919233175 -70.965306133813172 -145.875460390565934
35.645028578531416 -70.849512775498766 -154.995706845945705
-65.820719503202653 -73.184875674344582 -150.846478945458387
116.251307919271895 -66.874071686941178 -145.812667345000420
114.015557400621830 -67.354238382755923 -162.046989873950821
118.564859788058428 -69.795041274817933 -157.274578104250850
-36.079239980441848 -74.290354277920073 -156.172121590612733
-62.524994379742012 -73.321355624858413 -167.394306046647927
-67.006956262316820 -69.773405592758593 -160.468143814060738
32.463302427785656 -70.978311268703706 -150.097065943813533
0.166192675680425 -73.712081686013917 -165.452701775813949
111.340902962771963 -69.080749555571714 -165.963930679418354
114.020064502726498 -67.110802059862664 -157.510151020702409
114.523882349017271 -71.363104920541346 -162.560440465124401
-61.550217138658759 -70.271907947345568 -163.362128182590709
-43.079131793551113 -74.823682289980738 -168.278746073109943
-0.123906828122043 -71.259825858355498 -168.612071815995961
-27.070412922837633 -73.529888269924029 -178.165880080550522
108.141874501921137 -69.121855102847576 -171.566116573034691
-32.044095526514901 -75.216945503710846 -163.111478287779164
111.563268660883679 -68.484730706667165 -172.767368468625648
-39.574775246875610 -74.004244013266330 -176.773397728273636
110.783361973671063 -67.897729170585265 -173.078097633547287
-149.279473918754150 -77.160973068510188 -182.333708107681076
-24.839199671690437 -69.737939863640392 -180.338187955910058
-18.165249406625982 -73.831689142572984 -186.646875249581001
27.112233250370075 -75.324960281110251 -180.539187110816840
17.181833705009488 -72.662738365689208 -186.742718585995760
29.776857667099186 -73.116487576662394 -186.663789797805009
106.461973958926748 -74.949475401728222 -187.629912429692439
-149.725811713372480 -73.755424353550069 -187.445827726265463
-17.546890267374373 -76.044255759563143 -187.979302099424984
104.351716737617224 -71.719828201921004 -182.719118801077116
105.187278760632680 -68.609493871153575 -194.088475461750704
110.359464855772131 -71.779586604615957 -181.954318108781905
101.148940746120445 -73.723585714383418 -197.732796823153535
-149.236245840992439 -77.884306841050432 -198.802307154888894
102.014036611028004 -73.709206203483063 -209.530345265775253
-26.236304722514653 -72.814486552719117 -200.519987684610840
99.557190413534855 -71.982832904243352 -199.904803083637347
-119.282177943992295 -80.096361969786756 -202.396244796325846
-27.589806346890107 -78.794401889574502 -192.992101712314650
-139.969971487389955 -73.356889089815340 -200.981966175275602
97.341173269711362 -72.595288381825924 -202.681922800637608
10.669420817918619 -75.026483080825074 -202.466940994352711
25.887906934068582 -72.231987311819481 -196.248056419164641
-146.079580955615739 -78.135931945595289 -205.209300533977228
-136.949597040161620 -76.730433537935198 -204.509083882088561
-8.098381413596954 -74.850241127280796 -210.034928182728294
-122.396289334537784 -77.116438715064717 -206.272387195829452
-141.821862037907408 -79.743368212804384 -201.900611163924481
5.952707173155725 -74.678923477172020 -202.978787773423477
-22.202774583260997 -77.224049015974103 -204.132854555463894
22.711988954310300 -77.030719749176711 -205.619072659173383
8.575704804607572 -76.554743598234879 -215.118311315366270
87.305750820521880 -71.025279685909226 -212.710622857101271
-16.537238644281075 -73.290275148444451 -215.330873844720230
93.195082608972243 -71.188514366312816 -213.132961548698120
99.027694883894540 -74.871384880013139 -210.925538067682908
-147.012870474777856 -79.583455429843951 -216.759020153574710
97.431690904028329 -75.098289433222192 -215.478252444149433
6.917868694380481 -74.067795641059746 -210.762433637038299
5.525082590957620 -77.611314367774838 -217.611645693694925
-31.033003565980877 -75.314818923763312 -210.130349267579021
-87.522130823867045 -76.696056888320825 -215.880563238345388
-24.281353021251419 -77.232128313790355 -213.897428622830034
86.974191086562527 -73.294982458635204 -220.888785358326516
91.128136844915716 -73.049145959395261 -221.041847988380368
-29.951179216398423 -75.284446903049627 -215.404076247256000
-82.581636795255406 -74.642611035313138 -221.354827314691306
0.857015059425958 -77.896264642590324 -221.864552398579519
83.844731970775328 -70.381835158489579 -217.337218332154805
-149.978292209877424 -82.826674532817648 -223.876583034439420
-163.932036202337514 -77.301899854374312 -216.654168223865156
-160.063679203982844 -81.783102533037919 -224.312728497820331
-19.569655027911907 -77.805633635739625 -229.940130541933939
-151.975643291332460 -82.082212799206857 -224.829203263944493
-3.882477229475549 -77.563532352182818 -227.638561876435062
8.445535445909908 -76.744894673418699 -221.668404370215313
-165.316790907697197 -79.567128985315918 -227.766169732035252
-156.967358272231650 -80.020210621014968 -229.623713271876369
81.110130219442368 -78.286375797290546 -235.004292889746182
2.053089078954732 -75.334798171267352 -230.021000972618907
-155.803470372621177 -74.991020423921341 -228.794841981066867
-140.613354305453754 -80.676397868769854 -226.646725638131159
-17.382437434625345 -75.706326479085973 -227.159208492938660
1.536425789365275 -80.287608571943181 -225.433617833676152
81.817871610840797 -72.365043094122413 -229.629068838965338
-159.469885172527626 -78.122970398456971 -230.270380955280586
-142.233753120768682 -77.369538923665772 -233.417106057633390
-123.337895250150311 -77.671612678344786 -233.529462144421700
80.631618456491481 -76.224661429555724 -230.377842679649518
-113.813518214694511 -78.825890663380278 -231.747149024618551
-144.582981632195839 -79.478295994155630 -231.669187019838603
-148.726195589731617 -78.473229867142749 -233.869921504195986
-147.189255878118303 -80.476047594693469 -233.639158733017069
-153.987381240033642 -80.230742244893733 -231.384251771850984
-163.239003434968907 -80.339799307654886 -231.254197885844121
-131.908076142160496 -79.891134124775704 -237.781163864369347
-131.444415819603535 -80.692377813446299 -235.512981412646951
-151.293699226432153 -83.546110367246470 -234.954098480083672
-143.670426129304019 -76.651221047780197 -239.478337423680784
-149.803711779179082 -80.566344701039540 -237.626772778817667
76.773849526919875 -77.294963052747079 -236.042491329475837
69.036367179782431 -71.021892134868366 -240.049657060225684
-155.228782407315549 -78.810046819747868 -237.802503511597251
73.456842433675632 -71.139828901577502 -237.345644608182255
-17.998489341411315 -76.177232108045757 -239.910387193628708
13.251172728725525 -78.158767980212630 -240.343371065022751
8.764152706534045 -77.747326869483828 -239.282722107006464
-152.712380943403559 -80.816910844600159 -244.966828139969550
16.368734730889472 -76.626911982976381 -244.503958479119461
62.734849927808341 -74.814164577992756 -241.737477598001135
15.171825819042779 -74.569963665100801 -241.493384771857961
7.164761052700446 -77.860125518541992 -244.839868284745251
-4.749741120974686 -75.517851455491154 -243.745539204302560
-19.383583428052823 -76.635380694050596 -246.092561417849225
0.071619853788522 -77.494714114971359 -245.239463575174938
5.664623955007498 -80.307313624052540 -248.084700467622270
59.235514816326415 -77.313829387813598 -245.141552172135249
-53.583212245550719 -82.177221958548657 -247.437600583139641
21.338154720090706 -76.495546206723546 -250.816813191992338
-57.736070473455804 -79.677394728609968 -244.655959533944895
-8.110494018507785 -78.340195416040245 -251.089530210339291
-64.414774388588896 -76.202371126577816 -253.403412334694764
-84.357273479813770 -78.570989356212650 -255.996223802406973
-80.865054875590033 -80.909203376083568 -254.823474221479557
-8.152852266163267 -78.046069369243313 -258.040310541087251
-122.194248262336117 -81.173557829082355 -261.560121325299519
-12.375898940904136 -79.508690073097029 -256.098652773302035
-115.286659336238813 -80.988650803314243 -258.256314634964212
-114.842352311531641 -79.881341312635485 -261.285321191169487
-101.867452519294417 -80.572873472579374 -259.187640335584263
-142.240442046716709 -81.044561598236029 -264.284337452226339
-143.407321408493090 -81.885087628791155 -269.632784736530255
-167.010999583564882 -82.674436594508350 -265.823346144155664
20.978787248483506 -83.360579811346938 -283.337331946273650
-56.583462353893395 -80.084104997173526 -288.373348162375976
-65.744275718854624 -81.009241450160232 -286.569346927888887
-40.602876803310828 -83.184405535714490 -286.693282553010192
-26.544553173127561 -82.324916897919081 -289.429178495771509
-94.811043696580654 -84.881009465740902 -291.685329145450339
-29.397903498824988 -79.496715951926902 -288.874705844939626
-2.634945081136948 -80.897452018548393 -289.350719626972534
-165.906950309293848 -84.549454007319696 -291.473268100817222
-14.352455645527527 -83.146026827742091 -288.831868381776417
7.839088453739024 -81.943647485990738 -291.088224122843656
15.702635153529867 -84.592385039898232 -286.573543607955571
-55.452403160831970 -84.357144300916133 -290.292101054821160
-31.786412209626782 -82.298224909452188 -294.427468910561174
15.570246700713074 -79.140183328651176 -296.485786306280204
-69.527799953105387 -81.407591645497746 -295.774362238387141
-38.876251142258610 -79.356512005474627 -292.285031434337043
-16.480340513330873 -79.464200145005236 -293.223056299863117
16.513669305034199 -83.018611712558723 -294.131319523911884
-10.131852371804092 -83.253911171920180 -297.198062657438641
5.314810784450057 -80.105996523368688 -297.095834374306037
15.714216517394007 -82.742708206212924 -293.719605291078039
-133.506526839554596 -83.233581964167414 -296.758579697900814
-143.528888064340492 -87.083949364096739 -301.231420683038607
-149.701603390704520 -86.368616635944036 -315.360308074056263
46.238767586856781 -58.363475851590586 -18.040870252583669
33.363032261359997 -58.920424621656643 -16.032920188336465
42.498121442421983 -59.267198068123911 -19.658136834884086
25.104347281279288 -56.644989560317136 -23.091648075107866
48.072749610368277 -57.543624773871947 -26.801818394495296
28.662804658447186 -58.293814981459143 -28.248725882780416
26.898300574481979 -60.655327204976849 -31.592907380762568
27.882514415732231 -61.993261745717383 -42.308134585506238
42.699606196681145 -62.329667667569957 -34.851501819024080
29.443789978384494 -64.425089731939664 -40.167928548020953
46.100623619140272 -59.470848720096647 -41.978225814268455
34.922751230455248 -61.628508599422524 -43.510408044808258
41.877774439676891 -62.032739982880138 -40.018814231047585
33.976358137504533 -60.319306976887667 -44.141150315616933
46.633817177799195 -60.959174010659474 -45.382463374479734
36.756897855581414 -60.542380950481466 -43.176305521014783
-38.011975780139394 -61.577661433453692 -52.002594619828500
-27.229785868520530 -58.371516572388508 -54.712141865828158
-86.476554893824684 -63.254592779075047 -58.145968982618584
-86.170435535466481 -66.397618420356906 -68.703179524130462
80.800603872246157 -64.513830257509412 -70.762917414275719
87.107478348887511 -62.147647987435683 -76.809736108070965
-16.894944235980709 -62.733458596031518 -77.358928251048027
-85.414091586739602 -66.070477746070068 -74.909724728209710
-22.415851612697097 -64.331227890765277 -80.393658248455296
-46.919727811617157 -67.157935911806874 -88.274594747765533
68.539426669718864 -60.097706464971459 -90.620697392769799
55.349778255016730 -63.579016967344025 -97.294447205123518
102.126740386676062 -61.648877033775257 -95.840258989168504
72.121439713562950 -65.933460569653590 -100.539503281648251
-65.502927526375558 -68.324934668977050 -94.179946788816764
-59.590661100129779 -65.489427366796079 -101.289597559046769
47.468381734354409 -65.468736423322667 -101.276398471485194
80.001758678850308 -63.087175954558539 -104.064721712456986
57.234201872001798 -72.296775624795970 -108.404135136853313
103.901314663847856 -63.340625951335987 -100.881650174596629
-92.581710730391833 -70.285211541525882 -110.140325688235535
42.416506989900974 -66.353674722373825 -114.460332644350416
109.619111375252530 -65.295395020457420 -112.870055115325528
51.043906510348314 -65.819612431091599 -115.115872983242113
104.058187824474260 -65.596565092833416 -113.821074323597401
-82.914667164370101 -69.119109843522082 -118.341761421445312
38.444432185357783 -69.392312166384883 -115.395343627460733
109.101573673918878 -63.956264330145792 -121.041738606136448
107.165298907322224 -62.463164811891964 -120.138541119146709
108.043611555596428 -65.298133821292993 -119.233877397338915
113.012047797027719 -63.814876238142581 -118.828330028238071
42.506191608614898 -67.709676198893447 -113.832392693842863
34.505039294784297 -64.372342660014255 -121.197769660822445
43.444918983929554 -65.935355781465191 -117.935638993780557
109.289489530913158 -66.683465906315377 -125.809978071692541
42.548929636810229 -65.409428951473956 -127.094822185998368
111.450877574524981 -65.284175382375309 -136.331502142109116
113.320834555302923 -64.742725167375724 -135.267247767656897
36.007355682365180 -64.794290619208127 -124.482500156760253
-75.538799629752830 -69.536509206243480 -128.397643876384507
116.189999286907650 -63.715510212794449 -138.557436435745387
-52.098748920480695 -70.189091652564770 -140.529803933538716
37.880904015586232 -68.708118533167735 -138.339083772204219
-70.955121369782219 -70.679950644292134 -138.342556665540570
29.336615003452650 -70.008733774833260 -135.120698426452037
-77.322265936129767 -71.550062985997585 -145.639983283135962
-42.994138236026735 -73.123107848532428 -144.795804466215714
-71.679274064251956 -71.261244199142808 -141.042266175725985
112.460756047057572 -65.595989501975566 -141.206004269657257
119.392477772420293 -64.833369288048004 -145.857920483986618
120.371630557941373 -69.961551347819494 -150.278612723727775
-75.110990637479119 -70.130120555513912 -146.587714769003355
10.078316569570529 -65.983652100505921 -154.499542732815598
-49.833664740774374 -71.543584927598076 -152.328640351657754
-48.649492332138891 -72.253867484858873 -158.207093566331650
108.989103875392175 -68.671616697795500 -165.640043400555356
-39.225379962759291 -72.455820338504154 -152.176964596424909
16.053235044406119 -68.072131729348513 -161.273204122244323
24.475860995220778 -71.534918144485673 -160.956074433120222
116.757541583587042 -67.740691527784719 -168.722150231812151
31.838202608543277 -69.855246184025674 -169.276225475121720
1.210853038908104 -72.194913740234185 -166.692131114391714
33.940729342665556 -70.754281815819240 -164.269154273250393
-65.705374445495792 -70.296297107875375 -160.656297294366567
-63.684914029566507 -71.617152719387917 -162.010608905876893
-66.842439395318252 -71.189858635766711 -168.560608535996778
116.713890496756150 -64.841521165804650 -165.733563888398379
-42.490239295918549 -71.949122648859571 -165.961726212416124
19.806802116495781 -70.798256811195898 -168.910070135461609
-61.937627190835698 -71.683058845625808 -172.539135006930991
-61.084617253834139 -71.089954325486261 -174.349652149058159
-39.193895487589117 -72.347420943898626 -163.201525992864873
-31.470431158387527 -74.044736016257218 -171.493506214682952
117.037791723808496 -70.923796175621206 -175.149492853778582
-35.171718720140547 -68.373909292394302 -183.098220637247692
15.763046710695134 -72.274662046472002 -176.413485681610837
112.696503092373277 -72.549839403065661 -188.044516180624015
-145.566211640619343 -76.623877951460699 -178.090546146590640
-143.888284296635078 -74.486238793641903 -175.755191490173559
-146.701542939768842 -73.501827213949483 -182.208708494642281
-140.426750420409491 -76.640368908587675 -184.832025124026984
-29.945587532891459 -71.877360213785309 -188.577920819655930
-21.162114515005591 -73.090784076652525 -188.753887377383421
25.088709700067163 -68.900906951799357 -194.695005448554525
-139.498704170393268 -74.753299753342887 -188.944500482330767
-145.324137355020042 -76.116225079015507 -190.645279014218659
-19.422597550034702 -70.504581079884076 -189.697573185360369
13.072700667905066 -72.328040565082361 -185.810248135266960
-147.435826515286067 -76.209177061942071 -196.341958996842607
-29.626095683540008 -74.009036000242148 -190.884108724343292
102.034706176822795 -70.550560854534709 -192.212850404268266
108.150454367034641 -69.528712420768642 -193.795227025909071
25.968507509974764 -68.273581925143901 -197.112221768344881
-11.565942457739528 -73.189807795363663 -191.574059650876649
-25.789920053848121 -75.519882321028192 -196.199547650677886
-153.417476643219914 -77.740312717775353 -201.090388603864341
-130.695205163528215 -76.972091255393096 -198.991153316757959
-123.324996850776600 -73.178322262432999 -197.503351672642651
-122.828475724428699 -74.341779850876534 -200.009819336043734
-20.680711335704999 -69.693320930506886 -199.479810068845239
14.628747980797216 -74.636957206933630 -195.578116653055361
94.573865550429574 -75.090650234234445 -204.734419773279939
-148.219573353533661 -72.742734030161586 -197.790949047675127
-143.219234710817744 -74.036709714192952 -201.037822674423893
-149.015723491549437 -76.066863914947788 -202.263541770636067
-153.072744070739191 -74.312532826899115 -199.683001437096550
-22.901160190731112 -73.527829071376956 -202.668394568283418
-8.853879413238751 -71.955351458087861 -198.625298592524501
-144.573817167116403 -72.901629118485801 -204.530759672783489
-16.610269532564345 -73.216373776284826 -204.294846090705761
-159.537640076630197 -76.155647862063574 -202.705527995426507
-132.459504064424181 -75.988575149898281 -201.622418426400856
17.588327704808883 -75.454533321745643 -210.198568201797883
-159.494833536791418 -73.957199111197554 -206.338006146971964
-144.230557446638954 -78.335279829962388 -208.485909148164922
10.048983713951428 -71.686615341277317 -206.239376850473690
-152.296002570455926 -74.343684894157278 -204.905452121123488
-22.732232826359663 -73.564926692627409 -204.911172939237304
99.250930023035551 -72.023990278616736 -203.204321734382830
-156.618024731859634 -78.526734781939297 -214.420090886081198
-162.576592836072109 -80.354874835065345 -209.428788668738832
-75.080959036318887 -73.680505952957574 -211.106962139625836
91.071085973613563 -71.617537783358827 -212.954783052104688
-2.094818993148491 -73.734350322034956 -221.669304790593344
-152.741349704440665 -76.415807491842315 -215.022340746069119
-85.806752716146619 -76.305408159959043 -216.025468118504392
-7.459522283926804 -77.025798582929283 -214.270847126272599
17.309098520065703 -74.404811943757252 -223.253959652838262
-143.145518782598515 -78.538133084427585 -222.125557964152705
-1.775805465480299 -78.876715839219614 -223.795284840719006
-17.609398521788059 -76.172647400551057 -221.242050203188626
-12.963903479374672 -72.219845251071078 -223.796557576956957
91.977166565783790 -73.019355321801953 -223.007407226746665
-19.014406326870976 -73.878766028089956 -219.996144627793399
-29.995448966646755 -74.821531964111372 -220.177039910648091
-105.957103876395720 -73.291867354900361 -227.497110725276855
-14.455979199279746 -73.930712371936551 -226.458485663454695
94.105943319825926 -71.011648980283681 -223.073975052942188
79.235257373151370 -74.159820536925224 -224.247943008079289
8.961783770832831 -75.917680802757516 -222.548232152721113
-9.530932330020846 -73.485059958328463 -228.722942819008210
80.352287336627711 -74.036070321757379 -225.842726100454200
-120.595753214465418 -80.887589008049801 -227.257912431630956
-18.362610541410291 -73.725036462392950 -226.451829080998436
-95.442317612633360 -76.498644970565309 -226.194611126853488
-100.792414147124759 -77.362157285975655 -226.648004654175395
-129.842167015029531 -80.120289242676776 -230.787107292676723
83.016586096200797 -73.633957437830418 -227.525283137589298
-121.481756799466083 -78.492820759080359 -229.566447737423374
6.388231057828317 -74.903702674700057 -232.120598217830349
82.892285861365593 -72.247654712983120 -228.444623618871248
-14.038497338358438 -77.051130641687763 -233.617558215669817
-11.845441276241917 -76.483450797744666 -230.551226945772328
-0.089344882810008 -80.582680127349164 -232.805326409154361
12.008924134724881 -77.084282482390975 -230.647245103381977
90.592834729739096 -74.821223379919900 -230.360270471001229
11.586103024495426 -74.149825463068751 -234.884028426637940
7.217075370919865 -75.242925183694297 -232.801696837080215
-7.340936755032438 -76.506598325752208 -234.429013721113961
-5.063140617924338 -76.661908917405682 -233.313545133660284
20.366599934228717 -74.327082436876680 -236.271826226131566
-10.862168639554284 -73.796856672513499 -236.612101223849209
72.640379825767795 -75.512309563097688 -243.556598492204415
-7.545743986012905 -75.081562259580153 -242.149633704097397
20.665478241973176 -76.738760933260906 -239.111179666418934
-161.280820869407847 -78.432590597221605 -242.498097115299828
-3.996690032396821 -74.270392596631567 -240.491886378204072
-6.474699193396057 -77.391103213061115 -243.370294396718464
-166.110315608690740 -81.134597201450447 -252.635149268130590
-9.306097958112588 -75.451879590481099 -247.727603341562201
17.072044760126595 -74.030722493355100 -249.101026676421725
-146.073439967301738 -82.127929249391258 -253.717607559922811
-71.770258404556472 -78.069321884639095 -253.122767110128649
-60.068621191649022 -79.013958981674904 -249.732722823787327
53.818101679855445 -73.779419829842425 -250.667907116689122
-73.144882686122017 -78.019231037069801 -249.514988030407267
18.405122148689074 -77.454010291847410 -252.880490350580203
-71.574395197939708 -79.092933187111853 -253.942409119566349
-13.857426627557681 -75.587542903181074 -249.221797150680999
-143.943359422306315 -82.910590578794768 -254.595405976961956
48.035001800240330 -73.055565232292011 -253.883519209022893
-78.535356437027701 -81.307524377876646 -258.151047327560718
-101.355460055582199 -76.769440358964331 -257.634979045294642
-97.850098346382566 -81.043222348537469 -256.899056867743923
-118.458269740228999 -77.921244152895881 -255.417740491419181
-104.451344116576763 -77.450453846159718 -259.685837192862607
-104.417049361367333 -79.588154764449868 -260.508543870445578
22.935933084589934 -74.977980346662449 -262.152201567102111
-128.047232250930307 -78.598956138030616 -267.397982933589446
-12.583758945384067 -80.216799467331995 -278.595225711210048
-146.556331339708777 -80.238937630970966 -285.433390815987877
-167.541318856325063 -84.795022530744234 -287.170789476054040
-123.810378651169074 -83.160846677866630 -286.179613926345723
-113.167868625140954 -79.231972278512913 -289.294775388888581
-74.585347332322442 -77.174903621979070 -287.371694604946583
-56.459509631269889 -81.625310190460581 -289.347095134087169
-40.897207077608115 -79.601169639584981 -288.986968096851228
-14.304133199403223 -83.306486219696083 -292.638567388456806
-12.915007035037091 -78.164959701319248 -294.977711029679767
-37.400542292377636 -82.675363666317679 -292.911463503469292
-33.438973860237049 -80.467145088231902 -291.696212220274560
-18.121121417167181 -77.403087222732182 -292.018664324779650
-70.935369333274224 -80.767762966280486 -295.655710194115386
-54.654901901966163 -80.591196346516085 -293.840951749711621
-16.829370986159084 -77.160422202514766 -294.794862910206859
-12.806567780429763 -81.821149187429526 -292.682812764041330
-2.863692487116793 -79.498306606755833 -295.604745514742092
3.265022130856270 -76.948800352168703 -295.664500202105785
-91.288015298149631 -82.242317442963667 -295.352127924988054
-138.888328918217752 -84.902162302255675 -296.866095212011544
-115.429623556276582 -83.556872176655943 -294.763375604069154
-152.748416664383683 -82.430582658551572 -296.877833298196663
-151.164846757843009 -84.552672435748704 -301.332380551216943
-145.985382855438729 -82.264406052948488 -302.066203464228863
47.516985630280729 -56.138994190595120 -25.551657147394021
23.033992116079517 -61.671025576514602 -27.224258399700396
52.510881036658716 -55.805084664663930 -29.443060855209023
50.089573165448869 -60.120604051640434 -39.145267395120541
90.285706918786516 -60.835227516502108 -74.551326974598410
98.259442521047745 -62.726784594625634 -78.202817936148307
103.823491353407363 -60.898990284789484 -82.595854760428594
100.888841233458677 -62.282889998354939 -87.840538250331051
59.254845389580957 -64.038966899599600 -93.402966904090306
48.192467904328403 -68.492960201457038 -94.782838512847334
65.811761207896993 -61.995807467453524 -94.980067393977947
-62.745582702653749 -63.552746549689722 -96.510148440938792
73.338111036672473 -62.133953261297840 -92.057923081968639
103.157612794883988 -56.830559037971348 -103.771496424438041
76.988934550115559 -64.318543832228471 -105.251093416665569
96.697911285554781 -62.247284537994140 -106.988017620398622
-82.097619117115684 -68.026548482067383 -106.418131773682447
47.581330493634887 -63.009087923561900 -102.195086415424115
-84.009512358910129 -68.399048895443826 -105.192962758913438
53.559096014941083 -66.125702436704756 -114.267826054851966
40.297433579793278 -69.545396716417685 -107.179513560148820
104.536292361488520 -62.249570232663750 -107.767780897410503
39.579220608707239 -64.501908100683792 -109.909170987713139
44.910157188830489 -66.586111496680175 -122.423357182575373
45.072008462408760 -64.928342648867144 -117.033365249961477
112.381478836919754 -62.397141775255015 -116.952264401222848
-78.950372352770913 -72.264145337817155 -124.267067203461821
114.522181173006359 -67.569834646143576 -128.233157832385615
42.172842687701738 -62.684308496506695 -128.933444806916498
42.783058365254242 -65.003395798795040 -124.231242968984887
37.255395135250119 -66.269732412059270 -124.755761472017511
-53.463370174213686 -72.473572043458063 -132.468247224970270
32.382409309077545 -65.305736288446724 -127.396433226928082
-75.324403672709124 -67.906398241635259 -140.963677285846728
-53.131492383520573 -71.851247285972875 -135.576758464911848
-77.427484762039356 -67.356347655168790 -138.052096226290274
37.671359463331363 -64.794395147688221 -134.779747188502000
-57.474208041502791 -69.900597956413634 -136.709609772281738
37.235506865736753 -66.096377820868554 -137.323586607444753
-69.951591890495280 -67.782418964277355 -142.832259993071204
-57.249993566474451 -67.065643159016943 -144.098971560468300
27.724528529081859 -68.408283862252617 -146.390829198651062
112.953092654518528 -68.431738790717532 -147.399712448154418
117.225674909938064 -61.578476312865966 -141.953660111772820
32.740305025075934 -67.521816454428873 -145.363593680843991
-46.128434649003680 -70.380478720427391 -143.384102270986148
108.667197434598435 -64.644207794480749 -156.808839711841586
-73.558321309026169 -69.732777934151883 -146.135570399508708
-56.617928491001905 -69.495376292874383 -145.493735202843283
33.463813284115737 -64.135849544106108 -151.586041110537593
-75.546327485672592 -71.407439695913155 -149.106192680776502
-68.705581766807967 -70.228322530476845 -153.342341880162280
116.895801572853571 -69.794600219795285 -153.825601877340745
-62.782140089242532 -69.905321837424452 -158.273730891066748
-37.503880292818629 -67.201193025587656 -155.749978910758159
27.609151991431915 -66.420818184716495 -149.925766077391330
-71.235242734876635 -70.444358621086735 -149.088494313946114
14.289945602333471 -68.043947582189674 -153.528019926386008
33.677278387859012 -68.025823120416064 -160.842061743855822
32.833080956073616 -65.906348693863791 -154.272361646570857
17.181361351879673 -72.901292829512641 -157.579230272027189
-47.999798436319622 -71.477597298548218 -156.387513616701199
26.654794624423424 -69.732122762418584 -156.891008199074605
-44.326233736808121 -68.898559252289402 -153.525510817948003
6.578845197576015 -69.149045364198813 -157.713596629951638
22.319155196848314 -67.530003743729139 -153.829887893201203
-67.089840435861703 -70.136014165670517 -160.549012385930666
-44.874853033611672 -67.305731218802023 -157.589891657286955
-66.353170901889214 -69.987563635332648 -156.909126378793218
19.895482334239254 -67.837737169005507 -162.333933023880718
26.057242802378546 -67.407647081815696 -153.998323628503755
4.255702341316897 -69.762971600415383 -168.156080066191095
23.142676900285643 -68.346057904058043 -157.405080988021297
32.435337525394580 -69.028281709476360 -171.043079775646589
-45.559107404470538 -71.992502463142557 -166.375185111210527
-34.943905685379271 -76.429900459078510 -166.113990209559063
-39.093463594152752 -71.140926774832622 -164.084000956585271
29.583106059013389 -69.050512258240857 -162.522254806659191
-42.638147716660917 -69.298129129240778 -170.173375386192106
-38.137318725843485 -69.356821033769805 -169.790513861641045
22.997038293025810 -68.128563583529527 -169.644536973274001
-38.256062276349454 -71.941533634002113 -178.436315582453972
29.466614043082508 -66.215096638691350 -174.180287931290422
113.262830335371461 -64.347689517750155 -169.656779717140012
-31.921512208066154 -70.955358167884071 -175.351587460579879
104.276867609184393 -65.903218628431190 -177.845608627060898
-33.029365844289323 -71.080936577688718 -180.746805796516782
-35.829617474480166 -74.638522548002300 -184.470944593565093
22.762812620868353 -72.909809515625710 -180.565994442201145
107.316739089379226 -69.059975193334466 -186.413197877206812
-30.026692220257040 -70.276863968567866 -186.327596842535229
-33.651078221680223 -70.936968912447668 -180.839564099288140
-21.658860085048616 -75.234370769021197 -189.945585496825828
-147.550826164481379 -75.424203055459870 -191.196885008338910
14.419033429351806 -70.583687637035894 -187.053956697193627
106.359764100878124 -68.032191981521308 -195.614494029908457
-157.525496217421392 -74.995230028500146 -195.326930019429426
-21.606322880022788 -69.158395079491640 -193.105658948234407
-114.195505425047216 -76.321062806303843 -199.809148537754709
-129.349681446260206 -76.304583753405311 -197.940020187378650
-106.489150805219722 -75.235148029498660 -202.402208255299939
-112.289401166381580 -74.107863879303693 -202.878301837176537
-10.919581059373735 -73.121452094065461 -199.735043911498792
21.464649681809064 -70.443752429673836 -199.898474271039248
-14.540513587241472 -69.254164684004508 -205.538600348682962
-125.372553218318501 -75.595110356742978 -208.031240856622418
-19.582427881518285 -69.447082999017056 -206.620153907890852
-128.015039220955600 -74.331318153244069 -205.469376833221673
-14.044253413208509 -72.796210208460707 -203.650204257917295
-144.730012793778400 -74.661243008689524 -205.225689798667815
93.040674713075632 -67.070833965983567 -211.001892839442775
-163.244095238016456 -71.460906743851695 -204.011096138381845
-1.459567485157556 -75.277788124866575 -221.194400044256099
12.804304410700993 -73.890288230029356 -213.401739934706910
11.641880838976411 -75.380740035886120 -220.433166522760757
83.911625007605451 -71.607875528950430 -220.871349190560579
9.840112107656100 -74.020223678992664 -216.558092367750817
13.893630892429959 -72.204908254443424 -218.422300737058805
-14.469035493996047 -76.976000873557751 -219.028986571229808
-89.139296180961068 -75.733537182686021 -217.191401734902882
-96.686756266591345 -75.790695244396829 -219.279999059391031
1.256179762878427 -72.648108243506826 -222.700001089791328
-165.131370874371555 -79.426513055414958 -223.963697348991161
16.365780862936347 -71.379903640111394 -223.382136626865616
-143.350636753223029 -76.423095475009575 -223.613573083345045
14.213421632846813 -74.113372217320006 -228.508294933591799
-133.339208035701887 -78.436060231484973 -227.148832192555744
-114.644295300162952 -77.806208838179685 -229.649152457442398
18.018928531279265 -72.663654987105346 -224.564479624635226
79.655426949553828 -72.087098063814992 -225.481947154581860
8.002556855063837 -73.818016176786529 -227.009672685295584
-108.659697264485914 -76.296271760497930 -233.531146012366605
73.604435701085507 -73.572116757362011 -231.790429286813264
85.245809087952551 -73.593751633113328 -233.551316960240513
-123.997997688201295 -77.428988357471468 -237.539640128657339
-115.793626837706910 -77.132017280678582 -232.965902658793283
-8.871109161683608 -71.414947374102795 -231.442917568254899
73.205579420263234 -73.648625650857099 -235.386950303675064
65.857061963359968 -73.837562297743261 -237.139549320122711
74.488978911292236 -72.291085958824411 -233.594558535761109
-134.114276841212416 -74.542770143697055 -236.697309733872856
71.395839928497381 -74.147933046449197 -236.310161489980516
67.301411705225689 -71.235585650550746 -239.483551161161216
-164.916868426736727 -76.836180183709473 -232.763727571676895
2.737599274660994 -81.519508216790854 -243.946382563585189
20.551790210623068 -75.957797241680609 -243.016859185815946
-4.926095134338066 -72.860009563430253 -244.283572313607465
16.809804157373144 -69.983751015258719 -243.244806776873389
67.410587989102012 -74.530859674425898 -242.067736474530591
10.012330025204808 -73.481979808083750 -247.049866089876929
-9.916794334120183 -69.650855209105657 -244.613926955359688
0.563732213997071 -71.934895904551908 -241.168311862593811
66.095149142325866 -74.568090804382734 -246.375017643641826
4.210855273996572 -75.838507055763415 -246.019721706397405
-5.837481759390159 -76.329694064593696 -246.494639285725469
15.468520036021788 -77.440764268383404 -246.304355152319232
-166.261566860026562 -80.604972270236360 -243.104902181422403
57.129869929377179 -74.804780763786297 -251.139016145552176
50.895331157674029 -69.434506323170496 -255.097114598343694
59.340510994374135 -74.825023288462106 -246.694043883894381
-11.100661905362641 -74.373757171563781 -251.395623687536897
58.289663298328897 -74.162941488486709 -249.622123123243142
-72.805967514453172 -77.076178983811303 -252.745757901235606
51.869929745250140 -75.097709640264029 -252.489303332277501
-87.674183606045787 -77.874755868917646 -255.221311908759162
-122.134435467141103 -80.203292621006312 -259.005109355553429
-131.322570513629358 -79.016180286611672 -255.288121151869859
47.213335976261398 -76.573280175222692 -255.567656657621683
-131.431308398521111 -81.553973256470798 -255.346244125260284
-108.182643143868077 -76.944910897382471 -257.754299837211136
-115.088742675651659 -76.802814951651428 -260.089723868248825
-82.687432391494653 -78.501355615451288 -257.393483914969238
-110.011474890220413 -77.335858251246165 -261.773983371724512
-123.001052528970732 -82.732248320715300 -264.577427675152819
-145.597771276216378 -77.942416993173524 -269.983767995384596
-14.381014746086009 -76.041097817336919 -269.007320290495272
-170.296147310472378 -82.687545515580013 -266.312265741110650
-13.711862379443135 -77.372641846307161 -277.094447298773218
-158.108521239205658 -77.477418582739631 -269.603000572044607
-151.777116132142964 -81.170469858971686 -275.537320770499377
-169.047447298660074 -81.560708527491855 -279.498906041214298
-13.396567633175520 -78.361665267950386 -282.598328934782842
-129.314265736409567 -83.421954812029924 -285.273844991135036
-157.243048010646191 -81.694234982914878 -288.285408226426000
-143.147063240226942 -80.333402887044173 -283.206131618588131
-133.981469267637067 -83.802312541275825 -282.549837624162251
-7.551510465143455 -72.904432145388995 -288.179242316952639
-124.979982627063379 -84.450169903954745 -285.489637315964956
-140.288114509611177 -79.535102836601808 -287.938575510938733
-114.882741044009876 -83.815054050882992 -287.913392753453877
-78.283509194596363 -78.463259255351417 -290.877432375278033
-59.936344578945771 -80.482354888350045 -289.864748007808828
-6.248268698031344 -79.658678834532381 -291.068998085819487
-53.191838612752591 -78.424257833098707 -288.712569169566734
-56.528333696476352 -77.596329309303528 -291.669792177047270
-69.720963659067849 -78.565201486318131 -293.207799699038901
-87.378143282954412 -80.000831055489400 -296.452988193603005
-94.355669065969664 -78.503922948550809 -291.707487574170443
-159.626959697896837 -81.469926760903093 -293.535569418200396
-160.360698033240851 -83.438688243018461 -295.639052551643204
-123.864053132684219 -84.460522662954233 -295.981883752056774
-143.961744646721598 -82.437205717138710 -297.096810360360507
-152.386162121708907 -85.302288789953010 -305.598404765482314
-149.873546708180641 -85.925976955558468 -314.002497675579718
50.657804445908432 -55.956290372317518 -19.231225570588972
19.447153916739950 -60.830717113367548 -33.841560026845052
44.485035861676060 -55.649643623197200 -39.288068887593134
-13.023539927300169 -65.635155583378221 -69.948951326692509
84.131183959619833 -58.427245228040540 -69.903707487170166
90.945733923239871 -56.206545359881140 -70.957033935001860
80.349700274764146 -63.333950804768087 -69.862862560023942
75.108510742478330 -61.889093752458017 -73.698216800661513
93.554886461513632 -62.978348167223750 -79.471195744953292
-93.825891050029568 -61.616911461608716 -73.585302157841312
70.131630024183934 -61.833667191842856 -79.855453129030764
-34.216884251785316 -64.830966595149221 -80.891129148154135
101.125122184879331 -61.117115635376486 -90.621630435641293
63.589980407681722 -59.821715269785734 -94.991238281450890
109.359648097514793 -65.874986512223842 -98.125741631594209
103.728431746321604 -65.393470103111966 -102.897922596054826
74.391079510033151 -62.657694790926620 -105.134418060005189
-78.103775791545516 -65.340518237354075 -104.760306344592209
56.399215848175942 -63.395626819796995 -108.555010661286914
109.065943202202604 -59.757196879286361 -110.987158436812265
49.059326424393220 -64.839363262192549 -116.583038685674040
81.898709355634281 -61.821306285909991 -110.030235873376483
43.633885193815566 -63.585319123768734 -111.672646982544450
106.266083724120207 -61.779753631484773 -108.014803709605786
49.541421883997700 -63.260017011603729 -112.077274437165244
109.328229392410776 -67.194167432029460 -114.329592145497955
112.160908194953862 -65.367397006533324 -115.908353708383927
-77.510166906545294 -65.362079596126677 -117.435066901939408
-81.083256139350397 -66.005394470354233 -122.570892400187773
45.882300737157841 -67.646974940913537 -124.020741403932050
115.694513656109621 -64.644624656274445 -125.981301822519185
115.509886664381170 -62.955917321631809 -128.396489281577260
-85.427151677894173 -67.454913807810158 -130.064319687735377
107.834702301193033 -65.359699637386399 -130.358540456645215
-57.451629517510256 -72.125665263493858 -134.750990849438580
-84.330883690742070 -68.632028770288315 -130.302525656451508
-70.709948687867893 -68.143794140664014 -130.284686283043726
-57.461465179354178 -63.918456476012345 -130.303748718270896
33.405806330554810 -65.330633217119143 -134.245852103714128
44.090493889287167 -64.181957098066121 -138.948440520610461
-71.386811356409368 -68.302997107923730 -139.752094792464106
30.469455374742559 -63.896962135620704 -135.101069569603084
113.361033313778520 -64.582973877613284 -147.628302701462360
-38.498131327957744 -68.694773870260718 -151.649702983075343
32.063005634405293 -67.787042201823610 -152.772694065993477
115.500704577786436 -63.273048166132547 -152.535577682196674
37.268707986648117 -66.962637228513842 -146.747487450331874
112.043105959559995 -63.265093154345841 -145.604824394061126
-50.652764780355987 -69.245593283434886 -152.634655219088501
-69.665947766350328 -67.087796320643832 -154.250197251139014
-53.448688454916130 -69.766557433053407 -155.744679404380321
-40.432300233727972 -73.195857914476221 -168.025418338259044
6.353231260194546 -69.332580427486192 -159.505896848859408
111.450694802034761 -65.542876326991035 -158.154445651090981
110.537656844912021 -65.661605728308004 -164.263871749280298
11.637718000960737 -67.437762839477543 -161.261673480853347
4.889583497962025 -68.512209541083195 -165.009047765984860
20.831896923220384 -66.927484171278394 -159.162337952869905
27.239621178871367 -66.229190063937054 -159.665435964772030
110.251514137184728 -65.777867487281796 -170.268956846788598
111.157264685218053 -69.344043594137446 -172.111828347332050
25.360226368676599 -66.296008215693163 -178.422434226273509
26.600599936928603 -70.116758718838810 -167.557360581547016
113.731011310089542 -63.960599668069769 -166.774714244616092
-27.653088416629885 -69.218473381589817 -180.643649515069939
111.730302711593069 -66.516217241788937 -172.359529384002769
19.085096201318549 -69.026933730520057 -171.371358387860113
23.162738395876481 -68.331445944742029 -171.574779446850613
110.025772838476229 -66.873570752104854 -177.429261141315948
28.243063243434243 -67.663489841599969 -174.317147023292875
113.684796855494795 -66.689061696826343 -188.346450046883916
-36.807584487351363 -69.948336175483973 -181.050408394512857
26.624146236275934 -68.197100040401963 -174.995071095900528
108.898316590275471 -67.335337191500756 -188.417663168170918
24.600971256064277 -70.126541886086045 -182.319206166147950
-150.429761142062034 -72.489528086497927 -188.877054148049069
-26.877295069571908 -68.221769070015810 -192.897301139859451
25.971014561976816 -67.518333692488042 -188.868519530909310
-112.305264699780537 -74.747067110208889 -194.380459527149839
-109.492788862878513 -70.870726429494781 -194.131674844368376
25.198688566950466 -70.345976043335497 -192.299602181648510
13.058354898959722 -68.011049105567025 -188.871726375846634
-25.547695475094947 -68.615854848725689 -193.767704571145401
-28.130307799917688 -74.876299846456959 -192.283847986814180
-26.570477086512696 -71.282686789240287 -190.526235557541241
16.224091066729727 -67.450526998460290 -183.875982988370737
-149.443026558196976 -74.391572198143521 -197.369336808715076
-143.938033365813396 -73.791156769068436 -195.216237104815292
-142.933124370311504 -77.337939314892978 -200.458282440317959
-21.542523170231505 -70.175169200452260 -194.854915083565999
14.926556352035277 -68.661939058023009 -203.419295701311029
100.188197814516244 -67.496366133123416 -197.868698568403516
-112.376119212367314 -72.642278479291576 -201.033238172580496
22.686106673550327 -73.726409399449494 -201.897836958581593
-13.976506571178351 -70.161302031076517 -199.090077448173361
-16.387410660375302 -70.848593262787361 -202.205208649082493
102.244490960016023 -67.550989660238983 -204.091499607601293
9.314738736470272 -72.738460785753560 -202.806757111113598
-20.646537458399905 -69.727598768066713 -200.016558674471241
-119.928219458096166 -77.140578891311648 -205.413885449319167
-132.829589264522298 -74.703413054899841 -205.709393082256582
-112.860685463789324 -69.867430794871268 -207.847902219453687
-140.756105099607908 -77.485788091456527 -205.545676798583145
18.846504393476522 -70.181476641824887 -201.532933585664864
95.138732749637583 -70.238485804582254 -206.184308747531389
-164.669261938727857 -70.783258334926401 -203.938111610346311
101.280769242020170 -68.542028811078680 -206.685290417984390
-20.251580802299024 -75.623058683379639 -209.203199307379805
95.785212018312237 -67.601820567319564 -215.112394459921575
89.330977323718130 -71.228447983055602 -215.788524237681457
13.463970961682080 -72.907324030162130 -209.563538604195514
20.998667681813664 -70.925092525150845 -215.804439315209237
14.040947097430390 -68.589220818645359 -211.771611664113976
-9.681585148358231 -73.297289289948822 -225.859471248698185
-93.151322747113383 -76.576927705789018 -221.221795699988320
-9.138872220324778 -74.248734067835528 -215.651203430888700
90.255888537934098 -70.378599351170706 -220.677344068796657
-92.260655561978581 -76.693622072864258 -220.294863747418788
-99.988759770962560 -72.805833231139033 -224.069178463071665
-93.213130296094235 -75.368927537787684 -222.213367201886797
89.423980463205325 -72.158490893396234 -226.227637008369499
-134.094027990168883 -76.528508971421644 -227.520403780739485
-131.174846475675679 -79.985838531520798 -228.855680941439346
-115.473097183816066 -75.544516833989107 -227.387394035360927
-111.981541388777387 -72.869128572396335 -225.970301415508629
-132.209049144840975 -74.819159040562624 -229.713510789727735
-110.376631748138436 -82.240941535523419 -229.631303095202185
-111.051055159006424 -75.644991480431145 -230.659424429382170
-5.628188519351565 -76.224353130840143 -227.942131667935286
-14.715342053065386 -75.383866102941255 -226.464763291076139
0.095293427432584 -71.427369137372082 -234.160608544704644
-9.086280975974185 -70.549213877836010 -230.703926405328673
16.502142251986768 -73.933274646614308 -237.179537616222916
-17.765287104384782 -72.044847814744728 -232.673611814162882
-165.666417362266486 -75.104780290135665 -224.521379885977012
-3.009100505062463 -73.639230158438139 -237.015176205277669
81.835638809050906 -68.747289191326090 -235.703683127948096
12.105589905244605 -75.068089582442781 -237.208724741678509
-4.821681666130133 -73.096553085374183 -238.359184347106066
-155.803236206982803 -75.275034292776468 -238.843125810621615
-141.165605525908830 -75.277316102254744 -232.835970626869340
63.629053501124069 -71.040589447694160 -240.123618075826442
-4.537082831510724 -74.672065374421763 -237.585654832825895
10.477155556534552 -75.163406854573395 -234.254828182267119
70.591254925664529 -73.865270197204168 -234.337122999410582
78.045963027791757 -72.236594586333680 -238.548854400447453
72.096068917647585 -73.603837537268390 -245.492137285028946
-0.417899273903245 -76.529008197280902 -239.062229043828523
59.059849512786762 -70.924167783889558 -242.170470362987857
-17.890930498510293 -76.986388134221343 -242.943796237931451
-14.274002992204883 -72.177579099513125 -243.980370934054150
9.283600350769809 -73.718044973301090 -243.005700584329787
65.917501390717220 -75.513172302733892 -241.826539807801936
66.440316241800019 -71.129161868979807 -244.919388377675233
50.623937580777046 -73.558746222424432 -250.107364332579380
62.233902552886235 -75.881844694069315 -246.623153595345570
-14.426294736128863 -79.484067753982174 -252.741863979592381
-82.688987297747346 -74.495540972527309 -257.129492986165758
-75.919865546757308 -74.813900980016470 -255.913457094380135
45.323906265259161 -76.332959570144922 -251.526979890475076
-148.083597420168417 -79.429544582160091 -252.766447664568119
36.942461751222467 -74.397788269774239 -260.075366149833144
-90.961790063753355 -80.498000112863608 -254.348542730823709
-155.354295914871784 -75.137589088479814 -257.063003056921332
-139.485810526059680 -72.289097189827885 -256.001969987869415
46.115677497927145 -73.825819408797457 -257.463194807965692
-124.124403164948703 -74.500148776436674 -260.520915356322348
-115.899500236066018 -78.141176536832006 -257.788574776052258
-91.511142986578392 -73.559351855496260 -260.037583165053093
-12.792237028514544 -72.003151501854944 -254.022261107379506
