-54.688690185547 -62.273925781250 -155.057815551758 8.339473724365
-33.282562255859 -66.588882446289 -177.010543823242 3.956430673599
-53.487068176270 -65.020736694336 -160.116012573242 7.720735073090
11.417716979980 -67.020729064941 -213.992370605469 1.503264188766
77.378028869629 -76.825950622559 -260.701446533203 21.925878524780
80.697547912598 -72.041908264160 -248.605606079102 13.737957954407
89.146293640137 -72.551399230957 -245.532409667969 16.724563598633
78.863029479980 -73.803459167480 -254.942596435547 17.538230895996
-44.349113464355 -63.532249450684 -147.566070556641 4.842767238617
-45.744979858398 -65.639358520508 -155.234588623047 2.271080255508
16.658042907715 -68.060180664063 -199.957412719727 1.071524143219
-41.363136291504 -67.765884399414 -151.105163574219 3.506316423416
-18.676681518555 -66.633598327637 -170.769699096680 9.940077781677
-38.718315124512 -65.208038330078 -148.312652587891 6.438542366028
-114.600639343262 -57.432907104492 -87.957214355469 14.364131927490
83.378486633301 -74.663482666016 -237.737884521484 7.520018577576
-34.511390686035 -65.476631164551 -151.201629638672 7.409387111664
-8.166343688965 -64.866134643555 -165.152694702148 10.079235076904
-105.449333190918 -57.703948974609 -89.336791992188 5.422498703003
-31.952774047852 -64.498519897461 -148.335739135742 10.991147994995
88.356101989746 -70.492164611816 -237.372589111328 10.323807716370
84.845954895020 -73.616455078125 -245.463378906250 13.992295265198
-32.029014587402 -63.414550781250 -145.812438964844 12.462063789368
-14.833175659180 -65.403617858887 -161.117172241211 14.657943725586
-112.620872497559 -52.745178222656 -83.053543090820 12.280515670776
-14.004676818848 -65.466735839844 -156.627426147461 16.375963211060
-116.504745483398 -55.846427917480 -81.306137084961 16.285036087036
-113.901191711426 -56.137138366699 -78.807403564453 14.052460670471
-105.206192016602 -57.598808288574 -86.379623413086 5.514923572540
-24.991455078125 -65.202369689941 -151.070770263672 14.833145141602
87.832618713379 -72.678314208984 -232.477508544922 6.555957317352
-24.309944152832 -66.088859558105 -148.446594238281 16.012155532837
-106.373779296875 -55.651054382324 -82.836013793945 6.326879501343
-19.385208129883 -65.456756591797 -143.091903686523 22.684276580811
-2.032524108887 -64.402946472168 -152.747161865234 10.504443168640
85.426918029785 -72.731277465820 -225.312423706055 2.181618452072
87.358879089355 -72.790054321289 -220.136169433594 1.118984699249
-6.474723815918 -64.775451660156 -141.047332763672 19.740137100220
-55.306663513184 -60.451515197754 -110.266937255859 4.304174423218
-45.046958923340 -62.327148437500 -118.402420043945 10.500998497009
3.735351562500 -65.356872558594 -146.154983520508 9.100325584412
-105.692932128906 -60.089561462402 -72.284210205078 7.159818649292
85.247734069824 -70.757179260254 -212.585998535156 3.458734273911
89.684562683105 -72.933593750000 -208.923828125000 1.043698430061
89.905693054199 -71.857406616211 -210.363830566406 1.362423300743
-60.557018280029 -64.362663269043 -92.850494384766 3.564074993134
-98.104789733887 -55.886436462402 -63.731903076172 1.950040102005
3.743576049805 -63.415214538574 -144.432266235352 11.083478927612
84.845710754395 -72.417976379395 -200.120651245117 9.211169242859
-94.974250793457 -53.836524963379 -62.770721435547 3.088253021240
-3.370643615723 -65.201118469238 -137.330154418945 19.705234527588
-81.051406860352 -61.661354064941 -68.111938476563 12.982369422913
13.375114440918 -64.622955322266 -142.573455810547 4.150298118591
34.258476257324 -68.220039367676 -166.157745361328 5.615142345428
40.712211608887 -67.784484863281 -155.906188964844 9.024323463440
-96.894119262695 -54.041893005371 -52.780944824219 3.799520730972
-73.207901000977 -61.487693786621 -71.717987060547 8.291517257690
20.469612121582 -66.944869995117 -139.799087524414 1.159009575844
29.799247741699 -67.804130554199 -141.781204223633 0.716382384300
82.741371154785 -70.133110046387 -184.317001342773 18.340330123901
85.334266662598 -71.985214233398 -185.138854980469 15.508915901184
31.302726745605 -65.976432800293 -139.506942749023 3.329731464386
44.339561462402 -68.399002075195 -151.852340698242 10.958355903625
9.492362976074 -66.409973144531 -123.447738647461 19.189373016357
2.689117431641 -63.200119018555 -115.628234863281 29.040443420410
-5.466926574707 -63.662017822266 -112.601150512695 37.247863769531
1.253990173340 -64.025848388672 -114.461715698242 30.932842254639
17.518531799316 -63.764633178711 -125.929397583008 11.245831489563
-11.004776000977 -65.144378662109 -105.723831176758 32.875881195068
36.312141418457 -67.253112792969 -137.973724365234 3.417537450790
-21.033164978027 -65.791725158691 -93.187942504883 17.929065704346
48.609367370605 -68.978050231934 -145.353576660156 12.953457832336
-81.913589477539 -56.094848632813 -46.356781005859 1.770432353020
-19.904022216797 -59.802459716797 -89.595947265625 17.595867156982
45.912605285645 -65.281524658203 -141.131652832031 10.977463722229
-93.568466186523 -57.311187744141 -34.371124267578 15.444501876831
51.384254455566 -67.790641784668 -141.942001342773 14.692806243896
-26.965087890625 -60.829734802246 -82.121963500977 8.092274665833
-21.886817932129 -63.054916381836 -86.323883056641 13.029675483704
58.410865783691 -67.883384704590 -139.721237182617 20.496032714844
-30.889961242676 -62.461380004883 -74.592468261719 2.681600093842
-61.695816040039 -58.639137268066 -51.008605957031 8.846631050110
-67.188278198242 -58.258560180664 -44.261657714844 3.317491769791
-65.196762084961 -57.923034667969 -45.318176269531 3.842009782791
-74.051544189453 -59.658302307129 -36.888732910156 6.852993011475
-70.990325927734 -57.076385498047 -41.273559570313 1.550938725471
-64.649940490723 -59.796333312988 -40.634460449219 3.630303382874
-85.416046142578 -56.772789001465 -27.966918945313 17.762338638306
-56.042083740234 -61.658920288086 -44.613983154297 2.737246990204
-64.137084960938 -59.413192749023 -43.060791015625 2.875957965851
-85.871452331543 -55.887588500977 -21.897308349609 23.611322402954
-80.663558959961 -57.860588073730 -26.996093750000 17.468252182007
-74.284118652344 -58.249725341797 -29.138000488281 13.984848976135
-71.088287353516 -56.065879821777 -32.045166015625 10.776788711548
66.589622497559 -62.489387512207 -117.647903442383 12.641482353210
-83.879974365234 -55.755218505859 -18.221405029297 26.423223495483
-71.284614562988 -59.248153686523 -20.175048828125 22.700353622437
46.591636657715 -63.464050292969 -108.340606689453 4.173895359039
-80.735260009766 -57.244033813477 -21.289215087891 22.890338897705
65.696464538574 -63.457374572754 -116.073745727539 12.037766456604
-65.355117797852 -57.842414855957 -14.702301025391 27.596103668213
-69.490158081055 -57.941574096680 -4.183959960938 38.418823242188
-66.236549377441 -58.772163391113 -13.704895019531 28.713731765747
-76.495361328125 -59.155128479004 -4.520538330078 38.644638061523
61.680351257324 -66.837455749512 -102.843200683594 5.575101375580
64.418693542480 -63.811294555664 -109.888397216797 8.583119392395
-18.631980895996 -63.421295166016 -43.720062255859 7.601346969604
-61.228443145752 -56.941810607910 -11.144470214844 31.107137680054
-60.343444824219 -57.476676940918 -14.283447265625 27.960763931274
-27.329696655273 -61.472755432129 -34.183319091797 14.211878776550
-59.241264343262 -58.142829895020 -9.433380126953 32.828445434570
-57.322540283203 -58.103080749512 -9.129760742188 33.185905456543
6.857612609863 -62.667991638184 -58.603057861328 15.702026367188
-68.095581054688 -55.435615539551 -1.777465820313 40.597896575928
-37.387794494629 -58.582542419434 -26.233520507813 20.351787567139
26.876731872559 -61.530036926270 -72.884948730469 29.928930282593
-62.738872528076 -58.220657348633 -6.271789550781 35.940059661865
-48.255119323730 -59.383064270020 -15.201141357422 28.089210510254
48.421958923340 -64.581306457520 -87.853057861328 3.567567586899
-36.920715332031 -59.336059570313 -19.742797851563 26.514310836792
65.354484558105 -66.225730895996 -100.462722778320 2.973328351974
72.906074523926 -66.408691406250 -107.159286499023 1.940859794617
-43.611839294434 -58.378341674805 -16.615814208984 27.418684005737
-52.765007019043 -58.435905456543 -8.756927490234 33.953712463379
-51.761390686035 -58.590728759766 9.942260742188 52.665130615234
-140.386016845703 -67.372497558594 -247.954376220703 5.920197010040
-95.704444885254 -69.799362182617 -268.861511230469 9.836518287659
-91.461517333984 -68.119758605957 -266.572601318359 8.955636978149
-9.046295166016 -74.964874267578 -317.328033447266 25.307008743286
5.251945495605 -74.964988708496 -326.100067138672 33.016357421875
-96.687515258789 -69.857437133789 -246.747253417969 6.391047477722
-6.151893615723 -73.157897949219 -316.436096191406 24.373039245605
5.652015686035 -71.989250183105 -320.143066406250 27.286769866943
-7.446937561035 -74.169403076172 -309.355773925781 17.259134292603
-4.505912780762 -74.339988708496 -304.606170654297 12.487814903259
-99.203765869141 -63.801681518555 -233.784744262695 9.793319702148
-134.426422119141 -64.094619750977 -205.739791870117 2.655093669891
-11.122077941895 -72.199485778809 -292.266296386719 2.455291986465
-15.753044128418 -71.602737426758 -283.586120605469 4.296124935150
21.126060485840 -76.401741027832 -311.875091552734 18.943281173706
-127.079391479492 -65.447280883789 -193.207000732422 3.495032072067
12.576148986816 -74.189201354980 -305.052978515625 11.111015319824
8.424797058105 -74.180511474609 -299.654968261719 6.665881156921
18.429954528809 -74.392433166504 -308.933898925781 15.309390068054
13.435081481934 -76.607620239258 -299.797180175781 5.884944915771
17.478996276855 -74.020637512207 -306.364837646484 12.622005462646
-117.140701293945 -61.394859313965 -201.371337890625 2.646618366241
-14.723381042480 -69.127296447754 -268.235961914063 1.206496238708
37.849601745605 -75.142623901367 -305.657958984375 25.315261840820
41.688102722168 -77.443710327148 -309.907714843750 30.992424011230
-6.579223632813 -71.981132507324 -265.949188232422 4.654015541077
47.967948913574 -77.086898803711 -297.669372558594 32.058601379395
59.798561096191 -74.734466552734 -292.938385009766 40.377239227295
-75.369445800781 -66.487998962402 -194.153442382813 16.920347213745
-10.549888610840 -70.273445129395 -241.959655761719 0.988754928112
-4.366661071777 -69.310768127441 -249.462860107422 5.093132495880
-7.782882690430 -72.341934204102 -231.534271240234 1.200434684753
61.427726745605 -75.989158630371 -288.134094238281 37.320121765137
56.482765197754 -75.602951049805 -291.342559814453 37.589454650879
-83.073898315430 -63.349105834961 -168.747116088867 16.468709945679
-61.464027404785 -64.915725708008 -186.389404296875 11.817097663879
-81.195182800293 -65.938003540039 -169.346923828125 16.344224929810
-4.995216369629 -68.722915649414 -222.723846435547 1.636941313744
68.280479431152 -76.031906127930 -277.109130859375 31.095781326294
-65.887496948242 -65.264068603516 -179.390380859375 11.227871894836
-79.541000366211 -65.643630981445 -170.466918945313 15.587553977966
-51.441497802734 -63.011283874512 -184.423629760742 11.366543769836
5.387992858887 -72.132240295410 -231.480407714844 1.506526470184
68.013816833496 -74.964614868164 -275.032379150391 28.992786407471
73.383720397949 -75.128707885742 -274.306671142578 30.718791961670
-76.325408935547 -65.800094604492 -168.517105102539 12.285361289978
-71.578628540039 -63.940589904785 -159.048507690430 7.463644504547
1.310058593750 -67.816558837891 -214.021606445313 6.034595489502
-61.161968231201 -64.181755065918 -164.737808227539 7.974604129791
-41.577880859375 -62.951087951660 -183.070526123047 10.525038719177
-9.779670715332 -69.655265808105 -205.417434692383 2.061452150345
74.038185119629 -74.109985351563 -267.498138427734 25.152976989746
-10.079910278320 -68.790618896484 -202.840515136719 1.921266913414
-41.430541992188 -65.721748352051 -178.108612060547 6.687665462494
-13.544784545898 -69.662750244141 -198.700744628906 2.718396902084
75.756538391113 -75.604721069336 -258.350341796875 18.888418197632
-43.601310729980 -69.534240722656 -170.091079711914 2.952112197876
11.305137634277 -72.637878417969 -212.783599853516 2.232729911804
78.933906555176 -76.169616699219 -260.890045166016 22.878467559814
-50.355369567871 -66.145278930664 -156.299194335938 3.527208805084
-32.770278930664 -65.545043945313 -177.210998535156 4.685989856720
73.444664001465 -73.883346557617 -254.315948486328 14.088370323181
14.747673034668 -69.212387084961 -212.042999267578 1.334798216820
82.723289489746 -75.596786499023 -259.842529296875 23.958379745483
-38.425590515137 -65.262283325195 -169.796463012695 3.140839099884
80.304039001465 -75.692588806152 -250.869506835938 15.548247337341
-53.390464782715 -65.074272155762 -154.191925048828 5.477069377899
-25.573265075684 -65.872924804688 -174.007858276367 5.004962921143
-119.017974853516 -60.350112915039 -99.943145751953 19.407627105713
-46.207115173340 -65.295082092285 -151.870437622070 3.826295375824
-118.967216491699 -60.217018127441 -95.451019287109 19.109636306763
-26.768661499023 -67.051582336426 -162.492385864258 7.363945960999
16.928916931152 -69.921173095703 -195.855407714844 1.433670878410
83.392204284668 -76.852478027344 -250.964233398438 17.717710494995
-24.085655212402 -65.480812072754 -162.897232055664 10.006758689880
11.754646301270 -67.819915771484 -186.215377807617 3.164728879929
21.483680725098 -69.238426208496 -182.792053222656 2.233322143555
-115.238082885742 -60.414810180664 -89.190841674805 15.535947799683
86.632453918457 -73.067947387695 -236.279937744141 8.507464408875
-11.429672241211 -69.616958618164 -165.504196166992 7.771871566772
84.165443420410 -76.505554199219 -241.171691894531 10.946537017822
12.018287658691 -70.066596984863 -189.881179809570 2.704041242599
-97.295440673828 -61.158294677734 -92.068527221680 2.520980596542
-106.916633605957 -59.999107360840 -87.231613159180 7.569660186768
83.811241149902 -76.669296264648 -228.851287841797 3.607183694839
-1.985420227051 -66.748741149902 -163.976119995117 6.367293357849
-5.580284118652 -65.403594970703 -163.379226684570 9.043248176575
18.849845886230 -68.061851501465 -173.446258544922 1.824956297874
-108.511184692383 -61.210090637207 -77.927429199219 9.507523536682
-106.273521423340 -58.183639526367 -79.223815917969 7.440612316132
88.825584411621 -72.122230529785 -228.103057861328 4.552413463593
-48.625175476074 -63.098297119141 -118.011154174805 7.437354564667
-21.018852233887 -67.229133605957 -147.367645263672 19.026109695435
27.922492980957 -69.325202941895 -174.320739746094 2.020760774612
-6.521835327148 -65.148902893066 -148.055282592773 15.575004577637
-48.741966247559 -64.593460083008 -114.774948120117 9.458412170410
85.973442077637 -74.056594848633 -219.203735351563 1.170027375221
-50.609794616699 -65.242500305176 -111.553665161133 9.137955665588
-99.270370483398 -58.201278686523 -69.363250732422 1.885286569595
-46.995544433594 -62.379684448242 -112.281158447266 11.081593513489
2.222991943359 -67.656219482422 -151.901840209961 6.424005508423
0.280517578125 -66.658004760742 -145.175735473633 11.776144027710
29.967475891113 -70.847122192383 -174.979522705078 2.565232276917
10.787971496582 -67.841018676758 -157.000671386719 1.465163826942
-49.936042785645 -63.924934387207 -105.605422973633 12.098499298096
88.511817932129 -73.624015808105 -215.495178222656 1.385461807251
-59.770019531250 -61.418403625488 -102.525543212891 5.087607860565
-97.129043579102 -55.511512756348 -64.500244140625 2.251888036728
6.133506774902 -66.855392456055 -145.458847045898 7.276853561401
29.595695495605 -69.413887023926 -168.443374633789 1.793821215630
-63.238201141357 -63.141151428223 -94.580276489258 2.472897768021
25.862281799316 -67.352882385254 -160.471298217773 0.950993657112
-2.716255187988 -64.978340148926 -143.832046508789 15.283450126648
87.823188781738 -72.111640930176 -202.601821899414 5.696114063263
-97.204925537109 -59.059417724609 -67.217620849609 1.213305115700
26.983589172363 -70.504196166992 -154.437561035156 1.418044090271
13.690666198730 -66.299011230469 -149.418838500977 1.037750482559
33.019386291504 -71.572174072266 -165.169067382813 2.469781398773
88.232231140137 -74.106536865234 -203.082763671875 4.973739624023
13.065101623535 -66.999618530273 -142.634918212891 3.886986970901
-80.856986999512 -58.999000549316 -72.509552001953 14.332776069641
13.943428039551 -64.977943420410 -145.753555297852 1.588044524193
41.009147644043 -68.259452819824 -154.590530395508 9.170372009277
-77.873184204102 -60.733955383301 -76.147583007813 12.687684059143
-95.394432067871 -59.581054687500 -59.750518798828 1.037584424019
-88.141174316406 -59.699554443359 -64.609680175781 8.181241989136
-81.691406250000 -60.631965637207 -67.984313964844 13.174473762512
12.216896057129 -67.174461364746 -141.960021972656 4.952956199646
82.159553527832 -72.544326782227 -190.808654785156 15.733431816101
-86.009284973145 -59.632446289063 -60.491180419922 7.626119136810
82.845466613770 -72.295639038086 -192.822875976563 14.087450981140
8.852897644043 -65.056716918945 -139.884017944336 8.952021598816
-87.383941650391 -55.114158630371 -61.814086914063 9.066976547241
87.452339172363 -71.324645996094 -194.304794311523 9.626256942749
37.536827087402 -66.091361999512 -149.614227294922 6.268812179565
-86.392852783203 -57.839111328125 -58.068908691406 6.805917739868
-91.516319274902 -59.204795837402 -53.187622070313 2.629131317139
38.540061950684 -71.215759277344 -153.423995971680 5.757809638977
26.852516174316 -67.419311523438 -140.697586059570 2.319226264954
11.659385681152 -67.135414123535 -125.025283813477 16.710353851318
28.439064025879 -69.029953002930 -137.918487548828 2.669600486755
-99.746871948242 -57.868881225586 -45.392486572266 11.358146667480
42.649238586426 -67.719657897949 -142.097900390625 7.415913105011
-103.110519409180 -59.196197509766 -45.320831298828 13.897155761719
16.230613708496 -66.705131530762 -133.979354858398 7.329611778259
83.876441955566 -71.000801086426 -180.317352294922 19.029209136963
22.894493103027 -67.521850585938 -132.699203491211 5.050116539001
10.607383728027 -67.037651062012 -125.014221191406 17.433807373047
11.055427551270 -67.610099792480 -122.693252563477 18.892229080200
20.586952209473 -68.546195983887 -127.479583740234 9.673980712891
-87.778144836426 -60.251777648926 -56.548675537109 3.928842544556
40.357383728027 -66.973854064941 -142.086471557617 5.869837284088
83.593849182129 -70.698059082031 -177.355407714844 20.142662048340
43.799705505371 -68.296653747559 -143.651672363281 8.551174163818
-98.588653564453 -59.270233154297 -43.182586669922 11.857824325562
-5.141807556152 -64.231445312500 -107.594055175781 37.509784698486
38.587577819824 -63.093872070313 -136.341415405273 6.415077209473
48.956672668457 -70.994094848633 -143.763549804688 12.232565879822
-8.996643066406 -65.270538330078 -99.465835571289 28.614181518555
30.454444885254 -68.450965881348 -133.912384033203 1.841728210449
53.015251159668 -67.590843200684 -145.687728881836 17.325767517090
-96.727714538574 -58.348472595215 -35.013122558594 16.802438735962
-20.388153076172 -61.742202758789 -89.668380737305 16.732980728149
-5.746940612793 -65.529136657715 -103.240615844727 33.410694122314
-27.123123168945 -63.376174926758 -85.553146362305 9.274418830872
-93.782539367676 -59.218894958496 -38.985168457031 12.144715309143
-82.919998168945 -58.658081054688 -39.754486083984 6.476722240448
-9.901794433594 -65.209510803223 -95.382385253906 24.966503143311
-17.210090637207 -61.369033813477 -89.597808837891 18.207220077515
-84.140953063965 -59.655036926270 -37.045837402344 9.521387100220
-83.905250549316 -60.098396301270 -39.583007812500 7.124684333801
-23.678222656250 -63.208213806152 -83.291625976563 9.835504531860
-35.833274841309 -64.194869995117 -73.948547363281 3.886294126511
-94.478874206543 -57.843544006348 -32.542938232422 17.553497314453
-84.071884155273 -59.111221313477 -34.402923583984 11.611617088318
-66.792953491211 -61.285728454590 -46.529205322266 3.463244915009
-26.808929443359 -61.326118469238 -79.854919433594 6.852647781372
-91.859825134277 -59.818717956543 -31.802825927734 17.178483963013
-74.243362426758 -57.503410339355 -40.487731933594 2.917462110519
-30.848548889160 -62.852439880371 -74.779083251953 2.782576084137
-35.750267028809 -65.766723632813 -66.314361572266 7.861023426056
-76.982734680176 -59.661796569824 -36.694488525391 7.333121299744
-34.336097717285 -62.650054931641 -67.312988281250 4.697664737701
-79.727851867676 -59.591461181641 -37.053253173828 7.827546119690
-39.135124206543 -61.514938354492 -66.675231933594 7.734364509583
-90.609237670898 -56.443321228027 -26.162231445313 21.260585784912
-86.632072448730 -56.438110351563 -28.518707275391 17.550775527954
-57.686920166016 -61.443862915039 -52.201934814453 8.895020484924
-77.336639404297 -57.744476318359 -35.082427978516 9.059430122375
-46.929641723633 -61.916702270508 -56.125518798828 10.849622726440
32.028526306152 -64.512794494629 -113.944564819336 7.037057399750
-70.302742004395 -60.047569274902 -36.959716796875 6.619494915009
-56.436836242676 -60.776794433594 -48.414154052734 5.984528064728
-79.822631835938 -59.020538330078 -28.222930908203 16.169855117798
65.253425598145 -68.175399780273 -129.997451782227 22.716257095337
-64.502357482910 -59.008941650391 -18.991333007813 23.390058517456
-80.355667114258 -58.465057373047 -9.035980224609 34.931926727295
50.173057556152 -63.575851440430 -103.772827148438 2.663193225861
-62.354476928711 -57.233741760254 -18.291809082031 23.975097656250
49.572288513184 -67.657005310059 -102.662551879883 1.099589228630
69.192832946777 -68.601905822754 -111.459518432617 7.660379409790
-48.922492980957 -59.836624145508 -21.655731201172 21.647706985474
1.066261291504 -61.880683898926 -61.684051513672 10.031547546387
29.219551086426 -65.471389770508 -82.534988403320 21.771965026855
-31.928741455078 -62.050971984863 -33.143432617188 14.233703613281
-11.357093811035 -61.645973205566 -43.364959716797 9.405478477478
-10.189102172852 -62.544471740723 -43.148498535156 10.474406242371
22.476905822754 -62.489379882813 -71.016815185547 31.360345840454
-30.564315795898 -61.959693908691 -29.305450439453 18.307332992554
-26.154380798340 -60.548309326172 -33.244079589844 15.375164031982
36.201515197754 -64.545898437500 -79.517456054688 18.290958404541
-29.879066467285 -60.866867065430 -30.754364013672 17.268466949463
-38.415985107422 -59.792167663574 -23.763183593750 22.209808349609
-52.249008178711 -57.846664428711 -11.190521240234 31.583511352539
68.056159973145 -69.339874267578 -103.689285278320 3.952003717422
74.906684875488 -66.702804565430 -105.393432617188 0.983023107052
-61.894920349121 -57.839973449707 -2.631134033203 39.568534851074
-55.687263488770 -57.162139892578 2.236358642578 44.615283966064
-42.267669677734 -57.197639465332 3.933959960938 47.939151763916
-46.989082336426 -60.569618225098 6.769317626953 49.949409484863
-46.986785888672 -54.847160339355 9.279052734375 52.664173126221
-80.447280883789 -73.761596679688 -336.110656738281 44.899265289307
-81.788269042969 -74.189826965332 -332.209625244141 41.089748382568
-81.706283569336 -73.294189453125 -328.060791015625 36.951763153076
-66.469360351563 -73.171257019043 -317.030303955078 26.115165710449
-126.563339233398 -71.476303100586 -257.767578125000 3.022521018982
-134.757904052734 -69.043960571289 -252.294815063477 2.389369010925
-112.343612670898 -69.744018554688 -266.630218505859 4.751708984375
-142.261993408203 -65.583679199219 -236.090728759766 3.145603418350
-2.128547668457 -72.808441162109 -321.434387207031 29.153520584106
-84.848121643066 -69.691596984863 -262.868164062500 7.097548961639
0.796791076660 -74.323440551758 -329.388336181641 36.702571868896
12.219184875488 -77.149856567383 -326.419860839844 32.390411376953
-139.326354980469 -66.042572021484 -212.327117919922 5.393125057220
-8.090820312500 -76.634880065918 -311.867370605469 19.993894577026
-95.766647338867 -65.038795471191 -239.499298095703 14.333359718323
17.936729431152 -78.103538513184 -324.748779296875 30.906585693359
-101.975387573242 -65.817543029785 -228.120483398438 3.529807329178
-17.387771606445 -74.113143920898 -291.462799072266 1.789822340012
-0.773696899414 -73.889015197754 -303.193725585938 10.986507415771
-8.927932739258 -72.260787963867 -289.432037353516 2.283811330795
-11.800308227539 -72.949584960938 -282.580902099609 3.257166385651
1.067863464355 -72.942794799805 -298.730072021484 6.796926021576
-16.211967468262 -75.052078247070 -279.974365234375 6.516232967377
29.925651550293 -76.164764404297 -313.472778320313 24.729854583740
37.555854797363 -75.662338256836 -312.787597656250 29.400075912476
13.161155700684 -78.387496948242 -298.795501708984 5.508589267731
19.726127624512 -75.192047119141 -303.386322021484 10.600502014160
27.915168762207 -77.303573608398 -313.716552734375 23.798540115356
34.474159240723 -80.415267944336 -314.622558593750 29.050117492676
-17.453941345215 -69.417877197266 -270.875976562500 3.964447021484
46.863380432129 -77.599868774414 -301.985656738281 32.315273284912
49.363716125488 -75.739166259766 -304.507507324219 35.322200775146
-13.846282958984 -72.267738342285 -255.225280761719 1.713729143143
-6.432891845703 -71.941215515137 -262.195007324219 4.662479877472
53.843925476074 -77.770156860352 -296.973724365234 37.680000305176
-5.523979187012 -70.761596679688 -254.386260986328 5.488607406616
55.483848571777 -78.189933776855 -296.232147216797 39.192531585693
49.593727111816 -77.244361877441 -298.790283203125 33.923053741455
-9.968070983887 -73.162467956543 -236.761169433594 2.009948968887
-71.284393310547 -65.723503112793 -195.284500122070 17.385053634644
-73.210128784180 -66.870010375977 -189.815704345703 19.672248840332
57.225593566895 -77.955322265625 -292.151489257813 39.166717529297
-85.258407592773 -64.027252197266 -174.592880249023 16.762010574341
-88.863807678223 -65.331909179688 -175.306228637695 13.453133583069
-73.241233825684 -64.932037353516 -183.385498046875 17.489570617676
-1.433868408203 -72.408294677734 -239.751800537109 0.844818532467
61.957069396973 -77.277633666992 -281.213470458984 31.826034545898
-78.653182983398 -65.897048950195 -175.489349365234 17.287431716919
-62.454647064209 -69.459259033203 -189.011840820313 10.611733436584
5.892158508301 -69.469062805176 -234.490951538086 0.988465726376
-76.237045288086 -64.418022155762 -172.884597778320 15.257132530212
64.211891174316 -79.065948486328 -284.652069091797 36.270698547363
70.591285705566 -76.172050476074 -273.394012451172 28.844821929932
68.658485412598 -75.491622924805 -280.588592529297 34.157264709473
-50.386650085449 -67.118667602539 -185.402847290039 7.083300113678
-69.038543701172 -65.181083679199 -164.189880371094 7.305335044861
-76.872192382813 -67.960571289063 -164.966003417969 10.018343925476
2.420112609863 -72.370765686035 -230.054748535156 2.341976404190
-16.043922424316 -67.747863769531 -200.934829711914 1.752745151520
68.636390686035 -75.638793945313 -269.628662109375 24.592933654785
68.141990661621 -78.259338378906 -274.273742675781 29.200189590454
71.234458923340 -77.277015686035 -273.554534912109 29.522033691406
-67.416107177734 -65.494255065918 -163.539993286133 6.532058238983
-52.797485351563 -65.481719970703 -175.111846923828 8.704817771912
-11.583572387695 -69.360115051270 -199.645309448242 3.310556411743
-28.974861145020 -69.315834045410 -177.080993652344 1.337143659592
71.087852478027 -75.773811340332 -263.847534179688 20.977317810059
-45.788360595703 -68.205093383789 -181.502105712891 8.295888900757
77.031471252441 -75.634140014648 -262.741058349609 23.145641326904
-42.681266784668 -67.287437438965 -169.339584350586 3.766476869583
75.421043395996 -75.609512329102 -264.331573486328 23.505641937256
-123.080169677734 -61.539703369141 -97.167205810547 23.459411621094
-31.357475280762 -69.150146484375 -173.932708740234 1.986395478249
-21.048995971680 -69.877304077148 -174.157608032227 5.152954578400
14.940330505371 -68.821044921875 -206.964065551758 1.642276763916
8.467658996582 -69.981727600098 -196.840850830078 2.073947668076
16.856758117676 -70.330024719238 -200.723052978516 2.103295326233
82.801918029785 -74.634696960449 -248.655319213867 15.295800209045
-121.690910339355 -61.928375244141 -91.491973876953 22.131778717041
-16.457221984863 -66.911468505859 -168.819274902344 11.334791183472
77.463447570801 -76.549293518066 -251.548522949219 14.676400184631
84.277244567871 -76.136772155762 -241.173278808594 10.882688522339
79.892707824707 -75.802673339844 -251.347106933594 15.747136116028
81.549278259277 -72.600028991699 -234.024536132813 3.685343027115
-118.057350158691 -54.723655700684 -84.268966674805 17.803478240967
89.119163513184 -72.559585571289 -228.889480590820 5.342942237854
-19.692443847656 -68.606452941895 -158.111099243164 14.352694511414
84.270805358887 -76.283172607422 -233.377029418945 5.932352066040
-95.848098754883 -61.543899536133 -99.958038330078 4.090852260590
-21.320144653320 -64.825119018555 -160.395874023438 13.497774124146
-105.879898071289 -61.126251220703 -87.603347778320 6.814087390900
81.276725769043 -74.841308593750 -227.918121337891 2.160583734512
13.870338439941 -69.034934997559 -178.133590698242 2.351972818375
22.483070373535 -69.379196166992 -190.013641357422 1.500139117241
-111.004814147949 -61.109664916992 -83.290283203125 11.550902366638
-102.860565185547 -62.348915100098 -85.593276977539 3.996516704559
-0.181320190430 -68.023086547852 -160.833419799805 4.342512130737
-91.422111511230 -59.140052795410 -95.734497070313 8.263245582581
-106.451499938965 -57.417274475098 -83.187026977539 7.188346862793
13.355415344238 -70.507987976074 -176.138732910156 3.230179309845
-9.339683532715 -66.958061218262 -155.661468505859 12.875002861023
25.634925842285 -70.179145812988 -179.520828247070 1.873034358025
19.064186096191 -69.331588745117 -168.638992309570 0.576254427433
83.441825866699 -73.635536193848 -217.342163085938 0.631552278996
-3.155784606934 -71.078300476074 -149.675521850586 10.462918281555
87.022804260254 -75.252311706543 -219.991943359375 2.506887435913
89.035392761230 -75.066261291504 -224.601287841797 3.016353130341
-101.106185913086 -62.062820434570 -69.683166503906 3.364915370941
90.061347961426 -76.220672607422 -220.123992919922 1.473886370659
17.576881408691 -70.221107482910 -168.250976562500 2.284043312073
18.669990539551 -68.694404602051 -164.615615844727 2.021939992905
-15.005821228027 -67.823364257813 -143.908355712891 23.653768539429
-56.997474670410 -65.553329467773 -106.808654785156 7.757831096649
-9.328231811523 -67.614608764648 -143.558776855469 19.575927734375
83.867835998535 -73.157310485840 -210.044860839844 4.085920333862
86.877754211426 -73.783660888672 -208.517730712891 2.906297206879
-12.206169128418 -68.684333801270 -140.005218505859 23.860660552979
-47.977973937988 -67.161033630371 -106.800888061523 14.324330329895
14.914161682129 -68.205024719238 -156.765197753906 1.838018298149
87.022087097168 -74.113510131836 -211.367919921875 1.179626107216
-99.261482238770 -59.554275512695 -64.610046386719 2.654225587845
-118.003761291504 -59.129981994629 -61.429870605469 20.062986373901
-106.977233886719 -60.441398620605 -58.983306884766 10.912300109863
7.034538269043 -67.222084045410 -137.838287353516 11.500449180603
-100.629615783691 -59.299209594727 -61.896911621094 4.192328453064
16.866722106934 -64.925819396973 -146.479324340820 1.797408342361
23.511177062988 -70.549728393555 -161.733398437500 2.762285947800
-109.224288940430 -57.839485168457 -55.674255371094 13.616934776306
-107.246055603027 -59.566665649414 -53.984313964844 12.753563880920
88.470054626465 -73.112693786621 -195.280258178711 7.978994846344
27.001823425293 -69.904998779297 -151.279830932617 2.114636421204
-100.430007934570 -59.822059631348 -60.715057373047 4.479647159576
-91.987365722656 -60.743911743164 -67.021240234375 5.423954486847
5.640754699707 -66.393623352051 -139.980987548828 10.953004837036
23.982566833496 -66.665969848633 -154.004745483398 1.998408317566
86.079948425293 -73.935493469238 -202.248138427734 7.027880668640
-104.174110412598 -59.079513549805 -52.924224853516 10.534241676331
-93.613716125488 -61.250617980957 -61.544708251953 2.175147533417
-74.635765075684 -62.985076904297 -73.399810791016 10.490456581116
88.766654968262 -72.909255981445 -197.287445068359 6.753927230835
-67.222961425781 -64.114311218262 -78.873260498047 8.025468826294
-94.284889221191 -59.276878356934 -59.682464599609 1.471520304680
-95.368713378906 -58.870857238770 -57.680847167969 1.870036602020
-93.230552673340 -60.255455017090 -60.339630126953 1.930662274361
-98.881530761719 -61.565971374512 -55.794464111328 5.803882598877
-106.125061035156 -60.743423461914 -46.731933593750 15.639945983887
-81.258308410645 -62.033020019531 -63.498718261719 10.556346893311
-80.553741455078 -60.922027587891 -65.374114990234 12.706435203552
-98.594581604004 -60.294166564941 -54.404022216797 6.033478260040
-88.733276367188 -62.010299682617 -57.737030029297 3.359335660934
-94.257957458496 -61.611396789551 -53.214233398438 3.347499608994
81.596961975098 -73.791404724121 -194.046722412109 14.591412544250
84.129585266113 -74.737197875977 -181.836898803711 18.050485610962
-98.925582885742 -60.277351379395 -46.612274169922 10.556582450867
82.917701721191 -73.581619262695 -186.774703979492 17.013973236084
13.637062072754 -67.701011657715 -131.045288085938 11.348661422729
36.580696105957 -69.527908325195 -148.338775634766 3.005022525787
35.993675231934 -67.453346252441 -148.967834472656 4.144899368286
-85.407249450684 -60.364044189453 -47.310577392578 1.712882518768
43.090217590332 -69.859664916992 -146.906188964844 8.106630325317
80.875923156738 -72.025764465332 -181.035919189453 21.337356567383
39.119010925293 -70.413597106934 -150.036026000977 5.087267398834
37.597053527832 -67.233459472656 -141.381683349609 3.589899539948
26.199775695801 -69.804901123047 -135.007400512695 2.349566221237
18.119377136230 -66.295555114746 -125.027145385742 11.980070114136
33.133003234863 -67.639305114746 -137.391769409180 2.195569038391
34.591514587402 -69.000709533691 -139.512390136719 2.104085683823
77.954460144043 -71.505294799805 -172.624221801758 27.047941207886
-11.769622802734 -65.178329467773 -101.565216064453 28.925306320190
50.291114807129 -69.871406555176 -145.031982421875 14.095617294312
-14.331352233887 -64.977828979492 -100.003799438477 26.500598907471
29.468070983887 -68.580200195313 -128.437759399414 3.867375135422
-13.910461425781 -66.704811096191 -92.404647827148 19.926116943359
-30.482597351074 -60.668190002441 -79.567169189453 4.981375217438
-28.480415344238 -62.598213195801 -82.360244750977 6.443721771240
27.026802062988 -68.462867736816 -121.919815063477 5.699285984039
-57.933067321777 -60.156593322754 -51.639953613281 9.048460006714
28.639518737793 -68.688873291016 -118.713043212891 5.315573215485
-54.054824829102 -61.575698852539 -55.282836914063 11.119419097900
-50.523399353027 -63.299728393555 -55.883697509766 10.281612396240
-40.347038269043 -61.055725097656 -63.163970947266 9.815479278564
-70.423149108887 -60.503707885742 -35.495971679688 8.102204322815
-70.000183105469 -61.215324401855 -31.730285644531 11.763824462891
-88.205009460449 -59.920982360840 -19.869873046875 26.589256286621
67.745689392090 -67.479972839355 -116.983886718750 12.195031166077
12.830604553223 -63.973220825195 -70.008209228516 23.684490203857
5.742492675781 -64.295669555664 -64.504211425781 15.393797874451
24.050544738770 -64.215187072754 -77.802734375000 28.865243911743
34.570869445801 -64.948196411133 -87.447143554688 14.808146476746
-15.579460144043 -62.585571289063 -43.130737304688 8.578627586365
35.813392639160 -67.724914550781 -83.786010742188 15.530798912048
55.912193298340 -69.358772277832 -100.450302124023 1.800986051559
-72.603393554688 -58.042022705078 -0.945190429688 41.854019165039
49.519920349121 -66.124687194824 -93.753875732422 0.978949248791
66.443687438965 -69.711120605469 -105.461227416992 5.815165042877
72.468406677246 -70.248565673828 -108.789840698242 5.053845882416
16.855323791504 -64.449996948242 -65.100860595703 26.293163299561
36.964958190918 -65.678688049316 -83.012222290039 15.272508621216
73.301521301270 -70.623809814453 -107.693115234375 3.947577476501
7.202339172363 -63.386505126953 -56.790985107422 16.393541336060
31.634162902832 -66.468597412109 -76.978668212891 23.077058792114
48.009223937988 -68.250503540039 -88.616638183594 3.627425432205
72.588493347168 -68.483543395996 -107.727355957031 3.358633995056
52.128318786621 -66.354553222656 -92.166519165039 0.957644462585
65.742179870605 -69.901809692383 -100.568557739258 4.687540054321
73.455818176270 -68.961555480957 -105.343414306641 1.390970110893
-44.669319152832 -59.748252868652 -16.970245361328 26.808868408203
-46.496093750000 -58.004051208496 -5.094573974609 38.381095886230
-44.069999694824 -56.374305725098 6.225738525391 50.033908843994
-73.606185913086 -78.465026855469 -345.454010009766 54.499481201172
-81.866424560547 -74.995635986328 -341.515747070313 50.374656677246
-72.461631774902 -75.193260192871 -342.595458984375 51.413761138916
-84.038871765137 -74.203811645508 -327.989379882813 36.655223846436
-64.599235534668 -75.351638793945 -339.627319335938 48.659133911133
-81.477989196777 -74.762489318848 -328.764251708984 37.640018463135
-75.873489379883 -72.149169921875 -322.787841796875 31.686996459961
-74.176116943359 -72.444618225098 -317.277557373047 26.081708908081
-59.669395446777 -76.601676940918 -331.995788574219 41.392753601074
-69.811538696289 -74.098037719727 -319.275329589844 28.244102478027
-59.846172332764 -74.935882568359 -329.602264404297 38.920368194580
-64.881561279297 -75.419891357422 -321.577636718750 30.626945495605
-62.625541687012 -74.237304687500 -321.827026367188 30.903268814087
-63.194587707520 -74.782516479492 -318.566772460938 27.627967834473
-54.352302551270 -75.102745056152 -324.105102539063 33.249404907227
-59.316322326660 -76.146537780762 -318.733978271484 28.230598449707
-112.646728515625 -73.455940246582 -267.063659667969 5.240526676178
-108.041572570801 -74.238601684570 -274.295257568359 12.863799095154
-149.776550292969 -70.322097778320 -233.767669677734 3.013411045074
-143.905227661133 -65.399429321289 -228.347778320313 2.755895853043
-7.837524414063 -76.012504577637 -324.788085937500 32.769973754883
-3.309173583984 -75.738204956055 -324.706634521484 32.329864501953
-82.589553833008 -70.851615905762 -263.630035400391 8.194670677185
-139.852020263672 -64.343345642090 -222.855682373047 4.614944934845
-86.128097534180 -70.112411499023 -254.764587402344 1.669287323952
-100.365570068359 -66.756668090820 -232.537353515625 7.341117858887
-9.933311462402 -77.858703613281 -302.121276855469 10.535344123840
-14.529090881348 -76.164382934570 -291.052795410156 2.077932119370
19.565773010254 -77.537063598633 -319.065063476563 25.511245727539
1.927810668945 -75.104598999023 -298.541748046875 5.996203422546
-108.621070861816 -64.423034667969 -218.682540893555 5.984957695007
-107.578208923340 -67.549484252930 -215.719757080078 6.417502403259
-18.881904602051 -72.879920959473 -281.362945556641 7.642768383026
8.411613464355 -73.752883911133 -295.727539062500 3.078552007675
-9.126762390137 -71.210365295410 -280.890747070313 0.642296314240
26.446174621582 -76.368392944336 -314.196197509766 23.349252700806
-123.513664245605 -65.943206787109 -190.425338745117 4.252771377563
-15.453941345215 -70.151794433594 -265.814880371094 1.034641981125
36.735710144043 -78.678314208984 -309.866638183594 27.201574325562
-9.302833557129 -75.706069946289 -271.507690429688 1.860033631325
33.847908020020 -78.709053039551 -307.937591552734 23.764577865601
-113.349311828613 -65.821090698242 -190.172500610352 1.687017083168
-16.576049804688 -73.004005432129 -263.575073242188 2.194117307663
43.374061584473 -76.425262451172 -302.397583007813 29.027793884277
38.969078063965 -78.279975891113 -301.553955078125 24.804210662842
41.944801330566 -76.359329223633 -304.716003417969 28.573766708374
43.917488098145 -75.776176452637 -305.420318603516 30.616334915161
-15.887435913086 -73.543472290039 -262.583801269531 1.795580983162
-15.692733764648 -70.375480651855 -255.994934082031 0.781449258327
-8.972282409668 -74.066749572754 -266.095581054688 4.451207637787
48.465476989746 -77.571289062500 -298.985137939453 32.919044494629
-6.506607055664 -74.287551879883 -255.421936035156 5.876670837402
53.055992126465 -76.547447204590 -292.121398925781 35.542175292969
55.356086730957 -78.805221557617 -295.931213378906 39.077175140381
-13.087150573730 -73.655494689941 -253.779846191406 1.726161241531
-98.112487792969 -66.102981567383 -183.626327514648 7.733855724335
61.211112976074 -76.040527343750 -293.617004394531 41.870170593262
-76.155754089355 -64.978324890137 -186.795944213867 21.246053695679
-3.106262207031 -71.911590576172 -244.638442993164 1.659241914749
-88.379959106445 -66.143791198730 -177.184768676758 14.662678718567
-9.042602539063 -73.374046325684 -241.787979125977 2.214581966400
-88.734306335449 -65.471389770508 -173.445007324219 13.009337425232
-61.887245178223 -65.667297363281 -190.044433593750 13.094462394714
-88.676124572754 -66.148811340332 -179.393127441406 15.068692207336
58.527595520020 -79.899078369141 -287.868804931641 36.636669158936
63.207206726074 -77.411506652832 -287.495361328125 37.801155090332
69.172966003418 -76.816284179688 -287.471313476563 40.533332824707
-84.109565734863 -66.994651794434 -173.011444091797 17.490356445313
-15.169609069824 -72.859603881836 -217.024536132813 1.426479220390
-65.992630004883 -67.568214416504 -176.558578491211 8.615562438965
-58.540817260742 -66.298202514648 -179.154647827148 7.377640247345
69.034889221191 -78.064117431641 -269.625244140625 25.430644989014
-55.471778869629 -66.874664306641 -186.365402221680 7.782511711121
-8.453582763672 -72.058631896973 -212.578292846680 1.012506842613
-0.098770141602 -72.243949890137 -218.259323120117 2.449491262436
76.580421447754 -76.060226440430 -269.521942138672 28.467836380005
8.205894470215 -73.557815551758 -220.296173095703 1.374255657196
-17.400726318359 -68.261756896973 -201.761062622070 1.156179428101
9.440895080566 -72.108245849609 -220.997589111328 1.105637907982
-72.242980957031 -69.842567443848 -163.260223388672 5.101296424866
-68.573638916016 -68.005172729492 -166.536773681641 5.613523960114
-68.499420166016 -66.631210327148 -160.629287719727 4.494542121887
74.552757263184 -78.486038208008 -271.342864990234 29.656558990479
-51.174728393555 -69.090270996094 -174.362426757813 6.762222290039
3.025039672852 -69.278175354004 -208.941925048828 5.184667110443
-61.199897766113 -65.136009216309 -157.026535034180 7.368170261383
-57.898384094238 -65.514251708984 -158.104736328125 8.790976524353
-48.899635314941 -67.588737487793 -179.446258544922 7.553973197937
-38.735969543457 -71.189605712891 -176.461715698242 2.974092960358
80.903022766113 -78.545150756836 -262.159881591797 25.438457489014
-36.349327087402 -67.941673278809 -169.907135009766 1.829937815666
3.445976257324 -70.969596862793 -203.264633178711 5.182685375214
85.174888610840 -73.927803039551 -249.856369018555 17.765590667725
-126.964866638184 -59.690979003906 -101.195388793945 27.259477615356
-123.144287109375 -60.760437011719 -105.227416992188 23.924226760864
-127.751296997070 -61.997070312500 -99.252914428711 28.153104782104
-119.370368957520 -63.627929687500 -101.560409545898 20.313787460327
-25.656478881836 -69.262611389160 -166.824462890625 5.287248134613
-20.599388122559 -69.473442077637 -169.324691772461 8.093173980713
18.888557434082 -72.901550292969 -193.786941528320 3.234772920609
-114.494155883789 -62.081306457520 -97.186264038086 14.987554550171
-117.470443725586 -62.238243103027 -95.654556274414 18.095369338989
-17.400222778320 -73.449951171875 -168.973861694336 7.240112304688
7.525993347168 -68.535545349121 -194.491851806641 4.092185497284
-113.659057617188 -60.921142578125 -91.122573852539 14.129646301270
-28.827972412109 -65.404716491699 -164.894958496094 6.697760105133
80.929725646973 -75.086349487305 -241.511077880859 9.189159393311
87.739372253418 -76.629409790039 -243.243255615234 14.714887619019
19.741966247559 -72.266082763672 -191.555648803711 2.764275074005
-14.839080810547 -66.486373901367 -169.307586669922 10.838162422180
-16.158676147461 -66.169708251953 -160.008499145508 15.476635932922
-116.428138732910 -62.922805786133 -84.227447509766 17.107725143433
-100.763641357422 -62.326705932617 -94.237899780273 1.973356485367
-94.883331298828 -63.633720397949 -101.604675292969 3.466504812241
-92.614837646484 -62.661735534668 -100.113189697266 6.160044670105
-12.121994018555 -70.502990722656 -161.559585571289 10.047793388367
11.449943542480 -69.511108398438 -184.094146728516 2.781448125839
82.540016174316 -77.534027099609 -227.868957519531 3.750862836838
-112.844421386719 -61.742752075195 -86.380630493164 13.445376396179
-110.027290344238 -62.897567749023 -84.310729980469 10.898600578308
-112.574516296387 -64.390090942383 -84.124633789063 13.801091194153
-117.298606872559 -63.213249206543 -79.017730712891 18.431066513062
-14.731002807617 -68.190422058105 -155.690811157227 15.987509727478
-7.003761291504 -65.466964721680 -167.380645751953 8.873516082764
-111.219696044922 -64.265998840332 -84.537597656250 12.478456497192
-7.819961547852 -68.050819396973 -163.452728271484 7.863692283630
-123.755569458008 -60.504776000977 -75.288757324219 24.452854156494
-99.509384155273 -62.079032897949 -92.760772705078 1.439244151115
23.718528747559 -72.560096740723 -174.285873413086 3.319437026978
-121.565177917480 -61.263473510742 -71.439208984375 22.581192016602
-105.928573608398 -60.841293334961 -81.350158691406 7.243867874146
15.904548645020 -70.049621582031 -177.884887695313 1.938647270203
-113.794776916504 -60.262084960938 -76.018829345703 14.697360992432
-11.148376464844 -67.667808532715 -157.517578125000 12.757982254028
88.917533874512 -76.271133422852 -233.484069824219 8.777151107788
-107.956390380859 -60.995330810547 -67.023193359375 9.868525505066
-117.446632385254 -59.980224609375 -64.837371826172 19.175117492676
-48.965667724609 -66.463233947754 -114.937332153320 9.518842697144
84.721824645996 -75.514213562012 -217.302093505859 0.822017550468
12.868705749512 -70.456237792969 -157.656555175781 0.478110909462
-107.281440734863 -61.308868408203 -71.113250732422 8.749545097351
-54.916603088379 -67.399589538574 -106.540298461914 10.011155128479
7.567100524902 -69.140792846680 -158.661102294922 1.703612565994
32.429771423340 -71.292472839355 -162.827941894531 1.611160397530
-97.989944458008 -60.394416809082 -70.128173828125 0.963924825191
16.986946105957 -68.573539733887 -153.835159301758 1.188393950462
3.369865417480 -71.452674865723 -143.380462646484 10.272884368896
5.047866821289 -71.553352355957 -146.869110107422 6.887409687042
86.441902160645 -74.643836975098 -212.048431396484 0.894997715950
-0.625022888184 -70.555923461914 -145.073852539063 11.742249488831
-6.009368896484 -68.128807067871 -141.336593627930 18.448133468628
-64.055908203125 -63.890602111816 -90.506576538086 1.253958940506
8.773689270020 -69.485977172852 -143.967224121094 6.173101425171
90.083503723145 -76.358581542969 -210.351303100586 1.229242205620
83.075935363770 -75.185333251953 -205.669418334961 7.356605529785
24.951530456543 -67.995712280273 -157.914062500000 1.549442052841
13.270912170410 -68.861427307129 -144.597854614258 3.295824766159
83.184684753418 -70.767967224121 -200.905944824219 10.414931297302
-78.854965209961 -62.613166809082 -77.473693847656 14.743905067444
1.442794799805 -68.077705383301 -140.061447143555 13.933200836182
-58.810722351074 -65.268615722656 -91.876373291016 3.611080646515
-61.357101440430 -62.619590759277 -86.689056396484 1.281711935997
-83.985855102539 -61.877830505371 -69.123413085938 11.541378021240
85.777870178223 -74.684349060059 -200.718322753906 8.280892372131
