# This PCD file was generated using the MATLAB® pcwrite function
# from Computer Vision Toolbox®.
# .PCD v.7 - Point Cloud Data file format
VERSION .7
FIELDS x y z
SIZE 8 8 8
TYPE F F F
COUNT 1 1 1
WIDTH 785
HEIGHT 1
VIEWPOINT 0 0 0 1 0 0 0
POINTS 785
DATA ascii
-39.455392280994687 -70.537696773124196 -210.094357907842635
-140.580209639277200 -73.818032371455288 -206.857978733638646
-36.688311131834553 -73.224853366405767 -206.480223665918089
98.110630598571660 -72.100863293529358 -201.097266335794018
-40.494131313409184 -71.662362840716554 -210.388908441547244
98.277421174216840 -70.621109691401614 -202.360155291219058
-36.013490198598646 -70.689055501221020 -207.425382950554450
-146.512783071026774 -73.448358305121843 -209.558646546253186
14.767283136827057 -75.080699762246638 -209.257762336514503
-38.206739952029679 -72.553080596974638 -214.669372905318227
-15.068929476551094 -75.688354470896968 -213.542222611496271
94.704898609280704 -78.448173239647573 -212.873845849707180
92.930395432439894 -69.410340709086313 -208.869182075539129
88.307980475592075 -72.058363359372322 -209.913576870421679
-4.275414306577193 -72.310563597423226 -213.834662751166405
100.458262638888215 -79.792864205104607 -211.365799882789275
-35.005626902964195 -70.967868623873272 -217.232740776941625
-84.007463918254658 -74.599667833503460 -215.057432837961699
15.311401538946591 -77.028360210001622 -215.306457956874539
-73.757360828546112 -73.918038032351745 -214.918261237875498
6.640818372187653 -70.714141311449254 -219.126345130559486
-3.997854154214082 -74.870178948514607 -222.203599340852207
-92.209538813034655 -73.197525792268593 -218.388389180303875
-24.728609616468841 -71.277591515240061 -216.159579990730350
-149.381463805175343 -70.779220790130921 -214.007575636753756
-23.133096203205579 -71.304268840860971 -218.858453057570131
84.389578929910158 -76.779646800952094 -221.921698091305956
92.412395098063371 -74.890716525864448 -220.050354424489171
-24.314707439762632 -67.729944554030510 -222.274857010524585
87.312903648197860 -78.703435317062997 -219.750399611733059
-7.185678028995085 -77.796770785834980 -227.047580060546437
80.012464347397255 -76.583822027542467 -225.889684736314109
90.170018717620266 -71.256842334035028 -215.909307597659279
-100.872523649743243 -70.844018754626603 -222.694350570226248
-26.158448354389837 -74.219798141729186 -227.724564761270159
-16.935050545173528 -72.462988704812801 -219.548797256720434
-14.443448893125787 -69.352466072973783 -228.039528516602758
-152.955118059421523 -70.359670045114143 -228.785251558415979
-144.642734419536822 -71.006500590832502 -227.148495120164711
-20.128554108348492 -76.227123066205905 -222.290198284699954
75.103388877630863 -68.617537715936678 -227.463059861238122
-29.849999155060917 -73.893400054336595 -223.692897453855551
-9.654792699763245 -72.707473886321225 -228.186728287276566
-1.195513035579410 -74.476957736373194 -224.946661037349003
-148.566641900489969 -72.531354205081854 -232.283739874144601
-129.594231638948344 -70.223846895131643 -231.378048223358746
-23.821698588530165 -73.396658746867544 -226.777343328188778
-125.894129500588406 -69.108577101779773 -231.409001609840004
-131.141146950301049 -69.959676443961854 -234.998847509891192
-15.056861282347779 -76.984241214871801 -234.941645535654345
3.739320719905084 -71.631435013340734 -230.059792140236652
16.841851257788718 -70.814092869811205 -231.856348937079019
-130.743810790780117 -69.907023509000467 -233.176933769601845
-8.712734201447507 -72.614081056008374 -230.575952436903464
18.796011566209447 -75.761034546277529 -232.431974665173101
-139.500433055810561 -72.967927731060243 -234.210114821687739
12.430112475157310 -73.917803698579462 -235.102803805933178
-157.463920052144061 -75.210478822523058 -235.153257591711963
-125.120182897239033 -67.040060699973864 -234.300213540105261
74.699703748139498 -75.425544799698457 -231.608295414008836
-4.994146987159411 -74.128879657715999 -233.916140738762294
-5.352975985553179 -75.405118257988619 -233.326243638829482
-7.749409260403738 -71.552230045489722 -237.014053741867258
-4.782583837462330 -74.632856939569379 -240.930731400169265
2.229434652042322 -70.366462333344742 -236.694007007621138
68.272790031888789 -70.313157496968756 -241.958886060925153
69.189246329765510 -77.056529216438236 -235.167188491738386
-1.533003969350649 -74.382178955708881 -240.255029684517268
17.150771885215690 -74.445158082234229 -242.019929067216424
-36.318617674880230 -77.086829727095164 -247.583049631562119
-32.178204660118624 -72.683406987497548 -246.589094588314083
-36.807486185122784 -74.859522779977567 -244.110376328908700
9.406918878200059 -72.520524881084697 -241.508969191058810
-46.309337440363166 -73.918131962144997 -247.724305939124633
-30.598233547631065 -74.152259408120159 -245.089184585723331
-35.135011899137893 -71.959530115840579 -248.256643225532798
-20.019090481824666 -74.470301881152707 -243.489063663421689
-53.034594258041864 -71.012942202661094 -247.215007009692215
2.565103782213203 -72.255796502600091 -243.108968640812179
7.279824333199826 -77.727521923150974 -250.822420288274714
-56.500264535950876 -67.835179832335726 -246.888737265464840
-39.952080593627926 -72.894263607318194 -246.202450450766946
-3.080856848288121 -72.354499697104274 -247.548405593547557
-63.762103506982243 -76.028267166152645 -247.888656187439551
-45.572468312078541 -72.223224146395154 -245.589505326753795
-65.894749510712103 -71.543655565215516 -251.825823186447280
18.681626436021855 -71.817405582285630 -245.404860385876418
-68.319460745011241 -72.638368096060233 -254.353688878971184
15.490250890781088 -73.821782403135401 -253.773778033269593
-150.910721566068446 -73.986882962736857 -257.174514701296062
-154.294394978383679 -72.168134792410967 -249.888344830984977
-73.992066666214598 -74.214442093913931 -255.540171651631681
10.007760545079861 -78.233751188924160 -254.466471440033274
-164.116490370673262 -70.874285753105127 -254.491846083699500
-82.630774340508921 -66.992003123304684 -255.278589583936025
20.690909284890349 -76.284591613228471 -255.316438538854641
-82.461102703859964 -66.184949791179406 -256.943655695239215
-75.659095515277812 -70.386242622010982 -254.358235030537003
-85.941251753885098 -65.537901237227345 -253.644824513812978
-79.387408441455904 -70.823869554218405 -258.313114701860968
21.034525017678916 -78.105371872039157 -254.417501802554000
-92.121251223969935 -67.595709259193853 -261.047891664489498
-130.530482270749218 -74.870042728557337 -259.149306447359493
-142.388167311256041 -71.687323351781643 -263.024831130350776
-149.116123117245792 -73.318008647453084 -263.100377741773798
-120.890912158201274 -65.628040479535670 -260.775430589061045
17.491997702230297 -74.541116828214172 -259.796016448511011
-148.377766113540332 -73.829170294585978 -259.787595481528228
-141.300416706084263 -76.009039163094727 -258.472106189464569
-134.092781137713587 -68.381165311250015 -260.785976471245760
-124.702808484836169 -69.067198459705452 -264.834353627148005
-11.597613734081694 -73.739594252487564 -254.626489801682794
-159.361085643692434 -70.573488949907983 -262.800869012203634
-135.019303033837190 -75.020959275779717 -260.639322355900106
-149.208271924871354 -73.669684818059807 -262.659448184440862
-145.830554087411826 -69.271167191437101 -263.191901418873215
-133.986807752458787 -72.181743015157380 -269.076816443616622
-139.214183575493308 -72.903342548340348 -266.168826083347199
-123.147758598264943 -70.459016396831274 -267.100695339663389
-166.304822967549541 -70.104538115325781 -263.839915251171817
-120.745531632349270 -69.850016664381741 -265.656080803665532
25.563969328581130 -74.983831490040600 -258.262893612688970
-128.183329742460813 -74.007841971136429 -270.094637995515257
-167.429515781956184 -68.033935949186855 -270.889892479442608
-165.934808011242694 -68.331573218921932 -270.514098678472521
-151.465206075547485 -65.533889461974852 -269.163551723971182
-158.785895919117252 -70.991908677283106 -271.477037857766220
-149.724722265259942 -72.409283643383333 -273.366640874379925
-155.784246963581353 -70.559048028610775 -270.519586941898297
-147.110490305820861 -69.646006158720226 -270.941712361820237
-164.032698892166394 -68.479640792465915 -273.274381004397753
18.623637501656717 -78.956770360779757 -279.714853738819784
-166.970844432293745 -69.775479046742248 -278.372454467048726
-152.878118231860157 -71.608884692049799 -276.758375146871515
-9.412164592974168 -75.553048947255675 -273.829051221986447
-160.703601163746754 -71.584884193999955 -278.018612096259176
-145.528167065226910 -72.489336732226917 -276.125448199822529
-152.845609497163423 -69.244193838365319 -276.287585279879920
-2.976994132715920 -75.397385528708682 -281.174532834852528
10.109637301606561 -77.299982026283786 -279.874891473616856
-151.014079775338445 -71.250511190107616 -287.694460253272325
-164.945503372683390 -67.470520424206399 -283.578834445320012
-146.202335014934562 -70.347205511976881 -287.444940674809004
-10.326453247537206 -64.989282824894389 -284.170679115706719
-147.949009733074206 -70.475103327312198 -288.988116895370410
-151.292374955116713 -72.505994464459505 -287.209928326914223
-163.442560707183532 -69.545301600338789 -291.925931907064580
-168.757015383802667 -72.176845424060602 -288.089141334230476
-156.044372866517165 -71.069350054387485 -287.859539791605357
-169.587698465762884 -71.557689003499476 -290.770782364506601
-136.383151157317116 -69.517362770107795 -292.625125290733024
-62.850976237541346 -72.532151351901945 -290.152857176062469
-31.736263174594075 -77.112686848409183 -293.482166914086633
-25.115055429549383 -69.821106336715047 -292.219452494892778
-13.157004291531155 -76.850025545263406 -289.365077634366742
-1.720315462064256 -73.579100824263250 -289.048861758286193
-2.728784348546974 -72.101889056395166 -286.546992929201394
8.928909802068373 -76.419552810135357 -289.037508953777149
-96.708866641985054 -71.967447893150521 -291.725187983087210
7.278703709896316 -73.075980427665272 -296.307401726795320
-123.049045428304026 -72.430073953818777 -288.991998203120318
-110.948926722954951 -72.483673449373498 -297.462105692552427
-155.320878634602167 -71.577832690842456 -291.768211863953354
-149.110035063115930 -69.907277482420810 -294.513626022591666
17.586672026120937 -71.200415358739207 -294.711353406653643
-100.441389473233784 -72.223275047882922 -293.698347334005064
-151.859877846688391 -73.589062692540992 -292.921402712749796
-144.202209715861727 -73.006170340307293 -295.561835675591738
-120.045572967734387 -71.163940693557635 -295.791115382113048
-103.632595543420578 -68.925036107673151 -295.434632426503072
-86.504458871070526 -74.683614971602140 -295.476909590106800
-65.898546638670609 -72.110732091203943 -290.982273991061334
-162.351595300782549 -73.562312824470723 -294.114286748190807
-166.328934918739805 -70.460344881967146 -296.014958554868656
-123.773091060280166 -71.457424313097746 -296.894230261204484
-37.591381358344449 -71.410700709377508 -296.816768215677030
15.307231167018555 -71.625588016554119 -300.630051752911186
-157.760448551246498 -72.270236448169896 -294.162059148352114
-27.238985296344058 -71.536656231686706 -294.161155844389214
-135.306362096856503 -72.594815240267550 -292.939615277984842
-12.708716384135631 -74.211183834752092 -296.075858326966681
2.928685857998783 -72.150940933730254 -297.892735583672788
-126.522490821377517 -73.048562902037062 -299.052106754266504
7.028317369212068 -76.833549294870693 -291.780497674729872
16.053440515178515 -73.158999868590996 -290.823561410854722
-133.354587767252298 -72.184002450034754 -295.931234298661650
-144.446092204764966 -72.121813003671107 -302.195494105972898
-146.847841462077582 -71.742075472220648 -306.147608509589475
-150.912098832876580 -75.505228695208913 -310.571551516610782
-150.883464774897107 -74.886066602845304 -317.222939695546927
-78.047765711907829 -68.761909474254225 -54.691415030509098
-65.210086966708715 -71.134069943183974 -55.707048017168752
-45.437554719430082 -72.970812582776020 -56.388647525768128
-27.897822710756333 -71.498426012456576 -62.795281845328397
-32.111506653514994 -71.310451121689823 -59.376426517187632
-28.545247043680181 -69.459948212881699 -57.282610857048546
-27.563917942517040 -72.505907212793005 -62.573847577992758
-92.960720900056046 -68.739245645369991 -70.238071722437681
-24.127334537196287 -71.275184948669278 -66.482492434814731
86.525186720153130 -71.251797898925702 -72.880057610304164
75.835324137215068 -73.464681670366019 -76.321558174726647
88.262084549418631 -74.130919673702223 -75.871126864880381
-25.057101573805159 -74.061751462136101 -81.292719877134573
74.353701353276335 -73.558468363034564 -76.449230510841545
93.079196245956723 -75.490056420507273 -78.662249693351569
-39.204593926689910 -73.611698963984821 -82.664189363023638
71.280534744224283 -75.471986553093927 -80.177666971122306
88.921313886679826 -73.845492321034584 -81.515671860516306
69.041877992230113 -72.308005287345182 -88.149533225055677
69.218733572181975 -70.018399338851765 -84.932596054608240
-51.237482491674001 -75.905752435664056 -95.112904674648860
73.275734347087763 -78.725403952901786 -84.331882397631276
-97.096670042270446 -69.309190849021903 -87.131773791906369
55.728196129934851 -70.800795336830561 -81.695352593857976
70.882044933735685 -72.065075671395064 -90.713089609930392
-95.982377638124575 -71.797509090952133 -90.944219051763568
52.804030878976832 -74.090265701984123 -94.554823692603790
45.862551350910024 -73.269819351494789 -99.521110402395820
73.238280788602864 -69.901378093800233 -96.604771971567530
87.454678333857800 -74.607481132094080 -100.083607973738850
47.241314730357040 -75.275994038816322 -99.134011237447680
-101.930817866833110 -72.281396233136874 -98.760817658627118
85.393666067764812 -76.524128823764158 -102.936712315232725
91.935207426926681 -74.092165015685936 -106.105682499230099
68.749920588303169 -76.192771412205744 -98.315224925429618
89.876291526887258 -74.410872852932812 -105.026198673327144
78.742549179184891 -72.650777920798134 -97.290297046873164
77.893800353895898 -75.443070413123692 -99.862737897986563
78.296191063916638 -76.638438458520000 -103.163710039104089
81.771948169972234 -72.128549332393476 -103.180177442477927
42.639208755158208 -74.777871419954565 -107.596340493759442
37.388306991380148 -74.907696480112136 -109.814622783895743
101.231970083177131 -70.399885467650606 -106.488887120554026
-82.992237565947377 -71.594090900595944 -100.516150608793453
-96.896619704648984 -73.755947486865665 -110.475721457034552
34.651703008994922 -74.134514806437224 -112.580816689688163
103.855328391087752 -74.237230163178083 -110.523817262531765
101.222357027401017 -72.541210603898307 -116.848280460015175
108.476974423848546 -77.072668367725910 -115.209718650083730
31.673223941118966 -70.913770213875807 -117.547765535630859
43.983660941256190 -73.398033198932751 -115.713134454463187
26.364329154269981 -70.164530246880418 -120.721402903634058
42.770202329039165 -71.203962535791078 -120.876133435435648
103.916824472403192 -69.847019538836818 -124.943889699198238
112.626764745020878 -68.821876872858226 -130.947332512194833
109.452938107146252 -76.505553054904567 -132.255237060988037
114.687117863714050 -75.332517872701018 -138.131746568512852
-54.895802137704152 -71.637736689569067 -133.896637992722646
-60.109034830751014 -69.452021938912623 -134.928178287811448
-53.415649727516367 -71.221409883873591 -131.616208779651060
27.574299905461039 -75.095105844176999 -130.582638326685242
39.332939024021584 -72.097771963844835 -134.717460847426679
109.843049426689532 -71.608827636589879 -138.009173478301705
21.885707709528763 -71.985601632803238 -143.440639274638471
-46.661423627800119 -77.520780515466285 -140.364911324789688
38.767898356084345 -73.248387693888901 -143.776640149736579
108.459955387046406 -73.824876331885221 -145.480508596266532
-74.838402762604247 -71.120134946269914 -143.587143054243910
27.167230517745974 -77.072290897299325 -140.158392614190888
-72.840576525732729 -69.792887034806753 -146.412992434934523
23.676848045697355 -70.956214764394772 -150.460446112215692
-69.589616604304396 -68.936494963009480 -149.868527210685954
-61.303613933848595 -76.459834419895657 -148.480251751268014
-49.353101363873350 -78.516674407321631 -143.000884799878889
109.889365506711684 -76.360176761654529 -140.718664560985872
111.645267100420853 -73.109208949678390 -139.334785684391591
110.746714127609465 -72.980818015422685 -150.462653982134867
33.750054809396225 -75.430201582922606 -152.664339185857386
-51.669641428287775 -72.987433507324212 -158.118825426603848
-77.490756439389045 -69.514095649283448 -154.721487020023460
-42.032412289768089 -75.574284119953887 -157.080244353544316
-71.069545563752641 -67.945864374939717 -156.906214277184660
17.436911034308725 -73.718449984649894 -152.801194060666177
-73.751133635448383 -75.350488624799183 -153.522683357427866
-67.586284617589470 -71.321984381185828 -159.707430599064196
110.669646486441181 -70.879954959709522 -150.667340667631294
-53.142964259410974 -74.560916433388257 -155.758632945125896
-68.260009652507762 -71.861018547846655 -159.401808645263486
-42.554546107178695 -73.937039265243726 -160.859143631608276
33.964454382965329 -72.345767501465318 -158.167673027319580
-63.353825672316518 -66.745238637877534 -160.162046889408089
107.515765097459592 -70.673749817168684 -157.505264343876775
17.807639372489724 -72.361809545057497 -157.694458876960795
109.761387963541708 -78.099907215586555 -158.636438212539673
115.632094459566659 -73.785882209241379 -158.585492238539928
-70.736065057327195 -64.897450104983363 -157.666234227829335
-54.017436656778841 -73.981041070851205 -162.714726172472950
5.840625126205406 -71.222040050459228 -157.422844494750109
-63.415100405501178 -68.866753783409976 -165.990784313067508
-71.103434057360559 -68.808884659943956 -164.616531790328651
-62.693465062876243 -68.729278194365719 -163.171996637651091
17.042338229238339 -78.179358418248341 -161.858031471572446
-64.642006959254758 -70.923468994521485 -166.129369466059131
-35.498193425826400 -73.232346689095593 -169.223563607740402
0.854239282797305 -70.867215371127344 -162.987738623740057
107.497996724944215 -72.219592734622950 -163.108520027925778
103.388823750448992 -75.143979186499735 -165.514765307263787
112.549509344847181 -70.370622764380443 -162.916039829859756
6.259089648048494 -72.861241905337778 -165.544470028762078
-32.863375196980328 -71.276881443720598 -165.428887474444679
-2.786066977084666 -71.873254309043148 -165.980626391788434
109.662051304746470 -72.713177312512030 -166.159200122966070
-3.003239833313248 -76.136615190145136 -173.239782970103505
30.568773039655227 -74.532014795985361 -173.417327186928873
109.116101023282241 -72.032195490988656 -170.472715190709295
-44.191686588198849 -74.037415651082966 -171.098944914422390
110.066349615475517 -75.661192536397834 -171.248347929712708
-39.796644934085634 -69.676487235354529 -170.367272164882706
-29.351493671560323 -73.360545438573098 -173.740150645561812
19.027111850905900 -73.212105509193705 -170.072584348085371
24.861102143086466 -76.062896119402140 -170.953067737248602
108.082710112672657 -77.106187484920582 -175.357418208975247
-61.664458247330657 -73.662953911845705 -183.846321365245672
-40.651902986071391 -71.258067260923170 -177.360735034015846
-32.001020853703679 -71.964840720026103 -175.572155439647332
-63.039625275455364 -68.490221329627460 -174.285062253924252
108.704458550220764 -73.480133577333362 -173.633844843649996
106.032508379151906 -73.296740901940126 -180.315781152057752
-61.872993550440327 -72.369587078094128 -183.104694884206936
23.644086277949889 -71.593836179969585 -176.858090747598055
110.177879858411814 -69.154082921716650 -180.923667301989298
-58.496313679828333 -72.021268620560093 -180.290928120776869
-33.038797693907156 -74.277391492932935 -182.608989989485934
-20.713306163718219 -76.054834721474037 -177.347633695107533
107.541661004382078 -75.693560274385376 -181.787978842332848
-149.820838703911647 -70.390150204387197 -182.046052827266323
-53.874820265346642 -67.638954899686809 -183.729736638116094
-28.047532129335931 -75.785279701785939 -182.834039226143432
107.943420979450480 -74.132043330626729 -184.198130944404625
-143.363262625359795 -69.809390522752807 -189.366265707780769
-58.401654101528365 -67.491433105169676 -185.805099760026792
-38.346098989207988 -65.747054917578339 -187.036124404703543
-23.271912661418330 -74.583707545427274 -186.380945180833095
-153.779012358534686 -69.142122174519486 -187.235898538615999
-142.010349420023033 -73.204951269963232 -189.187577358460345
-37.050952714718790 -67.949267132518983 -188.151709843251979
13.247956309914795 -73.104364873253843 -188.255587026445994
-149.204913652507912 -71.731286986379700 -186.449064789177413
14.176968205841307 -71.036806569565840 -192.270986066024051
-147.026315910190192 -73.296307667414439 -191.170162643399749
-34.791853900815980 -74.277887626858984 -192.172182995626372
11.421692595714022 -77.585724120062594 -191.432525827682127
11.317487146899952 -69.414593491835205 -190.645931534377837
25.660177502201908 -72.227173997936376 -188.057587162860614
108.192116382533854 -74.797671055750968 -182.998998781714391
-23.806859282693569 -72.733885950199252 -192.745427992354621
9.322018903703761 -73.931384414530910 -195.583816280972485
101.417226631718336 -69.066272091823222 -188.874158991116985
20.602551690311934 -70.406756303367061 -201.783924204268175
-142.682142440717030 -71.152319528787984 -197.347733440311117
100.761063548025817 -77.301080512356947 -195.119943666697395
-21.234061865039049 -70.103787599498915 -195.981298734143706
94.083547752685419 -78.631478073834572 -201.425262003548909
10.819288031542227 -77.719923716425200 -197.324670108427199
-133.221810589121105 -71.434969474623770 -200.238511556326813
96.308319116240710 -73.414431904805767 -206.009069638859188
-147.664145574709863 -73.385289831950530 -204.974149414432077
-130.884819248348805 -66.818175753406308 -205.043847544653147
-146.831874305238955 -74.983971748650376 -204.359638403569306
-145.739006267793428 -69.705057591885861 -204.445801992876255
-154.488074410854722 -68.975122458662810 -209.062327282718371
-22.925608839474162 -75.054683223955053 -202.740195918837657
-16.287046062088091 -70.004342798304990 -204.395877723965242
20.406649587394888 -74.784942742111653 -209.685327639804626
-39.271210494521469 -71.106672210613311 -198.792238997975744
19.302792440223136 -71.597197922168661 -205.619328417069596
95.029061294572145 -75.628668879638511 -200.086040711749177
98.171265806010268 -75.057235570136697 -204.780145417780915
-8.528845929954851 -73.107536759311486 -207.155389335301209
-11.676028594772706 -70.530185391653148 -206.290178675598980
7.537169574809027 -73.911172251948429 -209.033112078972238
-37.394242014995584 -70.037523652769053 -209.906453428616373
-153.286278407089270 -69.947441761930818 -210.033590282507475
-150.292881581968970 -74.074722861726002 -212.695192947938494
97.723957200459722 -71.795353864051549 -204.808823673483857
-72.929605482355385 -74.990572448345077 -210.729129785915092
-37.809800665109435 -77.728506487951393 -211.664157916182376
14.958266980286428 -71.747329290401083 -207.938251071972275
-28.199072811840413 -76.894827816849656 -209.529127171689026
-78.991594489291884 -68.902506039423415 -210.345275302490933
-79.730144945926156 -72.275353929039653 -214.238647532552932
-147.095624021851222 -69.599930279492924 -217.002536049553100
-74.681270815880708 -68.510115779459881 -211.533272415246017
-18.145137490034937 -70.507593760032663 -220.718098693597625
5.990537610742024 -71.848008110183699 -212.562129824328935
-26.609236671842257 -70.716227510515935 -214.255778324058554
-8.577395546109702 -74.993625995922727 -212.987017947296692
89.764682486101890 -77.064592374848033 -212.909416019329996
-91.543820092921919 -72.786510533509443 -219.885298921773710
-81.258931369913498 -71.533494746163711 -214.725252605432445
-23.044517798997315 -76.169406573629743 -213.509430974943854
94.791990793607226 -74.408254949417596 -213.300048168834280
-8.315536076597400 -77.407634804457061 -212.660771175617526
-91.163629750048159 -68.051591253362176 -222.964341974413912
-146.014127244199301 -73.907172486346425 -225.461014091750513
96.811860603099035 -76.011722316906329 -217.702415340552221
93.738132801864722 -74.649421051072196 -222.569726075148651
-82.026187530007036 -74.711754514317064 -219.850025765092482
-15.526093223359386 -72.878402586312902 -221.596949580184912
-21.067190296882227 -71.377084252035004 -222.189458985560833
15.264436693644388 -73.424951531523106 -210.657161672233912
-4.247452569372307 -71.994058531520011 -220.006177160736797
-88.205491814162997 -71.504846180692695 -225.545509852199842
-28.921999680479214 -72.204275973969118 -220.790634671933475
81.373924017280970 -72.839808179847665 -222.158195945619980
84.625971371965505 -74.285442304161833 -218.047712219311194
-16.721427600355522 -70.652087444970718 -221.223204360222553
-99.927436765244778 -73.151457229544675 -220.059877763403648
-156.321650805068629 -69.922918923090393 -224.469380420157734
-21.134047949099457 -73.203809087552813 -218.571625074463128
14.536956292010071 -72.104495498098217 -220.939910944544323
15.917327041313257 -73.831379029664618 -223.642287436392849
-100.603404625871889 -73.108396562132199 -224.757594432187915
-19.483369507989568 -66.402872129680247 -227.160766244784782
2.330308987420356 -73.595440464339191 -223.037032574378372
2.582695706433515 -75.598023504236195 -221.444029751755608
-95.920017432548065 -72.982668875367267 -225.616406230119111
-22.087003288443835 -74.579815944503011 -221.913144681807779
81.344591990518452 -73.403783411457795 -230.634193331609538
-150.101210700921911 -66.789651704206179 -226.919483410258294
2.280560881221682 -72.162541653308139 -228.469676405248293
-24.696023651159148 -74.726466002156542 -224.745524936898278
-12.391876604805919 -73.659674448493405 -220.218762046626210
18.598070777556131 -73.139795255674727 -221.457904047311359
79.897103092175968 -81.278109026776932 -223.879217552880220
-15.791784636825678 -68.820753186258770 -229.434291880025086
-133.712797963257430 -70.775430601521379 -230.881909980857870
-128.006956432354912 -69.756681892928228 -231.300045362388857
-13.978337366523721 -74.623494418419227 -230.254865518189291
12.393610765752999 -75.190930001479870 -236.893328170876657
-131.561840739496546 -68.430391443199028 -231.711980039594863
-142.334262849231862 -74.224932229611966 -227.598086439306002
-128.160809421283830 -67.954378288074338 -232.225467745599701
-17.667952892008810 -69.661793303218658 -229.317779434478069
-145.349080812652602 -73.594983484480963 -231.499853332178617
-15.534140523530471 -69.953806663307731 -229.942235039674870
69.443027375501970 -73.629483371279136 -230.816814415358920
-144.523552191657870 -74.587164831577439 -230.344183909107670
10.591849726613848 -69.838070099904968 -227.635707440862319
-136.247375752334619 -68.193085819804054 -229.740739726186348
-11.850654311325666 -71.076259681874930 -231.141772058219118
68.620154015378446 -70.946043617570993 -233.852098817886940
78.744749950799189 -75.541164938551631 -226.244996917106022
-140.446695574517207 -74.439293648115466 -232.869148013793733
68.766847880138002 -75.632584030714753 -231.703846863571357
-21.478224401599345 -71.050576477935621 -232.012351491837308
-144.456625622991027 -67.469360863051790 -236.824029876955763
4.222336561528486 -74.785150946515827 -233.091755169879832
-133.888392370058341 -67.775798656092277 -235.717168814932961
76.387385165272448 -69.910442415695428 -234.269785637155309
-129.025677142995278 -72.981695704286622 -233.569400808652574
7.828500040447825 -72.260021906526291 -239.263792765053296
75.785609864432899 -72.969403795736540 -234.899350433456959
-144.378924055009065 -68.860837373372476 -237.911699111659459
-152.545997304452101 -70.006731170674428 -239.356612635896596
-12.221327926128776 -77.073990581579537 -234.341826715464350
-163.197212543334985 -70.406589392945804 -241.090263736862084
-160.407513155855980 -69.469292569791563 -239.800559735124892
10.564706903893381 -75.195707805749478 -237.902295051365542
-166.461186439649197 -67.303791495955821 -238.236435973679392
-3.103507080523165 -72.063266421220149 -236.041639021216923
20.026979516662514 -72.576048149518797 -239.379215233575962
-11.941564399809725 -70.506645290582696 -241.814916334777251
-23.987259557163316 -72.105777723994834 -246.760978466970869
-5.242985743086368 -71.030538786044360 -241.463125407202455
-148.260545842858022 -69.140493431758117 -239.214840487260631
-4.707296267168676 -70.943987857845471 -240.147390061041847
-166.480372143356675 -68.946420572918285 -244.806824443176595
6.679887968725247 -72.422787659013650 -244.172230264754376
-165.963943537095645 -70.236881443917781 -244.482084290338832
-17.338070706400170 -71.636525996285542 -243.634083325817045
66.630682855691674 -77.203437003136926 -242.755007992245567
-31.485922399489557 -67.646392683327420 -247.879680302955933
-7.173376739410298 -72.187771459880608 -241.028425267284746
-161.604045777609883 -69.400630119912464 -243.002955403608297
-29.196163769200229 -69.420173966636526 -243.075261582100268
54.201420128130550 -70.764945724373689 -250.331458695554375
-25.721310660209515 -76.105077845583637 -247.418751842187817
62.233501136015789 -75.756237732707049 -243.109623782142364
-26.016129392215422 -72.326243471153006 -243.319795229996572
18.680181309115785 -69.501338064612057 -247.159884355980182
-19.590030470603860 -68.334218977284948 -245.019991863667542
-4.856800500929776 -70.414682554412153 -244.943128964499351
9.742070694962473 -71.089935414607993 -243.477888780052638
0.818791533826289 -74.670680496190343 -243.962740387545637
4.706012227300857 -76.013183670253810 -245.723404749650797
-145.467673199747082 -70.528018362647828 -243.441537139463804
9.018351742862935 -74.733446804595687 -247.274240830402448
61.386420786471817 -72.894154596151509 -244.000891047665988
-149.124651147392427 -70.887955419030490 -248.115273788049933
-51.492831515036670 -65.939248226959322 -248.132342630199162
-42.486206978906111 -66.843266606693405 -245.471206042962592
-2.877783990339427 -70.969230356847547 -247.978753298113304
8.944355435835570 -77.066607569789710 -248.080662859159588
18.651750896356429 -73.149777976703817 -244.548796453055218
-158.728798403717008 -66.417969041965151 -244.622176395084750
-156.336324790968519 -69.383497185212832 -248.735029331794408
-52.370132631302340 -68.733424680885634 -247.419657667044248
1.070633062427753 -70.113330952716709 -246.697887848318487
-150.506516324583032 -68.570600584501690 -249.717395643758664
-49.671656517228385 -74.523145539397404 -251.596951779241863
18.027903697296452 -71.889386503323749 -243.166620901654170
-51.191966997849704 -70.019706799023680 -250.416905865963997
-7.306035929263938 -71.163472165029418 -247.044671896138937
20.863197448197585 -70.945002818022928 -255.749657658192575
-71.347672637051900 -73.055901122464874 -251.705574584841429
-155.047460926280792 -68.735744079226606 -250.901449751700625
-166.343954985200668 -72.556333329951002 -250.664633772473167
-77.637144207584853 -70.961086994612131 -251.691235945835444
-10.303424260627825 -71.332745306638543 -248.913165974252081
13.163689908228504 -78.626331130530417 -249.618818543814939
-48.807063155073152 -71.617376972286735 -251.598317372144777
-80.387335534190200 -70.534897151301266 -254.025925704509632
-60.937397086723678 -67.962952965074862 -259.207845291997160
-162.087406005918552 -66.700643056195943 -255.233426129232157
-151.027274784617305 -70.426352537370036 -258.421425172481520
-64.692201065039072 -72.858786226202710 -254.390433698146524
-165.808305744973524 -71.291361179789533 -248.970243524980503
-147.093162443019082 -69.780038148705231 -256.498410334394521
-84.966110859755105 -73.198051752635465 -255.452453303735183
-67.549102578723321 -67.837298899535483 -261.309563117762650
-156.077402433201229 -67.036189152330195 -259.430023637336092
-160.282250121732744 -68.660050233449667 -259.905949212021312
-150.493320238526792 -66.648179031776962 -253.067717332224333
-74.486539593633452 -74.939170244230439 -258.676995510505037
-93.052161573303891 -68.455193262092678 -257.226477897754989
18.337582130374049 -75.886387308162725 -252.792696587498313
-164.372227680739428 -68.325631770446535 -261.157678398978817
-101.267875975961900 -73.152941832218346 -258.208791897289359
-97.260260555174256 -69.715068048074741 -259.927821545497409
-80.682849578338292 -70.215374419429551 -257.860325839798861
-164.992460370099877 -67.253564488896572 -263.425571444763932
-157.304987312403910 -74.109088750527036 -262.418389734370407
-134.751682056198973 -63.324514385525291 -256.620386410384754
-83.625254997414416 -75.973026510619732 -259.754839777242296
-168.420830275059473 -75.088982522034428 -258.499687680828004
-144.830093258219478 -68.163238019957504 -260.467973859842061
-128.031804850210420 -70.829770897558802 -260.767833886900632
-85.929792411774642 -72.243285463409947 -257.965103536502284
-96.724227592295307 -68.059781706071220 -260.067382507353273
-138.761717359351593 -64.785686692115860 -264.328571048766378
-115.492967901550372 -75.018042471109325 -259.245489791708394
-94.176492470670468 -74.770730417604440 -260.106370611191778
-90.503726680128864 -69.283101156114824 -257.538272203802364
-92.341733954568795 -70.531530570400250 -261.014397229977476
-149.155873646268532 -70.457471160753926 -265.873446843256886
-100.432132546724134 -69.445203072682006 -261.658403650493995
-97.220102702466974 -68.394117073506351 -263.878202918631644
-151.149392133463920 -69.393056683335516 -255.760152478763359
-107.917332352654824 -68.227044929381051 -258.417561646258946
-102.645695057630007 -64.875375403133788 -259.787441875194190
-170.605174287048442 -76.390167711116916 -263.998836099733694
-161.249772046917400 -72.725321474325455 -264.884950637138104
-148.508260041428315 -67.993958173631995 -262.848285698530901
-113.522168659698053 -72.600120021985276 -261.265479285287370
-126.654673213606401 -70.539635342576119 -261.484703688730121
-107.993678422365946 -69.917810422223141 -261.268298293561202
-152.953071979660251 -70.787042320898578 -264.748614021764922
-140.967137075681052 -68.749294824028411 -264.300793086606632
-114.758132182218475 -67.714776124039091 -265.834611561130885
-17.691131116551137 -70.683001223064736 -263.493986368690400
-159.773487644007417 -67.706790727833848 -271.133346727434684
-141.470750776447744 -65.568880539424313 -265.607802008957719
-124.647552951098390 -69.877827979668893 -264.714023570114591
-139.454996801501181 -70.464466673357521 -267.851759944728428
-159.997672525040400 -70.468088086369960 -267.897397665490018
-158.620584748991661 -70.816951256651933 -271.061080825815566
22.535223589193453 -71.567299704382307 -269.322927633319352
-154.626995130669144 -68.462874910192866 -272.822625384518744
-15.845566565365377 -70.899225087925799 -273.376726127858490
18.396942749256340 -72.676782363564115 -274.779856972063385
-145.818419065522733 -63.931438549620154 -277.195526950335932
-171.298907786585715 -70.493188765475935 -274.904312551847283
-12.308686160683276 -71.524060082858085 -276.987497026949370
-6.289285453354150 -72.272467520083467 -283.150842665772871
12.121828020776048 -78.657990243045461 -282.120551810268807
-147.129877773390547 -67.681891493422981 -285.672721889697073
-7.913466366353113 -74.263368940872923 -284.087815446381171
16.399380058694316 -72.368835633347572 -287.144947503848869
-141.391060387111850 -66.002984575998696 -288.851232252161253
-137.121317365606160 -70.826913700130618 -286.058912466263962
-64.520581985318671 -68.046086095636099 -290.614434407348938
-75.677790060015113 -73.476749162893881 -291.657085621552426
-38.421402346588010 -72.585938618002032 -290.522703226028966
-30.314161279144255 -74.610346575743222 -288.160148790584401
-79.067333166273713 -69.663491073795598 -288.814403910760916
-33.633669142560507 -73.349264692437856 -288.119938683217526
-25.619202226810469 -72.261648860401152 -288.285159662499723
-122.490031948803562 -70.928378429292508 -289.231650508632640
-119.424881976138295 -69.877354336466013 -299.619704787455419
-117.317325635135887 -69.481504579873260 -291.964107192075630
-91.608304622568880 -71.695836430282171 -289.695600316966249
-86.113745687387805 -73.981141440971015 -285.715001717449411
-99.062386783767039 -71.288287203041932 -293.966039651057997
-166.246885627699839 -69.768983185022250 -287.724440305619396
-117.373451863376488 -73.690108043934046 -291.996136522734901
-116.603857795857721 -73.157521999287923 -290.391015225780393
-168.751634626910374 -67.332491238782211 -295.717957443171713
-55.692467757853592 -70.474176658736710 -295.512492442844120
-99.349258455544216 -74.629819802191960 -292.439838037255697
-90.893917584921468 -71.213853617186601 -294.157143767108153
-77.755125334245520 -68.971128126030649 -299.844562635217699
-41.568709623777465 -72.629700553228062 -290.359239623563099
-116.339498412417555 -71.519466542461984 -288.835552560139149
-111.369247217427329 -70.160031814823057 -297.030109556719196
-107.067588317412344 -68.595245848458575 -297.072635140715136
-29.481093436945610 -75.425583903520689 -297.246400525565662
-122.061099703521592 -65.251787469014786 -297.680800132262561
-114.534606458666417 -64.753450966823181 -296.505836034553681
-104.201928631017893 -67.290822332470412 -297.609383672913680
-19.531480491338453 -74.832175406419125 -293.880776188316247
-127.526384813088043 -71.786344285306853 -292.978281374815765
-142.477825038340228 -70.249599176998359 -296.506001580200120
5.008156966343346 -72.245416506879707 -297.102678556326964
11.095937671107368 -75.644756083746827 -297.682508114135089
-162.285665236632752 -69.723069630975203 -293.285974543996588
-157.269415984871472 -66.971907348443651 -300.632054885082653
-128.702537187631123 -70.853300868165931 -296.626546243815596
-152.793065790570523 -70.006120530833215 -298.237999922130086
-155.627349603691101 -68.466211721520978 -302.256231891084099
-147.585324735235417 -73.342961983597135 -298.169686498321255
-157.573151711662319 -72.463348668980217 -301.237040293440884
-144.696098132618857 -72.376718431410055 -309.672770495564464
-156.767051327828852 -64.344734209203850 -311.017185934403301
-146.767723827585257 -67.416548645036400 -315.909151258848397
-149.295688446992642 -68.822374331164283 -317.771480477042928
-153.639990808713520 -72.429878551366969 -315.069678897962490
25.803517858017635 -68.742160197657029 -24.494338901169627
28.010718432622042 -68.448451468475767 -21.623173108312848
23.651751164650829 -67.478888820135765 -24.835597694790188
21.594230917806780 -70.124285823774301 -26.003886741973524
18.114633334896709 -69.281241317361662 -31.769941054131266
22.763150540984519 -73.324763010217339 -28.364839538433522
23.602567974174576 -69.201580439723301 -38.726107981222263
27.203127245499786 -67.314655933086556 -40.053133209296142
22.772481152545279 -69.791759045384353 -38.652215343452184
27.760647317692520 -74.303574310114371 -39.914695500414481
-65.694573802061939 -71.261681156695644 -51.635912375046146
-62.332277552435556 -70.437446174659428 -51.901939070391784
-51.395833999556132 -67.166058322996051 -52.403269548063001
-69.921946104534825 -72.280977030464427 -53.243955291031035
-48.734632770938418 -69.459798832724076 -53.975353990694892
-42.745903864399622 -70.825165198147559 -54.238553934089232
-77.176714364668882 -69.657581942262240 -52.981894996044950
-37.578399922902477 -70.832926434726360 -58.547179648162704
-83.008737988543189 -68.665304040012614 -62.709262552286042
-19.166412436082606 -68.226177908583679 -70.333711264191251
80.267169519125105 -74.074996018964583 -76.000261070228817
-20.971215989533864 -73.253636127699281 -71.963395792351591
89.223135407249060 -72.463257751202832 -75.240998151191675
88.604991073508145 -73.413431101580230 -79.260623848878211
72.990551820474977 -74.557623008912131 -78.375778042496506
-91.569577643380470 -68.585196349796888 -78.769171952235126
67.891235833944449 -67.962900558115464 -78.256830428192146
-25.991499742674666 -72.495284154573582 -76.514278631815927
-35.539541686837140 -73.703551339096435 -82.590956671784909
-41.349632974939695 -75.197504826152311 -79.243745003784611
-39.154015636231108 -67.857820945293469 -78.953147266045832
89.992070516020533 -74.770029202507232 -82.247693343879448
96.333599310089639 -69.064604075849900 -79.765207616574372
-95.117927556028732 -69.290459367817760 -87.528893920424281
94.825484096797936 -72.138987127290164 -80.776880813076218
66.742625647714490 -72.198819031320966 -83.668227853042211
-47.325334657725534 -76.107785946337742 -82.564308263244769
-94.540229248273135 -66.383063646944734 -88.651560075252675
97.734889463314190 -72.774214784801103 -84.823412487542114
-47.390500096296535 -76.641231844543341 -86.835878653487924
-47.672161405039574 -70.671814979076316 -90.814636526845717
98.695059068627714 -76.914877735794178 -90.210271034688233
56.000718152893299 -73.618226924307862 -95.115315988692586
96.710837041866426 -78.372521506377325 -93.264941549098921
-61.440798254518270 -68.475619001090735 -93.692442557451159
68.211636938242435 -74.963031426730140 -93.853023565311474
94.481921706366109 -75.052291400683430 -99.926851190225065
56.291581344530272 -74.918467418527229 -101.515681986038800
58.917437209707529 -72.216054942210874 -99.418311737409041
66.450134253042350 -70.950362968274788 -95.796555978672856
45.874763843829555 -72.500366134558732 -102.868317904576273
103.725344086665018 -75.678766374114488 -99.717854016630071
-78.987086841502304 -69.774836689625431 -101.838521454888038
97.955709740128654 -69.393802429356697 -100.802012885537536
107.345959732966861 -72.665633752286368 -105.902370751806671
79.097306315429577 -74.726500849061779 -105.340864614482484
85.148754629586861 -76.424953583032675 -100.362889374963316
85.546407229272290 -70.357896477354046 -104.063545907121750
103.723261074361716 -72.112727728709444 -108.925328782208851
110.708675617907872 -74.678073243790351 -111.002527835843139
36.987687669226830 -72.507839522453438 -109.823120139040441
47.418357127224510 -71.241340096540455 -111.161224768333852
35.918014870402857 -73.581583037269283 -116.085061326530337
45.443657067925443 -70.057843249665126 -116.082559890171112
-89.759977750354267 -71.058197424472453 -121.141352113413276
34.635730934000037 -78.534798908952254 -120.028438376100311
111.624719942215918 -74.308756697471424 -112.955025619241297
-95.307161234514027 -72.006415750558503 -121.321329259812401
98.438235684343269 -74.244649404957144 -117.152390270470349
-95.041082987696441 -68.196922665160244 -120.519725699183780
33.696307128124104 -73.016744101245422 -121.568478196574361
104.997182187894708 -72.361926110473732 -121.307630937350112
106.362817683841570 -70.743791115537547 -122.931486875139981
106.384159340433698 -73.912976171770666 -125.135714256447173
43.635072066474578 -69.960450755435318 -125.361427020103164
110.328619094185385 -76.537118314445564 -124.058025221481827
29.679630550084372 -69.239012187597424 -126.784023459210360
40.518282229731426 -76.362678406697498 -127.722755247526706
25.750663950702755 -75.715416858583282 -132.578287613558871
44.093183901421902 -72.227558287556093 -133.322368927633221
117.371881495185391 -72.964712478393125 -129.466517512779973
112.740746371462848 -68.788430995827738 -132.813137378792703
38.415191352191918 -70.672774424442238 -132.202124987045266
114.412988875920121 -75.710250070168684 -131.130797322476468
39.473285446157035 -69.840005747416242 -136.575780868430911
-59.031296635428859 -71.816945129846545 -138.819447146744210
113.064848418175913 -78.103076862297740 -129.127602651103871
24.524990249902487 -70.615710349254925 -139.487373651639558
104.557559154183167 -76.441545569040329 -132.596314598248824
-55.351163277591112 -68.591767280192471 -137.616829592507656
-59.687656630914660 -73.850216189161102 -141.814793529604344
-76.820027925848223 -71.629971429792306 -145.450031781278796
-53.840375119729003 -72.546743053705399 -137.485008925026619
-59.986331638885957 -68.232019080974240 -140.650275736402108
108.163102486149640 -74.091241538778320 -137.778371037042007
34.635609314788688 -72.278938384051628 -143.113694836430000
116.032838209056024 -70.710417301928288 -135.197280197693374
106.932716890061371 -74.581419209711896 -139.618692133684306
110.311194350915230 -69.027047265211039 -140.233129559797021
22.000356879680464 -70.250386165502277 -142.662527468223885
-72.447238516870144 -71.450369729396996 -146.114736248698307
-75.665187672422192 -74.139562973622475 -141.531128035391959
-59.758683728141804 -70.873375938735379 -146.003126028324090
32.251968374051515 -72.845155936379768 -140.532712458882230
108.686447758936112 -73.589466447779671 -146.869224497930560
-43.776676054915598 -70.174683313478738 -149.366255406390820
30.504026790542543 -66.651867182149061 -136.484009101044165
-73.917020810213899 -75.860909482589463 -148.314321583861414
-66.452742740828882 -67.100805474231976 -149.302613776767544
-45.462965193340978 -70.013379939693877 -148.064961493142135
-77.726285758014541 -66.400429312649976 -152.855562330543222
32.971780696078881 -72.277098867532487 -149.190939720353015
23.172058321496287 -71.044654572007886 -154.455601345216451
114.337636553044135 -73.105132217603767 -151.798583311360858
-72.215770757801550 -69.004846519004332 -154.646074282229279
-71.268932757457549 -69.322586618107380 -154.414315310685822
-53.301147558173213 -73.768418188603178 -152.006423924522664
-65.399594705861603 -71.240139424905792 -153.533293949535931
115.514891912665874 -74.416946135328601 -150.390823014507248
-70.567736222728101 -70.472405488917943 -160.818589697872682
113.071231879506200 -69.956390385670858 -154.527486350807038
-43.256431137062606 -66.775458546175258 -150.437816150228684
110.265488921040387 -71.393838960927113 -155.563343721203950
11.161946331523193 -73.422865886490939 -157.424437971373322
19.906045400270976 -68.251050882469031 -158.691368881347614
8.741669304670738 -72.353439170748572 -160.011381379356919
114.600876906331621 -76.030524728086235 -152.372587368071208
-37.030121881319332 -67.515476851519210 -155.804614587776513
-69.899043762952573 -67.493422965329927 -158.775072553967760
1.413783270526732 -70.665709175564288 -159.090035891911356
-69.949016611039426 -68.797207537849587 -161.576741968032593
33.817464351185279 -71.364666993171113 -153.718824916667472
110.216315686571235 -72.746880750859901 -148.323815788342756
-1.521130527072724 -72.401425093923237 -164.053548622752061
104.073044089910240 -75.696065849635019 -162.796175868526717
113.014562522448060 -73.306578769488539 -155.527872352501333
-37.895457188062707 -73.317784700120129 -161.304323753963359
111.930024089958110 -71.886031414355003 -160.608068012767092
-64.900649834410189 -69.499311173931318 -162.137192479901444
-38.667439972978300 -70.462676163285124 -165.233939119244923
111.267180367402418 -73.895896296812566 -164.126242835922795
-48.204915818462041 -69.844054103027773 -169.917876917972364
22.801193427208712 -71.293840056119734 -164.606168933658779
8.729535721245151 -70.996552937515446 -165.436343094011050
6.325422933212216 -68.937750769535356 -163.139705357359531
-67.479356889540028 -67.305128915369906 -165.525168716401936
-41.547048255377007 -71.633340395547251 -167.776132885106676
-6.790739719807405 -76.649565931654820 -164.666545584554086
109.342299588520063 -69.962731956116215 -164.599603112811963
-1.659049200195174 -70.111528806096288 -168.567259077110748
4.971885556376758 -71.229328835183679 -167.975676622144960
-65.981382665977236 -71.888722736653861 -175.177986648054542
-31.674421094113594 -67.762657696257818 -171.248535549249084
110.381893162536642 -72.701332315583599 -168.281146792133001
103.595234503608097 -74.544072649973259 -171.059046881325571
-39.346113688861990 -69.333016271028754 -167.029792501867064
-47.033795863843523 -68.114863973864217 -165.547435512766270
-63.868403679956501 -70.487895090416544 -171.323845191529074
