# This PCD file was generated using the MATLAB® pcwrite function
# from Computer Vision Toolbox®.
# .PCD v.7 - Point Cloud Data file format
VERSION .7
FIELDS x y z
SIZE 4 4 4
TYPE F F F
COUNT 1 1 1
WIDTH 1469
HEIGHT 1
VIEWPOINT 0 0 0 1 0 0 0
POINTS 1469
DATA ascii
-107.997322 -23.068636 11.833506
-45.960438 -22.610828 122.619827
-75.158615 -23.417120 75.835999
-47.857910 -22.522299 120.596413
-72.122742 -22.118439 79.866249
-77.012436 -23.153423 66.006134
-109.912064 -22.493250 14.071928
-72.481583 -21.337128 77.380341
-79.962509 -23.812113 65.655716
-88.601067 -21.701288 46.190933
-50.164963 -23.625149 119.592354
-74.856331 -21.126402 79.509354
-81.183075 -22.734682 64.829849
-110.276680 -23.142015 12.544978
-109.078201 -21.505116 13.246776
-74.637306 -22.407850 78.887398
-78.585114 -23.487633 69.062164
-109.968071 -21.471628 16.790920
-49.331272 -22.698767 123.340485
-80.297852 -23.011168 70.935936
-111.665176 -22.933702 15.462588
-48.144962 -23.367548 126.101303
-91.880730 -23.527679 51.374729
-83.551971 -23.377949 65.381462
-88.861961 -24.103506 56.061890
-49.294151 -23.854658 126.544685
-78.302460 -21.535946 77.553444
-52.813316 -23.643368 120.921127
-78.573822 -23.871037 75.279396
-111.556213 -22.865341 16.904846
-78.261292 -22.026550 79.485085
-111.694443 -21.375479 18.379255
-78.533325 -22.535227 75.874466
-51.982124 -23.290222 123.212906
-93.571953 -22.761063 52.152225
-81.654732 -21.619495 78.163887
-86.072205 -22.541174 70.129753
-114.549965 -23.277941 21.536318
-112.122322 -22.773331 20.455751
-113.886253 -21.838684 21.328861
-89.844521 -20.790667 65.053078
-115.894096 -23.527828 20.927038
-84.111969 -22.588398 77.624336
-71.777061 -23.026537 99.883766
-96.179344 -22.084435 53.893284
-73.279816 -22.005131 96.133278
-94.987251 -23.511694 61.074219
-92.515282 -22.474365 65.257187
-70.927246 -22.020834 104.711044
-88.090248 -22.607271 72.575951
-55.145226 -21.407831 128.115799
-88.642273 -23.582869 73.859589
-114.929932 -22.446402 27.388443
-116.758224 -24.089128 25.453484
-88.415054 -22.631079 74.414597
-117.621559 -22.514910 26.121502
-94.885857 -22.991650 68.900688
-115.740036 -22.127352 29.919319
-115.131912 -22.425781 24.216974
-71.559395 -21.950653 107.829361
-91.747269 -23.050663 73.611961
-90.998817 -22.001223 71.920456
-95.380669 -22.434835 70.647202
-58.245346 -23.487238 131.465698
-60.581490 -22.742193 128.679840
-92.757530 -22.594494 72.826401
-115.754128 -22.133724 31.394283
-88.976692 -23.604164 77.618080
-95.461876 -22.541105 71.508690
-95.619972 -22.155050 69.913269
-60.514206 -24.944559 130.307312
-67.072243 -21.960806 121.629532
-90.163696 -21.299326 76.152298
-67.105934 -21.419750 121.012100
-64.711815 -22.295504 123.605408
-95.756615 -22.009178 72.263512
-99.456879 -22.251492 65.094627
-102.794617 -21.976732 57.784180
-66.916336 -22.554852 123.242668
-97.686172 -22.402264 69.578880
-105.325676 -21.973944 60.016659
-66.132530 -22.180994 124.154892
-104.986160 -22.719677 60.454586
-61.512505 -24.732153 133.891846
-69.177719 -23.245766 121.856323
-117.404335 -23.197971 34.402592
-99.738693 -21.931509 70.049454
-99.031067 -23.226080 70.492401
-98.784561 -22.618511 71.242218
-100.979309 -22.609888 69.626900
-102.745262 -22.854710 70.886337
-118.944756 -23.205811 41.010937
-121.325958 -21.816519 36.622086
-101.994865 -22.412245 68.508690
-107.998611 -24.029970 61.808926
-96.242340 -21.667139 84.645592
-96.486267 -22.640676 81.917130
-94.799347 -21.933249 85.221031
-104.832970 -23.706001 67.307549
-94.755127 -20.965601 89.203720
-95.230415 -23.101519 86.024216
-96.009033 -22.125818 85.085464
-100.057838 -22.868471 79.987770
-92.670029 -22.512825 91.915306
-105.516548 -21.652786 68.526352
-105.646843 -21.738855 68.061668
-91.306763 -21.948315 93.803436
-95.701294 -21.819538 86.261551
-106.513588 -22.310289 71.203957
-90.585938 -22.026926 97.592003
-94.136436 -21.589138 89.957466
-89.034081 -20.564688 99.680252
-110.762688 -22.599056 62.639473
-89.220276 -22.220592 102.031258
-111.528435 -22.096783 62.229500
-71.367355 -23.605242 134.664932
-67.591377 -22.681347 141.860535
-89.449699 -22.784405 103.940353
-111.350204 -23.699940 64.450119
-67.090195 -22.763205 142.186935
-87.645432 -22.427925 107.380798
-111.225517 -23.030905 65.270210
-89.185181 -23.982157 108.021057
-90.497604 -22.065786 104.415321
-87.614754 -23.523151 111.949966
-90.568565 -22.602436 107.259422
-115.415627 -23.897560 64.220200
-86.730888 -21.350498 112.929169
-79.761757 -23.984356 128.149261
-76.368790 -22.861576 136.161728
-73.813728 -22.446539 138.172546
-82.046341 -22.912649 124.248055
-116.563019 -23.306934 65.658195
-74.503510 -23.492960 137.507782
-75.485939 -21.732925 135.328812
-77.850548 -22.910894 132.648743
-79.940979 -23.215643 128.907639
-107.410271 -22.630228 77.950645
-73.879021 -21.928436 141.018631
-77.755890 -22.568213 132.429382
-76.372368 -22.219015 139.099060
-76.627319 -22.444460 135.710007
-78.996506 -22.898939 132.733109
-79.757027 -22.275589 133.301758
-82.380676 -22.699810 128.556244
-73.533730 -21.340313 144.720337
-83.199959 -21.980591 130.401718
-118.739754 -21.866497 65.298790
-81.102928 -21.497061 132.115982
-70.926422 -22.887281 147.270187
-74.213943 -21.440540 147.370224
-75.945839 -22.852016 140.875549
-73.492805 -20.754900 144.963058
-78.436386 -22.848549 143.076202
-78.185600 -22.667150 145.029236
-78.176476 -22.749298 139.226059
-75.904663 -22.871340 148.473511
-123.417183 -24.314404 70.673927
-78.868965 -22.376638 151.033844
-81.236412 -22.703550 144.621078
-118.095604 -22.663204 81.628914
-79.811295 -23.412653 147.703125
-83.724571 -22.357214 143.845581
-81.173141 -21.884985 144.401459
-118.251198 -24.590387 82.644157
-124.512970 -24.213381 74.189888
-83.735794 -23.040222 146.628342
-78.437790 -21.817911 152.797272
-86.501671 -22.852692 144.789764
-120.521294 -21.230976 85.158150
-86.929527 -22.100924 144.056000
-85.493431 -22.731682 147.386765
-83.927177 -21.143190 151.453278
-82.006935 -22.199923 152.875137
-84.818039 -23.996408 147.488037
-82.359650 -22.604706 153.893005
-91.450058 -22.813663 139.297028
-107.569885 -23.012632 109.340385
-115.841095 -22.570723 95.954933
-117.740974 -22.800234 92.114525
-121.333168 -21.655775 84.927979
-123.587097 -22.320412 83.237503
-125.154205 -22.298941 82.434471
-124.734406 -23.602924 77.189186
-99.859268 -22.665476 125.013206
-125.903015 -22.352087 80.805519
-94.772110 -23.596912 134.724808
-97.515984 -22.407904 129.268478
-86.427559 -21.864504 147.497467
-87.713821 -23.064734 146.878311
-129.215424 -21.911255 75.888214
-100.071556 -22.078875 125.883522
-87.875237 -22.491665 146.432938
-88.499290 -22.198046 146.302261
-94.978889 -22.797613 136.549240
-99.089424 -21.386883 128.714005
-104.837509 -22.994360 119.196129
-108.575539 -22.733200 112.263489
-84.115097 -22.629160 152.771118
-84.751877 -22.726686 153.288177
-95.968163 -21.842453 136.314926
-117.241585 -22.699547 97.908157
-130.232742 -21.422979 76.638756
-86.044777 -22.439995 151.140594
-119.075836 -22.466505 94.581833
-92.236626 -21.820889 142.337677
-123.157700 -21.923828 87.953056
-128.467453 -21.798166 81.301949
-95.900360 -23.498655 136.997559
-129.550308 -22.339556 79.426674
-130.819229 -21.865011 76.016106
-94.055565 -23.249077 140.390350
-91.095482 -21.804956 146.500900
-94.043892 -22.075115 147.594177
-96.499977 -21.615530 155.879303
-98.066452 -22.591339 151.864136
-5.526655 -22.061821 52.758072
-5.895571 -21.534231 51.692551
-12.875724 -21.814051 41.003662
-15.594795 -22.462635 38.249550
-18.064709 -20.565228 35.045330
-20.318340 -21.676470 36.344509
-21.032822 -20.464546 35.169014
-6.513823 -21.273054 65.732323
-23.675406 -22.612633 35.909328
-52.595623 -21.783621 -11.748417
-51.011509 -21.828230 -7.524598
-53.715271 -22.745441 -10.753026
-28.149191 -22.103872 39.673935
-50.877693 -21.827808 -3.777142
-54.722744 -22.374138 -10.376842
-24.936928 -22.677725 46.701870
-50.292484 -22.667122 -3.513333
-58.065144 -22.183865 -11.473474
-52.851112 -20.560534 -0.274619
-54.291077 -22.549463 0.746692
-25.450624 -23.973534 53.106228
-55.999268 -22.940273 -1.505899
-13.525685 -22.056540 71.834381
-51.939693 -20.820389 7.285264
-56.225052 -22.539957 0.356077
-15.901018 -22.169151 71.220398
-54.634567 -22.774443 8.873441
-55.188080 -21.499540 11.443899
-61.342777 -21.311190 3.151426
-65.056801 -21.274603 -6.844818
-53.698406 -22.934799 12.838408
-17.556171 -22.325144 75.868835
-63.179131 -23.234257 -2.153790
-65.214386 -22.398649 -5.636048
-61.525459 -22.014465 2.084455
-66.214775 -21.056036 -5.399185
-63.071320 -21.845251 -0.018095
-63.452614 -21.339123 -0.728006
-63.795341 -22.626070 -1.618764
-62.939262 -23.581696 -2.845919
-54.797611 -22.396362 17.289797
-54.971451 -21.311199 18.834492
-70.794922 -21.704281 -10.478119
-24.814232 -21.148615 69.824753
-22.650724 -21.518459 76.294464
-57.257355 -23.145782 19.063158
-74.962158 -22.762587 -9.502858
-74.265327 -20.841255 -7.202569
-76.201607 -21.388613 -10.154951
-58.941063 -23.047428 21.260962
-62.382408 -23.191721 18.335611
-60.440880 -22.726336 26.773817
-61.161312 -21.450254 19.231035
-77.913513 -22.146151 -6.425847
-81.935425 -21.971273 -7.779078
-82.505951 -21.719599 -5.235491
-86.364418 -22.722347 -7.266673
-44.238785 -21.330746 65.799530
-42.368389 -21.540998 67.241211
-44.008194 -21.334930 65.227715
-63.299778 -22.410971 29.968342
-67.092384 -21.857035 25.907736
-85.495605 -21.071186 -6.157722
-66.175529 -22.425512 31.946922
-46.769321 -23.259413 65.584137
-70.212311 -22.899912 27.240646
-89.052673 -22.242126 -3.027796
-42.409485 -22.003622 75.207085
-67.616699 -21.695202 34.049847
-44.728218 -22.952282 76.211761
-70.148148 -21.301216 36.061695
-46.094543 -21.933069 76.583801
-49.936443 -21.803167 70.346741
-50.198921 -23.646225 64.850555
-89.190010 -22.553907 -5.091824
-87.787865 -21.258427 -4.478148
-90.582069 -21.965511 -1.456627
-72.206604 -20.861080 31.846537
-50.150681 -22.103796 69.727318
-45.927322 -21.444784 79.309052
-54.711182 -21.550482 64.878853
-48.490147 -22.007278 78.922241
-70.761269 -23.287645 39.170525
-47.077492 -23.195936 78.984001
-52.747810 -22.055733 76.601387
-92.990028 -21.633135 -2.058552
-54.854553 -22.963573 69.792030
-49.266071 -22.173294 76.874710
-58.096893 -23.631266 64.428070
-75.872314 -21.355639 34.759003
-49.784550 -22.475576 79.048401
-96.350861 -23.296021 1.553212
-74.226921 -20.675270 40.449787
-94.175148 -21.343081 -0.345039
-95.539246 -20.684877 1.123679
-50.405590 -21.657137 78.040672
-57.042656 -22.177408 68.785797
-71.049316 -21.412889 44.468922
-53.173687 -22.198639 77.746391
-53.039932 -22.923382 80.116470
-53.274708 -22.547302 78.476265
-75.947540 -22.547375 41.601681
-56.312504 -21.686193 77.036591
-62.020378 -22.222790 65.640152
-73.034676 -22.764732 48.325657
-97.259491 -21.648005 1.804152
-96.303581 -22.831364 4.275827
-99.667542 -21.223373 -0.294446
-72.367661 -21.427004 48.710091
-63.100143 -22.247860 65.526764
-72.358727 -22.387045 50.616135
-98.354523 -20.603382 2.010508
-73.307861 -21.069632 52.072807
-82.143799 -21.717014 39.256664
-99.752907 -21.948839 3.683753
-62.479858 -22.843382 69.807381
-101.475464 -22.587837 2.080428
-63.159378 -21.760660 69.753174
-66.686737 -23.163416 65.416077
-76.171196 -22.361341 44.944920
-80.556976 -22.573233 40.491787
-100.490860 -21.986727 3.914189
-62.332386 -21.700333 79.091934
-66.162354 -21.294868 70.922554
-68.724533 -22.635948 64.839859
-58.423019 -22.828207 79.613266
-102.335449 -21.635590 5.746670
-102.298149 -21.721674 7.637484
-61.862244 -21.770039 80.047173
-82.375435 -22.740868 42.075497
-104.466187 -23.398149 5.387991
-62.665524 -21.115524 79.985382
-69.351448 -21.350634 69.914162
-70.708374 -21.714308 64.538620
-104.645691 -23.082975 9.540725
-40.272182 -21.304377 116.726486
-64.861374 -23.154589 80.034676
-71.933517 -22.750572 65.204674
-107.034142 -22.016039 5.889554
-41.963715 -21.931431 117.727890
-64.847160 -20.967112 78.926514
-72.028214 -22.544430 71.219650
-73.678436 -22.565554 64.496239
-41.029926 -21.052103 119.689255
-43.593746 -22.355570 118.574425
-71.669014 -23.829262 69.786697
-83.607292 -22.744785 49.776234
-42.390514 -22.885900 119.231361
-84.132957 -20.793503 48.577873
-44.662106 -22.414198 119.502632
-71.189110 -22.585678 71.162399
-84.374771 -23.804075 51.252239
-85.908066 -22.236597 51.133762
-86.133255 -22.481256 46.352936
-106.533768 -21.630672 8.922652
-75.535927 -23.622696 69.354431
-87.185883 -21.965973 54.023571
-107.482468 -21.329046 11.092245
-89.887344 -22.554644 50.218342
-46.838993 -21.415459 122.084206
-111.164818 -22.896111 14.495292
-78.956985 -20.567122 66.607506
-108.490334 -21.254309 14.749664
-87.996101 -22.019951 53.134956
-53.354725 -20.877192 116.229355
-111.872185 -21.580147 17.953102
-49.884224 -23.445467 123.011543
-53.260944 -21.619993 116.744743
-49.305279 -26.572886 122.427483
-52.303780 -23.005875 120.947151
-49.024826 -21.707054 128.015121
-82.433304 -21.775667 71.268440
-84.164070 -20.685614 67.463875
-93.649712 -21.998211 54.050602
-76.490997 -21.199533 75.876236
-93.672249 -22.194214 51.143742
-111.206375 -22.547405 18.119059
-113.438591 -21.706610 16.730377
-85.132034 -22.662060 65.298180
-85.331863 -23.345037 65.620010
-90.312141 -21.865068 56.439865
-81.877632 -22.180124 77.791672
-52.215626 -21.515654 125.499199
-52.480331 -22.601664 124.633415
-113.178955 -20.602385 18.176432
-70.734161 -22.361975 95.507301
-80.833282 -19.982323 76.066254
-94.593765 -23.127050 53.791687
-83.783737 -21.690615 74.490555
-70.196106 -23.336510 95.903328
-72.159203 -21.081223 96.234764
-55.667404 -21.916433 124.818031
-72.559006 -20.373198 94.955544
-88.128105 -22.179125 72.143539
-92.987450 -21.250170 58.577469
-85.746796 -21.418406 74.906349
-91.232697 -23.377275 65.068344
-113.666405 -21.368090 22.438885
-70.039650 -22.463764 103.167503
-71.200768 -22.195017 99.046806
-86.261101 -22.238527 73.525269
-117.290550 -21.479944 21.939180
-91.404701 -23.367804 66.712379
-70.430840 -22.920626 102.702095
-58.412983 -22.210320 128.515793
-115.123024 -22.620657 22.393784
-118.672874 -22.498999 24.737619
-73.389465 -22.559683 98.020599
-90.394188 -21.098328 70.312614
-87.754501 -21.269400 72.192680
-95.884102 -21.879248 55.281799
-93.477425 -22.800053 64.909592
-71.773499 -22.140598 101.517769
-88.031631 -22.382093 76.841042
-115.623421 -22.214315 26.552399
-116.661972 -21.237371 25.587994
-91.261574 -22.637510 71.401108
-70.064583 -23.324234 106.203682
-60.429916 -23.353403 130.434082
-89.091400 -23.399208 74.576050
-97.541649 -21.577702 57.508633
-99.518921 -21.947483 57.090614
-70.076729 -22.182505 109.328033
-91.772179 -22.848158 74.124847
-96.423584 -22.347391 63.121483
-97.741692 -21.813271 62.163776
-73.126114 -22.859734 105.839363
-90.413940 -22.328575 73.318298
-117.916039 -22.798666 29.378983
-59.235939 -22.241943 128.464920
-97.688431 -21.787481 65.973183
-90.144104 -22.328520 76.485893
-91.472778 -22.528244 69.304962
-101.477844 -21.520678 58.186932
-117.475952 -22.326462 29.373484
-94.851814 -21.781034 72.089981
-64.238686 -22.029047 124.055229
-65.563683 -21.673820 121.967529
-94.114975 -23.325068 71.999825
-102.321251 -20.675003 58.353954
-65.472153 -22.609962 122.867882
-62.982449 -22.711269 128.468933
-66.961861 -22.421482 120.624336
-93.719025 -23.367205 74.027275
-60.848377 -21.835325 132.005096
-94.518974 -21.381741 74.780243
-118.574104 -22.091776 35.178082
-64.534599 -22.510334 128.043365
-100.099792 -22.183033 62.798191
-65.451157 -20.677530 126.667740
-95.406815 -21.752439 72.112808
-117.010353 -21.081844 36.126423
-118.976944 -22.715961 32.242683
-64.227654 -22.337740 128.725937
-117.917061 -22.790678 36.377647
-95.140526 -21.557337 74.722969
-64.572395 -22.807510 130.390869
-101.553871 -21.554447 66.029480
-67.253166 -22.761038 126.213486
-119.148026 -21.303492 33.783508
-68.367218 -21.382019 124.328598
-103.554131 -20.946163 64.313240
-119.551132 -22.441467 34.366020
-65.870270 -22.419273 130.871063
-63.552216 -22.107599 134.907135
-100.092178 -22.074068 72.594933
-61.568523 -22.161072 139.983490
-62.413551 -21.296680 138.432480
-104.567467 -22.479414 61.661011
-60.162102 -21.868446 138.211563
-101.381058 -21.527489 69.389984
-106.239807 -22.176672 61.221500
-98.856773 -23.406408 75.056290
-97.057739 -22.063292 78.194588
-102.570076 -21.571659 69.778130
-65.775452 -23.329344 132.613342
-103.389130 -21.741673 68.221260
-61.652096 -21.722387 139.576767
-107.815025 -21.792080 65.567520
-61.750408 -21.571932 141.061981
-99.531464 -23.027603 75.559555
-119.983879 -22.557055 38.582928
-98.000290 -21.259768 79.841843
-101.178078 -22.782988 74.759941
-64.134804 -21.188253 140.370178
-97.608131 -21.109268 82.097664
-119.605896 -21.694773 44.784641
-97.532867 -21.655003 81.476334
-119.697411 -21.390495 42.858406
-99.253708 -22.534039 81.014183
-108.991760 -22.305241 62.355206
-101.352745 -21.693851 77.401222
-104.044121 -22.339087 71.436295
-106.912422 -22.662819 67.886986
-106.195305 -21.684242 71.817558
-106.237602 -20.743525 67.205627
-67.441139 -21.649113 134.003876
-108.712051 -22.525274 66.653908
-121.580284 -22.680290 43.512917
-68.455963 -21.004839 136.106613
-92.446205 -20.579124 93.880348
-95.147751 -21.683893 91.753494
-104.993279 -20.344305 72.064629
-108.770973 -21.694096 65.112297
-107.875504 -21.220095 61.805294
-64.679626 -21.240242 138.591751
-66.528267 -22.343081 139.260391
-94.883034 -22.439384 92.500648
-105.811897 -23.507599 72.221413
-68.939095 -21.923037 137.798767
-94.527763 -23.167526 92.474884
-111.274719 -22.028467 63.996952
-94.288918 -22.416199 94.069687
-105.086098 -21.567741 73.897385
-112.330338 -22.824867 62.413357
-89.207108 -21.845545 102.206215
-68.270325 -22.888969 138.749008
-66.787910 -23.039040 143.290405
-87.629272 -22.369387 104.900688
-104.751877 -21.736509 75.477615
-111.125122 -25.168972 66.597939
-94.900558 -22.860029 93.582237
-89.293335 -22.578972 105.563683
-92.416489 -22.027058 96.827240
-68.137276 -21.963535 140.661652
-72.138023 -21.654768 138.490265
-92.792755 -22.623898 99.997681
-67.050941 -22.160744 143.374695
-73.123497 -21.812246 137.042664
-87.481361 -21.549587 108.682739
-91.662285 -22.319427 102.769234
-72.169022 -21.421436 141.185440
-68.659294 -20.965496 142.670410
-70.980354 -21.457563 139.486298
-89.463341 -22.400633 105.764793
-86.678841 -22.737745 112.474922
-114.396729 -22.946829 63.945457
-68.675850 -21.678558 143.816605
-85.946167 -21.289637 116.971046
-86.042465 -20.726480 113.679329
-90.094749 -22.379335 108.723824
-70.232025 -21.954159 146.215546
-72.428391 -22.551655 141.485611
-77.348053 -21.474617 132.005081
-88.947227 -21.037319 108.969200
-68.627594 -20.916424 144.589661
-74.057915 -21.851225 134.581131
-78.810074 -22.509621 127.546005
-88.216393 -22.376585 111.523491
-87.022362 -21.991732 115.306686
-75.993370 -22.388264 132.109192
-82.202187 -22.841911 124.478180
-88.036697 -21.470722 114.832184
-87.942017 -21.206932 111.535248
-88.774399 -21.338268 114.483093
-75.566917 -21.530949 138.577484
-85.687584 -21.017830 116.346153
-88.794632 -21.836582 115.666458
-73.258522 -21.725594 138.718658
-84.033722 -21.050941 119.910202
-86.439262 -21.356245 117.555870
-71.114601 -21.963493 145.233994
-72.440575 -21.985603 144.654327
-76.360504 -22.073854 139.616684
-82.822449 -22.968939 123.970154
-81.549896 -21.512890 128.628189
-85.331070 -21.097425 121.161049
-74.869728 -21.500626 139.458801
-77.853264 -22.165638 137.044067
-84.189148 -22.309729 124.022232
-109.257561 -22.851952 81.476593
-74.830872 -21.810312 144.011658
-78.104340 -22.618202 136.292557
-81.881035 -22.561012 128.696198
-81.597412 -21.528543 133.323120
-74.614723 -21.550421 141.879684
-75.757355 -21.663643 143.268555
-121.346878 -21.171049 65.308304
-78.141327 -22.644632 142.968597
-113.460350 -23.095547 83.552864
-122.661377 -22.766855 69.297592
-82.092201 -23.158222 142.319931
-76.685234 -21.819126 150.681885
-116.077293 -22.842072 82.896423
-118.626892 -22.179146 82.447197
-124.473839 -23.687485 72.054527
-86.384613 -21.992235 145.390915
-121.779366 -22.512123 84.298073
-125.852318 -21.597288 75.171715
-86.947815 -21.385584 144.247559
-90.113106 -22.430233 139.997345
-109.419640 -22.484236 106.791481
-105.819618 -21.399080 111.951218
-114.913490 -22.292852 98.722107
-116.658524 -21.774223 94.244316
-102.950081 -21.833544 115.882759
-116.817986 -22.742796 95.470108
-117.053581 -22.093189 93.029243
-94.135666 -22.589199 135.303421
-94.293884 -21.577852 132.730286
-95.552689 -22.041119 131.145126
-101.990845 -21.500217 122.149208
-102.506126 -22.379854 121.810867
-99.224869 -21.839361 125.707855
-82.300270 -22.084417 154.772934
-96.476425 -23.483723 132.334198
-96.648071 -21.402056 130.967072
-82.749077 -22.745134 153.400482
-112.883957 -22.013889 106.326843
-100.111458 -22.167965 123.792397
-102.236099 -20.866215 123.945198
-106.443298 -22.855970 117.307419
-114.735466 -22.289989 102.418076
-97.188881 -23.189362 132.855774
-97.337418 -21.348118 132.365433
-98.939857 -22.057806 130.066116
-117.684120 -22.269566 96.859512
-96.706978 -21.551271 133.692093
-97.843063 -21.836458 132.278275
-99.996521 -20.746075 129.289047
-121.470253 -22.303293 91.134163
-95.462723 -22.118107 136.253647
-90.474976 -21.902668 145.517776
-128.936401 -21.498169 79.283325
-131.408646 -23.046675 77.554626
-87.048203 -22.321268 151.108017
-89.288300 -21.067043 151.762787
-95.908134 -23.131565 138.324310
-88.925667 -22.929020 150.466156
-90.408775 -22.427502 150.533875
-92.922058 -21.852245 148.145996
-91.641907 -22.922764 153.371780
-97.109558 -21.603819 148.762115
-95.371956 -20.332785 153.456970
-99.210785 -23.150993 150.341476
-97.832504 -20.185923 152.921631
-97.405235 -23.175755 153.702957
-15.011477 -21.374413 2.045664
-13.869301 -22.136818 3.639093
-15.067126 -20.514019 3.816768
-15.745631 -20.824690 6.075634
-17.758976 -20.297695 8.317051
-15.676876 -21.366070 6.222351
-19.425922 -22.194174 7.742578
-19.685041 -21.893108 5.992404
-21.263758 -21.396233 8.100383
-23.812933 -21.453310 8.144762
-6.261583 -19.947979 50.286438
-8.110088 -21.050489 45.924286
-9.278230 -22.409029 45.001495
-6.630465 -21.662588 51.940147
-11.687033 -22.012283 44.093361
-12.744240 -22.146948 39.402527
-4.214655 -21.324327 56.392208
-16.016172 -21.113073 37.946335
-5.108642 -21.560341 59.292412
-26.310627 -21.297497 33.913868
-51.905254 -21.415821 -7.921381
-24.546446 -22.543253 34.623627
-53.417789 -21.493435 -10.931558
-53.636593 -22.362156 -10.911432
-49.946163 -21.287176 -4.190599
-10.701168 -22.823755 69.238914
-50.261909 -21.122471 -2.125868
-27.306637 -22.746628 39.246338
-25.297676 -21.431808 44.810516
-23.846832 -20.451445 43.892990
-23.253197 -21.665257 45.634033
-57.046135 -21.759195 -11.805491
-57.683151 -20.972775 -12.928371
-11.761077 -21.893160 70.598061
-59.089260 -21.596712 -12.735443
-51.290852 -22.091959 -1.231364
-26.071695 -22.487789 49.048618
-13.559668 -20.236719 72.107162
-61.129757 -22.153919 -11.361765
-25.049698 -22.803799 50.364910
-25.354296 -22.488636 56.096138
-62.349545 -20.830755 -11.801555
-52.780479 -21.929483 8.604525
-63.070320 -22.375896 -10.186680
-25.789293 -23.287670 56.266899
-57.599110 -22.151506 1.669878
-64.022614 -23.637205 -7.944649
-57.330894 -21.712664 9.434307
-56.288830 -20.846571 10.424205
-59.384872 -21.889561 1.315341
-54.022812 -20.722574 14.100911
-69.448952 -21.856070 -11.371093
-23.589800 -23.275736 68.748512
-69.105057 -21.885647 -10.740160
-70.894936 -22.255175 -11.108113
-65.548790 -20.768164 -0.113804
-64.538124 -23.783665 -4.654848
-67.020920 -21.370728 -3.466241
-70.471771 -20.321476 -9.590152
-73.494499 -21.623446 -11.826444
-56.109665 -21.908209 19.020187
-59.045742 -21.138060 15.661379
-55.855133 -22.465240 22.431234
-61.375271 -21.778101 16.560492
-27.977057 -22.990602 76.781151
-59.488934 -21.942188 23.410749
-77.037140 -21.844765 -10.263790
-29.276512 -21.123692 80.688377
-75.328613 -20.550262 -8.046445
-28.142300 -21.380590 79.464912
-61.919468 -23.117731 25.955345
-77.793198 -21.329857 -6.699656
-80.406837 -21.764751 -7.985150
-80.142632 -22.083420 -9.140396
-63.002769 -21.895443 21.963387
-81.239777 -20.554762 -7.838959
-62.665878 -22.267874 26.753574
-64.749168 -21.487661 24.574436
-64.301956 -20.903675 29.823509
-66.742012 -21.997530 24.334658
-84.111191 -21.549242 -7.785997
-82.494873 -21.250904 -6.952047
-65.267776 -21.118099 24.298161
-85.712845 -22.129881 -5.699206
-67.627617 -21.030643 26.567856
-42.054115 -20.318201 67.166771
-82.998772 -22.395981 -7.211211
-65.609772 -21.585848 32.457439
-83.731453 -20.884264 -4.226879
-48.357937 -22.039923 66.757309
-45.843307 -22.208681 66.787048
-40.968479 -22.350058 76.918121
-46.244469 -21.658644 66.847023
-48.306252 -20.885689 68.913338
-86.392006 -21.558861 -4.794421
-69.986649 -22.747545 29.496498
-88.251884 -21.021482 -7.310721
-87.664505 -20.702364 -2.414803
-88.493774 -21.057367 -4.444364
-66.972603 -21.275494 34.631119
-43.853954 -21.865664 75.186447
-43.780624 -22.692411 78.480080
-47.151833 -20.895273 70.715485
-70.622726 -21.197819 30.430696
-90.370415 -21.787237 -2.532081
-52.120598 -21.350172 64.355072
-66.683464 -21.803799 32.948177
-46.148247 -21.961422 77.969810
-47.221489 -20.623556 73.778175
-54.575333 -21.556082 65.621239
-43.981480 -20.746838 79.146370
-71.790939 -22.313578 30.292810
-71.149719 -22.235888 35.498501
-93.791649 -21.425125 -3.652699
-44.883289 -21.422966 79.213234
-45.245480 -20.317533 77.508949
-50.745728 -22.278692 71.254707
-47.758572 -22.431082 76.884308
-92.694000 -21.827049 -2.707737
-49.186115 -21.736376 77.090294
-92.944702 -21.154388 -2.323454
-55.754627 -21.610817 66.405869
-94.291557 -19.571751 -0.729913
-68.482475 -22.248293 43.897984
-72.849113 -21.105385 40.081558
-70.398376 -21.446022 43.308411
-96.309364 -22.496107 -1.699303
-56.671295 -22.476307 65.658058
-51.304546 -23.152874 78.338768
-68.790756 -22.511370 46.967361
-50.316978 -21.644281 80.810303
-74.001007 -21.146246 33.992607
-91.448296 -21.867254 0.419716
-69.634026 -22.138298 48.660465
-96.018745 -22.656748 2.835583
-94.341064 -21.567274 -0.512369
-60.346474 -22.063349 65.722061
-95.841866 -21.778177 1.226351
-50.825062 -22.126774 75.956757
-59.584251 -23.164915 64.978951
-95.917099 -21.454506 0.491956
-58.628838 -20.958139 69.858940
-73.288826 -22.274452 40.347355
-71.161934 -21.132744 47.666470
-72.418068 -20.472176 47.895290
-54.137421 -20.664000 79.159904
-59.725563 -22.431332 69.247734
-70.514114 -21.547066 51.323631
-96.695320 -21.650087 1.699070
-71.529175 -21.207453 52.089424
-71.054298 -19.570158 50.195473
-56.774120 -22.177652 81.051064
-63.918961 -21.125666 65.722191
-98.392097 -21.549877 2.212079
-99.379776 -21.266729 4.928459
-63.432510 -20.144735 65.994080
-60.279049 -21.185007 72.070274
-58.713020 -22.460716 78.802307
-59.566105 -21.327261 79.075760
-100.156944 -21.830482 4.303803
-63.714931 -21.910013 70.936493
-65.734169 -21.097410 69.255219
-66.980881 -21.845308 70.115982
-104.796341 -20.529627 7.142306
-99.820534 -21.121109 3.851498
-68.742622 -21.581446 70.642303
-80.960396 -21.477642 46.108818
-104.012962 -20.461237 8.761950
-38.243633 -21.328196 119.655998
-84.887894 -22.577137 42.362129
-104.887093 -21.171162 7.791622
-41.465618 -21.650270 120.324165
-70.657600 -22.187403 65.400261
-72.849159 -22.898729 63.431637
-82.261597 -21.329910 43.317585
-85.467400 -22.224743 44.993858
-83.969559 -22.754988 48.639584
-85.745110 -21.791763 43.365799
-105.509933 -21.693430 8.938306
-107.831482 -21.503195 7.323442
-44.353661 -20.850367 122.436058
-75.411797 -20.986494 65.961426
-108.612915 -22.338623 9.051857
-104.981888 -21.717665 10.875790
-108.429268 -21.253651 12.934661
-104.814804 -20.278610 8.436140
-44.187752 -21.629230 121.196678
-77.536674 -22.250910 64.446312
-107.972214 -22.242865 14.694685
-76.782845 -21.078182 69.320114
-76.385468 -21.878044 69.207153
-47.205681 -21.645102 121.780701
-86.404572 -21.183025 51.683079
-46.793453 -23.743340 124.126198
-110.268951 -23.250845 12.370931
-108.072594 -21.746058 14.421839
-113.020699 -21.677687 14.048540
-78.161049 -21.020031 70.729202
-108.879295 -21.910908 13.505896
-53.975765 -21.882795 111.913368
-77.546730 -23.149307 70.301407
-48.980312 -21.954865 123.091423
-51.884525 -21.525185 120.459000
-109.171738 -19.995676 18.834534
-87.354271 -21.925879 55.905365
-90.849823 -22.068165 50.219864
-52.417522 -21.429663 115.771202
-81.049240 -21.514393 69.078079
-53.144894 -21.436089 117.248901
-57.387951 -22.269733 113.308449
-49.841873 -23.009819 122.747238
-52.793064 -21.295155 121.310112
-111.512703 -20.666935 19.725222
-110.770187 -20.046358 14.549576
-89.712448 -21.350658 56.155064
-85.925865 -19.796726 64.838219
-55.324181 -22.156181 118.233353
-55.987022 -22.155453 113.633888
-91.814056 -21.356604 51.475910
-92.163780 -20.182310 51.312801
-52.650372 -23.167978 122.712547
-86.851074 -22.095295 64.671532
-90.601044 -21.409306 56.575512
-83.799721 -21.947741 70.277748
-94.070045 -20.545782 51.313229
-87.955528 -21.411497 66.038666
-93.082550 -21.767160 57.807354
-113.754860 -22.059381 22.015461
-54.655079 -21.452848 126.022217
-86.364471 -21.798170 69.886909
-85.559319 -23.185053 69.931953
-113.162918 -22.148306 22.649538
-115.062874 -21.683323 21.549763
-57.427307 -22.727428 128.689346
-116.188858 -21.188515 20.877563
-50.723770 -21.440739 134.634399
-72.059586 -21.796144 97.072968
-92.389839 -22.313517 60.095570
-114.544632 -21.361582 24.239296
-88.020058 -20.952255 69.959999
-95.135185 -21.308321 60.771786
-83.096558 -22.588823 76.849594
-70.656273 -21.579674 99.657677
-72.348450 -21.814760 99.040588
-57.636864 -21.519009 127.602440
-83.738022 -22.412094 76.498474
-85.378883 -22.344072 74.722664
-55.084148 -21.026735 131.143188
-88.979187 -21.257690 74.208328
-85.507187 -20.977760 74.792435
-114.855278 -20.502314 28.931509
-115.603867 -21.708736 23.591402
-117.181389 -21.718380 26.536276
-72.814507 -20.976564 99.599861
-93.472481 -20.218842 64.954010
-69.424034 -21.173622 106.658516
-86.956017 -21.814749 77.338402
-55.462364 -20.897219 127.840790
-72.226418 -19.420794 101.322403
-117.073586 -22.262585 26.177505
-94.767868 -22.936401 63.664803
-114.499123 -20.628456 27.789074
-51.875671 -21.500475 133.228592
-92.733650 -21.610735 72.235176
-71.808617 -21.731018 107.396225
-99.977150 -21.604422 57.956455
-118.733665 -21.700251 28.488842
-96.898170 -22.564991 59.197128
-60.005833 -22.903612 130.030685
-117.079842 -22.106632 30.007637
-53.366501 -21.842737 135.026108
-56.772633 -21.278515 135.070953
-57.486958 -21.462038 131.738220
-71.179756 -22.038502 108.540581
-91.983292 -20.293446 75.901909
-58.598244 -19.963055 131.068420
-70.986610 -20.645615 111.913651
-96.362335 -22.396307 66.118042
-71.099190 -21.260794 110.035461
-96.023483 -22.016363 69.700104
-96.471603 -21.990221 61.560764
-58.151859 -21.206913 136.271576
-95.050682 -20.671715 73.691147
-57.777851 -21.641813 135.539612
-118.907555 -23.355721 29.350706
-98.014771 -21.209677 64.998001
-101.616508 -21.320566 60.035263
-59.439560 -21.844217 133.090866
-62.065472 -20.187489 127.365318
-67.003227 -21.972258 120.281860
-73.339180 -20.595373 111.640053
-94.585342 -21.183664 73.589317
-70.887306 -22.592464 113.102409
-58.031872 -22.775412 137.431320
-63.867348 -21.976875 127.466843
-71.622665 -20.740240 114.570633
-71.072456 -20.099649 112.458443
-94.393265 -21.440298 72.353172
-98.992622 -22.535545 64.648460
-117.551613 -21.464968 32.215187
-57.294292 -21.624166 138.762329
-58.706062 -21.576857 136.033813
-62.827599 -21.689201 130.213455
-67.621391 -20.371595 120.742363
-117.994598 -22.422010 29.823948
-70.705070 -20.973999 116.784096
-62.108578 -21.300798 132.227676
-62.876957 -21.013290 131.073944
-63.691330 -21.721355 131.830795
-69.550926 -21.317303 119.839317
-96.565956 -20.821877 70.342262
-60.029953 -21.339056 133.617142
-70.274086 -22.001431 121.692268
-96.550903 -22.618725 72.650986
-58.488117 -21.171995 139.045792
-65.077911 -20.578407 128.515610
-67.612869 -21.216644 126.201607
-62.362633 -21.512358 134.943710
-67.770149 -21.267530 126.412956
-70.718674 -20.873186 122.361320
-61.384426 -21.179380 134.657837
-64.807602 -22.183796 129.937210
-63.494888 -22.187077 133.116394
-119.188469 -21.256750 35.505089
-119.409843 -21.397106 36.434814
-63.258007 -21.817600 137.348328
-64.540581 -21.404694 134.513687
-118.581619 -20.540600 38.568462
-98.786324 -22.740166 76.663414
-101.358894 -21.125132 71.217033
-104.106010 -20.845797 64.561455
-105.188835 -21.466742 66.041077
-58.440239 -20.947357 139.657684
-67.225517 -21.392828 136.248901
-108.415070 -21.202610 65.138245
-119.172775 -22.477875 41.442055
-108.099785 -21.684462 62.707695
-108.029022 -20.983707 64.555603
-106.192162 -22.703175 67.187592
-121.836624 -21.929522 41.847157
-103.064445 -21.194033 73.447975
-99.440041 -20.916235 79.232529
-99.075294 -21.570988 79.899597
-100.272354 -21.313698 78.671738
-105.437576 -22.433777 70.037636
-105.512276 -21.111761 70.069260
-105.350945 -22.024361 69.800331
-119.845673 -20.755812 46.899460
-109.838661 -21.406822 62.809734
-91.591728 -21.145851 95.650848
-111.102020 -21.220985 63.175045
-120.122826 -20.805618 46.462803
-92.071808 -22.019897 97.460693
-111.304596 -22.019119 64.522095
-87.880905 -21.225365 104.333084
-92.044067 -21.351707 96.479088
-119.120743 -21.972475 49.901886
-104.263824 -22.320356 75.729134
-92.893723 -21.987745 98.370697
-93.039711 -21.515797 97.179962
-91.162247 -20.916462 101.238716
-104.860641 -20.877153 77.661674
-105.309669 -21.364620 77.798691
-87.385544 -23.445784 110.650543
-87.021286 -20.706169 109.779823
-91.940445 -21.266838 103.102493
-106.331551 -21.610638 78.041550
-74.121483 -22.440720 136.011322
-89.963516 -20.635542 108.537125
-79.074707 -21.194420 128.410355
-86.133614 -21.423168 114.599670
-107.607315 -22.536606 79.620094
-116.080025 -22.858906 65.264549
-82.053574 -21.811056 123.599731
-88.693832 -20.956242 115.613953
-83.144890 -22.627394 123.665680
-87.913658 -22.265717 117.869698
-85.060677 -22.129496 120.845161
-86.800514 -19.752195 118.445900
-85.817253 -21.683542 123.868103
-83.079170 -22.162037 129.201294
-72.887825 -21.737646 148.110321
-78.819023 -21.065639 140.114334
-77.806038 -21.767952 138.820084
-113.669487 -22.210672 84.567612
-74.194420 -21.132940 149.781952
-82.555794 -21.822214 142.459076
-125.954750 -21.483274 74.329231
-91.707367 -21.540852 135.191223
-88.380249 -21.759972 142.817719
-108.768723 -20.718088 103.827156
-102.391289 -21.664177 119.967865
-108.000061 -22.245489 110.771767
-113.845222 -22.439106 98.822418
-94.661156 -20.803972 132.262665
-116.621330 -22.495834 94.741295
-98.827751 -21.940153 126.574112
-115.850281 -21.206541 95.605721
-117.564400 -21.434837 92.990860
-122.229828 -22.199726 83.687996
-83.255737 -21.060789 153.793427
-122.219154 -22.781244 86.564026
-127.363380 -23.185198 78.601303
-117.588600 -20.893534 93.528931
-127.847900 -20.783438 75.907547
-111.124405 -21.476204 106.854568
-116.044296 -20.867075 99.161453
-119.607307 -21.651890 94.623253
-129.839142 -21.967321 75.492546
-107.378014 -21.832146 113.402359
-110.441963 -22.219818 109.473694
-117.037102 -22.335983 98.378883
-122.112495 -21.671209 89.223343
-104.781815 -20.934866 119.959221
-122.033066 -22.214096 90.430908
-124.989586 -21.804529 85.904030
-104.497505 -21.290735 121.883690
-128.680954 -21.905964 74.870461
-124.137131 -21.851885 85.674782
-126.639137 -21.585752 81.397942
-130.552948 -22.626495 77.931686
-131.314987 -22.563784 76.988075
-93.604675 -20.765095 140.988754
-95.882690 -21.900812 148.269623
-95.724236 -21.382996 155.375977
-95.917435 -21.715775 155.141129
-98.985855 -23.420181 150.838058
-12.567489 -19.695662 0.508933
-14.132371 -21.214447 -2.615519
-15.315478 -18.948891 -3.811433
-13.159784 -20.620461 -1.182700
-16.185532 -19.695688 -0.649618
-13.913369 -21.331718 -0.219415
-16.005053 -20.432476 -1.432129
-17.149479 -20.888481 -3.974983
-19.314472 -20.999027 -3.779589
-14.786535 -20.084063 5.297215
-19.843754 -21.047688 -3.652090
-22.094334 -21.085211 -3.784209
-17.450441 -20.542852 4.774563
-23.708761 -20.988163 -5.126394
-14.079763 -22.111124 6.837986
-17.444313 -21.904043 6.016426
-18.262659 -21.008772 8.440538
-24.407312 -21.625568 -1.313663
-24.815866 -20.657097 -0.188790
-22.198530 -22.135866 6.273785
-24.266665 -19.535646 1.202991
-26.070921 -20.753180 0.985291
-26.521626 -20.431387 -0.752612
-23.482697 -21.762539 4.851902
-24.991880 -21.319818 3.988285
-26.099247 -20.847059 5.425416
-26.572405 -20.838762 2.680949
-26.853872 -21.452299 4.373358
-5.079574 -20.413635 52.975548
-10.384392 -20.284044 42.307362
-12.240376 -20.314053 41.190697
-13.771979 -21.427368 36.753777
-16.127367 -20.481785 35.314236
-3.097528 -19.353676 60.915550
-5.910996 -21.168257 63.428631
-49.902145 -21.706722 -7.193730
-51.523769 -20.808767 -8.807917
-49.109840 -19.943314 -5.359971
-25.460779 -21.598757 35.311047
-8.126312 -22.675619 67.380356
-28.002394 -21.098711 41.040390
-53.643173 -20.613167 1.620902
-24.859299 -21.684135 52.580341
-53.259399 -20.475367 4.241711
-52.999580 -20.952774 10.698677
-54.232689 -21.524944 9.161764
-64.351639 -21.498339 -8.591540
-52.322479 -20.212730 10.026031
-54.886971 -18.942854 7.383713
-23.081079 -20.720663 61.360584
-23.807291 -19.711189 61.220165
-53.001534 -22.582190 12.900747
-57.912804 -21.193123 3.429004
-23.976408 -21.946981 61.464375
-68.918846 -20.632767 -12.586822
-26.290689 -21.279730 62.810760
-67.663536 -20.027386 -7.479460
-53.089794 -21.423910 15.778909
-71.435966 -21.202127 -12.358394
-24.757347 -21.012005 67.735992
-62.916714 -21.499126 1.781366
-57.773964 -22.266216 11.846475
-67.985359 -20.673498 -10.015676
-71.796432 -20.317768 -9.712776
-68.403152 -20.496136 -7.826254
-55.323578 -21.373196 15.924293
-21.270823 -20.636395 77.232773
-72.039444 -19.842897 -10.904131
-57.151676 -20.623161 21.266344
-73.412170 -20.927084 -10.221698
-58.870075 -21.343285 16.250238
-72.868919 -20.890007 -8.168655
-28.183125 -22.307920 76.262535
-61.783066 -21.327757 17.909660
-56.224411 -20.695938 21.920208
-60.600491 -20.537481 19.313559
-73.556076 -21.527515 -8.435160
-75.911682 -21.679033 -10.121403
-76.100746 -20.589348 -10.396978
-76.957352 -19.971149 -6.758231
-77.891266 -21.405231 -7.389846
-78.394165 -22.119030 -7.559509
-59.518913 -20.379665 22.488289
-59.095623 -21.964998 26.397161
-61.636173 -21.699589 19.643591
-78.230553 -20.544388 -8.051244
-63.106506 -20.598772 23.868095
-63.986938 -21.167936 21.715286
-81.506096 -21.390707 -5.408085
-82.702164 -20.908968 -7.557192
-62.314972 -20.637419 25.538353
-81.132996 -20.980368 -5.178102
-37.710793 -20.164005 74.854691
-38.603287 -21.538860 76.761940
-83.280472 -21.002497 -6.378950
-86.743576 -22.738037 -5.768461
-86.831512 -20.416929 -7.385755
-64.897079 -19.903154 25.668806
-85.147461 -21.437967 -4.545572
-44.668640 -20.645866 67.526436
-68.198418 -20.806034 26.959265
-41.028587 -21.186628 74.605064
-46.335377 -23.019823 70.484673
-48.106590 -20.857603 65.473000
-64.151733 -20.123472 30.837048
-69.072838 -21.421614 27.670519
-41.301926 -21.794685 77.577347
-50.450211 -21.205647 66.035057
-87.675400 -20.119164 -4.572994
-43.034195 -20.526535 74.607819
-91.354401 -21.559101 -1.798198
-44.289997 -20.886269 78.416267
-89.980278 -20.806057 -4.811700
-91.975281 -21.924757 -4.156884
-68.497765 -22.447376 35.847870
-50.360008 -22.952827 65.883377
-68.105827 -21.220591 32.976036
-46.831825 -20.264872 77.209557
-70.623390 -20.912407 36.453121
-48.604733 -21.701551 77.664734
-69.931999 -21.299597 37.930527
-68.641304 -20.836813 43.011562
-52.742691 -20.688393 69.806816
-67.585159 -19.834146 43.636944
-52.916664 -21.817560 70.920547
-54.549782 -21.240261 69.637352
-94.832878 -20.495481 -3.558784
-67.874565 -20.660442 45.974678
-74.145844 -21.780819 35.167877
-95.536110 -21.038424 3.154895
-57.031467 -19.259521 66.607422
-48.032917 -20.572916 80.072014
-56.526260 -22.067253 70.595673
-56.016998 -19.682919 68.391052
-72.238960 -21.656496 42.490906
-72.405022 -21.715881 38.717564
-52.732594 -20.905249 76.987686
-97.142303 -21.142996 -0.132446
-75.103348 -22.128740 35.269966
-71.703918 -22.169746 46.888264
-72.761108 -21.196827 42.627098
-76.218468 -20.533636 34.965481
-61.531216 -22.056776 64.428795
-69.081802 -20.659382 48.553196
-58.180923 -21.077061 71.680794
-77.805428 -22.761843 36.157398
-52.243935 -20.877018 78.769806
-55.238060 -22.160837 77.694321
-76.814102 -21.478069 38.105145
-53.438171 -21.452635 78.880569
-98.767281 -20.465294 -0.592235
-59.384224 -21.068110 70.427361
-76.909721 -21.647284 42.671154
-55.263351 -20.670282 80.272888
-99.297668 -20.521656 5.070790
-57.130974 -20.833324 79.015732
-59.983486 -20.862394 66.411674
-100.510811 -20.420656 2.997502
-63.074871 -21.244663 70.171959
-64.672592 -20.406675 66.202682
-67.449738 -20.810173 66.525475
-66.765907 -22.180462 64.962425
-101.341110 -21.546074 7.735053
-103.081299 -21.319326 4.165169
-70.377174 -20.513350 66.066505
-65.804161 -21.225147 69.069016
-78.473503 -21.656015 45.926815
-104.012566 -21.659409 5.791420
-38.366489 -20.388494 117.476280
-80.747360 -21.857710 45.866135
-82.119156 -19.771748 41.104374
-84.087296 -20.103035 41.509792
-41.174629 -21.033400 115.952957
-104.650566 -19.906584 7.481005
-71.013176 -21.961340 64.027252
-38.847176 -21.454861 120.122604
-42.430428 -21.786865 116.818275
-84.523682 -20.119106 44.818130
-42.953320 -20.530632 116.467384
-70.680893 -21.485493 69.512962
-74.189278 -21.508940 64.825310
-73.363358 -20.885935 69.326813
-73.985603 -21.583351 65.943398
-83.084076 -21.604971 48.947502
-85.660843 -21.634491 45.764713
-45.493317 -21.184092 118.503120
-45.441841 -21.388554 119.834976
-76.725456 -20.676203 65.332558
-86.835083 -21.669823 46.772964
-74.722595 -21.065973 69.759590
-84.417938 -21.647879 51.007545
-46.699825 -21.562241 121.609688
-73.720734 -22.190714 68.955566
-78.239861 -21.801126 66.006973
-86.218834 -22.361282 52.778584
-106.574593 -20.855255 11.890464
-88.823097 -20.765570 48.080345
-108.860596 -22.249601 10.521343
-90.231377 -20.618229 47.289394
-78.934792 -21.581417 65.121902
-79.324257 -21.847433 70.125809
-46.372902 -21.903507 124.078178
-53.255535 -20.614965 115.955673
-54.393475 -21.713453 112.358727
-81.056992 -22.516607 66.329140
-46.032635 -20.415024 127.581200
-54.456638 -20.597963 112.161011
-81.591988 -21.340731 69.357056
-86.708580 -21.153284 54.420216
-109.814392 -22.020596 15.876448
-48.533962 -20.346672 123.104599
-81.732803 -22.317619 66.721703
-48.118416 -20.868044 125.821381
-50.145138 -21.360950 122.483109
-82.295212 -20.650749 65.999840
-48.574993 -20.097883 124.238327
-56.254505 -21.397423 113.531761
-57.281429 -20.178602 108.827568
-48.496002 -21.197077 126.727852
-79.556679 -21.391289 70.328224
-49.538342 -20.532967 123.746475
-50.597870 -21.166140 123.659164
-56.594841 -20.872713 112.918587
-59.130981 -20.788284 110.128769
-82.521667 -21.797894 65.013420
-50.094116 -21.423765 124.294525
-81.034035 -20.584297 69.336220
-84.575912 -22.325739 66.488312
-45.717808 -21.115276 129.883453
-53.884266 -21.030153 117.001312
-53.182583 -21.136236 121.129700
-93.570038 -20.288731 53.522549
-57.081715 -20.465454 113.614143
-50.416580 -20.420149 126.559830
-47.711540 -20.919256 131.211426
-51.122044 -20.234478 126.845123
-52.899616 -20.540031 123.440536
-90.567970 -20.809977 56.184452
-51.520428 -20.791500 127.263664
-84.262978 -19.761686 69.578812
-111.512962 -22.126677 18.596945
-114.023491 -21.994768 18.235380
-53.197437 -21.299171 130.574875
-88.480072 -21.891489 65.411720
-50.846104 -20.588924 134.073761
-92.590828 -20.087349 57.860355
-71.962601 -21.082064 96.605957
-94.693619 -21.925442 54.654190
-70.659019 -21.214481 96.318916
-112.319618 -20.400171 22.975874
-71.833824 -21.418911 97.436378
-94.440163 -20.430668 58.319267
-92.172119 -19.680920 64.592789
-55.930058 -21.542437 128.476807
-70.159363 -20.449705 104.207100
-70.911201 -20.692020 101.334663
-90.868584 -21.362890 65.985733
-97.605499 -20.147764 57.989948
-58.404934 -21.428215 128.546295
-91.664574 -21.415821 69.851906
-72.678329 -20.560034 104.540230
-93.454590 -21.364313 66.448418
-88.172226 -20.669558 75.760300
-91.002731 -21.570826 71.416855
-116.479027 -21.765078 26.123297
-88.892967 -20.410679 74.047333
-73.204521 -21.511732 103.230385
-88.562439 -22.281507 76.446526
-70.248779 -20.641109 109.583725
-92.385078 -20.341131 72.068329
-117.749954 -22.049143 25.591202
-114.759560 -20.475838 29.140842
-96.912323 -20.762093 63.546421
-71.770615 -21.480682 108.140617
-94.264557 -21.515144 71.752121
-117.016769 -20.163322 28.821054
-115.609703 -21.108393 31.871460
-67.153557 -20.130531 120.426147
-91.449875 -21.197025 75.160240
-101.630119 -20.753670 58.563679
-117.261230 -20.911505 30.095091
-60.870876 -20.199539 129.003296
-71.595566 -20.508278 110.186737
-71.642807 -20.784306 111.840813
-99.746552 -20.932947 63.518768
-55.672344 -21.075041 137.952377
-65.467628 -22.558941 125.288300
-97.142014 -20.942657 68.582474
-117.092705 -21.324148 31.932442
-68.217842 -20.632025 119.111496
-102.373985 -21.895569 60.601139
-101.254410 -20.663990 61.229416
-100.779221 -22.246220 65.199669
-69.015976 -21.756069 116.938271
-99.317398 -21.348824 64.517250
-73.291634 -21.532837 115.178162
-94.355972 -20.613331 72.351173
-118.473343 -21.633944 32.803131
-97.394844 -21.064013 71.429161
-96.388016 -21.390858 72.603539
-98.236023 -21.476057 69.821205
-101.235878 -20.844896 63.356449
-120.400490 -22.456089 31.783171
-104.535088 -22.534103 63.897739
-69.349518 -20.416765 120.528870
-71.755798 -21.864426 117.770447
-118.884392 -21.569212 32.918877
-102.843903 -21.635201 62.373039
-100.064980 -21.659222 64.875137
-121.149681 -20.922634 33.603882
-65.347679 -20.517021 128.884857
-97.191788 -20.300100 73.425873
-98.878983 -21.070507 70.346954
-103.945831 -20.229975 60.144932
-99.563995 -20.268705 71.092392
-106.186317 -20.855391 60.675713
-98.965782 -21.565426 72.809013
-121.788498 -21.640541 38.621819
-99.052681 -21.714182 77.077789
-100.070137 -20.779482 73.429131
-100.514954 -20.245985 71.336456
-119.945335 -20.597363 36.761818
-101.214775 -20.376951 73.174591
-97.761734 -20.285410 79.219780
-109.763924 -21.596685 61.871731
-101.965408 -20.979345 73.115807
-103.627533 -21.591768 70.340347
-62.057880 -20.318560 142.024048
-99.441025 -20.537283 78.902962
-101.922935 -21.070393 70.915115
-120.219543 -21.164997 40.149036
-120.276100 -21.222359 41.972736
-102.250122 -20.618439 75.557884
-102.261909 -21.327015 73.319939
-107.595428 -20.643665 69.163887
-109.705444 -21.222296 64.717422
-122.311737 -22.114649 42.648136
-66.936935 -22.363272 145.779694
-91.916451 -20.379400 100.021500
-103.414810 -20.997658 76.499603
-110.151169 -20.704449 64.005180
-121.266182 -21.007372 45.920952
-91.838737 -20.938118 97.746307
-69.311386 -20.288759 133.651855
-90.551727 -21.020254 101.136154
-90.719299 -20.202782 100.630013
-91.373703 -21.369968 98.553261
-120.943703 -20.922222 48.807610
-87.376816 -22.060373 105.396362
-112.195541 -20.442804 63.799175
-113.079041 -21.718531 64.568245
-92.425652 -21.356249 99.519043
-119.572418 -20.536432 52.953083
-85.611145 -22.202248 111.806671
-91.723099 -20.351650 101.991524
-120.215004 -21.817322 53.806087
-106.671883 -21.071939 79.429604
-72.228081 -22.316816 136.298248
-120.175400 -20.622065 50.819481
-90.636162 -21.500078 106.292770
-85.855217 -20.543776 117.863083
-74.783638 -19.604988 135.210281
-86.557724 -21.593304 117.201111
-80.369621 -22.534746 125.321198
-82.887451 -21.630241 123.016335
-84.428558 -21.744122 119.417900
-84.870644 -21.824562 122.402237
-85.819122 -21.187500 121.415741
-78.520042 -20.621384 136.826721
-80.577194 -20.868727 133.598160
-83.260757 -21.310125 126.472359
-79.322159 -21.973257 135.218155
-119.810005 -21.152044 65.648315
-81.591042 -20.913849 134.508102
-82.083549 -20.567215 133.429932
-113.385536 -21.052633 83.865372
-117.930862 -21.578964 83.743706
-79.862526 -20.768774 152.992111
-86.301231 -21.719412 142.895920
-89.851204 -20.800266 138.414841
-123.144951 -19.710230 84.318512
-81.761856 -21.051483 153.697083
-93.310448 -20.968266 136.089691
-99.621872 -20.870098 124.020058
-103.372925 -22.206869 117.117882
-108.233643 -21.129704 109.930313
-108.044769 -20.236874 108.795738
-96.659180 -21.387688 129.666733
-111.585449 -21.591276 102.389816
