# This PCD file was generated using the MATLAB® pcwrite function
# from Computer Vision Toolbox®.
# .PCD v.7 - Point Cloud Data file format
VERSION .7
FIELDS x y z
SIZE 4 4 4
TYPE F F F
COUNT 1 1 1
WIDTH 1472
HEIGHT 1
VIEWPOINT 0 0 0 1 0 0 0
POINTS 1472
DATA ascii
-66.817635 -19.327431 -11.923365
-55.806877 -20.024899 8.980976
-66.187103 -18.991703 -10.352324
-66.936394 -18.895338 -10.563110
-57.024876 -19.645012 8.619481
-24.201254 -20.558796 65.274086
-60.181511 -20.690029 4.213149
-25.816431 -17.756605 66.146385
-68.213531 -17.690193 -11.168403
-55.596577 -19.136539 12.103418
-61.480526 -18.818928 5.671246
-55.693951 -18.842560 16.452831
-26.550123 -21.209406 67.622810
-26.123466 -19.505627 65.729744
-71.354729 -18.796156 -7.385951
-24.001987 -17.177969 70.080971
-27.039099 -20.151562 66.916512
-59.451122 -16.735958 13.402119
-68.013977 -17.402546 -0.147993
-69.642860 -18.296278 -12.164504
-69.928024 -18.987724 -4.901308
-55.657898 -20.581573 19.004152
-73.007141 -18.032942 -10.646972
-57.810715 -19.476223 12.889776
-59.716053 -20.444157 17.188545
-60.607433 -18.843643 17.644531
-75.631660 -17.496906 -10.660289
-76.984749 -19.533360 -9.203350
-28.633099 -18.450214 69.419891
-28.160496 -18.363808 72.807121
-75.052429 -15.658473 -9.862131
-26.964727 -17.784706 77.217300
-28.739300 -19.463884 77.892677
-31.314747 -18.779156 72.018478
-32.250393 -19.295301 78.098701
-32.441696 -18.806841 75.604233
-39.013527 -18.794739 68.002235
-41.907642 -18.349939 65.099304
-33.872967 -15.180647 81.870369
-37.490620 -18.891495 74.809700
-42.267979 -20.620869 63.262371
-38.715298 -19.340441 75.826836
-35.525505 -17.954098 78.933487
-42.196224 -20.371428 69.408447
-37.005161 -19.089258 75.374817
-39.374817 -17.835749 76.998131
-37.260712 -19.287449 78.197357
-42.410465 -17.282854 70.558563
-45.447601 -20.444374 71.142456
-40.072872 -19.354433 77.727554
-39.853390 -20.020273 76.301437
-44.951103 -18.118793 70.946144
-44.011353 -18.270159 69.662849
-47.203674 -18.184692 68.402885
-45.555080 -18.184557 72.781395
-48.066689 -19.315376 67.191635
-39.013172 -18.658304 87.184212
-66.345009 -17.545551 37.832836
-67.652657 -20.298004 36.388134
-40.456184 -18.486645 86.571274
-51.616470 -20.376688 65.273796
-48.812199 -16.789644 68.435135
-68.293793 -18.406036 38.869400
-40.655258 -18.491468 89.951187
-68.921806 -19.664362 42.113052
-40.660007 -18.940388 91.076759
-68.245575 -17.813955 43.737583
-71.670052 -15.277316 42.127056
-71.578545 -20.891760 39.138466
-69.447174 -18.516691 42.623634
-41.619709 -18.530205 86.873100
-43.022736 -15.989411 93.003609
-43.491035 -17.756948 95.886162
-47.135838 -19.785995 99.822876
-47.461937 -17.763317 95.410515
-77.771706 -19.691673 42.404980
-79.003250 -17.558298 41.041939
-47.656284 -20.569103 96.800903
-38.926411 -19.737009 119.672134
-47.418766 -18.694565 102.481201
-35.861328 -18.876753 118.054726
-41.733509 -19.691877 118.423622
-80.566376 -18.443279 44.186405
-40.517593 -18.443848 119.455315
-39.632851 -17.048914 117.467316
-42.317928 -20.406704 117.484993
-84.457420 -19.070211 46.085045
-81.056580 -19.469082 44.825462
-83.349998 -19.400438 42.737480
-88.043137 -19.010117 48.369122
-43.034142 -19.095188 122.900726
-83.017548 -18.185055 44.244343
-79.899147 -18.272718 46.999783
-45.484356 -20.036901 118.256065
-52.351463 -18.459723 105.320343
-43.643990 -17.915068 122.712738
-88.848022 -15.949122 45.496552
-87.671318 -18.753473 46.444199
-91.024895 -16.710918 47.953335
-49.283978 -19.522562 118.990860
-56.438549 -17.642200 105.395035
-86.249550 -17.333311 49.706337
-89.938004 -20.262098 51.728436
-53.110195 -19.407349 116.199646
-52.614296 -20.186388 111.660500
-86.830009 -19.586346 54.365139
-44.997242 -18.679279 127.043587
-47.469879 -22.033041 117.574913
-52.114059 -18.385504 115.565788
-45.607033 -18.480127 125.736618
-46.050800 -21.030869 130.572495
-44.553177 -17.202961 130.059952
-57.134754 -19.778112 105.707802
-81.450104 -20.116802 70.331337
-89.854523 -16.630428 51.522507
-45.272007 -17.157852 130.719543
-80.050026 -18.413748 67.871277
-46.211521 -20.500130 124.967537
-85.717148 -18.964317 64.711090
-87.739998 -18.438490 52.834496
-46.366688 -19.978086 129.835266
-48.765953 -16.958637 123.739418
-60.291603 -19.251869 108.568123
-53.241188 -17.983557 120.163124
-82.591637 -18.104656 69.168785
-48.415211 -18.050608 128.477722
-50.713795 -19.230124 126.536583
-56.527260 -20.198582 118.909447
-91.675919 -17.552723 54.378738
-46.538261 -20.256514 129.329514
-57.220730 -20.216942 116.027275
-59.648563 -18.922762 110.872826
-59.550529 -19.191885 115.628258
-84.729614 -18.434999 69.838707
-86.354263 -17.425440 67.311844
-84.694374 -20.128111 68.389969
-55.251629 -19.002815 122.600784
-48.060822 -18.170698 133.186172
-53.224476 -17.234222 124.980965
-89.642921 -19.525547 67.093979
-52.059864 -18.029259 130.380692
-90.141937 -17.576872 66.699631
-50.194168 -17.100090 135.289093
-52.227032 -17.417633 131.914108
-51.128719 -18.604210 136.681061
-60.719227 -17.695080 127.184700
-90.236038 -16.880848 68.371201
-89.503014 -19.390217 69.525581
-61.275463 -18.743721 127.404221
-68.932312 -17.694111 111.923286
-97.023468 -18.379675 66.344162
-94.681046 -16.749397 68.218987
-72.449303 -18.420086 109.052628
-57.190083 -20.373919 136.807251
-65.851936 -17.120590 120.640541
-72.560654 -18.584558 111.837402
-97.366394 -17.167843 68.175240
-62.914761 -19.496206 122.247299
-57.424427 -17.915964 137.810333
-69.086281 -19.384239 114.564346
-71.494713 -18.806911 113.696632
-58.232761 -18.594234 136.713058
-71.824615 -17.600704 117.804474
-99.315262 -20.806822 68.231880
-98.597343 -20.786669 66.371811
-101.331306 -16.836346 64.036140
-72.493095 -19.203367 114.463562
-102.201683 -20.195728 64.702812
-102.307823 -17.973625 66.760880
-98.895645 -17.490856 72.368271
-99.594986 -18.678471 69.818558
-71.870842 -18.574564 119.083549
-75.027344 -19.491810 118.381355
-97.668434 -16.380884 68.475426
-69.984352 -19.221544 122.804291
-99.411392 -20.570541 70.542381
-103.032265 -16.879370 70.858833
-103.234970 -18.820320 68.570862
-120.287445 -19.971035 38.203781
-101.385605 -20.991306 70.459862
-120.776077 -19.383106 37.492210
-102.490555 -18.097176 65.405663
-102.734398 -18.253036 74.433807
-105.440254 -17.018005 67.161598
-105.826736 -17.310345 65.752457
-107.067223 -17.591629 66.635635
-105.346573 -18.992785 65.483223
-104.132889 -19.141335 69.759064
-118.745293 -19.175108 42.089287
-122.378731 -17.982368 42.079617
-110.530060 -21.083004 65.376869
-119.333733 -19.432312 41.547543
-117.847527 -17.962816 46.202942
-120.170448 -19.774553 48.147335
-117.205482 -17.009892 49.973217
-118.724564 -18.073803 54.842976
-118.560280 -19.064793 53.917572
-119.996841 -21.205473 47.975662
-117.725380 -17.701168 59.203007
-106.191025 -18.930910 80.238663
-118.784538 -16.254934 55.685631
-71.264175 -19.805111 140.932007
-77.641685 -18.452003 129.458145
-103.759636 -19.484476 76.220940
-120.155495 -17.843897 63.457661
-120.215111 -15.548700 56.091637
-83.165863 -20.274084 127.495575
-117.193626 -18.905674 63.193573
-82.372360 -20.101450 124.604401
-84.822235 -17.857670 117.906303
-120.298477 -18.915159 60.027451
-121.304596 -17.660126 57.045925
-74.718819 -19.979422 137.842331
-82.890663 -18.803968 125.343086
-86.924103 -19.797226 121.714996
-86.015961 -16.178345 120.387054
-111.689011 -18.100670 76.941856
-74.273819 -20.600634 138.612686
-121.554916 -18.945847 62.136517
-84.424942 -18.317957 124.208389
-85.744171 -18.177860 121.765938
-119.961227 -18.032501 57.066540
-84.851410 -19.277903 123.041641
-87.153358 -18.238758 122.663925
-118.592232 -20.198732 62.406906
-123.053802 -18.194967 61.139881
-74.779152 -18.585821 141.932739
-80.764801 -18.600584 135.445648
-84.103394 -16.792162 125.620811
-83.592201 -19.693428 121.725754
-84.858498 -17.966230 125.597420
-79.117325 -20.574362 134.027435
-120.758232 -19.188402 63.181870
-80.019196 -18.344057 136.948944
-84.714714 -17.420052 131.059616
-82.209686 -20.067396 133.671387
-86.971710 -18.450861 125.982262
-116.643898 -18.708210 79.860451
-77.909271 -17.539333 138.352661
-112.257767 -18.995457 79.241058
-117.553688 -18.606127 79.803558
-115.507477 -19.993410 79.163788
-83.509872 -15.766431 143.876480
-121.986664 -18.456511 68.953568
-83.430908 -19.640959 145.992554
-86.274536 -20.710072 141.751312
-120.441269 -18.348488 82.966255
-121.185982 -16.546640 82.186821
-129.278351 -18.234030 73.243721
-92.078918 -19.679680 136.221893
-92.368141 -17.973225 137.428894
-91.266159 -16.267717 138.542130
-122.196709 -19.838932 86.389481
-90.737190 -17.787983 140.481277
-95.097923 -18.687353 137.054077
-96.553650 -19.903660 131.810059
-96.439018 -18.821852 135.215469
-126.993706 -18.487730 76.424088
-92.038467 -21.654037 142.681076
-126.924789 -17.543859 82.346611
-94.046051 -18.208429 141.018539
-98.530014 -19.091520 136.824966
-90.769096 -18.828064 149.089996
-91.992073 -18.910440 153.178116
-92.912636 -19.648251 148.116867
-90.403358 -16.940435 148.932785
-95.725151 -17.374403 146.928970
-94.700417 -17.136196 150.691605
-93.408592 -15.695905 149.158661
-98.051414 -17.557655 148.997177
-96.346962 -18.510469 151.188095
-95.779991 -19.023224 153.881058
-98.412018 -18.273966 151.452759
-98.029358 -20.563675 152.997421
-17.376652 -19.520493 -4.671799
-23.123497 -20.460094 -5.267508
-17.558950 -20.305668 9.506022
-22.899172 -18.535349 -1.960688
-22.703201 -19.836267 4.454311
-27.202909 -19.794970 -3.112461
-23.694777 -18.558710 4.616794
-21.171387 -20.073759 6.577790
-26.887726 -16.958239 8.206652
-26.173721 -18.941153 5.439057
-26.692076 -16.983589 5.614995
-2.915624 -17.489723 52.997959
-7.422750 -18.878971 39.678917
-1.564572 -16.066917 56.485310
-11.863650 -16.886492 35.443596
-16.754539 -17.398878 34.459927
-20.235804 -19.661625 32.045208
-47.648258 -19.514977 -10.790764
-49.370167 -18.202705 -10.069561
-46.177513 -21.280489 -8.964131
-47.659351 -20.239552 -2.900834
-55.460068 -19.182137 -16.523539
-7.844246 -18.126604 70.962402
-58.062824 -20.601412 -16.231976
-57.049488 -18.405806 -12.108639
-25.173904 -19.250391 49.118908
-24.484734 -17.038876 45.560806
-23.244678 -18.027905 47.979492
-47.899761 -18.348503 -0.469618
-21.530298 -17.680727 48.570160
-53.363705 -16.184546 1.806775
-21.809139 -15.925879 53.617233
-53.476940 -18.095734 3.651894
-12.815715 -17.420965 73.098488
-52.829124 -19.444372 8.437685
-24.086716 -17.326050 56.106049
-65.126999 -17.802486 -13.051343
-51.816833 -17.918844 13.678533
-56.335644 -16.752195 4.375901
-57.726551 -16.635696 6.606172
-56.777504 -17.335966 8.125270
-16.050764 -18.685158 74.308884
-56.471317 -19.106501 14.353098
-51.631973 -17.365126 13.030665
-54.954243 -18.909616 9.857019
-56.349529 -19.001364 14.320580
-56.865814 -17.661272 9.417284
-68.816116 -17.990971 -9.977057
-68.925957 -17.912367 -7.860972
-22.691980 -18.922707 67.199760
-54.062885 -18.474199 13.809798
-25.074154 -16.539885 66.276718
-61.930454 -17.635279 7.320761
-67.976730 -18.750471 -7.667465
-29.845304 -18.849070 70.336388
-56.449108 -16.760929 16.760115
-24.107759 -17.479452 74.698830
-26.762424 -17.099768 65.060310
-64.243980 -17.789339 3.987829
-68.935188 -18.373850 -0.989833
-26.698505 -20.522194 68.968201
-26.986065 -17.903229 74.213280
-31.526651 -18.721449 72.644089
-28.161314 -21.144203 77.674889
-28.658052 -18.777851 81.812431
-28.444189 -18.466524 77.992050
-30.234871 -19.415136 76.507721
-31.892223 -17.501488 71.001396
-38.448639 -16.406517 62.007675
-35.168644 -18.141893 64.659584
-33.295086 -17.710850 75.456924
-40.484699 -20.574440 65.037003
-29.569328 -18.167940 76.947510
-30.217419 -17.603691 80.604904
-36.446793 -20.492474 73.812767
-31.858599 -17.822023 75.735130
-37.386673 -16.378925 73.478294
-38.860992 -16.419348 69.559357
-41.395763 -17.462042 67.642159
-35.270721 -17.435640 74.805054
-39.882618 -19.868103 66.646469
-37.056519 -19.499119 76.400543
-36.295441 -17.020485 78.421196
-39.380859 -18.244392 65.618919
-36.673550 -20.250671 76.122353
-35.789833 -17.361504 77.764374
-45.036552 -19.085033 63.187744
-41.785328 -18.750559 69.875145
-35.955986 -18.102911 82.048309
-38.840122 -18.664532 79.879555
-39.190468 -19.817385 73.315544
-45.833496 -18.495504 65.469498
-46.530361 -18.937939 64.819000
-45.899387 -16.046377 67.550095
-36.832378 -19.005205 83.244827
-38.791332 -19.439125 84.083817
-41.595890 -19.079767 76.257652
-39.759857 -19.549223 82.268623
-40.293095 -19.285757 75.398170
-43.402489 -16.005497 72.481438
-47.519203 -18.866861 68.085503
-42.346676 -20.453783 77.289207
-65.248932 -19.422264 36.927418
-47.854317 -16.398109 67.121231
-48.208385 -19.706491 68.692986
-68.998665 -15.928417 34.431877
-46.652863 -18.334000 67.423653
-53.072174 -19.317650 69.076584
-67.235115 -17.835611 43.234203
-69.739075 -18.510181 40.843735
-41.765312 -18.746515 87.559013
-42.521267 -17.210043 92.291328
-43.527874 -17.826334 93.980606
-39.581478 -18.535378 118.612122
-48.756149 -17.904518 101.947853
-54.923931 -17.523478 101.116684
-50.745659 -18.940029 103.910240
-44.176670 -16.984272 117.702255
-55.517620 -16.952951 99.272682
-45.313385 -18.951038 123.583908
-55.062515 -18.469137 106.024452
-50.307953 -17.496929 125.487808
-51.537327 -16.990080 121.281792
-55.009167 -17.991232 108.968407
-47.500130 -19.648968 124.908943
-49.725372 -20.231016 124.813469
-49.375912 -19.129341 127.151985
-56.244503 -16.946041 124.489960
-56.602264 -17.605358 127.716888
-61.077202 -18.788872 127.729546
-57.984657 -18.016695 131.597549
-70.765335 -16.767065 110.866859
-68.277473 -16.717001 120.245667
-71.186508 -18.782206 115.932022
-74.038689 -20.336260 110.902214
-69.162048 -18.608557 122.062538
-70.930077 -18.210297 112.362984
-64.614159 -16.207106 127.740150
-62.259174 -20.959862 135.163223
-99.160530 -16.992462 66.601402
-63.519131 -18.419041 130.196381
-67.228462 -19.242432 127.398880
-100.841988 -16.983873 63.983089
-62.623848 -17.241573 135.424561
-66.492363 -16.432783 124.477173
-70.697990 -16.370773 118.489784
-67.065437 -19.520281 126.432487
-69.067284 -17.375519 121.406090
-102.359726 -19.597553 67.675850
-98.205650 -20.339760 74.991776
-105.793701 -16.641897 65.303497
-97.935738 -19.764397 74.323265
-103.266861 -18.944977 74.108910
-106.890984 -19.482466 67.026527
-104.874870 -18.319340 65.993607
-109.349579 -18.721642 65.205910
-105.574036 -18.386316 74.979912
-67.028038 -18.406107 138.009430
-119.900566 -18.244881 46.427708
-121.460609 -19.444386 43.655411
-112.288330 -17.075653 64.869270
-118.312935 -17.891573 49.350361
-121.673500 -18.666004 45.666771
-120.780075 -17.536551 48.198677
-112.506989 -17.844917 63.488552
-117.973999 -17.134001 51.888958
-121.671074 -17.771091 49.661118
-70.896835 -19.359137 140.027512
-101.653297 -17.797184 76.788979
-121.144058 -16.587061 51.815132
-117.921730 -17.550735 53.327816
-69.109833 -19.092497 138.528931
-73.449089 -19.485870 136.717712
-122.906433 -18.813812 54.319046
-81.211433 -20.080030 128.766739
-117.069191 -16.556309 65.700317
-120.757614 -16.208221 59.428566
-121.366028 -18.422298 55.943619
-76.036263 -20.067863 137.853516
-77.256920 -17.633087 132.082504
-78.822548 -17.882399 128.982605
-107.916100 -18.624260 74.901421
-119.699577 -18.013763 56.677258
-121.008636 -17.426893 60.529392
-77.478157 -17.403296 132.235291
-76.306664 -19.447105 137.816162
-76.899551 -18.200420 137.377991
-82.030479 -16.943813 128.064789
-110.171890 -19.482126 75.567505
-76.782661 -18.054119 127.335793
-121.172150 -17.733500 62.756741
-78.449875 -18.480923 135.090912
-114.116661 -17.978329 75.617821
-75.090462 -19.136974 139.684052
-120.675148 -18.350506 60.911633
-75.602890 -21.300219 137.412048
-81.194397 -18.206112 130.303818
-83.951874 -16.903973 129.350220
-84.601990 -17.718424 125.332176
-82.469505 -18.214821 131.923370
-83.751328 -16.567924 129.765701
-82.369408 -17.286793 128.270950
-86.213249 -17.901737 126.498260
-113.657669 -21.108624 76.839661
-118.923149 -19.623222 64.354027
-121.108253 -17.393261 64.869827
-78.658791 -17.653360 141.235428
-119.973221 -19.922749 64.747177
-114.917732 -18.403753 78.008446
-120.154999 -17.046904 81.654640
-116.815300 -17.164846 76.223244
-120.602165 -18.813721 81.847031
-126.113739 -18.894913 72.925346
-92.284180 -17.299934 137.560532
-93.397621 -20.178122 136.364761
-88.413300 -17.937439 144.039993
-93.795547 -17.148209 136.283554
-92.751999 -17.402367 138.492142
-94.763359 -16.998121 136.491364
-92.236519 -16.735126 139.879944
-86.405495 -15.873182 149.540207
-90.710716 -18.291451 143.506790
-94.278786 -18.988819 134.168335
-85.910767 -17.054430 150.345001
-88.809998 -20.652660 146.678925
-95.274719 -17.363813 137.293076
-91.615295 -16.079678 141.561356
-94.471222 -18.981070 135.580414
-95.485809 -18.312582 135.826584
-96.336975 -16.269560 134.869507
-87.550323 -18.201159 148.539337
-96.057968 -17.235689 138.368881
-125.068741 -18.929853 83.303963
-89.909737 -21.429173 147.872833
-14.797017 -14.593156 -4.368142
-14.750720 -19.998133 1.410129
-15.657410 -18.447981 -0.301744
-15.736476 -22.859999 -0.555736
-13.026819 -19.796215 6.554333
-25.302227 -19.565374 -5.503993
-21.545094 -13.778347 -6.981043
-20.115257 -18.661554 4.911751
-19.977015 -19.601715 9.899530
-28.746176 -22.287672 0.795925
-29.432718 -17.905184 1.982143
-27.678314 -18.709595 3.770349
-28.897738 -20.958578 0.866876
-9.911943 -18.745943 42.419888
-3.915803 -18.392691 51.986137
-12.467461 -19.045271 38.100128
0.230840 -17.135908 58.678394
0.641900 -13.664514 59.209225
-18.739094 -14.924735 28.863380
-2.309896 -19.669559 61.035213
-47.742847 -18.010637 -7.874679
-50.006302 -19.506081 -12.867857
-22.867014 -17.359634 29.743107
-47.758965 -18.924788 -8.465117
-48.443928 -16.722233 -11.253306
-47.857288 -16.803711 -6.274776
-55.060978 -16.145172 -15.127576
-22.792982 -17.475012 35.520802
-26.014458 -16.757153 32.328213
-47.712593 -17.543663 0.582286
-51.970585 -20.178566 5.263702
-50.024231 -17.131092 2.605677
-51.110634 -18.124691 4.445469
-53.013512 -17.880432 3.361431
-60.462143 -18.172232 -13.220757
-24.006208 -17.295681 53.707230
-26.592180 -18.157730 55.231831
-55.167355 -18.608158 10.080822
-52.520866 -17.495522 13.429644
-55.343651 -17.153460 7.769813
-24.923054 -16.052792 60.420090
-55.017033 -20.122972 10.376028
-67.823997 -18.889563 -12.700468
-26.185240 -17.384977 62.790283
-17.053644 -16.259851 77.131348
-26.149702 -18.996950 63.503510
-20.387547 -18.217361 79.034286
-25.525995 -16.024651 65.641121
-56.502266 -18.571444 16.151808
-27.625750 -19.147961 66.527008
-56.484341 -18.008963 13.183764
-26.526678 -18.094791 66.959930
-71.169823 -18.209238 -5.673598
-27.190899 -18.190376 69.743889
-72.790947 -18.345554 -2.966568
-28.625927 -18.203476 68.709412
-29.572952 -16.623192 73.088516
-30.747152 -17.975042 72.987396
-37.812332 -17.452042 66.766594
-32.071598 -16.841059 75.178802
-27.476770 -18.083382 80.975502
-36.240440 -18.058565 75.027809
-32.147251 -18.510548 83.270775
-36.943382 -16.766489 66.764511
-35.973568 -18.841333 68.350769
-39.361012 -18.584614 66.389061
-32.022217 -14.363338 76.908272
-38.763790 -18.757736 69.205536
-34.139755 -16.710939 75.882751
-37.880646 -18.350933 76.332008
-33.514282 -18.876520 76.912689
-44.007656 -18.167389 66.440598
-35.619423 -17.720825 77.243118
-43.900696 -15.808046 67.841644
-40.661747 -19.358173 76.247131
-40.976761 -15.819924 69.349854
-37.720592 -18.968390 77.619057
-34.503418 -19.103977 83.122955
-37.846035 -16.010925 76.488152
-44.989594 -19.160696 71.984283
-39.462009 -15.027476 76.252266
-43.325527 -16.730261 71.142113
-44.217125 -18.120863 78.916756
-36.626442 -18.687510 81.012947
-45.523003 -18.487888 68.564026
-66.499977 -14.607428 32.147823
-35.390636 -17.063255 86.233688
-38.022831 -17.848324 83.844193
-38.960926 -17.564978 82.460800
-64.760300 -16.896400 34.379250
-49.539196 -15.372125 67.850563
-68.078651 -19.036646 38.145203
-38.673550 -18.416168 83.017441
-67.498215 -17.149355 39.023319
-69.262405 -18.442074 36.205574
-39.489281 -15.692763 91.357895
-67.712662 -19.040417 42.478313
-67.395187 -15.529764 40.389530
-70.405647 -19.397871 38.521439
-44.526833 -17.469324 91.667595
-44.820709 -17.564135 94.695213
-46.634411 -16.490503 92.554581
-49.354454 -18.496069 96.656967
-47.089729 -15.284061 95.280434
-45.336964 -19.688749 98.169945
-51.528290 -18.960581 98.711739
-37.985138 -20.065222 115.403023
-50.572357 -18.288410 100.072922
-38.251045 -17.412659 121.718430
-49.795872 -19.259691 101.881676
-42.469933 -15.411174 116.848335
-44.967415 -17.314688 119.544212
-44.681080 -16.787794 120.160820
-54.135078 -18.831951 102.779243
-53.348198 -17.511574 105.661453
-59.164570 -18.155231 104.493195
-46.947113 -19.084612 119.280830
-52.343033 -15.694813 109.558372
-55.292683 -18.773577 106.873100
-52.515137 -18.423090 118.806564
-56.274963 -18.824553 108.087601
-57.146370 -17.052277 110.150398
-49.910614 -17.732224 123.168404
-52.725052 -17.462841 122.739227
-56.443798 -17.227705 112.293663
-48.731949 -17.832808 128.536530
-57.011292 -16.623041 109.650307
-53.515347 -16.876850 121.477867
-59.195522 -18.734291 111.093269
-56.867908 -14.625695 114.490509
-52.746750 -18.958780 117.778320
-58.555088 -16.079304 111.499779
-52.469261 -17.358818 122.438522
-56.417622 -20.778643 116.239342
-57.539303 -17.974890 116.049522
-57.636871 -17.978924 116.003937
-61.303757 -19.237770 110.406616
-59.802971 -17.407730 127.667023
-59.862427 -20.118799 129.730759
-60.388771 -19.334017 128.085907
-65.017525 -20.029036 121.912689
-58.758518 -16.215487 133.780106
-64.994545 -18.741148 124.106461
-60.500847 -17.347858 133.822693
-64.607559 -16.605265 123.879341
-70.646049 -15.723246 115.094620
-71.364166 -15.358192 118.106735
-62.926785 -17.916456 131.986633
-72.385445 -18.046255 115.962112
-71.200279 -19.857080 119.677261
-69.595276 -17.141876 120.127434
-73.351974 -15.707479 118.540718
-67.850952 -19.491241 117.980888
-70.104294 -18.149157 122.114876
-67.057426 -17.004604 125.245392
-69.620438 -18.212206 122.025726
-69.151497 -18.917919 123.341492
-72.049370 -17.949774 119.928566
-65.392632 -21.292219 130.625671
-64.044014 -19.610111 136.214737
-100.312424 -15.751904 65.778519
-65.567207 -18.471828 135.017227
-64.573357 -16.869503 130.605515
-104.450722 -17.447361 64.069183
-103.581810 -16.904371 65.528206
-102.910202 -18.694786 70.190544
-104.475922 -15.962046 69.508736
-106.330902 -18.937658 65.113579
-108.937599 -18.190609 61.931114
-69.656616 -19.955420 134.420563
-104.743439 -16.100836 73.967140
-111.224907 -18.474663 63.524059
-70.363380 -17.030804 135.438004
-118.625923 -18.656055 47.507999
-119.102608 -15.795030 50.320873
-122.602783 -17.904772 50.666031
-72.098946 -20.299828 135.955536
-121.036064 -17.270346 51.910408
-105.576096 -16.291250 74.559113
-119.872307 -16.433037 57.786999
-120.034721 -18.617714 55.588024
-119.656082 -15.411365 62.824120
-80.481201 -16.045351 128.675018
-111.832726 -18.820644 71.159981
-79.789497 -17.320469 133.817581
-77.725792 -16.965254 134.356110
-83.709496 -18.610668 127.902962
-79.782570 -17.638733 133.711548
-80.197273 -16.608934 127.359314
-117.562851 -18.296473 63.804546
-78.791969 -17.881346 133.863083
-122.173523 -16.963703 59.808201
-119.443466 -19.357395 65.158478
-120.714584 -16.326317 64.197739
-120.744293 -17.384237 64.646774
-122.189995 -17.574068 61.016052
-78.024979 -19.526737 141.793335
-115.251984 -16.576277 74.746880
-82.379982 -20.169071 144.125336
-117.211830 -17.851267 79.508820
-120.746529 -16.629368 79.478424
-85.237312 -19.380638 150.098465
-123.711876 -15.377019 81.497200
-87.562141 -18.398075 147.844437
-88.582199 -17.145750 147.612564
-125.706001 -16.463928 84.823006
-88.331909 -15.553295 149.096390
-91.916809 -16.088425 146.549133
-129.636261 -19.625414 79.061150
-128.028900 -15.795411 82.675964
-90.850609 -17.380379 150.573792
-11.944674 -18.491932 -0.021671
-16.852713 -17.164547 -2.943857
-15.785057 -18.010744 0.550818
-17.480679 -19.456528 -4.436665
-18.219879 -14.985869 -0.963710
-17.410927 -17.061184 3.102497
-15.047256 -16.120890 6.191823
-20.646412 -18.316538 -3.215414
-25.191963 -18.645555 -0.517159
-26.782602 -20.589491 5.812935
-2.636923 -16.758198 47.568966
-2.740710 -15.075115 50.971851
-3.206604 -16.416544 55.917347
-13.939287 -18.361723 33.375988
-15.693315 -17.097719 32.889809
-50.639748 -16.122074 -17.090101
-51.736904 -17.293625 -15.013054
-4.783567 -17.653791 67.484093
-22.614105 -14.698635 33.733711
-22.926546 -15.951567 40.097118
-49.041290 -17.095654 -1.229435
-57.276047 -17.684410 -14.572908
-26.230469 -20.726042 43.013168
-10.117599 -19.565546 71.753143
-50.088543 -18.380077 1.175499
-25.942522 -16.928955 51.100269
-23.857803 -17.744665 51.767746
-21.658203 -18.204647 50.663975
-51.210358 -16.475216 7.612529
-22.274557 -16.405901 55.146149
-11.540416 -19.019930 73.574486
-52.031284 -15.911163 9.440426
-54.497330 -19.210913 3.171386
-65.624588 -18.215981 -10.927106
-53.590027 -18.651979 4.589353
-54.089989 -17.367102 5.449288
-15.593975 -18.699781 75.612297
-54.134758 -16.748880 9.126380
-52.572247 -16.896002 10.072278
-56.400150 -16.956160 15.002739
-27.490284 -15.060766 63.283340
-68.349464 -14.806906 -9.573100
-23.644564 -17.914249 69.320274
-60.258667 -15.916845 3.377316
-23.945585 -20.098684 70.772026
-66.089424 -15.955456 4.951089
-24.725821 -16.070875 66.600662
-28.063158 -18.989670 64.770958
-19.818611 -18.282169 78.096260
-27.595182 -20.028002 69.023987
-63.210049 -19.648724 5.082125
-66.649948 -17.467829 4.019513
-28.340904 -15.327418 68.764847
-27.799957 -18.278511 70.893730
-28.537035 -17.328159 72.353844
-24.193781 -16.148335 80.539200
-25.219370 -15.065921 74.536888
-26.546675 -15.737968 81.266640
-29.189291 -16.632383 70.515518
-33.189114 -16.434170 74.927658
-33.091099 -17.825710 75.802979
-30.025930 -17.196846 82.390617
-36.669025 -17.572441 64.061401
-32.251675 -16.987602 76.143173
-32.953594 -17.091635 75.908493
-40.976460 -20.878092 63.597847
-38.259251 -17.078754 77.428268
-42.730961 -14.547360 69.399330
-32.223782 -15.737599 81.681313
-37.518181 -17.545067 76.470985
-35.603321 -17.617104 79.293465
-38.474350 -14.228938 75.547783
-36.482052 -16.126719 77.565666
-36.189640 -15.424398 81.942444
-35.876133 -17.858973 84.509224
-41.997971 -18.401325 71.323135
-64.379395 -17.668188 32.362923
-36.328190 -16.015881 83.696983
-62.965500 -17.335936 34.104397
-47.399319 -18.118984 64.538551
-64.831779 -15.743032 29.655891
-45.599003 -19.019947 69.472435
-65.747192 -15.954758 31.766920
-65.780167 -15.849596 35.366745
-44.848373 -16.544897 71.405556
-48.198570 -16.348093 68.413597
-39.544544 -17.030014 82.954132
-40.940941 -17.761934 84.585831
-68.283592 -16.066208 37.403412
-40.183815 -18.040007 88.670555
-70.786140 -15.700981 37.884995
-69.359138 -17.626045 41.209587
-70.143951 -15.562245 41.191704
-40.688507 -16.883760 89.146889
-40.561676 -18.716578 87.967064
-44.659985 -16.814625 89.626572
-42.277328 -14.988048 90.848366
-44.159657 -16.250883 93.484978
-45.370850 -16.629192 98.192375
-48.338608 -18.897177 97.173050
-38.531578 -17.535769 117.280098
-48.330761 -16.758585 99.473267
-38.205620 -18.187155 119.264656
-50.662292 -17.278328 103.821709
-50.338516 -17.762459 99.844124
-41.452477 -14.943790 117.379456
-51.163338 -17.507267 102.899994
-51.317299 -16.614586 102.910164
-43.728046 -18.083668 121.932808
-55.987869 -14.474160 106.648552
-45.882946 -15.976267 120.348671
-55.183044 -15.913797 104.285881
-45.858471 -15.507571 122.743248
-48.319885 -19.994143 118.779495
-52.950066 -17.181417 119.892570
-59.189491 -16.049694 105.673950
-57.541779 -17.462173 108.988602
-57.660507 -16.923662 109.649628
-54.041359 -17.121052 116.951561
-58.687836 -15.766053 104.162941
-57.862373 -17.786976 111.178589
-59.679333 -14.901362 107.017784
-55.636444 -19.256311 112.320145
-60.087715 -16.934469 109.708832
-53.612377 -19.049805 119.091057
-57.623829 -18.398359 108.792519
-54.970688 -17.582897 117.753357
-56.205677 -15.355251 118.165977
-54.747746 -15.235547 115.674339
-56.276684 -18.710613 117.793228
-59.199257 -18.854012 114.809814
-58.515537 -20.281687 110.949799
-59.992222 -17.424604 111.983658
-55.578255 -18.041128 125.750092
-58.592560 -17.753788 130.549622
-59.034088 -15.004124 134.996078
-62.994026 -17.610382 128.779083
-57.697636 -16.075836 132.482132
-66.530067 -15.995498 120.481819
-68.364128 -17.042723 121.444229
-67.217125 -17.936583 119.838943
-62.495148 -18.745901 125.774948
-60.039421 -18.836229 133.320038
-67.160126 -15.587280 121.719505
-66.478653 -17.823389 125.995926
-65.020294 -17.590336 124.012123
-66.989281 -16.575869 123.891846
-63.177921 -19.294149 130.686981
-69.131592 -18.325245 125.694397
-68.342834 -17.220610 121.906822
-100.624832 -19.412165 71.138969
-99.501343 -17.151915 72.626343
-105.379578 -18.217831 70.185844
-107.977135 -19.150810 66.303978
-104.912422 -17.224535 73.754326
-106.121086 -18.921234 69.190544
-112.236359 -16.600441 61.444347
-105.547882 -19.147812 72.700134
-104.584366 -17.385509 78.136726
-120.498779 -15.708593 57.004120
-115.537659 -18.116104 62.419266
-120.160988 -16.964897 57.060883
-118.955589 -18.542965 58.481560
-120.987953 -17.716888 56.022385
-74.266685 -18.257383 136.645401
-74.642876 -16.054132 136.162369
-71.099739 -17.048067 137.431351
-121.394852 -17.838943 57.908360
-117.836357 -17.335327 60.700851
-71.431236 -16.568069 142.211929
-75.635902 -17.888754 138.416489
-74.638863 -18.513247 138.665466
-73.570328 -16.791603 145.169739
-77.236214 -17.144617 138.867355
-117.326866 -16.574875 62.641335
-113.071075 -18.802200 76.292114
-74.612289 -17.051422 142.799850
-77.532562 -17.184681 143.724319
-75.589066 -19.355387 141.556870
-79.217598 -18.103754 139.764023
-78.407532 -17.901155 140.638458
-123.419678 -17.340839 64.511909
-79.712280 -17.206806 139.703094
-119.108925 -16.170753 78.841667
-83.231216 -17.525099 143.819702
-84.172874 -14.287477 144.169342
-85.332199 -17.763086 145.172745
-84.070587 -18.164865 146.729736
-86.774345 -16.179588 145.451324
-87.988838 -18.389914 144.240860
-87.030090 -19.415203 142.366669
-86.010582 -18.014097 146.582809
-88.356888 -14.716327 145.103119
-85.911293 -16.962986 147.292801
-85.259613 -15.887794 146.070831
-85.822433 -15.404208 145.646500
-86.758202 -16.731447 148.252167
-121.771622 -16.308609 82.780800
-85.926247 -16.895170 144.104935
-89.714989 -17.208035 142.068298
-129.366440 -17.913204 76.052635
-87.788361 -15.827536 147.025986
-88.403954 -16.947750 143.059708
-85.771561 -15.777721 150.859619
-89.598259 -16.705563 147.541153
-89.381538 -17.349989 146.934311
-91.006546 -17.256556 142.550125
-89.346535 -15.274375 151.142426
-89.849190 -16.348698 151.066635
-88.977676 -18.923540 149.219193
-87.990173 -19.789534 150.616043
-87.351479 -15.307899 147.974579
-89.506760 -17.182674 144.815735
-127.168304 -15.087557 82.378609
-90.763855 -16.597231 146.425232
-90.748436 -17.812355 147.241852
-90.736176 -19.103910 146.469009
-91.893127 -18.189899 150.223312
-91.901428 -18.986307 150.440048
-19.424515 -18.179632 -6.020726
-14.011590 -18.998182 4.314598
-17.965014 -15.625541 2.486980
-19.426569 -17.792135 -3.607998
-20.940187 -16.200237 -3.325926
-16.658714 -21.805584 3.769230
-21.762043 -18.454056 -4.262231
-23.641113 -17.219217 -0.356831
-17.444954 -19.972582 8.749174
-22.123653 -16.433359 5.931100
-26.200193 -16.972410 1.409258
-26.202900 -15.350161 2.647286
-21.935394 -19.999025 8.659816
-4.550776 -16.404465 46.197193
-4.519431 -16.465689 44.433552
-1.368495 -16.959894 54.993961
-10.955556 -15.893828 37.454975
-20.650919 -18.074654 28.713144
-49.531319 -15.451630 -13.712819
-3.400295 -17.998964 66.614426
-23.926378 -16.869635 32.471497
-56.071396 -18.967634 -12.349952
-47.381378 -16.458435 -3.241770
-23.753624 -16.349535 44.080482
-57.058468 -17.066813 -15.464341
-48.049335 -18.466597 0.649593
-49.937710 -17.620256 0.146905
-61.057812 -16.924715 -15.077692
-26.728819 -16.578888 48.318207
-26.353205 -16.718002 46.570072
-9.085137 -14.224346 73.250137
-47.155163 -13.514918 4.549822
-21.688425 -18.196428 57.721779
-53.521122 -17.466484 3.512530
-49.110149 -18.368952 6.544772
-61.651543 -15.710413 -14.682123
-53.408695 -19.332762 3.125569
-23.668074 -14.736384 59.251450
-12.265912 -16.516945 73.252480
-23.994633 -16.030689 59.506840
-53.010319 -14.851883 9.783829
-21.484484 -14.692017 58.917732
-52.865147 -16.626207 5.757690
-57.472584 -18.053637 6.785848
-25.198343 -18.762909 61.054966
-55.058228 -17.979019 9.224374
-57.086441 -14.428865 12.885724
-54.563690 -16.608625 12.516426
-61.243927 -19.944529 2.904408
-70.024208 -17.927826 -7.759383
-20.166134 -18.554064 77.641998
-27.146566 -15.868597 70.575966
-66.957741 -16.012184 3.119519
-66.819260 -18.668758 0.026864
-70.694756 -18.867794 -4.245522
-25.233902 -15.880425 73.339561
-27.436270 -15.448798 69.057388
-28.083767 -16.177816 67.467270
-66.068954 -18.461292 1.339571
-69.984764 -14.375046 -1.793510
-70.696358 -17.531273 -1.089631
-30.129915 -14.839841 71.339333
-26.950382 -15.075435 70.687164
-28.659401 -14.775970 72.904114
-30.403107 -12.846093 75.208672
-33.863113 -18.886393 65.883652
-30.551748 -17.708477 75.261948
-28.600460 -15.874832 78.246269
-38.108356 -16.065268 66.591820
-32.854328 -17.877720 63.528675
-30.001770 -16.892366 71.857994
-27.780237 -17.924244 81.177147
-33.953819 -16.188324 75.902382
-39.941135 -18.139990 64.556053
-39.770973 -17.143789 69.286064
-42.059372 -18.209993 62.879112
-35.873219 -15.211842 75.278610
-37.571930 -15.329458 76.929375
-44.624210 -16.648746 69.542923
-43.267365 -16.553782 68.545456
-64.773582 -20.051859 31.606119
-37.274189 -16.648996 81.981544
-46.537403 -17.463367 68.024269
-46.274181 -15.556402 67.618553
-64.020035 -17.229950 29.828747
-66.592216 -19.421553 37.109211
-36.387531 -15.784032 84.093620
-69.226143 -16.782120 33.810371
-36.908981 -16.838850 85.926613
-42.000587 -16.772190 86.920715
-35.928535 -16.281906 85.087791
-68.794022 -14.653800 37.557629
-70.824326 -13.944862 40.140553
-40.741955 -15.642630 87.250847
-41.881599 -18.930260 87.091278
-39.232655 -16.909773 90.371910
-39.940010 -16.654287 87.232735
-71.261154 -16.651085 40.445713
-38.727459 -14.594791 87.244118
-71.913445 -17.114729 40.611298
-42.876148 -18.017193 90.195206
-42.211269 -17.254444 90.285606
-42.171101 -16.404856 92.460411
-44.620129 -17.144461 90.780502
-43.970730 -18.148685 95.149597
-45.417622 -17.176811 92.928230
-43.373528 -18.393505 96.874878
-45.621475 -18.705126 99.258171
-49.402588 -17.374208 96.263412
-49.223995 -18.015305 98.914558
-48.770390 -18.155725 99.884918
-48.127922 -16.091774 100.072701
-48.787724 -16.757162 100.587303
-42.241146 -17.869205 113.920822
-50.851425 -17.480070 100.321640
-40.401588 -18.052179 121.128136
-43.159325 -15.410667 119.731133
-42.615608 -16.892138 119.053871
-42.523689 -18.527439 116.545677
-46.339344 -17.577085 119.001915
-43.919563 -17.440668 120.644005
-44.203758 -15.713726 119.498947
-44.829288 -18.456488 122.094139
-54.457401 -17.013771 113.485031
-52.850224 -17.046135 112.975540
-56.143749 -14.910045 110.994049
-51.089458 -17.217667 115.653748
-53.485802 -15.774681 115.295807
-53.221592 -17.249893 120.995743
-51.397587 -19.010447 122.119370
-57.253754 -15.898346 114.984947
-51.873814 -17.513582 125.357018
-52.139801 -17.697695 125.296875
-53.841057 -15.734697 126.166443
-54.076202 -18.804485 128.064621
-62.442490 -18.365334 131.639282
-61.649086 -17.374615 132.951599
-64.786621 -19.108736 128.566086
-61.262871 -17.994167 132.750107
-69.302902 -17.814911 122.567070
-59.097561 -15.108906 135.700928
-62.681957 -18.190626 135.499405
-103.033218 -17.171270 67.781258
-101.032028 -19.456167 69.624855
-65.403801 -17.218184 132.560165
-68.575653 -18.024384 131.516403
-107.256592 -17.291929 66.391258
-107.531601 -16.493196 62.684757
-101.911949 -18.341965 73.105377
-107.062004 -14.759301 61.360081
-70.732475 -15.307584 136.286911
-67.315613 -18.902185 136.579712
-105.968246 -17.623072 73.642296
-112.398811 -15.996146 60.613617
-72.819450 -19.134161 136.246063
-106.523232 -15.470106 74.205902
-71.324127 -17.198456 139.560593
-117.997978 -19.294827 62.821438
-73.800499 -17.093382 139.658691
-74.437439 -16.159124 140.428284
-74.406494 -14.117958 137.539215
-118.847557 -18.352777 60.080490
-73.120300 -15.258811 140.279297
-75.734177 -16.549999 138.644058
-71.659996 -16.116282 138.911926
-73.830536 -16.914906 139.601395
-121.219032 -15.908299 56.330414
-73.216972 -16.130421 139.999146
-73.172478 -15.164231 139.374207
-113.310722 -16.248615 72.273750
-74.234543 -15.220172 141.876205
-120.879868 -16.684507 64.373077
-119.377777 -17.004848 62.718998
-76.950806 -15.924994 138.126678
-76.747368 -15.349971 137.036163
-77.460091 -16.628185 137.468887
-76.275444 -16.220631 139.524216
-77.197151 -14.974799 138.386353
-75.394516 -15.752481 139.351028
-73.000244 -17.394388 138.425949
-76.099937 -16.539833 139.787888
-75.505798 -15.605173 140.622589
-76.483047 -17.740311 141.060089
-76.133736 -16.398361 137.571274
-122.211739 -15.399952 65.988182
-121.207626 -18.768284 63.528873
-75.793098 -18.642254 139.042297
-79.591545 -15.788577 134.668716
-76.276314 -16.013269 141.980270
-76.976143 -19.703184 141.435226
-78.186073 -17.239002 139.015381
-78.754890 -17.406433 138.779617
-77.148048 -17.418381 139.718918
-115.748306 -13.963087 77.278313
-116.832306 -16.519253 75.671715
-77.686539 -16.514921 141.523193
-84.532249 -15.518506 144.675491
-118.183830 -16.106855 76.621986
-85.446899 -18.400732 147.781174
-83.043228 -16.477413 142.375916
-128.648270 -17.716761 72.380943
-87.987785 -14.458535 144.781845
-85.275826 -17.263998 148.914444
-88.037964 -15.486430 144.135773
-121.959496 -16.291786 80.407623
-128.476074 -17.652729 72.916222
-129.011520 -15.710794 79.058914
-89.365524 -16.278723 150.498917
-11.551543 -17.395617 0.567633
-17.494478 -15.624638 -2.703588
-20.556662 -17.597660 -4.994450
-16.014038 -19.142017 2.034024
-24.611969 -16.276363 -3.942228
-23.958958 -14.761446 -0.909673
-27.820601 -21.001820 -3.023611
-26.684341 -18.480810 2.096490
-21.187187 -17.356798 10.174036
-22.201847 -18.647234 7.791772
-29.440580 -18.650063 -0.235458
-24.543877 -17.261021 4.570175
-9.387962 -18.733427 41.788834
-9.350901 -15.419094 40.678993
-3.541922 -16.764149 59.856289
0.027300 -16.015347 64.792419
-2.830984 -18.463831 62.863640
-24.551201 -14.204803 31.157875
-45.959038 -18.728256 -8.650520
-47.167690 -20.160582 -9.218743
-49.397373 -18.928055 -16.215693
-46.563293 -15.375841 -6.823300
-44.816223 -16.812141 -5.219828
-44.061481 -16.699442 -3.039060
-26.311192 -17.178091 32.143440
-3.808603 -14.335420 67.165634
-45.471588 -18.934938 -1.100519
-45.752575 -15.948566 -0.957782
-25.277071 -18.534475 40.820225
-25.109106 -18.860872 42.873245
-20.461775 -15.330840 52.073582
-20.294197 -15.618758 53.611954
-18.843992 -16.307035 56.777576
-21.227055 -15.750032 50.666695
-61.467842 -15.979177 -13.623943
-48.304680 -18.358774 2.121642
-52.590797 -15.712615 4.408720
-62.384411 -16.198961 -14.948056
-21.296246 -17.151958 57.405182
-66.633720 -18.094582 -14.383564
-56.776466 -18.224209 4.789787
-54.532188 -15.619905 6.266615
-57.829243 -16.629173 7.130128
-56.491882 -16.766211 6.860397
-57.495026 -18.802660 4.391785
-67.018158 -16.784344 -12.145153
-54.299492 -17.239557 9.245299
-25.102789 -16.264257 61.427559
-55.453121 -16.594576 12.570555
-24.682144 -17.848553 63.412136
-25.245329 -16.875877 65.209030
-60.837746 -18.449495 4.848915
-62.933826 -16.964460 3.088550
-26.955624 -17.924267 67.596260
-20.251131 -16.784487 77.617805
-67.010498 -15.534814 -3.208885
-31.167028 -15.511308 66.846756
-31.299173 -17.284704 64.140137
-30.025564 -17.138166 68.256737
-28.384485 -16.977678 73.974297
-32.431858 -15.867576 67.925819
-28.486725 -17.083796 73.118599
-30.135586 -18.441788 73.351799
-34.048107 -16.373407 62.844395
-33.023460 -17.610243 66.328323
-30.842512 -16.075569 75.188156
-30.780966 -17.726360 72.139572
-31.767883 -15.294495 75.398300
-36.560818 -15.090416 68.258972
-31.677252 -18.628494 71.181656
-37.441849 -16.438173 66.156326
-30.428329 -17.424250 80.396461
-34.153877 -16.159615 68.759064
-35.169292 -15.130950 77.820137
-34.040081 -15.215359 74.423737
-38.293324 -17.568119 68.371094
-40.417919 -15.469613 65.297104
-62.495163 -17.693296 28.542883
-43.516266 -20.478725 70.351585
-39.539291 -15.262307 64.450867
-62.518375 -15.925377 28.079041
-65.223045 -15.109823 29.334341
-66.881676 -16.002031 30.278296
-66.672852 -15.563442 30.778273
-40.767746 -17.194302 71.345207
-44.654819 -15.942459 65.713974
-44.120869 -15.717249 69.209465
-67.621704 -12.239499 32.786419
-69.986282 -16.152477 35.697308
-64.140991 -14.677828 35.780289
-67.442413 -17.835260 37.995293
-66.915428 -16.097799 36.085976
-66.856216 -18.964582 33.895088
-67.001930 -15.607415 37.228405
-40.318398 -18.825882 118.654808
-40.943874 -16.391682 116.291985
-39.523643 -16.236460 117.815338
-39.741901 -14.189247 116.230927
-40.353920 -15.028992 118.815331
-42.806171 -15.465492 118.230446
-41.220406 -16.463831 117.467148
-45.600819 -16.427980 122.310646
-47.405788 -15.821815 121.564201
-49.539879 -17.796413 122.063591
-47.959244 -15.976220 121.746742
-49.673119 -17.562302 124.173882
-54.887993 -16.657042 112.377945
-55.727772 -16.944490 115.857826
-56.569878 -14.909949 115.346298
-55.074219 -14.046597 112.683296
-53.138523 -15.921974 120.486938
-52.825012 -16.613634 122.877823
-51.024952 -14.583445 124.574249
-52.962887 -17.806751 128.545914
-54.809341 -17.232218 125.419334
-60.989555 -16.433870 129.900681
-59.005001 -15.703636 131.669907
-57.973026 -16.856516 130.088654
-60.230934 -14.206987 130.489716
-60.142368 -15.426110 133.463043
-60.846855 -15.514806 130.939651
-60.740833 -15.345607 131.558197
-60.899242 -16.464432 132.059509
-62.953651 -17.706415 126.616463
-61.690182 -17.137098 131.787674
-63.317814 -16.768602 131.476685
-63.586376 -17.169926 130.155624
-61.267941 -16.562681 134.860840
-63.255207 -18.823236 131.365967
-62.850895 -17.079685 136.552551
-64.353378 -15.712083 127.562141
-63.320084 -14.572182 134.035355
-62.177456 -15.629234 132.508972
-63.657639 -16.534786 132.039154
-65.863434 -16.903770 132.437241
-67.454765 -15.059225 129.719620
-62.686203 -16.290411 134.708252
-106.868240 -15.739051 65.599800
-102.072945 -17.252396 73.131653
-68.724892 -16.638762 133.373428
-65.753563 -17.070038 133.567871
-104.671371 -15.416724 69.118240
-65.895638 -16.911978 132.276230
-107.707581 -16.031937 67.909523
-67.037643 -15.918593 137.379868
-70.856056 -14.283158 135.193573
-67.240822 -18.273752 136.173538
-74.793137 -14.219534 137.819061
-109.223839 -15.013607 70.247856
-69.993263 -16.579359 140.070587
-71.901443 -15.861318 137.120255
-73.043968 -16.532440 141.258453
-74.081642 -14.574677 138.459244
-72.387115 -14.476563 137.646317
-117.230247 -16.393959 62.895683
-74.655960 -14.710401 134.227463
-75.428040 -16.161318 134.570724
-76.009644 -17.526836 135.781860
-119.419174 -16.324244 62.847454
-76.825256 -18.444307 140.839447
-123.802948 -19.127346 67.370888
-123.823555 -15.621294 65.830597
-122.104515 -14.980967 78.861450
-125.229698 -17.723598 69.508377
-126.095062 -16.658552 72.171265
-127.218071 -17.095684 71.515388
-128.598694 -18.697960 71.004440
-127.497749 -16.651499 81.382736
-127.274658 -14.446256 79.245102
-17.065989 -17.623602 -4.238797
-17.241707 -13.132986 1.796312
-19.181986 -18.141016 -2.893761
-15.928006 -20.342035 3.042732
-15.521564 -15.902302 4.242793
-18.134922 -16.788498 3.895512
-24.223421 -19.791862 -1.421775
-27.414566 -13.635967 -3.899628
-26.966339 -15.498409 -1.037932
-21.792093 -19.730639 7.700143
-27.930761 -18.732805 -1.931495
-27.303123 -14.243903 -2.157853
-24.164614 -21.741434 6.675536
-24.955221 -15.602730 4.460622
-25.805630 -20.934376 6.223536
0.981869 -17.674524 50.529434
-8.050021 -18.509222 38.305584
-13.080096 -16.986309 36.787537
-0.645141 -14.626734 61.704876
-1.357663 -15.006987 64.554016
-45.583752 -14.973383 -7.348271
-23.247776 -17.306583 28.854485
-23.143452 -14.626009 34.543499
-45.789349 -14.822969 -2.296766
-52.383038 -17.344807 -15.882486
-54.763840 -17.864231 -15.573127
-57.977825 -14.773995 -16.690996
-58.443130 -15.775475 -17.278112
-23.210447 -15.565500 48.103603
-23.537750 -18.028412 52.098148
-20.072979 -16.238960 53.396427
-53.308189 -14.052733 3.017147
-52.514725 -15.939994 3.384268
-20.850027 -15.569950 58.486126
-63.145184 -15.047542 -15.374913
-21.816591 -15.318577 57.883633
-51.791813 -16.546255 8.519450
-52.668377 -14.762964 5.913888
-53.716930 -16.823584 9.561883
-57.525940 -16.865295 7.665656
-25.104250 -18.591061 63.456589
-16.150093 -16.431709 78.615639
-18.150928 -14.680840 78.610107
-26.900597 -15.657112 69.685043
-67.510704 -15.579875 1.295187
-66.933624 -17.859327 5.216266
-24.027697 -15.480979 71.395309
-30.144037 -15.051806 67.571266
-27.341949 -13.434907 73.257339
-28.447647 -14.503619 70.893929
-31.100809 -16.342237 67.653557
-24.065380 -13.137881 81.397949
-28.589706 -16.923420 75.349808
-36.504929 -14.673368 66.003883
-27.258167 -17.290026 75.278137
-33.092480 -17.356243 68.551071
-28.937624 -16.741648 74.205223
-33.551136 -15.856198 66.821800
-38.078815 -16.482252 67.377060
-28.116068 -17.220869 77.992943
-31.718260 -14.638731 76.971092
-31.042681 -15.833183 71.100197
-35.785618 -18.027821 65.955757
-33.227669 -15.774314 69.534042
-29.920950 -14.419833 76.444458
-31.108465 -15.328344 74.401497
-26.596170 -17.130438 83.770271
-31.764662 -17.845270 80.147591
-32.368629 -16.607492 75.842110
-62.207851 -15.385143 24.843956
-34.378876 -14.071601 74.585426
-63.715153 -18.094898 25.216354
-34.270584 -17.319632 76.579346
-33.775024 -16.988253 77.382751
-64.331245 -18.725744 27.169462
-33.807388 -16.463890 75.445107
-65.377991 -14.367027 29.736712
-46.013321 -14.216310 66.450752
-64.506783 -17.822041 31.853588
-44.886299 -16.817900 64.753891
-65.058685 -16.764999 31.762754
-47.089878 -15.113746 66.600624
-66.914612 -13.846454 35.067402
-47.091251 -14.806879 122.783913
-46.381908 -15.822185 122.077469
-48.848263 -14.478629 119.935478
-45.496803 -14.807807 126.308746
-45.456562 -15.798420 124.236671
-46.478878 -13.880189 121.089928
-50.922832 -16.557693 117.967926
-50.586311 -15.628026 123.485207
-50.340595 -17.235744 121.687561
-48.539783 -15.963167 125.954735
-48.697140 -15.756886 126.202347
-50.700726 -16.060043 126.076698
-55.282238 -16.601772 126.286629
-50.504078 -15.308130 128.114578
-52.327473 -13.829366 125.971497
-52.432751 -14.664910 119.161545
-51.322632 -15.501460 125.518707
-52.801296 -14.403643 125.059448
-56.245518 -16.499300 127.139503
-53.469860 -14.814677 126.838966
-61.907074 -16.208776 128.906158
-59.329384 -15.345748 131.869705
-61.018288 -17.614052 130.532898
-60.310085 -16.885948 129.923370
-60.884155 -14.578223 129.828140
-61.668617 -16.923790 129.945724
-59.505188 -14.952347 130.177063
-62.632553 -15.577651 130.547882
-64.198639 -17.683708 125.561668
-62.498924 -15.142472 130.254761
-62.914467 -16.286936 127.371788
-61.106117 -16.445108 130.480545
-63.012520 -16.768944 128.224960
-63.612400 -14.622496 128.753830
-61.977886 -14.689009 133.063629
-64.251656 -13.775312 129.573471
-62.238716 -15.822688 132.456665
-63.789322 -15.654151 133.942963
-66.687706 -14.443648 133.731491
-100.437256 -17.055988 72.085411
-104.758736 -17.086523 69.633514
-108.931038 -15.995611 64.504570
-108.433289 -14.280592 63.950974
-109.080147 -14.529218 62.719036
-108.018089 -16.483288 67.491013
-105.907898 -15.217295 71.717476
-107.985939 -14.966283 67.604218
-117.159874 -13.478271 62.102108
-117.097992 -14.611081 62.859318
-115.821030 -16.187401 74.338081
-117.029526 -13.776405 72.177681
-123.907333 -16.056179 69.800636
-121.653702 -17.319267 80.843445
-126.194809 -15.383636 72.803955
-125.955856 -18.011471 79.632256
-128.561020 -15.782623 80.251495
-131.157730 -16.692265 77.837425
-18.006529 -16.143446 -2.031809
-18.634687 -18.079372 -5.879978
-17.155643 -17.673792 -4.948203
-13.715911 -16.861444 6.635680
-22.340683 -16.085327 -4.790617
-25.670511 -14.583975 5.443100
-21.740070 -18.442213 6.359359
-24.536018 -20.614943 5.795052
-9.466484 -15.659946 40.014198
0.138028 -14.017102 58.333092
-11.822076 -16.118490 35.427414
-18.297529 -15.796659 31.523487
-20.341782 -16.505779 26.966515
-22.831207 -15.410120 27.697254
-45.008701 -17.565247 -8.264689
-1.746730 -14.799083 65.632179
-47.144772 -16.729176 -11.197760
