# This PCD file was generated using the MATLAB® pcwrite function
# from Computer Vision Toolbox®.
# .PCD v.7 - Point Cloud Data file format
VERSION .7
FIELDS x y z
SIZE 4 4 4
TYPE F F F
COUNT 1 1 1
WIDTH 1414
HEIGHT 1
VIEWPOINT 0 0 0 1 0 0 0
POINTS 1414
DATA ascii
30.939066 -80.153282 -131.771896
45.943508 -71.593651 -119.449249
-22.096565 -78.498009 -222.662155
-138.738754 -78.661430 -197.274979
33.728722 -64.996979 -38.504272
111.511162 -65.290382 -105.653763
-54.379154 -76.597244 -188.516083
-40.680115 -81.869453 -198.676743
1.662329 -62.478397 -279.784119
-137.304977 -84.074440 -197.975159
16.723186 -79.915871 -237.761093
39.673992 -72.956764 -135.313324
-108.111816 -72.727631 -225.323273
-18.581739 -71.626488 -194.456055
-44.201115 -69.953209 -162.724228
-19.339186 -78.999870 -200.997025
-82.743515 -68.457153 -121.358971
-67.782120 -66.984222 -45.962368
-37.129658 -73.787193 -211.648148
-45.952709 -65.678642 -157.378464
43.575867 -75.093239 -125.027740
-149.240707 -81.285156 -201.764160
-164.064377 -65.474396 -208.382874
35.154938 -71.667221 -141.734512
37.643116 -77.748718 -132.870148
-29.187515 -72.227699 -214.274277
42.220562 -78.080132 -119.834152
45.713631 -75.614395 -121.566399
-95.594208 -65.365845 -142.502106
-0.198378 -69.535179 -240.550232
-137.048782 -77.288269 -230.490417
37.962769 -81.422134 -119.418976
-136.885864 -64.839630 -230.490295
-147.034012 -80.348976 -205.979279
-161.749496 -64.305252 -209.709656
31.359938 -71.427620 -135.786179
-86.546860 -71.534958 -246.923309
111.949867 -72.919922 -189.493057
-147.629608 -76.220459 -209.859833
-109.825386 -68.775993 -228.954559
-165.933014 -67.781845 -212.290680
39.837387 -78.822617 -115.222267
43.957256 -78.771553 -121.261826
-122.508926 -65.652916 -231.601501
-27.349451 -71.663826 -197.909683
-24.273670 -80.182381 -195.639694
11.221286 -83.176094 -227.037476
8.547242 -78.413353 -228.758759
-23.402100 -72.092552 -199.942001
-145.718857 -79.877357 -209.178497
7.293709 -80.417519 -229.760803
9.799193 -76.680710 -231.232178
-25.805653 -76.393227 -195.133850
3.510722 -60.683411 -237.683777
-94.460457 -64.783035 -141.858154
-2.568929 -77.127876 -223.638870
14.155497 -83.353287 -205.648026
-4.494348 -76.221718 -247.084091
-152.784988 -80.507584 -234.505249
-111.109154 -67.608940 -182.262756
14.131672 -83.849541 -237.965805
4.619840 -76.565460 -235.283493
33.367592 -70.484016 -119.824348
-22.920919 -77.106567 -70.940247
-66.472191 -78.070534 -163.000061
10.150070 -80.900864 -241.695343
5.484022 -75.761696 -245.195068
-56.485676 -73.493423 -150.210541
-48.279003 -83.251884 -147.696030
-57.579449 -79.167053 -175.750137
14.037118 -79.935974 -246.326050
7.066502 -78.271782 -245.229614
-87.914360 -58.931034 -132.869034
34.210014 -70.832611 -261.710968
-41.566521 -82.158699 -78.711563
1.876859 -82.092758 -250.589539
1.067904 -61.866848 -271.867584
-84.289070 -74.614204 -110.120819
-24.514626 -78.096863 -284.117981
8.660427 -79.273499 -249.264114
-29.382008 -77.985626 -289.535065
-39.688988 -78.075081 -63.815186
-68.330635 -76.666832 -55.587734
88.529228 -77.247375 -212.323792
-136.593231 -77.241013 -255.145126
-97.303749 -56.584663 -101.277046
116.121712 -73.387123 -125.803932
20.604864 -72.566231 -30.092634
-9.046687 -77.500252 -254.987045
-68.919540 -72.784248 -49.703484
94.183754 -75.581902 -212.898026
49.198345 -68.173874 -104.008362
-72.587944 -58.015213 -104.938354
-166.741989 -69.865578 -291.892212
-30.353092 -79.403374 -181.209412
-36.415348 -80.387810 -174.488678
-156.057343 -80.944481 -291.770935
-139.072266 -81.455551 -292.451233
-148.691757 -79.837219 -281.890808
-154.424850 -77.441994 -300.292236
-152.911133 -63.548260 -305.220490
-94.909714 -69.806938 -89.614449
-84.379967 -72.750496 -104.315636
-54.799931 -79.825462 -70.263039
-80.627258 -78.732605 -106.763474
-48.399769 -82.144524 -71.689430
-93.864548 -72.913338 -112.472534
-72.924667 -80.248383 -71.242241
-44.455246 -76.225327 -240.285019
73.994408 -62.064041 -109.169724
-2.789270 -74.976776 -287.016327
70.875793 -60.464764 -105.831718
-144.758698 -72.282684 -290.305603
-130.345581 -75.168610 -253.614609
-154.470337 -77.911240 -283.386658
-154.698105 -69.061974 -285.480957
-142.756180 -71.507027 -295.253967
-147.200424 -63.293465 -287.050903
-158.145676 -61.659199 -291.987518
64.831665 -59.616169 -83.801140
-39.237076 -78.062187 -69.166016
-73.780281 -77.642715 -97.728630
-92.119606 -74.883400 -215.076447
-110.915855 -66.364128 -261.278931
-44.276127 -73.394005 -206.404633
-46.330219 -78.982780 -157.832809
-54.215908 -68.633034 -152.048752
-61.416580 -78.514473 -172.070007
-148.566483 -71.682625 -210.285767
35.645214 -81.335846 -129.859207
33.756077 -76.618553 -142.822083
-54.727394 -77.165573 -292.445160
-150.721268 -66.063339 -215.693954
-126.428719 -65.938454 -233.962097
38.902561 -70.800659 -119.256401
-107.766724 -68.010040 -261.593719
-90.931824 -68.173950 -120.378700
33.886574 -75.736679 -147.320160
16.377819 -69.772118 -232.440933
-36.713875 -78.568024 -210.599930
-16.550425 -70.539787 -201.642380
-19.421190 -77.375435 -193.736877
-144.526123 -74.822739 -181.764709
-41.280590 -78.610146 -288.919983
-15.980341 -67.094986 -69.026016
42.023365 -74.186188 -122.963501
-33.767368 -74.214851 -80.885635
-155.313782 -68.727669 -204.088745
-145.556091 -57.136246 -202.121536
33.462215 -76.773132 -143.720535
26.995230 -79.324661 -147.135727
29.841572 -77.994339 -145.456696
27.418123 -73.688942 -140.630981
32.115112 -82.375664 -140.219208
-15.823981 -79.681725 -173.290924
-10.328031 -78.312698 -176.044861
-93.957626 -70.452698 -99.739235
-35.231274 -79.720741 -69.304771
-64.148972 -70.920174 -159.062393
-30.345074 -69.640915 -191.812347
-61.447865 -80.140816 -176.057724
36.512554 -66.129036 -249.747528
0.866979 -71.722832 -228.579666
-18.509600 -71.784782 -208.603241
-63.529526 -69.074699 -161.392578
34.962208 -65.200043 -258.221100
0.906174 -76.964012 -231.769897
-34.410915 -77.994064 -205.133362
-59.036465 -83.455070 -181.110016
-13.140924 -65.586159 -210.932373
-39.991623 -78.077972 -172.313049
-30.727001 -78.466057 -183.045090
-91.424599 -59.576054 -134.670151
-20.582705 -62.381115 -67.589531
-38.591747 -80.254539 -176.546066
-30.753036 -80.616226 -180.680939
-28.359877 -62.466679 -68.322289
-45.506027 -81.939354 -195.472031
-52.735027 -82.323235 -186.772018
-61.372669 -67.806770 -48.932877
58.521606 -67.628616 -236.906387
-27.495371 -79.549591 -178.396912
-34.079628 -79.191963 -172.689438
44.945671 -80.116714 -107.110306
51.758652 -69.954300 -245.388306
28.264481 -77.142944 -131.553909
32.246758 -73.656425 -129.411880
-58.359718 -72.016602 -180.541458
-36.311069 -76.707367 -191.159744
-17.845106 -79.860847 -213.714874
-64.268051 -79.986336 -162.816116
-165.326065 -69.909615 -208.607651
-34.460091 -77.149200 -61.636463
34.480007 -81.293915 -126.674583
-147.438538 -71.998413 -192.259033
-48.657719 -72.696556 -289.733368
-148.069489 -78.609001 -202.481018
-145.096039 -66.840019 -194.755707
-81.458031 -68.151001 -252.082825
-109.737579 -63.893124 -227.455368
-154.497131 -64.749504 -192.020325
-49.353462 -77.975136 -202.934677
-144.743561 -76.830406 -205.007706
-78.552765 -66.458313 -47.912640
79.314857 -63.343685 -106.661453
-76.140038 -82.468048 -214.807144
-82.162971 -66.896835 -57.017651
10.616754 -81.626167 -220.467911
9.370505 -76.035065 -218.537308
-25.166313 -62.421696 -70.185524
-25.274574 -80.924995 -184.591217
-41.385227 -77.968620 -167.929642
10.456567 -79.539200 -226.650177
5.369085 -77.281952 -224.345352
-2.900686 -75.274559 -230.282394
-44.895714 -81.405266 -160.958649
-85.975784 -72.028282 -112.263390
38.021786 -69.543076 -257.448120
-89.120903 -68.166748 -252.923965
13.061253 -78.919182 -224.007660
-137.638824 -79.186134 -229.307999
22.963100 -75.593521 -189.519958
38.887085 -59.011345 -23.384991
9.633833 -76.555557 -211.134491
9.135974 -80.041374 -209.566956
-153.158493 -72.379898 -250.996796
-145.544250 -79.655678 -230.065750
-147.108932 -80.572838 -230.574265
-110.520576 -63.748142 -179.610825
21.602539 -69.687996 -190.628799
-19.919342 -78.306435 -208.279266
-63.403900 -75.666374 -165.302933
10.722775 -80.370621 -242.379913
9.064796 -77.375031 -247.870529
-49.930107 -76.561218 -150.437241
-144.494049 -73.278633 -223.467957
-152.475021 -82.492470 -246.186493
-112.775856 -68.325600 -194.128754
-90.133095 -73.744102 -288.234314
-161.929001 -69.222313 -243.037964
-154.962372 -63.356075 -228.505432
-151.331345 -67.791794 -227.620087
-4.299677 -75.846008 -238.971161
-3.558401 -71.928535 -218.424011
-73.780190 -72.951614 -148.596603
-155.976883 -73.685898 -227.740097
-151.781860 -81.874023 -245.590866
-12.547241 -69.458260 -222.047836
-147.326706 -64.341789 -228.926147
-112.709930 -64.922783 -196.451874
-142.882721 -61.122402 -226.212463
5.396249 -75.766129 -240.367935
-26.791735 -76.376045 -213.931732
4.916730 -79.913918 -248.784348
-58.922203 -79.665367 -173.778015
10.687118 -77.672989 -250.226120
-30.477041 -75.378860 -208.487244
32.363647 -62.198898 -253.888901
37.344563 -67.344879 -132.834290
-126.790077 -71.653183 -283.050537
-146.252350 -74.049622 -271.679657
-86.144814 -71.609131 -213.048279
-154.715302 -79.980179 -254.487152
-151.944565 -77.191917 -257.577667
86.482773 -72.153870 -218.514969
-72.400558 -75.609207 -58.723511
-159.362503 -70.721977 -256.026398
-166.513855 -67.961830 -249.613754
-146.856674 -70.460815 -271.860413
-130.428345 -66.908165 -286.142761
-125.903717 -68.234322 -287.799744
-151.962799 -63.644096 -270.635681
-150.792770 -65.118820 -267.362946
-142.356735 -82.286240 -260.651337
-140.265732 -77.462875 -258.989288
-151.924057 -83.215050 -258.813171
-154.316864 -74.849449 -252.130280
-160.403214 -65.934715 -248.339111
94.419968 -65.884613 -106.339226
-169.130707 -67.112473 -251.501816
-47.731365 -73.747093 -187.148468
-44.503834 -77.551628 -188.335129
58.337490 -74.414314 -238.686188
-95.551476 -72.483795 -86.014923
18.733034 -80.712959 -254.756271
19.825626 -75.638992 -250.736099
-129.089920 -68.871330 -296.335632
22.525259 -77.661842 -164.670593
29.287573 -85.876274 -151.822922
25.844816 -77.567772 -153.319397
85.327538 -75.595169 -98.736954
-155.409637 -69.355583 -269.077148
-149.182175 -62.564816 -271.115051
-54.631195 -63.831642 -86.491112
-163.948059 -69.806808 -260.635895
-155.389542 -79.516968 -260.758301
-161.312744 -71.488625 -261.846313
-107.881836 -73.544624 -291.255127
-165.877640 -71.196327 -265.366882
-149.922272 -76.081566 -252.530975
-145.928833 -80.670532 -254.413574
25.294056 -81.783783 -153.828903
25.858547 -77.207367 -155.657593
21.853359 -76.034119 -165.221786
-153.738968 -80.716721 -259.600891
11.714963 -78.845650 -267.459290
70.868713 -70.300446 -79.504417
-55.463608 -77.065613 -66.874794
-79.268974 -71.813202 -100.725410
-46.969597 -71.369850 -83.213051
-156.985382 -74.766762 -250.006088
-69.625191 -77.569946 -66.991692
-51.680367 -76.352837 -250.984253
85.067726 -71.160545 -223.406082
71.633751 -61.280281 -107.329330
-116.117836 -71.908669 -292.990662
-141.040726 -65.598671 -259.139008
-151.404755 -61.507843 -257.654999
-43.367867 -77.534660 -239.631744
-129.841431 -71.322922 -222.479187
-157.559341 -69.331253 -198.586960
-33.682644 -80.172180 -75.029297
-154.332306 -65.521782 -196.124619
-125.158722 -67.239319 -227.904648
-145.218246 -62.173286 -195.786224
-144.836075 -58.967102 -200.668793
-29.827629 -81.075012 -76.693558
13.777807 -79.108475 -228.642166
-166.976807 -76.208824 -261.273651
-153.294281 -76.596817 -280.977478
-135.766663 -76.233696 -293.218719
83.035667 -78.564941 -84.166695
70.984840 -78.086136 -91.158539
25.572399 -75.912003 -168.847595
-82.220177 -76.941002 -208.782211
1.021329 -76.451653 -158.510864
16.500996 -73.691139 -174.863205
-46.085552 -77.566544 -245.914825
-83.926537 -80.978500 -80.914467
-62.524319 -71.085129 -132.611649
-37.349659 -79.817947 -83.850449
5.494096 -69.917099 -200.114136
-20.044830 -72.325554 -243.650375
-83.752518 -82.349525 -98.131584
45.312286 -63.837009 -246.780502
-74.531349 -77.290077 -104.678993
-51.598373 -68.818863 -47.962147
-111.098763 -65.162163 -257.847626
-163.501633 -72.189758 -287.228882
40.771194 -78.701958 -117.937874
28.240173 -69.732727 -137.708694
-85.510880 -68.526459 -257.278229
-23.985630 -68.870728 -75.694389
-141.109558 -65.409058 -195.203049
-158.091217 -66.001488 -207.629532
-150.395126 -59.862976 -195.962204
44.199673 -79.080795 -122.618858
41.631985 -80.164101 -117.970100
53.570618 -75.538101 -98.649216
30.162374 -81.671135 -145.909531
24.921814 -73.895393 -147.244476
-90.330368 -68.997871 -250.548920
42.876148 -66.985313 -259.488129
-50.776459 -77.208015 -150.753143
-42.557301 -78.492416 -159.466873
-16.264339 -70.652489 -204.413742
-33.912193 -79.369316 -209.296387
-52.796349 -82.937202 -159.846649
-61.282875 -77.054337 -174.006027
-150.478043 -75.247223 -188.143082
-15.416170 -63.494709 -70.234268
-41.504383 -83.005341 -161.745270
23.496712 -80.342583 -161.093277
30.549858 -77.312538 -161.720840
28.375462 -77.823341 -149.497986
-61.042274 -75.348061 -251.194305
-95.298935 -74.606529 -215.904449
25.243874 -78.018272 -166.005905
27.430517 -78.649185 -166.024353
21.564095 -78.415848 -154.073944
-4.792924 -79.339600 -172.930252
27.837831 -78.323715 -164.874161
23.333714 -78.700584 -163.925232
-27.275599 -80.942871 -186.916916
-43.370975 -79.342461 -166.436615
-27.862732 -81.740036 -172.949219
-33.567451 -78.663910 -162.670868
-23.614906 -75.571892 -181.597351
59.534203 -73.840622 -239.218842
91.853920 -74.709023 -207.623322
-95.614227 -70.945885 -78.088303
-34.706673 -66.146080 -50.478668
-59.849628 -77.454643 -169.499619
7.297297 -81.286964 -235.088806
-131.179581 -63.674576 -230.861862
34.404068 -72.446045 -115.991417
-25.594007 -72.485077 -191.996002
-57.085106 -78.631859 -170.708694
-24.359756 -67.633484 -192.646988
9.871220 -69.125618 -222.805756
-81.127129 -65.375839 -133.807053
-28.274902 -71.734207 -200.597168
-58.365818 -72.969604 -169.131546
-24.155214 -79.678802 -194.771454
-26.092737 -64.702515 -203.311279
-10.512954 -76.528618 -209.747360
-135.254974 -77.993439 -199.513855
14.528040 -71.394356 -184.875458
-18.399971 -82.169662 -219.565491
-137.029572 -75.962784 -198.835785
16.249620 -78.166748 -230.215591
-18.393757 -79.251358 -198.146957
-40.176937 -77.675598 -153.641235
-42.972355 -74.888092 -156.432907
-90.908783 -65.991394 -117.420631
-103.022926 -72.948486 -255.841049
-153.019135 -80.222176 -199.825729
-162.854828 -70.888023 -197.757141
94.707115 -61.657291 -61.977318
57.999611 -71.312836 -86.384499
76.235062 -72.233849 -64.487785
-27.643629 -66.486671 -178.462296
76.115456 -71.559334 -69.728401
-119.138908 -73.470367 -260.411682
-29.368938 -72.438454 -174.874329
46.180157 -70.100937 -100.694969
-158.554291 -75.486496 -300.089111
38.022972 -75.849945 -110.538475
51.816017 -76.613167 -98.671143
70.756996 -69.760597 -75.981697
-140.515396 -72.588005 -285.356812
-35.324654 -70.870422 -178.992218
44.655354 -74.890190 -106.393379
53.460583 -70.506477 -89.711647
-50.370304 -78.180267 -200.592438
-156.007263 -75.022957 -298.271759
-155.031372 -70.208061 -293.792847
69.636864 -72.127037 -78.688522
-151.697601 -67.465096 -294.144257
-34.424488 -69.000404 -174.473221
-26.915493 -70.071854 -184.320114
-140.684418 -69.250076 -285.646973
-149.422791 -66.466927 -284.880341
-155.849350 -66.253937 -294.499786
-154.482941 -62.915688 -284.185822
26.338594 -65.538300 -266.109436
-53.338730 -81.943237 -205.327377
-158.931213 -71.243713 -239.406189
18.626242 -81.466705 -203.027405
18.875830 -82.068375 -240.526627
-14.590124 -78.867950 -208.841568
32.233345 -71.835327 -262.043915
47.676640 -71.566452 -118.038582
-35.604401 -80.078880 -209.505356
99.880203 -77.031738 -204.563400
18.676804 -83.446510 -245.258820
-87.129738 -67.238564 -122.344543
-13.623841 -81.010674 -217.200333
11.953741 -78.073730 -212.334610
-8.963734 -77.759163 -227.466461
17.932320 -79.208374 -187.734589
-146.634781 -73.482597 -215.822586
-158.381821 -66.783287 -218.256470
-68.090508 -56.624119 -120.796829
-94.710907 -71.161827 -287.579895
-143.085770 -69.119377 -236.204483
-145.643570 -65.847061 -236.151962
-120.476036 -65.560242 -204.822556
14.933084 -80.253227 -186.203094
20.256914 -77.030342 -184.867966
-14.281846 -76.365929 -217.515427
-153.767899 -82.227791 -224.437347
-164.669464 -65.136116 -223.270477
-5.807116 -78.943741 -222.084076
-161.553375 -72.283264 -218.152100
-6.653419 -77.899521 -229.251266
-9.629528 -63.171566 -248.208511
-146.734879 -80.514275 -226.422028
-151.925537 -77.105896 -223.906845
-164.152161 -65.345955 -224.292313
-118.328751 -72.203537 -204.229172
30.710541 -78.194839 -184.888504
-162.518738 -73.495049 -231.077438
-102.424156 -69.847939 -292.510071
-148.537247 -69.592537 -248.487183
-154.457886 -74.690811 -229.403076
-152.438782 -81.956543 -236.026825
-166.593628 -68.334229 -238.451584
-130.737762 -67.780777 -207.169327
-154.614899 -71.451881 -199.133636
-153.798477 -75.821907 -199.457642
16.926966 -76.938110 -237.705002
7.727797 -80.377007 -238.351044
-62.065868 -76.951950 -171.871857
-30.205629 -78.271538 -212.167130
-20.761345 -78.830627 -208.651062
-47.754768 -81.716728 -241.415756
98.379143 -69.377884 -84.022255
-36.898540 -79.541039 -241.644562
16.043594 -70.497177 -201.002731
-55.427071 -65.176483 -123.927528
-159.409241 -72.961639 -282.419220
-129.543503 -74.079483 -256.899780
-154.705643 -73.384857 -288.204651
-156.699081 -75.393890 -281.246002
-150.242752 -73.662178 -293.304169
-155.085999 -63.251148 -286.389008
-148.544998 -65.613937 -304.331146
-123.593483 -68.524582 -256.256134
77.924423 -64.561974 -61.971729
95.044556 -72.073853 -69.236992
-118.263206 -70.643349 -264.374542
-59.173790 -75.893730 -62.898449
-117.006050 -70.430931 -261.101410
-45.649582 -77.437225 -60.217106
-82.467407 -80.696861 -71.048981
-65.272255 -64.904495 -102.307076
-84.901840 -77.114868 -76.475540
10.761304 -74.002739 -291.379395
-26.334082 -79.770294 -71.860466
-38.406586 -74.722923 -84.269257
46.328217 -81.679245 -109.564163
52.129467 -67.789787 -248.660416
13.464317 -68.488342 -238.641068
-90.791473 -66.643494 -134.124146
31.953949 -79.164520 -122.865974
38.525337 -75.510384 -118.188438
-17.892467 -79.621483 -201.673553
-82.146133 -69.292152 -256.206421
39.256084 -80.656685 -127.806778
14.828365 -75.256012 -233.433365
34.394489 -69.968552 -147.809860
-31.444927 -75.968887 -170.944809
-36.107159 -74.943375 -165.748901
-28.173620 -79.467781 -173.670822
-19.729496 -75.142761 -182.371597
-0.116435 -78.388985 -166.438293
19.051752 -72.664703 -169.295242
27.326273 -74.796272 -176.856949
23.944305 -79.590927 -179.434662
-158.881195 -70.620430 -220.818985
-152.622314 -79.517754 -224.488785
18.484123 -79.383385 -183.932877
18.086655 -69.237320 -198.049423
-56.687359 -70.169769 -131.579834
12.717795 -78.597122 -192.037476
15.692133 -79.089546 -196.899780
-7.407618 -81.472221 -221.330856
43.512012 -72.019249 -118.966705
-33.952557 -76.472557 -204.203979
-27.843077 -74.604462 -219.787781
-63.932899 -77.718857 -177.847763
38.762779 -70.348999 -129.252228
11.141640 -74.605171 -194.851425
-22.703878 -73.524513 -226.323105
-55.342838 -74.840958 -137.968292
12.764907 -79.944023 -202.376465
6.117200 -77.437241 -202.059418
40.475998 -60.616158 -23.266047
11.937899 -75.576935 -207.136078
5.473515 -74.726677 -207.568024
-31.351973 -76.826736 -239.388748
10.295448 -81.902596 -212.568115
14.853972 -78.087936 -216.966843
21.021772 -70.030350 -27.518419
-73.582809 -68.910751 -49.000805
21.377979 -66.147171 -23.088999
-75.192154 -77.248428 -215.509888
-102.656479 -70.009705 -284.080170
-69.653671 -67.832016 -250.204071
-151.846008 -76.906609 -229.461411
-6.998579 -80.304352 -217.406525
-103.890091 -68.196594 -287.315002
-160.149002 -71.382622 -230.850235
-149.268097 -64.237694 -242.754379
-149.748505 -60.196880 -247.212799
-21.142876 -74.160805 -181.655624
6.414558 -78.709000 -221.604553
8.605419 -79.328125 -217.348282
-125.597427 -64.649239 -203.314102
-154.551132 -73.697227 -219.922821
-159.550385 -66.188217 -222.401993
5.381678 -78.534317 -226.399033
-14.210367 -72.867355 -248.874054
-161.485184 -72.699509 -235.736938
-153.805603 -79.389183 -232.073914
-15.484320 -71.684181 -241.326538
107.396072 -75.222679 -115.890518
-29.685055 -82.076057 -241.255020
39.245846 -64.487854 -21.079475
-27.436298 -77.670654 -242.706146
112.202072 -68.427544 -143.708008
-53.087486 -80.128212 -248.657120
-39.696716 -76.756485 -247.867676
-85.857864 -63.201969 -53.281582
-84.310066 -69.270042 -55.917934
111.165573 -73.668831 -124.354675
-72.917664 -76.164642 -210.917709
-46.561100 -71.155930 -245.953888
-87.123772 -72.920418 -214.434570
-58.019176 -79.950142 -244.820892
-51.722126 -77.924004 -246.266815
-150.920319 -82.611481 -267.669708
-129.490997 -77.883644 -284.685577
83.009979 -69.158577 -218.309616
-109.282280 -68.347321 -292.419830
-152.357727 -63.569572 -257.945465
-149.622635 -64.246353 -259.977844
-21.931107 -68.949928 -58.774189
35.006218 -67.426521 -119.353828
-80.309158 -65.107109 -131.799850
-5.606657 -74.161247 -249.651016
22.033236 -72.033798 -33.306095
112.402016 -72.097717 -127.038452
-11.078135 -80.142242 -254.148941
-12.613414 -76.473190 -253.667816
76.689301 -68.882187 -231.438919
68.606506 -61.036434 -73.821594
-70.869812 -62.349010 -95.264107
16.751219 -74.903542 -167.947922
-158.678131 -68.283417 -265.920288
-150.735321 -76.213821 -262.582916
90.400963 -74.897987 -90.129555
73.992813 -71.625488 -223.065582
-12.990265 -78.311958 -263.348907
-10.682762 -77.294937 -274.286621
-3.238122 -65.152969 -258.297455
-90.361588 -71.718071 -213.132324
-82.806595 -62.978107 -53.417213
88.152512 -80.076271 -74.925552
83.858765 -73.694763 -77.830612
16.544065 -76.997040 -281.217651
72.177040 -67.931000 -71.099701
-41.366337 -76.389885 -61.431332
-72.731285 -79.202377 -67.791840
-36.190544 -71.196548 -64.483025
-82.020103 -78.173820 -71.079651
80.400223 -74.638412 -224.196030
-78.267006 -75.315605 -65.592224
-31.316540 -79.167542 -67.540092
-2.878225 -69.273041 -228.061249
-30.558437 -76.251312 -72.421700
2.403977 -70.528351 -231.699661
-80.290596 -73.857140 -211.977448
-52.275784 -76.696884 -91.043182
-62.484371 -74.413368 -93.034309
53.560802 -74.597115 -102.386772
104.467712 -70.698051 -173.064651
-126.188629 -74.468224 -265.321808
51.623486 -75.860855 -105.339821
-106.314117 -70.523003 -256.152161
-159.329971 -71.783813 -307.895081
-40.822384 -70.553314 -52.285988
51.098198 -76.246422 -108.296272
-89.035133 -77.087669 -112.760803
45.988571 -79.441711 -113.784706
-37.111317 -66.877975 -77.626381
-134.301788 -65.152214 -258.473572
28.756119 -68.689369 -140.354141
24.485409 -70.671974 -134.722733
-167.380844 -70.511864 -215.408859
-25.473345 -73.572708 -62.245586
33.303253 -75.237015 -121.437904
-24.824896 -66.245476 -69.342102
8.963447 -72.008919 -233.471115
29.167858 -75.532127 -124.820122
-152.353394 -72.576874 -204.263702
-30.046169 -65.943764 -76.080605
-157.865158 -65.579308 -201.996979
-81.227791 -68.475403 -130.702362
38.726063 -72.602043 -128.973557
-96.177757 -69.109421 -149.484497
-15.368511 -64.042503 -52.437214
-149.827621 -70.995895 -190.271683
-45.456036 -74.304764 -287.683594
-142.949692 -66.270844 -187.498535
15.674604 -68.305077 -245.668213
33.222458 -82.016747 -139.416534
38.141510 -77.083504 -130.772369
-24.871483 -74.640579 -74.679283
-154.241440 -76.540672 -193.761795
-157.079254 -62.920345 -197.016342
35.603962 -77.597488 -143.419220
-28.341743 -76.503372 -217.573914
-49.975727 -76.627075 -144.518539
33.563828 -75.923965 -150.987564
-92.527206 -69.095192 -253.810852
41.605690 -67.338211 -255.932266
-54.677124 -76.666878 -150.143097
-41.425243 -76.210396 -159.836075
-45.732620 -80.044548 -151.338318
-49.199551 -74.256851 -158.052917
-14.237115 -77.014542 -197.104874
33.268284 -75.860680 -153.532227
-167.943680 -71.108124 -243.059311
31.448399 -79.455643 -152.315170
-39.319355 -79.317093 -151.613586
-22.380941 -71.890511 -196.421310
-47.596973 -64.174004 -43.797920
20.306314 -59.611855 -249.286057
-47.819740 -76.130798 -155.010529
-28.594591 -76.345940 -209.596695
-52.018692 -57.804340 -45.768719
4.381678 -76.054588 -246.255814
0.130232 -75.436722 -224.200607
-67.501007 -78.250870 -156.648041
-12.527590 -75.077515 -211.221939
18.352421 -76.788719 -243.835236
-32.258801 -80.356903 -192.506363
-54.582317 -74.600159 -152.050873
-45.025909 -75.635490 -162.319016
-20.984116 -77.850708 -190.381638
-89.906563 -69.307053 -257.930634
14.718798 -75.687462 -224.697495
88.777519 -80.580475 -85.790878
96.157295 -75.500809 -89.320770
-3.156261 -79.553940 -167.253204
-2.925179 -79.375404 -168.095123
-44.679295 -76.392197 -165.487106
-25.476873 -74.708122 -184.565674
32.829788 -73.985168 -129.360153
-52.774879 -77.999016 -186.722168
-44.289551 -75.144814 -200.645020
-29.460915 -75.792488 -169.432098
-33.651176 -79.227127 -170.717773
-25.681240 -75.816635 -181.422775
25.265142 -82.607635 -182.181152
19.830954 -77.361328 -174.653015
-152.989563 -77.792107 -300.700592
-153.990723 -76.032784 -295.466034
-29.969635 -76.757149 -173.753052
-45.809071 -76.934898 -192.867264
-45.927101 -79.802643 -195.173248
-66.981812 -77.140533 -209.200134
36.142159 -76.551437 -111.429520
-69.346046 -78.835564 -212.826340
48.897499 -78.293587 -100.748550
43.289055 -74.712593 -102.586372
-38.344055 -76.724541 -179.687073
-159.995117 -69.074104 -302.846771
-155.930161 -66.474754 -291.786346
-149.156677 -65.580551 -304.452881
-159.395752 -63.154629 -290.637512
-56.961273 -77.703186 -173.827682
34.105930 -65.492233 -258.925323
32.962982 -67.817764 -131.292419
-10.243870 -72.620857 -174.045807
-10.201351 -76.612366 -174.710510
85.270752 -73.932617 -70.911476
-162.823883 -71.155258 -293.906006
-148.143616 -74.366676 -282.038239
-150.988663 -79.471024 -301.215973
-38.208282 -77.042274 -174.961700
-33.283432 -79.014503 -180.488739
-136.649582 -75.510727 -291.195984
-154.426361 -77.716286 -290.414215
-160.847137 -66.679733 -301.067841
-130.289536 -67.245819 -257.530731
-155.476227 -63.447208 -287.939514
-45.197113 -75.902153 -172.481995
-0.097047 -77.260033 -234.726883
-51.138401 -75.942505 -184.580078
25.085798 -75.952721 -177.876953
-56.432873 -76.913361 -177.385635
-2.244678 -78.154747 -236.667908
-34.908993 -74.386711 -199.633636
33.327721 -71.872208 -126.399231
-75.051689 -78.454430 -144.185211
-32.606915 -72.798706 -183.830765
-40.514381 -77.330376 -176.803757
-28.132051 -80.008476 -183.137207
-39.474731 -74.624054 -169.256653
-90.191490 -66.003143 -129.520798
-48.521378 -73.507454 -53.571655
-37.785599 -72.329559 -203.017426
-59.744083 -77.272369 -183.353333
1.018646 -64.794060 -234.696960
-91.826637 -64.114159 -141.242874
-33.936916 -78.985748 -183.058502
-37.934563 -78.336960 -179.403320
-25.393318 -74.616829 -191.299835
-31.826397 -77.351524 -186.395279
-64.012436 -73.944260 -157.147186
-9.352204 -74.276413 -211.148819
-24.411680 -79.412949 -194.436554
106.189072 -67.401138 -107.760811
37.841137 -68.335289 -41.282570
7.521249 -71.116890 -202.599274
13.881110 -76.917786 -194.910690
-89.625946 -62.839542 -122.344841
-70.679459 -71.687843 -284.050049
-126.365120 -75.066345 -230.659821
-156.783432 -75.496231 -193.891510
-158.184738 -67.330498 -194.795197
-16.392197 -73.088112 -228.722015
21.111797 -74.046112 -194.707230
-33.474136 -79.658630 -243.484802
-120.252686 -68.332802 -202.639908
-73.060104 -78.150505 -290.656342
-148.817215 -72.063278 -222.847809
-49.368999 -74.165237 -137.164703
12.349957 -77.417946 -206.946213
18.861046 -75.561951 -201.539429
-151.528610 -78.590424 -202.251495
-158.507553 -65.719933 -203.810898
13.217865 -71.103828 -229.376297
-47.861595 -71.995728 -165.089874
-25.105354 -76.339333 -201.599136
-20.323444 -70.873550 -194.036331
-28.748346 -65.704803 -190.941467
-125.882500 -75.784279 -232.778290
-127.710144 -66.952415 -233.915207
-116.427765 -70.176811 -224.674133
-75.199707 -64.766762 -130.794052
-9.662450 -81.368576 -210.941345
-69.748634 -75.573029 -152.409027
-16.196354 -79.765083 -208.321045
17.397608 -76.333656 -239.653091
-126.607849 -73.213333 -200.835999
-150.284561 -69.469124 -227.290527
-146.540466 -63.532265 -225.872040
16.378727 -74.105446 -208.118240
-116.105507 -68.486115 -191.963287
6.944221 -76.377350 -209.049042
-26.285578 -78.185692 -240.317703
-5.540571 -75.850578 -228.875198
32.902836 -73.544823 -162.684616
16.974314 -76.892944 -206.115005
-35.168999 -73.827835 -214.358719
-63.374676 -78.911713 -168.833771
14.533315 -78.094116 -215.120041
-160.311066 -72.108780 -226.857681
-123.862465 -70.847115 -198.337799
-5.232731 -77.153496 -218.865356
-73.240631 -76.625412 -151.985504
-152.201553 -76.431755 -235.154770
-130.416702 -69.142746 -196.187729
-127.768463 -70.876915 -195.446625
-7.430679 -82.158096 -218.640945
-153.863815 -74.688057 -228.535553
-72.804810 -76.608612 -152.362259
-160.498215 -69.916100 -227.598755
-122.090530 -62.204239 -192.649185
-28.991268 -75.486923 -215.920685
-20.952442 -75.511078 -220.291824
-72.234962 -72.060997 -156.120132
-13.691659 -77.632111 -217.690292
20.646429 -77.296432 -185.275330
-17.450752 -75.823936 -218.844620
-79.077850 -74.819664 -283.752533
-139.955078 -74.833885 -225.642059
-110.014755 -68.969009 -201.704437
16.132618 -76.548058 -189.026962
-16.818243 -74.741508 -220.111572
-8.426020 -77.097061 -220.588379
18.159657 -75.859077 -244.888565
-31.748367 -77.275581 -62.367485
-166.734863 -67.264442 -204.154953
-0.376658 -81.983269 -225.104050
-24.881414 -74.859421 -243.135330
-7.234551 -75.404732 -229.342484
36.128319 -64.107956 -12.846270
-55.356934 -64.253853 -122.198746
-0.167129 -72.790291 -241.309189
-16.954395 -73.574051 -70.393761
-44.017254 -76.713600 -290.100037
-155.433548 -71.798317 -202.998383
-29.199636 -75.650154 -80.091698
-152.703537 -65.035034 -205.132401
-146.835068 -59.929840 -207.551895
20.426245 -75.955040 -229.001755
-144.585022 -71.212921 -233.241928
-89.525566 -69.151382 -287.576660
-146.909912 -66.908989 -233.088531
-152.288437 -64.068932 -232.751083
-160.335083 -70.435753 -219.134064
-8.681145 -75.606476 -231.565384
-72.098373 -63.879456 -119.591217
-134.687790 -66.721603 -223.542572
-3.609236 -78.818031 -240.290970
-145.257553 -74.721939 -242.990143
9.500461 -76.748596 -206.527237
-21.194132 -78.120422 -237.421997
4.000298 -77.625969 -216.729324
-51.854954 -78.490700 -246.203979
-48.351997 -81.711288 -245.058029
-153.406479 -77.859779 -248.116730
-158.358109 -70.632973 -245.075714
-110.798050 -67.192169 -192.619904
-154.846603 -75.801086 -267.117218
-161.100769 -66.912895 -265.169647
-81.025909 -73.188576 -60.655731
82.054230 -76.802750 -226.567673
-62.015011 -69.037476 -91.712646
19.891588 -73.833939 -154.468842
-130.247391 -77.350075 -293.298706
-156.262634 -73.727165 -267.890839
-148.989822 -76.347946 -272.964783
-158.861649 -68.480370 -269.195709
-110.825363 -68.856606 -289.372650
25.544569 -68.629631 -150.126541
-153.264160 -63.147179 -255.988861
75.046806 -67.233200 -234.058594
20.379124 -63.488117 -24.682018
-11.997051 -65.664185 -258.810577
-11.258937 -78.929024 -275.294586
-8.289577 -76.780464 -281.042145
3.914591 -80.206947 -283.913452
-70.115517 -65.179832 -111.102997
-166.146835 -73.275665 -288.827240
-157.999390 -79.359383 -286.457428
-146.383865 -76.109070 -304.903229
-115.608070 -70.712212 -255.389435
-114.846237 -73.161903 -260.025482
97.987907 -73.309258 -199.426331
-27.653315 -77.333199 -285.435089
-24.581575 -76.103790 -288.964783
7.136392 -64.244232 -271.980927
-38.939865 -77.562180 -291.415955
-32.741898 -78.398933 -289.292847
115.090988 -69.408699 -157.316513
-12.297984 -76.001755 -287.322723
-20.576738 -75.324409 -289.236603
11.841845 -75.906693 -294.572937
-102.603531 -74.139877 -221.898056
-49.748241 -76.504738 -60.376801
14.253442 -74.881424 -279.767548
-64.526909 -75.767090 -59.649536
110.827278 -73.183510 -162.167313
-4.941918 -73.361626 -283.133087
-52.592274 -74.093887 -57.081825
-8.825984 -76.245689 -288.256592
22.035915 -62.694901 -268.749878
-39.982048 -81.217865 -63.063274
95.219818 -77.004951 -198.154221
-78.040787 -69.452370 -102.138374
-163.755798 -69.323036 -290.175079
-148.619843 -74.660042 -302.472321
74.237518 -76.342644 -233.128250
-85.775490 -77.398552 -68.143471
-14.775463 -65.897125 -255.060242
66.580383 -66.147705 -102.956436
-17.653612 -62.939976 -55.794567
-22.557024 -71.075706 -59.676876
-22.771027 -77.464462 -71.669228
-24.216930 -76.866226 -75.356224
17.056574 -75.695251 -249.479706
108.285538 -68.085258 -192.218872
32.896137 -67.602386 -41.619175
104.653793 -69.647766 -110.432571
-59.020454 -70.595642 -138.328949
8.057642 -71.788605 -205.105759
-36.284500 -76.577919 -81.780640
-92.173569 -73.802940 -215.910110
83.874016 -78.220276 -80.957832
98.660950 -66.477196 -101.659790
-7.266283 -66.724236 -273.291046
-120.494247 -75.082756 -289.633453
-144.216400 -75.428070 -263.296906
-92.972649 -64.501213 -59.190475
81.384506 -78.041901 -85.905998
77.096390 -77.705086 -88.305344
67.231537 -69.013489 -97.057991
-43.463249 -76.189713 -84.767754
77.247932 -76.674118 -87.988342
-17.250687 -78.266357 -268.092529
11.898439 -77.393486 -293.241638
85.022118 -75.920586 -91.145592
-60.670242 -62.497982 -86.758781
78.803802 -78.502831 -88.730446
72.540672 -75.816368 -84.869308
-95.755264 -65.245987 -61.171787
29.261143 -61.653122 -42.945110
88.280678 -79.300613 -90.132744
77.786270 -74.635208 -96.848839
-8.645301 -74.230377 -275.920837
-89.627762 -70.679955 -61.601158
-64.925629 -77.005615 -95.965828
45.553028 -77.737061 -108.304825
84.681320 -75.331696 -73.069969
-49.429638 -74.356834 -140.521027
11.968627 -74.913452 -209.657913
-47.642097 -75.885941 -148.895691
-169.786453 -67.384315 -238.837296
-136.839981 -66.048477 -203.353577
-99.969269 -64.800110 -255.251114
-163.923828 -67.790848 -197.217331
-41.284660 -78.583084 -150.492752
46.502457 -61.268841 -116.314903
-61.738888 -72.907021 -164.198792
-18.339725 -77.500397 -207.525803
-121.493546 -73.114624 -228.163147
-124.895020 -68.298851 -233.996948
-68.367111 -73.707443 -155.505112
20.482170 -75.548363 -155.197708
-70.523109 -78.349922 -162.871689
-18.712751 -74.256866 -212.033203
-11.832499 -78.220718 -205.175507
108.687248 -73.647606 -168.427200
-56.141155 -75.325569 -170.592529
-25.462711 -76.452705 -201.633347
6.197203 -69.688461 -228.048828
-81.893066 -64.771568 -133.843185
109.050934 -76.404655 -177.187912
-69.374138 -74.968147 -169.179321
109.598022 -75.655380 -172.298492
-17.723597 -75.301079 -176.224411
-32.965672 -72.701736 -161.605423
111.216110 -75.268166 -184.246460
20.328909 -77.031647 -189.743301
13.502589 -78.942451 -197.110825
-49.380123 -75.362877 -290.945618
-145.787369 -73.824959 -193.140396
10.880209 -62.257172 -241.420288
-26.625746 -67.924217 -76.385330
-26.546829 -69.119507 -71.104195
-73.900940 -69.185555 -116.769455
105.105598 -73.631020 -194.713516
-151.428009 -69.482971 -215.058273
-139.649185 -75.122841 -199.263580
-154.029587 -64.540245 -212.274353
-125.601730 -61.356541 -227.710922
-147.831512 -58.416031 -214.542343
41.664207 -64.978271 -116.748436
-107.406860 -67.744972 -262.455414
-90.108818 -65.015297 -118.460274
60.178173 -71.395653 -245.890594
-50.527958 -78.844528 -198.078064
8.492793 -74.356201 -200.257919
-105.206512 -63.903957 -172.440186
20.605040 -75.405594 -195.170563
43.960102 -65.672089 -23.316484
-103.399719 -62.505505 -162.643875
-13.288549 -75.745689 -199.026398
6.269282 -74.662498 -225.808289
-21.615303 -78.429634 -202.048950
-131.843307 -70.528633 -202.263016
-124.274925 -68.646744 -205.002914
16.097557 -77.213150 -203.195190
94.830948 -76.564102 -203.128311
100.161247 -78.878517 -208.566132
-71.833778 -78.969437 -205.097382
-61.537052 -74.643929 -160.539185
-16.875795 -77.423508 -208.497116
-153.843384 -70.070786 -232.088318
-76.032822 -77.914551 -289.969666
-145.679642 -75.742538 -215.056641
45.986370 -60.679050 -42.686211
-29.518246 -76.193672 -217.359436
-74.996094 -74.025200 -144.367355
-1.567611 -73.514786 -220.384094
-4.337279 -63.501076 -237.287781
7.322574 -75.500816 -224.053680
-38.485489 -75.983582 -243.199615
-22.122158 -77.134026 -225.538239
16.137058 -64.367241 -203.802383
-60.849468 -67.174698 -129.127991
-150.751175 -78.984550 -228.946533
-159.980515 -66.703339 -223.910995
-142.110031 -76.436501 -230.774857
-132.053238 -63.054672 -198.372314
-6.974102 -72.280930 -235.823959
-9.163173 -68.331200 -233.719299
-150.199326 -77.112007 -235.007141
-104.552544 -65.902931 -185.732422
-159.396896 -67.144112 -236.901779
-70.993835 -70.804802 -290.144897
-56.548397 -76.134277 -244.653610
-79.617241 -68.833649 -139.100479
-1.122959 -80.694824 -246.565323
107.013031 -72.141388 -155.496078
18.961565 -75.606194 -256.248871
108.669083 -68.198647 -151.864532
-52.512806 -76.608513 -54.788712
-92.673508 -75.926704 -96.126862
18.914553 -75.235489 -269.842407
15.313349 -73.319115 -271.835510
-84.742569 -75.272430 -254.258942
-45.102055 -76.532722 -286.044312
-74.178101 -75.553947 -248.858963
-117.365387 -65.417793 -230.033417
-41.818974 -74.651054 -285.519043
-41.974735 -79.562469 -290.698761
-25.058792 -76.982903 -67.945313
42.501255 -63.119991 -256.314758
113.656151 -71.340675 -152.674271
-11.696211 -77.661888 -288.958435
116.657455 -70.912239 -156.771606
-16.276852 -78.437073 -288.285095
-32.765446 -74.661430 -291.487091
-149.794586 -73.854431 -276.736237
79.653542 -74.370750 -231.369141
-83.870750 -76.337769 -61.811859
-134.878143 -74.565460 -289.052856
69.593552 -66.733513 -104.181320
111.408470 -69.781197 -164.605118
-12.251283 -78.706177 -284.955292
-5.335219 -75.197311 -292.302368
22.971560 -62.317631 -273.225464
22.276356 -57.224262 -271.974854
-67.797653 -69.302322 -52.363640
96.590973 -70.522339 -213.175491
-56.955814 -72.679085 -288.158081
-145.507950 -72.522850 -202.317474
-111.301559 -65.739029 -225.345642
6.632022 -74.173935 -291.406067
-87.185280 -78.430481 -78.273079
-112.732208 -71.113167 -289.722900
85.778488 -70.877937 -219.549423
-130.074753 -71.940331 -286.992310
-146.289047 -75.516808 -275.118103
-131.629639 -75.966095 -289.960541
-87.942375 -79.635201 -214.671646
-143.096130 -62.903828 -257.278107
-77.963615 -78.535278 -58.975376
81.833893 -77.541672 -226.738373
-54.886337 -63.762604 -89.580009
15.354401 -75.026627 -291.079742
-80.388474 -76.184517 -67.139153
-88.425972 -73.900810 -83.747597
27.957333 -68.915894 -258.282043
48.112759 -70.942390 -109.321930
58.347519 -68.904144 -94.986008
85.858345 -76.189819 -215.132828
20.203007 -62.281574 -258.775879
-35.546932 -59.798401 -47.463436
-73.398315 -68.115204 -52.180927
14.059336 -60.309738 -285.979889
77.813637 -73.854103 -92.526016
17.809740 -74.832336 -274.489777
-92.214485 -79.006355 -87.735527
37.564861 -69.232529 -113.541786
47.734478 -71.135155 -89.144791
51.965168 -72.805191 -92.455971
24.040298 -73.769836 -150.327744
-143.417221 -72.283020 -254.651138
-151.522766 -72.667130 -277.206970
-151.164825 -76.678795 -267.775543
73.663818 -79.841675 -94.396919
-155.906418 -69.531136 -271.019684
-147.746109 -66.928627 -255.647537
-111.552780 -67.178146 -287.587097
28.421505 -62.622871 -154.396606
-114.727455 -66.473495 -287.768250
-51.802021 -61.468410 -81.821526
-150.944534 -62.110943 -252.515549
71.852280 -69.782539 -234.841873
-73.628670 -73.047226 -50.907131
-79.963898 -68.941032 -97.647484
-84.415848 -75.283287 -108.030663
109.366905 -75.540207 -134.394470
112.107483 -77.207703 -139.381607
8.400519 -76.582787 -196.728287
-52.175404 -77.106583 -136.161575
-79.779839 -72.902191 -209.982681
108.959045 -80.754723 -133.974289
109.670021 -80.451736 -139.356873
-52.046036 -72.588181 -143.352203
115.907867 -74.755280 -150.442017
115.738235 -77.863632 -145.383163
-57.466816 -78.987663 -139.003067
-63.659828 -73.869095 -253.250443
-40.004116 -72.353455 -146.095764
112.684135 -79.143471 -144.056229
108.895218 -74.139191 -154.456879
71.201408 -61.758041 -63.046070
27.874088 -63.376186 -261.857605
112.842766 -76.358330 -165.563370
-0.961904 -74.967445 -170.390305
-42.549759 -64.961548 -79.372459
-101.446709 -72.789810 -225.149292
113.641685 -77.447594 -168.267975
43.555603 -65.005630 -94.556671
47.922054 -67.354797 -101.981567
-85.639946 -65.016991 -111.740089
-53.770123 -60.115746 -76.435844
101.699516 -76.482048 -180.954605
102.738068 -77.158310 -184.040207
103.835320 -72.728264 -186.847870
104.292458 -78.225365 -186.733688
104.751640 -76.464279 -189.690628
-154.582352 -75.588371 -236.208969
11.768962 -74.005669 -194.919510
-145.966293 -60.327614 -237.614029
-143.578156 -75.300667 -203.549271
-64.298508 -75.835426 -285.321899
-34.642071 -62.768269 -80.494949
102.303200 -76.545135 -195.661285
-157.410339 -69.517761 -203.933228
-29.123270 -73.815453 -81.011330
-153.795639 -77.018547 -201.976013
-33.853157 -70.115112 -77.902214
-79.375504 -69.281761 -126.801285
-78.004433 -61.077003 -124.999512
-62.428730 -75.867386 -290.320679
-147.974792 -75.154770 -204.787048
111.645889 -72.101753 -136.783096
114.393806 -72.220619 -135.172424
-75.649223 -75.239723 -211.309204
96.896416 -75.268303 -213.762329
16.268597 -64.026016 -150.667679
-55.006104 -71.404404 -90.811958
-77.953247 -74.095245 -212.933243
-128.187897 -73.576141 -229.605026
-72.462662 -80.824226 -291.025360
-147.748840 -76.409897 -219.313400
-153.944504 -66.377380 -194.960541
-143.799850 -60.215988 -197.342407
-149.724518 -58.407806 -193.448242
-8.931208 -58.386448 -56.694988
13.032528 -76.355202 -218.673218
-77.303123 -71.568733 -56.625359
86.926186 -74.559982 -218.466858
-18.581169 -76.589058 -218.903702
-15.815136 -74.815895 -230.842194
49.645679 -69.596634 -32.404785
14.850986 -79.377274 -230.463165
-136.402985 -76.856300 -225.170349
-8.971935 -71.937515 -231.626572
-151.541122 -70.507858 -216.379364
-8.017725 -68.894531 -235.369370
-156.467987 -71.800507 -215.022308
-90.359581 -74.501259 -288.411499
-147.038712 -75.545639 -235.996536
-97.359108 -74.322159 -287.925964
-147.944427 -74.969200 -236.712891
-63.352501 -72.833565 -247.644913
-46.068882 -78.380035 -245.373383
-49.409901 -72.427383 -83.180519
-81.087578 -75.396011 -218.057510
-51.564117 -75.238655 -248.040482
-7.002132 -67.747314 -263.034241
-13.181890 -73.928345 -254.017624
-16.874668 -74.870102 -257.773010
114.257912 -69.495049 -119.636780
27.589720 -64.120529 -33.231411
-147.343048 -70.072182 -267.626587
-141.548920 -67.864594 -262.308533
-85.458862 -65.675850 -51.251083
-15.165209 -71.618271 -274.422852
24.407906 -59.851501 -28.002687
-136.290436 -74.171745 -288.194794
-151.090195 -76.806961 -280.013763
31.626850 -70.697609 -14.672133
23.040823 -66.680702 -19.421480
4.961187 -78.897423 -287.339111
-113.121399 -70.710228 -230.484680
-81.742287 -72.557053 -255.887589
-141.448181 -77.028648 -204.473022
-58.764893 -75.758469 -288.258118
-125.286995 -74.229820 -229.629044
-155.504669 -72.654251 -195.931213
-69.905289 -73.664169 -287.722717
-9.852484 -63.020226 -59.765053
-123.802635 -72.612518 -252.759094
-145.477570 -72.729248 -301.429077
-151.015778 -75.051888 -298.637268
-152.070541 -76.307259 -286.170532
-130.807892 -65.574738 -258.293549
-156.940765 -66.738037 -284.861542
97.060616 -67.087517 -69.042534
-1.843997 -75.826294 -295.664246
72.307693 -70.767593 -104.455444
76.163284 -67.486298 -108.936798
-150.015182 -75.127655 -309.433838
67.351288 -61.433811 -70.912895
-3.002517 -74.227417 -171.096313
-155.382706 -74.944206 -313.911346
-157.773422 -70.613823 -310.540466
88.103355 -73.241417 -211.488113
-70.301582 -76.652267 -61.059349
-1.754922 -69.126717 -240.857254
-36.493462 -72.298729 -58.187294
-87.890167 -78.182007 -76.075027
70.428612 -74.174416 -94.368416
-135.805847 -71.640999 -253.337540
-33.982147 -71.255760 -80.858833
24.274508 -72.831413 -19.979914
28.702467 -70.568024 -14.389669
73.964973 -73.504295 -86.546463
65.247749 -63.622066 -74.099167
-3.598775 -65.020683 -277.435577
89.569016 -63.210995 -64.996735
-81.279282 -77.156120 -100.410553
16.125095 -69.038086 -142.773788
-94.000954 -76.778313 -104.890320
-84.096840 -77.058701 -106.176048
105.911797 -68.717224 -172.976791
-96.370056 -74.723763 -111.834045
-95.350517 -70.635071 -119.248230
10.150434 -70.211990 -190.800079
109.930603 -75.313660 -114.578331
111.214119 -75.875938 -123.927780
-16.387136 -68.754410 -252.238678
-98.911919 -59.101559 -68.223915
111.739403 -75.862511 -132.524460
9.926753 -73.610374 -202.243118
-54.143394 -73.244675 -133.900604
-47.665886 -71.877831 -140.387268
109.575943 -75.296150 -145.689957
-53.534908 -75.065514 -143.553131
0.355053 -60.658119 -285.148315
-17.266094 -73.561653 -286.409393
19.215902 -70.395729 -252.391937
-98.136803 -59.840317 -110.003754
-19.043240 -74.978981 -288.457062
116.028252 -73.619423 -157.637634
17.252497 -68.946022 -171.194855
92.386604 -73.604149 -202.029999
-122.961311 -73.428551 -256.005066
-50.459167 -76.270264 -185.738846
100.612175 -74.515030 -190.318359
-47.305481 -69.801506 -156.785233
-20.418676 -71.118095 -197.522461
-45.086533 -69.148247 -150.628326
3.482418 -55.997562 -244.241608
95.760780 -75.594131 -199.557358
-82.031639 -56.604771 -122.903206
-72.153320 -75.848259 -291.692780
-146.660858 -69.271088 -212.536728
-149.542053 -76.018105 -198.003418
-156.488159 -66.450661 -195.329636
-150.183090 -58.965199 -212.794327
-137.219437 -73.907356 -200.753357
103.548454 -74.187622 -201.969681
-13.365651 -72.923683 -220.143890
-44.224495 -71.467117 -162.867218
-52.380489 -72.155975 -156.307175
-18.930466 -71.471512 -189.929459
-84.696632 -70.910843 -120.411972
-53.212574 -65.822052 -149.106155
-74.351212 -71.395874 -130.069550
-91.725166 -76.185608 -251.437866
15.234508 -71.236977 -220.023743
-8.314103 -74.019928 -221.641174
-74.857307 -65.557556 -146.783112
-6.136415 -67.295189 -221.829498
-51.672504 -68.606453 -126.830200
-57.321732 -68.408318 -125.401611
15.031100 -73.966690 -207.536255
-158.597656 -73.695114 -227.140213
-153.550629 -74.216774 -227.221725
-160.807526 -71.563538 -250.094833
-84.611153 -74.507904 -287.693756
-147.618027 -78.974297 -230.807495
-127.190117 -63.426216 -194.150818
-10.339454 -70.020065 -236.554169
-5.239562 -72.143753 -235.509079
1.578476 -75.803665 -231.974274
-33.697460 -64.360962 -48.006641
-61.514469 -64.691872 -126.298698
-17.771090 -70.297630 -237.872086
-39.923607 -73.204887 -237.836960
-18.294371 -73.234154 -244.345917
-17.965380 -73.826736 -269.708557
-79.030212 -73.345772 -287.432526
-118.946480 -70.478096 -200.766388
-157.100128 -72.427353 -234.827316
-154.405243 -70.038307 -234.738235
-145.028015 -66.491074 -234.269241
-76.837944 -73.249527 -288.120087
-3.159199 -71.661430 -232.733597
-154.994476 -72.700455 -214.552505
-155.097122 -67.097404 -218.204712
-147.342285 -63.568192 -217.887955
-89.891418 -73.530411 -286.838531
-62.245033 -62.615322 -132.025375
-150.404495 -76.354897 -226.496826
-81.677856 -75.683121 -285.933807
-108.028557 -67.994980 -199.919937
91.362083 -71.426712 -203.323563
-59.723682 -72.640610 -48.514400
22.018999 -58.671848 -248.207565
24.654190 -73.857315 -260.633148
-40.147343 -68.619255 -52.498222
-44.659897 -74.632240 -53.900787
84.389572 -74.534111 -71.701912
55.701237 -71.608681 -103.452530
-74.974068 -63.492912 -101.530090
75.199265 -75.108261 -78.172394
99.733421 -72.976257 -86.504547
-80.229164 -58.908104 -47.554722
99.909546 -71.188835 -89.839256
66.935257 -71.425224 -98.944862
73.310974 -77.804337 -97.082230
66.108192 -70.727783 -87.336906
6.841225 -67.404320 -293.919861
67.146904 -66.324760 -77.891464
7.855588 -62.434078 -290.953766
72.671738 -69.520775 -97.352631
23.528536 -69.550484 -170.544296
-165.846222 -73.094589 -271.004761
8.468221 -73.449036 -152.766693
-68.176331 -76.158524 -100.572144
24.206129 -65.984123 -169.875565
-160.146118 -76.354286 -275.206238
67.541245 -73.725136 -236.658585
67.128983 -71.627342 -77.798309
89.976395 -74.900162 -100.866432
39.463116 -71.142159 -40.205746
107.293610 -74.305557 -104.998955
110.404701 -76.034195 -117.122894
29.321321 -68.903969 -23.029360
-57.559952 -68.458611 -142.620392
115.135765 -73.169624 -143.411545
-14.099084 -71.724083 -240.810043
-101.939163 -67.010193 -162.010910
-46.272953 -74.015938 -140.986130
-100.599289 -71.286186 -287.234863
-97.750771 -66.444931 -289.231018
-149.084854 -59.203693 -242.642029
-43.881847 -72.827248 -148.358078
108.107727 -70.197975 -150.034348
-58.400120 -72.620911 -143.518600
