# This PCD file was generated using the MATLAB® pcwrite function
# from Computer Vision Toolbox®.
# .PCD v.7 - Point Cloud Data file format
VERSION .7
FIELDS x y z
SIZE 4 4 4
TYPE F F F
COUNT 1 1 1
WIDTH 1414
HEIGHT 1
VIEWPOINT 0 0 0 1 0 0 0
POINTS 1414
DATA ascii
-55.115974 -98.433960 -169.944748
49.980267 -104.293228 -171.886536
15.426915 -93.378281 -169.359451
123.234093 -94.903870 -171.306152
130.234665 -101.291397 -168.884125
128.992584 -98.853134 -166.772278
-47.700577 -90.301498 -169.440201
-28.455391 -93.193588 -171.352737
15.834400 -90.232071 -167.799042
-11.008953 -79.069870 -167.419907
123.998909 -89.577835 -169.613037
-20.223278 -95.426376 -167.167099
125.113632 -86.520050 -168.058884
-20.963150 -82.612488 -170.830933
129.205582 -86.380203 -168.404449
-134.499451 -72.231567 -172.392319
-11.305489 -77.192062 -167.746384
-3.655445 -71.120621 -168.615402
39.316139 -81.734329 -173.041687
32.607353 -72.503082 -171.221237
43.804504 -76.345016 -169.857254
124.319557 -69.984024 -170.674667
-134.694626 -69.330933 -171.557297
-7.194323 -65.139542 -172.963150
118.402138 -78.477631 -168.381317
118.964958 -63.518326 -169.383743
124.267242 -73.405579 -169.022964
112.157372 -62.912186 -173.908310
-135.930054 -66.314224 -173.194946
118.458977 -53.476700 -169.903931
-14.302374 -59.739975 -167.618607
113.688919 -59.147522 -169.341080
-109.276878 -58.341232 -169.791641
-15.487967 -61.490128 -172.375900
-124.297295 -56.811813 -168.305466
111.090408 -54.056442 -169.807709
21.769815 -58.256699 -171.538055
39.982208 -60.663254 -167.905945
-129.105240 -55.668259 -166.354156
-123.428200 -52.153397 -169.180984
5.813059 -49.180908 -171.306168
-110.491966 -52.729004 -167.443710
-128.751373 -52.699646 -172.052719
25.599010 -52.891541 -168.961182
-3.370199 -51.760254 -173.682648
36.188831 -47.652603 -171.155685
25.043074 -43.963699 -170.057098
106.061356 -44.461044 -172.206787
-1.418091 -43.371429 -167.467102
110.217224 -47.178131 -167.471664
112.327515 -48.875610 -169.024673
-134.988968 -40.708664 -171.098450
111.232239 -42.951340 -170.519302
18.454962 -44.561996 -167.975800
21.188681 -43.117355 -169.944397
-18.879177 -46.295639 -170.079422
-70.906738 -42.421783 -171.003525
-10.860361 -41.896118 -169.058990
100.999756 -42.203903 -167.580765
104.564674 -35.291992 -165.941422
-18.766052 -41.230011 -172.503189
-69.678780 -39.521805 -168.084335
12.267255 -37.714600 -172.073471
105.486717 -40.729568 -165.306198
-133.252151 -35.141220 -171.426773
-151.161926 -41.214523 -168.546555
-143.238129 -29.184860 -170.055405
-5.145760 -28.182999 -169.792130
-138.426697 -32.971375 -168.322693
11.246513 -27.478668 -167.527496
28.308821 -35.240784 -168.496170
-147.809235 -28.781326 -167.979630
-144.492661 -31.343491 -169.783539
97.849777 -23.911316 -169.681458
22.910250 -27.289017 -167.471863
-139.563660 -27.235153 -171.513763
-124.611427 -30.376221 -169.221176
-4.055233 -30.803040 -168.039444
22.641533 -28.812103 -171.202454
93.623222 -30.342636 -167.372803
-143.396072 -24.983704 -171.010468
-131.159058 -26.824814 -168.340851
-109.701027 -26.105133 -170.345444
97.267319 -29.258484 -167.971710
-98.959030 -26.934891 -167.545059
-134.913940 -25.187027 -169.281921
-135.278687 -25.272873 -167.500595
-132.167053 -23.761154 -168.866226
-139.639954 -24.679245 -167.440384
-149.739883 -24.318954 -170.792953
-122.967827 -18.069763 -166.314255
-114.860863 -24.946976 -169.101456
-141.169449 -24.370102 -168.910004
-127.878044 -21.317169 -165.870682
-137.613846 -20.538055 -167.788071
90.909424 -27.046539 -168.044357
83.337234 -19.302032 -168.648453
-143.335632 -21.542404 -170.731964
87.236595 -19.854630 -167.799942
0.471427 -17.172302 -169.279739
26.182457 -18.742142 -170.378174
18.403988 -17.736450 -172.891327
-134.986664 -8.457550 -166.091064
29.792795 -12.774246 -171.554276
78.928940 -17.663528 -171.721375
28.857248 -17.134537 -165.803284
22.728344 -14.345612 -169.635895
10.089864 -14.931290 -173.068222
-4.146410 -12.621017 -170.726212
13.432257 -9.304291 -169.771790
18.066845 -12.541458 -172.388748
72.907791 -13.626556 -169.881577
-39.216099 -12.933762 -169.359085
34.403790 -9.568558 -167.566391
-45.355881 -11.756119 -170.927673
7.489415 -6.549622 -168.601486
-45.568626 -5.789337 -168.220215
-70.900253 -3.014008 -168.996155
-69.084656 -7.378387 -170.682419
8.032090 -3.272339 -165.278793
-108.896309 1.903168 -168.900574
3.509117 -2.419373 -172.626923
-102.926414 4.682983 -168.740524
-97.863342 0.985809 -169.008301
-86.883263 1.223724 -168.048218
-129.312195 10.228424 -168.657135
-127.646904 9.352112 -169.556580
-149.550613 10.479980 -167.583298
32.929901 24.209595 -168.427048
-35.851349 33.462982 -172.084167
-46.461033 30.054291 -168.158859
-25.006889 32.088043 -168.662918
-11.755730 30.131897 -170.010330
-79.141220 32.777405 -167.698807
-10.509848 33.288452 -170.208420
8.830419 30.446289 -168.464203
-151.416901 37.477112 -169.409073
4.240014 32.234772 -169.933563
22.178299 31.695129 -171.408813
31.550884 33.297821 -170.346603
-40.545246 35.610748 -169.050522
-15.370966 35.219208 -169.823425
31.633402 34.427673 -167.596802
-52.513214 35.049988 -166.290359
-17.761330 37.206726 -169.769836
-1.804106 37.621979 -168.598618
33.542442 35.448151 -170.531876
7.122437 39.396240 -171.849228
19.734152 38.066803 -166.156509
28.197042 37.880829 -168.735077
-115.833824 39.508942 -169.426117
-125.982399 46.287750 -169.518570
-135.321609 58.055328 -172.735443
53.925777 -240.092026 -167.522736
47.311005 -244.314560 -166.293915
51.663845 -240.442993 -165.103363
37.982998 -236.867157 -169.959473
61.054985 -233.574768 -167.290848
39.154842 -232.845154 -167.198502
38.952690 -227.508072 -169.974472
39.775330 -220.861069 -165.024902
60.794212 -228.345764 -166.341599
44.851429 -216.856384 -167.243057
58.468307 -221.504257 -165.740128
46.280804 -213.411942 -169.554230
52.390446 -218.503922 -168.606277
44.574345 -214.751236 -167.896591
56.994099 -214.037216 -166.524567
53.971302 -210.028839 -167.480743
-20.575581 -208.113876 -163.151566
-13.424015 -200.908005 -161.531693
-70.903404 -199.858398 -160.186615
-72.036636 -190.740234 -167.673782
97.473610 -183.684326 -169.068054
99.847305 -183.609314 -166.676224
-3.587172 -183.595200 -167.288834
-72.689323 -183.967453 -170.745682
-9.543232 -178.263321 -169.132782
-34.040913 -170.972687 -167.149612
83.989212 -168.845444 -162.639450
71.475922 -162.134674 -165.177063
117.723412 -160.292068 -167.143555
84.061516 -164.098694 -166.876053
-51.546234 -161.388672 -171.062286
-49.065971 -158.359436 -168.851608
60.513100 -156.848450 -169.293503
95.163971 -151.313339 -167.339432
69.874779 -147.405075 -172.710968
115.577225 -155.643997 -169.442001
-80.605820 -145.708755 -166.860779
55.582012 -140.101944 -173.472397
120.938492 -149.821625 -167.496826
63.600315 -144.049301 -167.638336
118.674278 -144.995300 -168.100677
-72.577454 -141.784576 -170.257065
49.152287 -147.164429 -169.208206
121.157127 -137.101563 -167.592697
120.180397 -141.180527 -166.490005
123.262871 -138.962997 -166.109070
126.678482 -139.267197 -170.321747
54.554798 -138.496246 -166.853302
49.428307 -131.498520 -170.490646
59.665718 -137.513000 -164.803314
126.092293 -130.140884 -169.177795
55.269611 -129.175919 -168.889114
120.682091 -123.284851 -168.025894
128.476822 -123.639420 -164.537796
50.475048 -131.864197 -167.239334
-58.917931 -128.066757 -168.692780
131.972855 -117.303925 -166.702652
-39.570042 -117.762665 -167.166275
52.790112 -120.897537 -169.764435
-56.250465 -115.556137 -166.128891
47.293369 -116.826935 -167.405762
-61.650253 -117.235321 -163.778900
-31.964420 -111.704086 -173.391541
-56.123802 -114.636688 -165.283890
129.850525 -117.352356 -167.811035
128.751617 -113.190857 -169.485001
133.267960 -109.458344 -168.673782
-55.543533 -112.220856 -163.483887
26.327684 -104.727768 -166.134811
-36.261269 -104.455093 -167.925293
-34.701694 -97.225601 -167.540054
124.017822 -96.455414 -167.720795
-23.615059 -103.409424 -168.166779
33.557873 -97.837921 -167.378586
39.589020 -99.303009 -168.951385
132.229675 -91.599869 -171.422318
43.106022 -91.311142 -165.568436
14.668781 -90.601761 -168.917068
49.389549 -96.279205 -167.369446
-50.044151 -93.841049 -164.622787
-51.212105 -94.294769 -169.960266
-54.090973 -86.910965 -170.855896
131.624466 -95.305008 -166.874512
-24.025570 -91.781647 -169.504898
40.170429 -87.338715 -169.351059
-44.725113 -85.214325 -166.113770
-41.539825 -85.471939 -170.722717
-23.158985 -96.194733 -166.115051
-15.398148 -84.549667 -169.212814
130.280716 -85.952011 -166.843781
-21.068459 -75.992722 -167.060394
32.288250 -82.451035 -168.542770
124.871490 -72.451630 -168.011185
-132.749878 -78.295334 -169.872406
-128.463165 -79.692841 -169.030457
-134.216888 -79.340042 -167.814804
-125.808693 -75.411972 -167.071350
-14.197470 -65.582336 -167.193237
-6.569803 -71.360535 -164.336868
37.297577 -63.254807 -171.178574
-123.374901 -69.884735 -164.772171
-127.227715 -69.714386 -170.203400
-2.118504 -70.941986 -168.620071
27.346342 -71.294449 -171.952835
-134.353271 -66.101471 -170.931473
-12.178379 -68.387054 -172.491638
120.297859 -68.745422 -167.091675
123.916183 -64.489456 -170.311951
37.670658 -60.003677 -165.840973
-3.445263 -66.007858 -171.907532
-10.365662 -59.706940 -170.228638
-134.167648 -55.153717 -169.141144
-114.788124 -60.756577 -169.662735
-104.503876 -61.083389 -166.757172
-107.838020 -54.867905 -166.521759
-4.228247 -58.229431 -165.677231
26.689732 -59.504471 -170.127274
111.030479 -52.951630 -167.709274
-131.902206 -57.654785 -167.625504
-132.068359 -53.170883 -167.524063
-131.253616 -57.954254 -169.828613
-137.549805 -53.810532 -166.317001
-9.151674 -56.835983 -169.649017
3.591363 -56.977417 -171.155731
-131.147629 -53.224182 -168.656433
0.984772 -57.169724 -168.614960
-146.382019 -60.343384 -168.357834
-115.711800 -57.490509 -170.191650
36.051186 -48.053802 -165.448608
-147.449615 -50.694473 -167.276581
-130.221100 -47.729691 -166.276978
28.257801 -54.841080 -169.306595
-135.525238 -49.899368 -167.390305
-6.370602 -51.896652 -170.313156
116.596352 -53.521454 -169.423096
-137.286194 -38.421860 -171.123062
-148.892776 -44.778656 -168.428116
-63.269638 -45.393661 -169.492981
105.634796 -44.245209 -168.142776
12.262665 -38.824448 -167.345520
-132.441666 -41.542236 -167.472336
-70.225273 -41.243179 -166.560303
10.157642 -45.218521 -170.239822
30.727858 -33.345413 -169.510498
-132.121628 -34.015961 -166.870590
9.904344 -32.072159 -169.031311
-8.160299 -32.691467 -167.673782
2.709455 -35.632324 -166.248474
105.960518 -37.783356 -167.123001
-6.483734 -35.700363 -166.203873
-13.565098 -39.080795 -168.916031
-91.477875 -31.086090 -164.788055
0.996881 -32.184387 -169.213867
106.745583 -38.070862 -165.922318
100.729736 -36.825180 -166.646942
23.066761 -35.573242 -172.675308
4.675111 -30.557617 -168.240326
97.806618 -31.499802 -170.047134
-109.600609 -31.609848 -165.437164
-8.019560 -33.919449 -167.061493
-85.347450 -30.157181 -169.460983
-90.875397 -28.432251 -165.134033
-118.994209 -28.539001 -170.334457
95.960472 -29.624405 -168.639374
-105.520546 -32.157074 -165.638351
21.225918 -25.322342 -168.666931
96.311562 -30.611038 -165.946045
-0.225861 -30.361267 -168.136810
3.098251 -24.387787 -168.708160
11.002542 -27.465591 -167.481369
20.844473 -28.965317 -170.132828
102.110374 -27.119766 -169.108612
27.269321 -20.419754 -170.809784
19.389692 -25.697556 -170.374161
6.917592 -27.688431 -166.382141
9.674726 -17.107285 -169.643494
30.689257 -20.950027 -163.505661
2.345691 -19.729004 -165.336609
84.823265 -14.964371 -167.306686
11.412601 -20.016342 -166.787354
34.794342 -18.796143 -168.803055
-152.441833 -14.432266 -168.547440
14.814300 -14.890045 -166.166672
7.263062 -14.366318 -165.650742
-151.982925 -2.780884 -166.446320
5.545606 -8.746246 -171.001190
32.513432 -14.059433 -170.504578
-130.349228 -3.745422 -170.076859
-53.300743 -6.838409 -168.264374
-43.225735 -6.609772 -164.493378
70.404594 -8.337433 -164.962051
-60.764977 -8.120239 -170.045532
33.300037 -4.477234 -169.599487
-57.470985 -2.247803 -159.970001
2.280193 -5.577637 -170.346741
-128.344681 -5.801575 -166.602509
63.606663 -7.995972 -169.823120
-61.601730 -0.806000 -165.409012
-83.956047 -2.104126 -167.799042
-84.764244 -0.085815 -166.908646
-100.230957 -0.031158 -169.468964
-87.983246 1.043243 -170.133209
-90.896080 4.250061 -167.574951
38.968071 10.811554 -170.912720
-111.062981 11.626953 -166.222427
1.412590 20.212891 -169.433197
-131.128571 27.760162 -170.832230
-151.872910 32.966919 -167.088104
-108.176216 31.080566 -169.821594
-98.965080 31.701416 -167.910553
-58.529175 31.788971 -167.527954
-41.258129 32.106262 -168.101334
-24.745022 29.854401 -168.960037
0.184309 33.478760 -167.095001
1.980577 31.993988 -169.945984
-22.288055 34.779755 -164.193970
-17.853523 33.448456 -167.629578
-3.132990 34.322174 -167.010223
-53.187874 34.477356 -164.902222
-38.690880 33.610077 -164.404861
-0.140326 37.034973 -167.269806
-0.168743 37.109253 -167.452972
9.781342 35.142151 -168.484787
20.090496 32.567474 -165.466949
-71.938957 37.340179 -167.543350
-125.867256 38.673553 -166.662323
-102.153160 35.421204 -169.160767
-135.187851 45.835693 -168.572388
-140.024384 44.067383 -171.566620
-131.477188 45.300812 -171.735413
66.139862 -234.179199 -166.402283
37.539433 -230.396667 -165.988495
68.478760 -229.167831 -165.687103
65.853134 -221.562500 -167.620605
103.998215 -187.875870 -168.756516
113.096634 -179.076340 -167.888031
118.931305 -175.908310 -164.701996
110.711601 -172.109985 -168.292633
73.431671 -165.733093 -165.231537
67.513382 -161.503036 -168.669006
76.833328 -165.421860 -167.106262
-48.208344 -166.104996 -163.227875
87.469597 -165.401001 -164.824417
119.379616 -157.095154 -166.485336
93.002411 -157.983871 -172.246307
110.872513 -153.523407 -166.475021
-64.314308 -152.307587 -167.272980
61.170876 -153.534439 -166.942566
-66.963303 -149.384888 -164.168961
68.673729 -144.792908 -166.497223
53.568401 -148.870132 -166.100464
123.744354 -152.174240 -164.780441
51.715633 -147.234726 -167.812775
55.893532 -140.510529 -168.762253
58.706009 -140.062057 -170.376160
121.872269 -138.658539 -168.080338
-69.908447 -133.243912 -165.412262
128.277954 -128.096909 -164.356689
55.715633 -133.433746 -165.013397
59.274830 -134.724869 -163.598267
55.759350 -132.124634 -162.690216
-40.318607 -124.360764 -170.263000
49.225693 -128.510910 -168.153641
-61.455330 -118.808640 -167.351776
-37.279957 -121.054306 -167.761215
-63.251434 -120.189987 -164.823288
51.438313 -123.369827 -166.241684
-43.420174 -122.307968 -167.901154
51.482964 -120.405441 -167.462936
-57.650238 -112.185745 -167.940201
-44.743050 -112.935883 -166.717896
45.783066 -116.311966 -167.419296
125.236443 -110.644638 -168.025970
133.073883 -117.850464 -165.226028
48.569458 -114.982040 -161.443314
-29.853607 -113.319061 -163.858307
128.302872 -103.526138 -168.185043
-59.488998 -112.189072 -167.478073
-41.284931 -112.512970 -168.739059
47.074787 -104.384659 -168.274887
-60.748672 -104.805099 -167.245560
-53.771049 -104.302841 -166.453751
132.732956 -103.331192 -167.551910
-46.278645 -100.087433 -164.768631
-20.851482 -100.597702 -168.302612
43.629650 -107.514877 -164.340256
-60.121094 -104.440994 -169.507645
28.353453 -104.431763 -170.076157
49.388016 -104.275909 -164.652847
48.715294 -108.746933 -168.630112
30.128883 -97.387512 -166.450394
-31.113949 -97.406204 -168.280365
42.587097 -101.075638 -164.445038
-29.438686 -105.524048 -168.474258
20.223902 -102.032349 -167.624710
37.836349 -103.931549 -167.174820
-52.537262 -98.048492 -167.229172
-27.747055 -99.598434 -164.701736
-51.642578 -96.972916 -164.194885
29.739019 -95.970551 -166.000946
43.096172 -104.146805 -166.403625
19.854094 -95.573380 -167.560532
39.982193 -97.374405 -169.367371
47.869568 -89.606537 -167.943924
-30.785500 -93.923904 -168.565186
-15.953070 -95.026596 -166.462616
-23.326714 -94.202103 -165.912292
45.759762 -94.410416 -165.179001
-26.988655 -89.679077 -164.879822
-25.905293 -91.043121 -165.443329
35.202499 -90.050034 -166.681107
-23.244198 -79.870132 -163.334869
44.852043 -83.754181 -171.987701
128.164261 -87.728958 -167.474945
-16.298916 -81.570023 -166.757370
123.747139 -82.856979 -169.628906
-20.071465 -76.519684 -167.692490
-21.470745 -69.896393 -167.632538
32.917297 -75.840454 -171.836777
120.538330 -72.976227 -165.064331
-8.950390 -69.299454 -163.684113
-14.452143 -77.293808 -164.513824
-8.510950 -68.263809 -166.620087
-128.110306 -65.082397 -168.896011
31.563450 -69.551102 -167.480743
121.417397 -65.508774 -167.573166
-137.924072 -56.287399 -167.072144
-9.512394 -60.377869 -167.224457
-97.399704 -59.335434 -168.534348
-119.824791 -56.603439 -165.762451
-94.970581 -55.430298 -168.826797
-92.841766 -54.627930 -166.487549
4.306480 -57.920135 -167.131256
37.395725 -60.722046 -165.284988
0.566072 -52.272598 -166.383865
-104.505165 -49.143600 -166.927414
-8.482460 -49.736740 -163.839935
-116.736549 -52.006454 -166.170181
0.771595 -51.768585 -165.286575
-126.621193 -48.003662 -166.300522
109.656250 -45.192459 -166.432892
-149.016266 -53.746078 -168.197708
12.943659 -42.270172 -171.899872
25.842972 -47.104889 -168.805679
24.054049 -38.729080 -166.158188
98.049072 -36.409775 -168.945358
21.099468 -40.494949 -166.246140
27.543423 -41.175705 -166.494507
0.224377 -35.698273 -167.739761
-75.112717 -35.852188 -165.488174
-79.731804 -39.159073 -162.860168
9.827914 -34.076965 -168.055344
-148.297668 -31.471130 -164.905121
29.731131 -34.867416 -167.075150
-127.394768 -28.204300 -166.170013
30.879814 -25.704880 -163.542267
-118.185570 -29.991730 -165.476120
-102.463608 -29.074738 -165.926941
29.532526 -32.799774 -163.428360
95.563568 -31.785172 -165.441177
23.568354 -34.156021 -169.139587
-94.253990 -26.017273 -170.051010
95.970589 -26.757996 -168.556808
98.879524 -25.975616 -169.760925
-108.338951 -23.186783 -168.352463
-96.427925 -24.040894 -166.438690
1.854388 -23.578430 -165.316788
87.753273 -27.534012 -163.912262
83.434883 -19.582382 -165.662231
91.475334 -22.922745 -168.636688
-121.366875 -18.192688 -164.823883
87.229881 -20.534409 -169.887787
81.802208 -18.238403 -164.337738
-150.731949 -27.584976 -167.663406
14.358225 -14.055069 -166.533966
34.901855 -14.571304 -167.227966
13.074789 -16.981262 -167.456619
34.248997 -13.156982 -164.219299
79.427086 -15.346542 -170.388672
32.753067 -14.909286 -165.660919
2.857280 -11.358948 -164.089386
17.926592 -12.841003 -164.310471
81.017776 -8.721893 -167.038040
20.999960 -10.487000 -168.083267
8.225076 -10.830978 -166.162643
29.498562 -10.343933 -166.253433
-149.737106 -13.697128 -169.074127
74.726700 -7.869934 -166.770721
67.889427 -5.291840 -166.107239
70.525314 -11.945236 -166.199570
3.018924 -5.503571 -169.205765
68.868584 -7.377045 -168.355759
-55.705795 -6.288452 -166.777054
68.940132 -5.859375 -168.386703
-76.131638 -0.750061 -168.281006
-110.493378 -0.305084 -168.281616
-116.797874 -1.323639 -166.846054
62.556843 -1.248322 -168.026108
-119.967216 2.231079 -164.653580
-93.223900 2.781982 -166.519348
-97.923386 3.948395 -165.664505
-67.884789 1.892365 -167.717133
-98.131721 2.106110 -170.928680
-106.552025 5.801056 -170.068832
-128.245804 9.640106 -166.241241
-0.624104 6.779633 -168.261108
-152.875702 11.562866 -167.278122
2.755039 15.905701 -167.022369
-143.135330 15.017120 -163.456665
-137.293060 21.808044 -165.522537
-157.045258 24.608582 -166.327408
2.940187 23.080139 -162.860504
-121.487663 30.273651 -165.256104
-142.501663 27.815765 -169.197632
-128.946915 29.311981 -166.800522
-124.517525 29.856995 -172.259903
7.279612 31.073029 -165.555161
-110.062111 26.266907 -170.014893
-127.072685 33.818634 -166.993912
-99.074287 31.370483 -168.268631
-60.124741 30.682159 -168.474457
-45.276627 30.491058 -166.103287
10.399329 35.795593 -168.373581
-41.064610 36.956512 -167.536911
-38.770134 32.225311 -165.589554
-56.753510 37.253143 -167.180588
-70.238045 35.753784 -170.753250
-80.432892 33.955048 -165.158936
-145.102158 35.292450 -163.148422
-147.667664 37.849854 -165.861420
-109.139000 39.158722 -168.361603
-127.815636 40.393188 -170.053329
-142.359192 45.883850 -166.101212
-134.478394 59.634338 -166.989517
65.146515 -235.362579 -166.164413
35.147034 -230.299957 -170.851013
54.796303 -220.670547 -165.833801
-0.114803 -187.041351 -171.650574
98.951691 -193.043671 -168.938385
103.324799 -189.825348 -162.305145
94.634438 -186.531219 -166.904404
87.215286 -184.446213 -163.726883
108.916710 -182.416763 -172.224289
-81.659523 -186.737167 -167.183167
87.303246 -182.891785 -166.983185
-18.185238 -178.204269 -165.956924
114.872841 -167.636139 -168.082886
76.338058 -163.706284 -168.830048
119.853058 -157.631332 -168.388550
120.110306 -156.403915 -166.712845
83.727203 -154.724609 -164.260132
-62.929871 -157.783051 -168.371231
68.807549 -153.985443 -167.431595
124.469925 -148.537766 -166.870560
65.600250 -145.823151 -168.970383
97.218849 -152.767548 -166.180389
58.082115 -149.380051 -167.838638
121.456612 -148.037628 -166.842728
64.084427 -150.940140 -165.322464
125.013062 -141.271927 -167.743042
124.158607 -140.734329 -166.097748
-57.516251 -138.702545 -163.340302
-65.257545 -134.887314 -167.676056
59.402699 -133.714386 -166.509415
131.153549 -138.210663 -168.459915
130.444199 -129.558212 -164.312851
-68.553574 -129.492554 -166.678986
124.657303 -130.032837 -166.487320
-41.562469 -122.735275 -168.531647
-68.802261 -129.365097 -164.562576
-58.951942 -125.926849 -166.258331
-41.708229 -126.970978 -161.503265
48.659550 -125.626328 -164.349442
58.111301 -121.975830 -167.134949
-63.083946 -115.517593 -166.205002
46.070503 -120.523331 -168.032990
125.684624 -116.349640 -163.722092
-26.400494 -109.045929 -166.292038
41.623726 -105.855423 -160.462204
134.213821 -108.993164 -168.472397
50.724373 -109.957718 -166.611343
125.934380 -108.984482 -165.458832
-34.793278 -108.377380 -168.781372
-55.012917 -105.487534 -170.095840
-36.587513 -100.855560 -168.329224
-22.692070 -88.250778 -169.128128
20.711880 -96.366638 -168.065704
128.656387 -101.750534 -165.520813
124.954758 -99.931091 -164.578751
23.290480 -98.441223 -165.958237
22.632769 -91.007751 -165.997223
32.391403 -97.437943 -167.099380
43.740738 -96.550140 -167.026169
131.267792 -88.536026 -166.857666
123.129593 -85.162399 -168.199203
39.300312 -85.580414 -163.763367
44.293892 -94.148804 -166.228500
130.211502 -91.859421 -166.952042
-13.084293 -83.027390 -167.440811
125.667488 -88.601654 -164.036346
31.326395 -80.215256 -167.921341
41.800770 -87.204788 -164.600067
124.870476 -80.901398 -163.961258
41.498390 -82.910675 -166.820572
126.818985 -72.987732 -167.149933
-20.077915 -80.274582 -164.806839
41.707317 -80.445053 -162.707352
123.072479 -73.275818 -165.502533
38.704609 -73.431458 -166.972412
-134.665497 -65.429306 -165.951569
-14.872856 -67.314072 -166.160690
40.570847 -67.945816 -166.175247
-95.075256 -62.054153 -166.803146
-91.958832 -65.378159 -165.364197
37.765549 -63.590088 -164.318237
28.883408 -69.528671 -167.988007
-11.367123 -65.480682 -161.859268
-14.021265 -68.350250 -163.494385
-10.837635 -70.380615 -166.688232
34.623821 -73.970001 -164.285141
-137.001770 -58.965179 -165.188995
-129.745621 -56.582733 -167.886154
-125.432411 -60.301346 -164.932724
-1.237961 -63.332321 -169.048523
29.975136 -56.726852 -170.357605
118.372719 -57.818115 -167.446533
-97.446007 -58.774689 -164.219681
38.195339 -52.184952 -166.769745
-2.505772 -58.419113 -166.417038
-3.047670 -55.973114 -166.338806
117.784523 -55.944122 -166.733078
26.158056 -54.047470 -166.703125
-1.164413 -58.522369 -166.812607
-104.918228 -52.655640 -168.243622
-120.530815 -50.039307 -163.953796
-98.104774 -52.142578 -166.943253
-125.785957 -50.891800 -166.915573
33.513477 -56.049545 -165.391159
111.212883 -50.604187 -165.077332
-151.304321 -48.739151 -161.764618
113.472260 -49.724701 -167.558014
-1.432047 -45.795746 -168.752060
112.652184 -38.756775 -167.459198
106.674614 -41.590530 -164.772873
32.626354 -39.665833 -166.827927
36.053444 -39.145752 -167.746262
25.775038 -47.910416 -163.120026
3.390767 -35.741180 -169.207428
-80.201553 -35.504410 -167.719070
10.901041 -42.317581 -167.855026
106.519249 -42.726593 -164.355865
-74.876534 -36.372086 -165.999329
-87.440483 -35.367157 -163.589920
-73.674774 -34.686737 -168.453430
101.304237 -31.419434 -165.130020
-120.268135 -27.761978 -167.089630
-119.787849 -30.519379 -162.877167
-102.659348 -30.580170 -164.650955
-95.094849 -31.594009 -164.973541
-118.777565 -28.216446 -165.725189
-94.615204 -30.538696 -168.228027
-95.963493 -29.102203 -166.782303
6.377228 -31.793732 -165.288803
0.060740 -34.663620 -162.776337
15.350165 -23.121643 -165.388260
5.770538 -26.506729 -162.839676
33.333500 -20.051041 -166.633743
0.887059 -23.236404 -165.253738
-152.934158 -31.058304 -167.821716
12.829442 -24.464951 -163.182877
96.080986 -27.315720 -162.988861
22.395018 -21.795044 -165.330704
9.210548 -19.003906 -169.207947
-138.344162 -16.225876 -164.092407
-124.248131 -21.082855 -162.432129
83.238960 -18.518204 -165.008972
9.392709 -18.827606 -166.073288
20.609880 -20.935471 -170.952011
83.490379 -21.487854 -164.083054
92.551003 -20.242752 -163.194794
85.630325 -12.856247 -164.181763
12.928932 -17.885925 -166.816498
71.186104 -14.231918 -169.807373
-2.658009 -12.847015 -164.902451
-2.522667 -15.644012 -166.910065
26.297421 -14.242905 -164.925262
81.359245 -18.612381 -166.874893
75.154884 -14.608200 -164.338150
68.125542 -5.368469 -168.598953
76.791061 -11.476807 -166.745331
1.075942 -1.303833 -165.965530
-69.638962 -2.908020 -167.391724
-62.777283 -4.650513 -165.939713
61.757633 -8.782715 -165.320709
-131.956451 -4.288300 -166.609314
52.562019 -1.083954 -168.942978
-75.921410 -2.925171 -168.029404
-141.278488 1.946320 -164.785172
-125.643379 -0.681671 -166.253754
65.008072 -2.792297 -167.284775
-106.243660 1.715363 -165.979828
-102.285316 2.091064 -167.251221
-75.520790 6.100403 -163.863159
2.715810 -2.570343 -168.522308
49.157578 6.420746 -167.770660
39.725410 7.941101 -168.664108
-141.884079 5.380127 -164.681137
-98.979996 9.551941 -168.191010
2.868592 5.152252 -160.213882
-120.613243 9.659485 -166.114166
-1.150158 15.136475 -165.555756
-151.416077 24.004059 -166.312820
5.107232 29.558136 -166.711990
-145.132950 32.636993 -165.635178
-148.350296 24.723480 -163.198669
-127.141838 29.016876 -163.430328
-149.054260 28.282532 -165.553391
29.002314 33.352020 -165.465073
-86.660507 33.651398 -164.618240
-68.929634 33.310089 -163.777161
-151.873505 33.912537 -164.402039
-72.969971 34.387665 -162.841415
-133.432800 29.137573 -166.299393
-55.622543 32.673553 -163.932999
-52.425003 31.705048 -166.706558
-67.818695 35.035400 -162.858231
13.299535 33.929321 -167.878098
-68.329994 37.771729 -166.479080
-85.775024 37.780426 -165.391220
-97.506058 37.158356 -166.431839
-100.545792 37.250641 -164.779556
-120.546577 38.529175 -160.312668
-126.574699 46.173950 -165.151352
-129.139404 59.850433 -168.028824
43.312160 -238.814041 -166.322845
52.690857 -235.200577 -163.554611
45.814739 -234.359940 -167.229980
66.419579 -228.861664 -166.419388
43.155617 -224.203247 -167.672714
-56.774826 -203.111038 -162.053513
107.098877 -186.666336 -164.009888
-0.420855 -185.781860 -168.026535
117.707680 -182.907257 -162.561096
112.592247 -179.816879 -164.617798
87.215393 -178.645554 -169.609299
86.091774 -170.259109 -167.838699
-28.742382 -169.569229 -167.171524
77.265434 -170.791504 -163.397125
-82.456734 -168.255493 -166.618896
-37.448444 -168.873245 -167.771301
-40.035603 -161.982620 -173.853622
112.568687 -159.883072 -169.307526
75.779594 -160.372025 -166.199478
78.282539 -162.694061 -163.082947
-80.969872 -160.821045 -161.746475
122.707253 -159.874054 -163.440430
63.655548 -156.570038 -164.646790
117.680313 -154.493622 -168.709229
123.501663 -150.662491 -167.045822
116.820534 -145.002075 -163.560318
90.099770 -148.464691 -165.724869
106.233139 -147.314087 -162.419464
65.610626 -142.835648 -168.452194
127.866676 -145.911499 -164.661957
58.118843 -150.317764 -168.222610
58.120148 -154.942017 -163.985306
126.795059 -144.280121 -165.078354
-63.150650 -147.645264 -164.752838
62.014908 -141.837845 -164.177582
52.079678 -143.708160 -166.113953
124.483925 -146.080948 -164.978806
54.834202 -142.829330 -165.384460
-73.347672 -139.331879 -164.079468
-77.867455 -137.745132 -167.504959
124.022728 -138.135757 -166.718781
-76.706032 -135.979095 -167.124634
51.425587 -130.540009 -164.177368
53.242432 -136.079773 -164.639404
-65.840637 -128.059540 -165.649246
45.940060 -122.926315 -164.895996
123.699341 -122.893967 -167.082718
-36.800755 -124.759827 -164.618515
-74.197548 -122.649612 -164.851807
53.548687 -120.974045 -164.063446
-76.904381 -117.692764 -163.242920
-74.950066 -117.256821 -164.909546
-33.740051 -113.755096 -170.193787
-52.378433 -111.719360 -162.306778
-35.598236 -119.293701 -162.194641
128.711548 -113.885574 -166.086502
-62.425323 -115.325577 -164.740326
49.495190 -122.179886 -163.239258
-61.973854 -116.572372 -164.309357
-58.972893 -120.411835 -162.220276
-70.141006 -117.778458 -168.254333
-38.761589 -104.782745 -163.775116
45.166039 -108.638428 -163.403915
43.820972 -106.534042 -163.564926
34.614883 -107.884430 -164.599716
133.551987 -108.776855 -167.420334
-83.010513 -101.334518 -163.066727
33.681309 -100.756119 -165.750854
-56.474937 -103.459549 -165.747543
40.890575 -104.017685 -165.868240
-31.998947 -96.851044 -168.162933
25.798197 -100.139297 -165.293457
28.695824 -99.368271 -165.540741
33.525398 -89.040817 -164.254623
-26.701645 -94.269363 -169.060562
-22.917965 -101.464874 -161.753143
-27.443039 -96.079559 -166.043579
-88.672188 -84.332230 -167.478851
36.879204 -81.240814 -160.668777
-18.134296 -81.004868 -163.951874
30.841492 -75.926865 -165.980789
-132.883026 -79.765320 -165.945358
-18.614433 -82.869949 -164.634964
-141.913239 -79.961761 -161.006897
37.927547 -74.485764 -158.421371
-10.604647 -79.956955 -164.783585
-96.229103 -74.776001 -162.437088
-93.153770 -75.263870 -167.429352
-11.651297 -70.870438 -163.392532
-6.889851 -72.943192 -168.669144
33.417267 -62.921097 -164.149094
36.771740 -56.738403 -162.965408
28.555342 -68.425034 -164.610306
-128.382736 -64.863220 -167.247086
34.535595 -65.162827 -164.864136
25.381945 -60.249176 -165.434555
-123.412956 -60.587387 -162.301147
-100.666954 -56.445145 -166.241959
28.866447 -57.237350 -163.686996
-94.074043 -56.787567 -162.324142
-93.759499 -61.739182 -167.173111
-147.824829 -56.793015 -165.635178
-11.085764 -52.968689 -167.477890
33.480595 -54.738739 -164.560638
-122.696815 -49.649216 -164.247025
-119.379555 -51.940552 -165.795456
-3.004826 -50.321945 -164.581253
3.646770 -50.914658 -168.537109
-0.230202 -49.021881 -162.702820
-129.149033 -47.294357 -165.453842
1.054379 -39.697220 -167.614243
2.612616 -39.800446 -165.934036
34.234116 -43.469681 -164.226608
5.407147 -44.382050 -164.237198
23.976450 -39.982574 -165.708344
7.708809 -39.653687 -165.947342
2.031198 -42.244461 -162.269409
29.352625 -36.021240 -161.009811
13.767612 -36.679321 -167.058517
27.537052 -30.609467 -164.106216
11.438329 -30.120682 -164.821899
-139.518616 -33.224655 -165.377548
94.465523 -33.500244 -164.273987
-113.926903 -30.523743 -164.926666
-117.969841 -28.068329 -163.764801
7.840035 -30.146103 -166.582291
28.261578 -23.621155 -162.015671
-134.754379 -26.151062 -165.909210
101.071571 -33.268051 -167.172791
14.409572 -29.340775 -165.827271
17.936668 -30.163300 -164.183441
90.305054 -27.678619 -162.709854
15.860174 -19.799042 -162.644470
2.633142 -23.229492 -165.308838
-108.334763 -19.435028 -167.595459
11.281328 -21.516785 -163.634613
17.495409 -19.532043 -164.761536
81.653038 -16.761124 -163.433548
-146.057114 -16.181976 -162.971268
5.600924 -12.075134 -164.311996
-151.372635 -15.714951 -164.576889
24.955757 -11.601227 -167.515793
-147.877106 -16.192123 -166.304153
-146.241592 -8.564667 -164.252655
71.179398 -6.889038 -164.798965
79.236427 -9.297867 -163.925507
74.266281 -10.044586 -164.347580
68.168190 -5.080322 -165.016006
-142.535553 -11.030182 -167.552689
-141.932632 -3.893005 -163.899963
4.163826 -3.580658 -166.534149
-135.575989 -8.276855 -165.263367
37.182835 -1.221741 -168.574600
-150.362076 -3.225616 -166.070724
-147.386429 -8.893478 -164.221375
-67.295776 -2.519928 -163.951630
-150.752167 6.592987 -167.172623
-67.323784 1.784576 -166.763214
61.058792 -1.144958 -166.245316
40.038490 -0.482544 -168.027451
-142.230057 6.131622 -162.545715
-84.702003 5.575409 -163.836609
55.543617 -0.087128 -166.282791
-87.467834 2.750275 -166.277695
-139.417328 5.861176 -160.026947
-90.477257 5.157806 -162.988785
-147.515503 2.475098 -164.488480
-98.960022 8.714752 -167.273285
-137.620926 10.551147 -162.470383
-141.402084 11.321960 -163.181854
-149.895111 10.295013 -167.655533
-143.558716 6.277008 -163.973160
-150.004135 11.408020 -165.791245
-146.262497 13.486633 -163.986374
37.654552 10.758057 -164.521561
-140.098862 10.847168 -164.256393
-131.603409 23.847687 -165.188095
36.433125 25.058624 -168.733200
4.640230 16.668610 -165.448105
-113.248024 28.289703 -167.883423
-122.318413 29.395142 -168.989944
-119.963249 31.642670 -162.962234
-112.193642 30.602173 -164.468460
-102.783844 31.349915 -162.384979
-89.119339 34.253174 -163.486633
31.177307 32.656128 -163.413239
-69.009125 36.056427 -159.471405
-133.651093 35.727020 -166.795822
-85.572357 36.648102 -164.993591
-107.200302 36.367157 -162.818314
25.622633 36.496277 -164.673782
-93.453117 39.060455 -163.762482
14.965924 40.812500 -164.302582
-127.326836 36.743683 -161.621597
-134.190536 43.445984 -169.704224
-137.698547 54.064148 -169.461426
-138.948578 56.722076 -164.856506
67.969360 -231.148956 -165.858078
37.185608 -221.779938 -169.567444
48.068470 -215.391312 -166.209564
-31.009079 -202.493866 -166.790787
2.766501 -193.632980 -164.073624
110.356735 -187.271957 -167.859756
82.864288 -183.126801 -162.999924
-3.604527 -178.934204 -165.708130
-77.996056 -169.848007 -168.264084
-24.922836 -176.900879 -165.735626
81.930283 -170.409012 -163.819717
71.646370 -166.501389 -163.290634
70.999496 -164.331406 -163.438507
-38.751682 -164.581268 -162.442093
79.830986 -165.095078 -160.118515
64.376595 -157.328751 -166.840881
84.808487 -158.486526 -161.963882
-49.150635 -160.946243 -162.543320
65.853104 -158.169052 -167.973480
59.640450 -155.894424 -161.455643
118.113281 -154.503983 -165.028992
-54.462692 -155.089264 -162.863617
127.325302 -151.663177 -161.606049
-68.180634 -155.765259 -165.768906
71.683601 -152.425827 -170.279236
62.847851 -156.052063 -161.812653
106.032143 -151.435394 -168.469238
100.337387 -145.770706 -160.635376
71.503654 -148.100403 -162.006210
-58.056198 -145.976715 -166.507919
-59.856148 -142.976303 -164.196259
-62.051781 -135.685013 -164.694778
-74.756310 -135.121201 -166.392746
125.819420 -139.755325 -161.780380
-66.774940 -134.615509 -164.774368
-63.379494 -134.701920 -162.256989
128.376617 -140.726929 -162.151138
-48.189133 -136.681442 -162.977493
129.136185 -122.398331 -163.922699
125.681236 -124.404984 -164.389603
124.321587 -133.396835 -162.657104
-76.129723 -114.824799 -167.639587
-31.319122 -111.750992 -163.613785
-59.049141 -107.838150 -167.411163
-51.789314 -105.232788 -162.753479
-58.997459 -107.116455 -161.263535
-37.907280 -115.023254 -164.720856
-34.180244 -105.483627 -161.192627
37.223866 -110.345734 -165.175171
-80.498718 -111.228271 -162.418716
-24.718811 -105.598328 -163.405243
-38.960281 -106.680893 -162.546402
-25.419319 -98.228760 -166.291870
43.036572 -91.391785 -166.034683
-30.731812 -105.783478 -161.737991
-80.298370 -104.027939 -163.868347
-27.582188 -96.067444 -164.479736
42.956390 -103.785110 -162.207336
-86.670952 -93.137222 -164.265259
35.656872 -97.111435 -160.251053
-92.730743 -79.615463 -164.953888
-85.040497 -88.176224 -165.871613
39.844193 -95.850220 -162.517746
43.254627 -84.465652 -159.882858
-84.536301 -83.225159 -166.689301
-127.774452 -79.841751 -168.570053
-5.289898 -70.428116 -163.023483
-12.293388 -73.053589 -165.128754
-99.166809 -64.798950 -163.877762
-129.753571 -66.141968 -158.960709
-91.683876 -72.146393 -162.394318
-140.198380 -60.355225 -164.542084
-116.319588 -59.364166 -165.906433
-119.045631 -60.317352 -165.682068
-4.873371 -63.135162 -158.578247
-107.042282 -61.078979 -165.786835
-99.011131 -61.518539 -163.128571
-6.269566 -57.281021 -163.199493
-137.624207 -51.369843 -163.826614
-115.334267 -49.143509 -168.654709
-109.810738 -50.432755 -163.248199
34.683712 -51.683090 -159.954361
-142.652740 -46.268829 -161.609299
24.221300 -42.903519 -164.807648
28.755667 -40.586517 -164.938858
-1.979389 -48.146957 -164.145844
11.346394 -39.133804 -164.740692
-149.983673 -43.748154 -165.189896
-140.483932 -41.279083 -162.215591
-74.624146 -36.907806 -166.121338
-87.863327 -27.858765 -162.827774
-149.433014 -32.481583 -164.157272
-84.377121 -31.822128 -162.840759
3.412491 -33.509399 -165.073318
-109.678864 -30.267181 -163.948196
-123.127968 -28.303925 -167.701401
13.042150 -33.710251 -162.637558
-117.021126 -26.495880 -164.605103
-109.831757 -28.915649 -161.632553
-96.405174 -31.171219 -166.343689
19.929729 -25.102783 -160.378830
-90.779655 -25.310791 -166.491318
-140.259384 -31.210129 -161.270355
-131.432510 -27.366165 -166.974121
-151.149673 -29.442566 -163.865524
10.053833 -26.578369 -165.574615
7.843760 -23.108810 -165.363052
93.397346 -25.109390 -161.281097
17.965467 -27.017426 -159.725388
-123.962578 -21.881516 -165.048752
1.886015 -27.904495 -163.950729
91.658203 -24.146896 -163.293182
92.514412 -24.721115 -162.892410
-119.415352 -23.880127 -162.528580
-141.020569 -30.477646 -165.928009
-99.802834 -22.877289 -163.727936
-107.429405 -20.020920 -162.809097
-151.873718 -21.432846 -161.380905
-141.692932 -18.236313 -163.738342
-130.388382 -19.737274 -165.653397
7.624362 -16.314758 -167.818619
11.101961 -16.829269 -164.595627
-147.150467 -17.941269 -163.304153
22.201664 -16.659378 -168.627167
21.611647 -22.989899 -166.784256
-145.639420 -17.307281 -161.607941
30.625971 -7.047272 -165.102097
66.261192 -11.348877 -162.172089
65.186310 -12.517670 -166.023819
2.190503 -7.994537 -165.678833
62.494122 -3.438477 -162.002686
-149.550034 -3.016388 -163.994553
-142.115372 -9.560303 -165.013901
-142.592209 -8.210815 -162.173477
67.388222 -3.312286 -164.086060
-73.135406 1.383057 -166.348740
-112.152794 0.288361 -164.578613
-86.977341 1.069031 -164.939041
41.820644 3.432648 -162.271469
60.948353 -1.949066 -165.861877
-86.013649 0.211182 -163.218506
-78.037994 1.146637 -163.761337
59.450527 -2.939392 -163.270950
60.611172 3.172668 -160.830353
-136.421646 2.444794 -170.348190
48.786831 3.552795 -164.102615
-123.795921 9.842926 -165.200363
-97.088577 5.811157 -164.599762
-119.346169 10.944550 -168.279892
43.216694 10.209106 -163.411545
-111.632050 11.561279 -165.111847
7.497782 9.147736 -162.159790
39.969814 15.038849 -164.001801
8.816463 12.420319 -160.382446
37.072540 23.705780 -166.938950
-138.052017 26.257233 -164.495178
4.472691 21.776550 -164.850220
-139.622604 29.238403 -168.310455
-113.633736 29.616425 -162.453674
-139.143204 30.737030 -165.007965
-100.086426 34.894409 -164.317688
-92.682922 36.296753 -165.882080
8.872272 32.337921 -166.948608
-93.450859 37.178345 -163.951569
-100.150314 35.730286 -163.554718
-100.638344 36.195526 -163.441254
-122.200401 35.012573 -163.076675
-106.526901 36.170227 -166.338593
-140.122879 36.972443 -167.230194
-128.237640 40.454224 -165.288300
-138.033081 46.870422 -162.071671
-137.935410 57.256653 -161.159607
-136.239609 46.140839 -161.474106
-127.303825 56.994263 -164.276367
-139.180557 57.750854 -161.068100
52.279778 -244.261551 -162.606155
58.140606 -242.438904 -167.572128
40.737606 -230.960724 -162.157867
67.380318 -224.529678 -166.859207
43.244026 -219.708115 -168.852386
53.883976 -219.099548 -162.176239
-42.548828 -208.844757 -164.820282
101.960701 -190.659485 -162.608841
96.873253 -192.648102 -167.662201
-74.806801 -194.215744 -161.770813
4.022371 -190.812561 -159.305084
-76.609383 -188.177795 -163.070343
111.925117 -186.132736 -165.151489
-1.172966 -185.900436 -164.108810
84.199585 -180.644836 -160.907349
-22.324291 -177.939270 -165.913834
-10.088882 -177.005646 -170.349747
71.546974 -168.424210 -170.248993
-29.670273 -168.148621 -176.393417
80.436646 -169.801575 -163.106323
67.073700 -166.097290 -164.259705
67.958916 -161.652847 -170.615784
76.091187 -164.807617 -166.383636
74.478531 -160.171860 -164.558792
121.001373 -162.238281 -166.104431
121.643875 -157.458542 -165.773727
77.336533 -157.141525 -158.894485
120.700043 -156.053864 -163.307602
-59.974701 -153.395035 -163.624069
-55.026062 -154.989700 -161.455780
115.788307 -159.019135 -161.864532
67.951622 -155.115326 -165.269958
86.604065 -154.289154 -165.831375
-58.531036 -145.632935 -162.231750
-69.589027 -147.816986 -161.681641
108.228073 -149.483490 -163.365417
62.128208 -148.491196 -163.340500
120.990349 -146.349060 -163.864792
61.340614 -141.821991 -163.947617
121.080498 -151.030243 -160.700745
-66.113419 -145.185730 -160.690353
123.157036 -147.517303 -164.034012
-71.269836 -135.756485 -162.545761
-41.855251 -124.534821 -164.317017
-36.746098 -129.728363 -158.825150
-56.359688 -126.476822 -164.577820
-33.317860 -127.649261 -164.478500
-70.602203 -121.740433 -166.208649
-61.832741 -121.084122 -163.687241
-65.657791 -126.814575 -164.699844
-41.689163 -115.404312 -165.109940
-56.537209 -117.176315 -161.546677
-43.241680 -115.890762 -161.313919
-44.125057 -115.267593 -166.028915
41.244663 -113.767242 -162.789124
-76.725883 -114.077484 -162.153320
-31.928272 -110.517838 -160.364456
-83.603973 -106.439529 -158.673508
-83.554466 -104.536728 -161.413345
32.792969 -104.607864 -162.358200
27.898985 -97.689484 -165.735443
-81.613747 -96.578247 -161.816666
-87.102303 -97.090805 -164.966141
-84.178123 -87.060165 -162.472900
38.830147 -88.235275 -162.608353
-93.916763 -85.364319 -161.157486
35.906261 -85.397812 -163.722549
-132.651764 -79.190872 -163.079742
29.260622 -74.375809 -163.490036
36.853683 -69.738159 -162.321045
-137.722061 -66.301620 -160.631195
38.504749 -75.197189 -161.487427
33.668884 -74.676025 -160.662888
-128.963303 -67.890717 -168.209824
-138.066116 -66.076187 -161.042114
37.278316 -63.428711 -164.942352
38.239994 -65.518295 -163.205338
-127.082283 -61.920364 -165.672684
-92.323875 -59.023331 -165.726288
38.637337 -61.343201 -166.146805
-104.163925 -61.030441 -156.810974
26.604837 -55.250610 -165.446243
-116.288704 -57.587677 -161.137054
-140.124863 -61.408752 -163.321808
-151.164673 -56.794754 -166.345383
-145.396988 -59.179916 -164.066162
-0.378979 -55.679718 -162.481323
-151.408813 -55.140625 -164.618927
-7.832481 -65.293488 -160.960785
1.594843 -55.693787 -163.793488
29.806442 -56.948486 -159.344574
-142.087570 -56.785934 -163.863983
-94.023720 -56.686783 -160.040207
-3.228052 -49.482590 -166.635895
-145.845123 -50.514664 -163.033600
33.906292 -56.135880 -160.436813
-146.816330 -49.482803 -161.867477
-105.387184 -51.550034 -167.250381
-99.016922 -49.601410 -162.870316
-105.481491 -48.996048 -163.568207
3.542712 -49.306274 -167.535751
3.914232 -48.971100 -161.198685
-149.447159 -45.560410 -166.127655
-144.531647 -44.163147 -163.024689
-148.196167 -34.119171 -160.986603
-131.370377 -40.293335 -165.793823
-128.826981 -33.275345 -163.165771
8.546742 -33.915131 -159.388321
6.395329 -37.886963 -162.801010
-82.900482 -33.873993 -161.027237
9.924850 -23.094025 -161.019882
-149.112000 -27.586746 -162.302734
-94.631439 -24.143372 -161.918350
15.615035 -25.158600 -163.983215
22.336180 -22.612595 -159.323120
-99.433708 -21.824326 -165.412521
11.483461 -25.884720 -163.268265
-101.288376 -21.703018 -162.688187
7.834123 -18.632004 -157.910721
13.359532 -22.338760 -161.676743
14.321458 -20.586609 -163.530853
87.205444 -19.995682 -163.612244
5.275824 -16.253342 -164.445648
17.150402 -13.422791 -164.477982
26.721052 -12.570023 -164.280579
21.532864 -17.017929 -164.941940
15.753501 -18.766266 -165.831116
79.795494 -19.292984 -162.502182
86.292618 -18.045380 -161.574997
27.023893 -10.489120 -166.210144
75.241051 -13.353836 -166.430908
73.870262 -13.351654 -163.097290
60.752769 -10.034363 -164.354599
56.444019 -4.897827 -161.274887
57.947903 -1.711517 -165.840912
-118.996117 -2.006989 -165.398819
3.856101 -0.358795 -166.159454
41.126484 4.013947 -166.359268
61.987526 -5.997742 -166.520432
42.685478 2.025848 -162.418991
-83.924835 0.372314 -163.003189
48.850449 1.961456 -162.577972
-134.858536 5.582733 -159.948196
-99.471191 4.149536 -164.086853
-88.580910 3.119476 -161.748871
5.202629 4.825531 -164.211334
-131.365936 1.035095 -166.172333
48.040699 5.177979 -162.872269
-95.876862 3.839874 -162.608215
39.999599 4.726685 -161.322433
-119.365868 3.921753 -165.014481
-101.088440 4.337311 -161.301941
-91.621246 5.588531 -160.381592
-103.275757 6.951874 -160.575531
-124.541313 8.276794 -162.929398
42.518703 9.920135 -164.040207
-102.546982 10.148315 -163.463165
-125.234734 9.088623 -164.504837
10.146420 19.389709 -164.002777
-135.405182 25.206482 -168.395721
9.026953 26.409973 -162.154404
10.310087 28.644836 -161.571671
-115.672295 26.944031 -161.606445
-108.973282 32.838867 -161.826538
-119.149544 37.586182 -163.565079
-111.278694 42.496643 -164.573654
-138.159744 40.894623 -168.018585
-139.422791 46.358948 -162.801590
-131.731949 45.871857 -167.228027
-133.376068 47.965912 -162.533447
-127.336281 46.887939 -163.696075
-130.577682 50.123199 -159.956406
-131.287842 59.421722 -164.787292
37.073578 -224.452271 -166.317215
60.883911 -221.613861 -167.605270
42.169186 -214.684433 -165.717911
50.673134 -211.531387 -167.214172
-24.402023 -208.011505 -164.470718
-62.043724 -204.923676 -163.736450
97.971382 -193.869980 -161.434265
92.680168 -191.629044 -162.398804
84.844780 -183.939178 -161.552750
-84.324104 -182.507446 -161.108643
115.833328 -181.839050 -164.713760
-19.138901 -175.752045 -162.234894
82.854263 -171.051453 -162.681778
-30.865322 -174.680115 -162.715347
-32.641640 -171.909668 -163.398682
65.258484 -163.174805 -166.495605
117.267944 -165.510635 -164.453506
82.566299 -158.362930 -159.035706
72.091698 -159.846466 -161.649368
66.479683 -152.472198 -160.666336
71.748741 -156.663025 -161.132217
122.261398 -154.680405 -161.184692
90.084496 -151.741730 -161.033539
66.233719 -153.044769 -161.013504
95.131836 -146.645248 -162.365143
105.250877 -151.407547 -159.888641
-62.361046 -149.362381 -163.558792
-74.548691 -144.220245 -164.870453
-66.744156 -141.237671 -161.029266
-41.190083 -132.068176 -165.830795
-41.044739 -132.108490 -164.740829
-79.125458 -131.607056 -164.871017
-57.663124 -135.123993 -160.592468
-59.410233 -123.090698 -166.329544
-44.222633 -124.896255 -160.704529
-72.813293 -123.718384 -159.614929
-74.423668 -125.829590 -166.321426
-30.746681 -121.718094 -166.385498
-35.053936 -120.112503 -163.722488
-63.147919 -112.765198 -161.162033
-35.522636 -113.277313 -161.998566
-59.270966 -113.936691 -162.369568
37.456253 -116.084396 -159.694641
-37.789402 -112.458679 -165.027344
-37.833931 -107.254120 -160.229263
26.339407 -99.135101 -161.565170
31.853195 -102.055664 -160.573654
-127.675560 -83.184586 -163.827194
-90.733223 -72.837555 -161.180328
-93.407448 -64.981583 -165.819366
-134.953613 -60.941208 -164.669785
-95.666916 -71.261795 -158.698532
-141.371124 -61.206818 -163.050354
-98.589211 -59.306335 -163.713425
-134.400070 -53.861847 -161.107224
-134.882156 -48.975952 -164.115540
-135.179245 -43.744080 -163.825409
-128.762436 -29.465500 -162.090164
-137.669449 -29.066605 -165.113312
-87.245094 -30.516556 -165.504257
-90.764389 -30.134308 -161.973846
-109.984619 -24.371674 -160.620407
-94.676170 -27.778839 -161.985458
-141.692429 -25.224808 -164.766159
17.498472 -24.035461 -165.057617
-115.039955 -24.908508 -160.622543
-136.309738 -17.975128 -163.547714
-119.164513 -20.239456 -162.695618
0.777442 -16.918167 -164.161743
24.433901 -13.857346 -161.331497
80.863663 -8.582001 -159.836853
33.630688 -7.516937 -161.899536
71.990341 -11.117981 -160.823334
60.198513 -10.079987 -161.208160
68.649727 -5.119659 -164.034271
-135.301727 -3.287842 -162.522888
-133.242935 -2.081787 -166.473587
58.656490 1.318146 -161.432129
48.210785 3.321014 -158.913513
62.734474 -4.096466 -165.510956
-129.841537 -1.003967 -166.097931
-119.660484 2.975372 -163.174820
