-117.570152282715 -68.650680541992 -293.013763427734 1.084042906761
-117.479888916016 -65.693145751953 -293.107788085938 2.957159757614
-135.080444335938 -67.633743286133 -292.457183837891 1.778092026711
-143.766372680664 -68.306640625000 -301.025970458984 1.295291543007
-145.251525878906 -69.358863830566 -311.981811523438 1.973069787025
24.426279067993 -71.026687622070 -16.078432083130 1.303822517395
32.856697082520 -72.254013061523 -17.387754440308 0.987299084663
29.870462417603 -74.844169616699 -19.265401840210 3.034998655319
44.681705474854 -70.978485107422 -21.588104248047 1.510640621185
25.374420166016 -72.538185119629 -32.607856750488 2.546351432800
-74.495124816895 -70.044197082520 -47.524230957031 2.287956714630
90.041893005371 -68.169685363770 -66.653869628906 2.592532157898
-17.294033050537 -69.922142028809 -68.258102416992 2.033590555191
102.943183898926 -71.212280273438 -74.127403259277 2.679865598679
95.369049072266 -75.939819335938 -76.878143310547 2.771989107132
68.791076660156 -73.390960693359 -79.610076904297 2.385015964508
70.509696960449 -75.176986694336 -83.765792846680 1.547117710114
-44.428955078125 -74.557388305664 -83.099960327148 1.356385588646
61.414104461670 -75.195632934570 -83.506805419922 4.685937881470
-94.196632385254 -71.351219177246 -88.719619750977 2.121159315109
-48.960670471191 -69.056289672852 -85.810111999512 1.625594258308
-55.689620971680 -77.800598144531 -88.221664428711 3.312325000763
101.169395446777 -77.229072570801 -98.864898681641 3.185130119324
59.417694091797 -74.844078063965 -93.351852416992 0.793849170208
66.108924865723 -71.109138488770 -92.074325561523 3.618019580841
-95.507400512695 -65.553153991699 -97.227439880371 2.628293991089
108.067871093750 -73.411369323730 -94.342658996582 4.044842243195
44.291316986084 -70.296386718750 -99.901420593262 0.809614419937
101.610908508301 -71.624122619629 -99.315017700195 1.018048763275
106.923683166504 -69.745948791504 -107.186820983887 1.116649627686
101.444694519043 -72.114410400391 -105.745788574219 2.910444259644
74.043167114258 -73.899040222168 -101.831047058105 2.752535820007
87.454078674316 -73.722862243652 -107.715538024902 4.748889446259
50.152439117432 -71.206237792969 -112.183486938477 2.415809869766
110.823333740234 -69.719078063965 -104.801223754883 0.681436598301
46.357769012451 -74.029808044434 -106.435585021973 2.954250335693
40.749500274658 -69.677040100098 -102.491996765137 1.661863446236
112.899566650391 -72.144302368164 -111.601219177246 0.470844805241
-78.384063720703 -67.959564208984 -110.047668457031 1.377646207809
46.238159179688 -70.542610168457 -113.823539733887 1.151363492012
34.872543334961 -73.165542602539 -116.000808715820 2.338480710983
105.625457763672 -69.459541320801 -111.270446777344 1.279618978500
39.561813354492 -68.545562744141 -112.398895263672 2.446872949600
-87.932106018066 -70.027999877930 -113.236915588379 2.220781087875
-95.429710388184 -67.477073669434 -115.101776123047 3.471412658691
104.151855468750 -74.678787231445 -120.372970581055 3.042184829712
-94.673187255859 -71.580146789551 -118.984153747559 1.229512333870
39.063262939453 -73.150726318359 -122.221405029297 2.079821825027
37.073577880859 -70.831260681152 -121.672859191895 1.613543629646
-83.327079772949 -69.863517761230 -124.580139160156 2.090551614761
32.459663391113 -69.116104125977 -135.549133300781 1.897015571594
110.926223754883 -72.737930297852 -132.460159301758 1.337056517601
-52.582237243652 -69.940551757813 -136.541641235352 2.051878690720
-88.171531677246 -68.896392822266 -131.964462280273 1.289659261703
37.994804382324 -74.142272949219 -132.602172851563 2.375128269196
-89.020973205566 -65.784675598145 -136.153182983398 1.574946999550
-88.874229431152 -71.943984985352 -139.972015380859 4.646565437317
-49.616958618164 -71.378562927246 -137.319656372070 1.983440279961
-70.799316406250 -68.195938110352 -139.900100708008 1.007016181946
-50.627067565918 -69.297035217285 -133.943786621094 1.772039771080
115.490516662598 -68.738975524902 -138.757965087891 2.413804292679
-73.180091857910 -71.424453735352 -137.213668823242 2.212445020676
36.596912384033 -71.238647460938 -132.194686889648 1.515733122826
-78.641593933105 -68.848381042480 -140.490432739258 0.889632284641
-73.267234802246 -69.707466125488 -136.143615722656 1.081796169281
-91.329223632813 -67.821868896484 -140.420104980469 1.003523111343
-53.838809967041 -67.884582519531 -147.490646362305 0.700966000557
31.488149642944 -66.818412780762 -146.607315063477 2.362960100174
27.548482894897 -68.813919067383 -150.354446411133 0.962073147297
19.205173492432 -65.992492675781 -145.096969604492 1.882191896439
112.853889465332 -70.530441284180 -147.522872924805 2.398288011551
-93.495124816895 -68.072593688965 -152.758178710938 1.539661407471
12.996738433838 -71.818374633789 -153.206405639648 1.116278290749
-71.925674438477 -69.119499206543 -153.703170776367 1.555033206940
23.492094039917 -69.499053955078 -150.594985961914 1.067843437195
-49.160896301270 -68.768135070801 -155.906234741211 1.896892786026
9.579449653625 -68.923942565918 -154.006973266602 1.568314075470
15.077063560486 -72.521644592285 -159.229660034180 1.389191865921
17.734619140625 -74.274314880371 -164.760162353516 1.532364130020
-48.952861785889 -71.562629699707 -163.079345703125 2.120018482208
-39.179111480713 -68.886772155762 -155.378219604492 1.260614752769
-46.403167724609 -70.026435852051 -161.553222656250 0.762260854244
-103.758056640625 -69.597343444824 -172.189392089844 1.228834986687
21.655584335327 -70.982948303223 -174.892807006836 2.545075416565
-34.853538513184 -69.269905090332 -176.528488159180 0.842809557915
15.324592590332 -73.436630249023 -179.158828735352 1.992529273033
-143.727340698242 -68.764862060547 -175.799423217773 1.928296923637
-32.300636291504 -66.676422119141 -173.361953735352 1.379770517349
-155.145523071289 -73.071182250977 -177.882751464844 3.247532367706
23.332153320313 -65.710113525391 -182.604843139648 3.906438112259
-33.006294250488 -70.561286926270 -172.073181152344 1.915665030479
-107.771736145020 -67.344863891602 -177.895339965820 2.350758790970
-107.274017333984 -72.884216308594 -183.814834594727 3.911036014557
-30.115432739258 -65.120330810547 -185.759109497070 3.694695234299
-23.763746261597 -73.321945190430 -182.448898315430 1.833994150162
13.824991226196 -68.670288085938 -190.075561523438 2.517091989517
16.791440963745 -67.151840209961 -198.012054443359 2.035564899445
13.714349746704 -69.525993347168 -187.767639160156 2.485518217087
-143.012207031250 -67.572792053223 -187.524078369141 1.442379951477
21.427412033081 -66.304100036621 -190.745513916016 3.463236331940
7.358467102051 -69.278297424316 -197.524871826172 1.484780669212
-137.274932861328 -67.053413391113 -194.508682250977 3.432152032852
-114.527534484863 -68.294517517090 -195.615386962891 0.979099154472
14.689190864563 -67.821403503418 -201.988357543945 1.109426140785
-116.551025390625 -67.529609680176 -196.973098754883 1.993231415749
-107.923675537109 -64.127059936523 -192.347167968750 3.449452877045
-165.547378540039 -69.506492614746 -200.087066650391 1.434818983078
-24.514175415039 -68.139678955078 -200.642593383789 1.485564231873
12.703029632568 -67.924705505371 -201.042572021484 1.285073876381
-143.216598510742 -68.558723449707 -204.039901733398 0.712226271629
-136.038238525391 -70.141403198242 -206.501159667969 3.266700744629
-20.341520309448 -67.417076110840 -207.935897827148 1.884488582611
-12.143001556396 -70.194808959961 -205.264251708984 0.589012801647
-15.019261360168 -69.695182800293 -206.645568847656 2.044340133667
-141.064682006836 -71.491287231445 -204.582214355469 2.325895071030
-16.802309036255 -69.294990539551 -213.597396850586 1.164634346962
-10.764258384705 -72.564422607422 -215.052429199219 3.316522121429
17.309574127197 -66.766265869141 -211.817504882813 2.236877679825
-15.136046409607 -72.276313781738 -212.236267089844 0.768070876598
10.239170074463 -69.450622558594 -210.873489379883 1.509062409401
-10.663779258728 -69.858337402344 -216.334045410156 2.083671569824
-21.241077423096 -66.475784301758 -212.619094848633 4.952291965485
12.360592842102 -73.351936340332 -221.892517089844 2.265992164612
-1.883190035820 -73.711791992188 -220.618896484375 1.399398207664
10.935580253601 -65.731147766113 -221.976470947266 1.635023951530
-6.360412120819 -70.808296203613 -227.669937133789 0.848127841949
-159.099136352539 -68.538940429688 -225.385406494141 1.911357998848
80.542503356934 -71.710403442383 -221.300537109375 2.426941156387
-135.543090820313 -66.270835876465 -224.521636962891 1.766556978226
-135.325927734375 -69.739212036133 -223.359237670898 1.811139225960
-8.708477973938 -69.599357604980 -226.000198364258 2.607998132706
8.226086616516 -68.697219848633 -234.665756225586 1.723317861557
-157.212524414063 -67.560371398926 -229.643127441406 0.907549083233
87.775802612305 -68.254737854004 -221.191116333008 2.497452974319
-2.443783998489 -67.770851135254 -226.520294189453 1.861664056778
0.341931998730 -69.649467468262 -223.793838500977 2.081609249115
73.697013854980 -71.889419555664 -230.537689208984 0.985347926617
0.306533008814 -66.665908813477 -235.642913818359 1.677593469620
-15.028174400330 -70.673797607422 -227.914001464844 2.192979097366
-126.822731018066 -66.484817504883 -234.544006347656 0.756129562855
-4.599981784821 -68.485008239746 -237.677261352539 2.091954708099
2.161472082138 -66.741821289063 -232.763671875000 0.888848006725
65.703681945801 -67.335121154785 -239.367538452148 1.557562708855
-158.588241577148 -68.964378356934 -238.392059326172 2.529495477676
-12.857295989990 -68.055450439453 -245.453598022461 2.123371362686
-169.444488525391 -69.897903442383 -238.938446044922 2.247924327850
9.518251419067 -66.123123168945 -242.901824951172 2.322738409042
-164.923889160156 -68.434425354004 -239.110961914063 1.190778017044
-161.146408081055 -68.955749511719 -246.253341674805 0.964079976082
56.660957336426 -68.922431945801 -246.329818725586 1.148467540741
61.904655456543 -70.372833251953 -243.796600341797 1.784458041191
55.783351898193 -69.521141052246 -245.583312988281 0.967838108540
51.354408264160 -68.830406188965 -250.007553100586 1.325120091438
-155.814743041992 -68.423751831055 -244.216003417969 1.617470622063
-156.890457153320 -65.329223632813 -248.598327636719 3.681234836578
-13.758550643921 -71.278121948242 -250.234771728516 0.719508945942
-151.769943237305 -67.274948120117 -246.929565429688 1.423153162003
19.237642288208 -70.074363708496 -252.159713745117 2.768164634705
-170.164505004883 -71.992393493652 -251.272750854492 3.306357860565
-168.004272460938 -65.938072204590 -248.455963134766 3.717496633530
-82.545326232910 -69.473396301270 -249.426147460938 1.621978163719
-169.902328491211 -66.991828918457 -259.959869384766 3.295587539673
-85.836166381836 -67.551063537598 -257.220520019531 2.807478427887
42.110252380371 -67.963821411133 -254.262069702148 1.044606208801
21.800699234009 -71.870773315430 -257.285888671875 1.857402324677
-159.158599853516 -68.184684753418 -262.082305908203 2.597602128983
-101.268005371094 -62.457260131836 -259.995269775391 2.305406093597
38.807846069336 -68.955078125000 -256.805236816406 1.604689955711
-105.341506958008 -73.894599914551 -259.583831787109 1.167131066322
-154.577468872070 -63.246566772461 -265.105865478516 1.648488402367
-105.662117004395 -66.769325256348 -258.925262451172 1.823125958443
-168.334426879883 -69.278930664063 -259.853576660156 1.598636269569
-113.611007690430 -68.710838317871 -263.763977050781 3.452686786652
-153.805923461914 -69.454360961914 -266.031951904297 1.697988510132
-159.061141967773 -65.878105163574 -263.766754150391 3.223681688309
-166.549804687500 -66.739418029785 -263.953857421875 2.050158500671
-164.558258056641 -65.742347717285 -262.496459960938 2.236029148102
-166.227081298828 -67.356460571289 -265.925262451172 2.549335718155
-166.215377807617 -67.993438720703 -262.915374755859 0.988404631615
25.277606964111 -69.761116027832 -266.287139892578 1.321404576302
-150.356887817383 -70.680725097656 -263.990722656250 2.503595829010
-150.388488769531 -66.766349792480 -284.475708007813 1.483944535255
24.166715621948 -69.226470947266 -277.441711425781 2.303254127502
-12.225775718689 -69.823028564453 -275.339599609375 2.201107978821
-126.409194946289 -66.106925964355 -284.766326904297 1.821691751480
-136.974136352539 -68.220436096191 -286.438903808594 1.021807551384
-135.088180541992 -66.269836425781 -288.851928710938 1.006032466888
-127.476776123047 -67.901748657227 -286.297393798828 1.371095418930
-114.995513916016 -66.214614868164 -290.320159912109 0.443076014519
-105.929786682129 -64.161033630371 -285.986022949219 4.158780097961
8.633272171021 -70.837142944336 -293.434783935547 2.668852806091
-85.650459289551 -68.231727600098 -290.516143798828 1.334493875504
-149.759429931641 -67.805915832520 -288.641571044922 1.526003479958
-102.369834899902 -67.604476928711 -291.226745605469 1.901033282280
-129.907669067383 -64.828079223633 -292.230926513672 2.995293378830
8.950916290283 -70.601112365723 -289.152496337891 2.481858730316
-112.660896301270 -62.413967132568 -289.471466064453 4.732091903687
2.237287998199 -68.283462524414 -294.093536376953 2.078578710556
-143.850479125977 -66.761436462402 -289.108825683594 2.371439933777
-153.661621093750 -67.571998596191 -296.235137939453 1.860603690147
-158.795379638672 -66.361892700195 -314.386840820313 5.273694992065
-155.991653442383 -66.014984130859 -312.081451416016 3.797652721405
48.472167968750 -74.318710327148 -25.702669143677 2.560033798218
23.883340835571 -72.088737487793 -36.401756286621 1.158853650093
31.379152297974 -73.007530212402 -37.572978973389 2.575829744339
-44.398281097412 -73.228355407715 -48.111213684082 3.607450485229
-12.269462585449 -69.359245300293 -62.942420959473 2.026774168015
94.688598632813 -72.819313049316 -69.647323608398 1.503058433533
69.060874938965 -67.495460510254 -70.652038574219 1.702902674675
-23.858015060425 -70.797767639160 -75.093711853027 0.341056019068
-97.771545410156 -74.004280090332 -86.782699584961 3.134287357330
-42.210498809814 -70.658088684082 -83.158958435059 1.049607872963
61.841255187988 -70.518333435059 -82.510414123535 1.674130678177
62.476127624512 -73.502731323242 -87.070960998535 2.652312517166
53.745418548584 -68.873580932617 -88.577682495117 1.416681408882
-58.658958435059 -69.226875305176 -90.803146362305 1.469815969467
67.075759887695 -67.422386169434 -90.337539672852 1.764998793602
43.860275268555 -73.947174072266 -98.918434143066 1.897360444069
68.684829711914 -72.588493347168 -95.802192687988 2.981078863144
-62.048915863037 -68.392715454102 -96.485206604004 3.718079328537
50.359386444092 -72.732688903809 -94.223251342773 2.147942304611
45.875427246094 -72.392547607422 -99.404151916504 1.091401815414
103.531661987305 -68.399559020996 -101.749740600586 2.474613428116
-66.303207397461 -69.982490539551 -99.332550048828 1.486528754234
110.782241821289 -70.541847229004 -101.625976562500 2.204277038574
-78.853126525879 -71.941940307617 -101.535697937012 1.582465529442
54.651546478271 -73.240325927734 -106.035652160645 2.182201623917
48.193408966064 -69.012321472168 -101.667472839355 0.911545097828
92.008628845215 -69.190910339355 -104.966743469238 2.147556543350
84.657333374023 -69.351417541504 -107.759567260742 2.152245998383
54.969345092773 -70.585166931152 -105.557151794434 0.986517429352
-76.168533325195 -70.349525451660 -111.472679138184 2.172558307648
-76.697708129883 -68.913246154785 -115.303977966309 2.334698438644
-80.285377502441 -70.782768249512 -118.721542358398 0.794713854790
-93.104133605957 -74.116523742676 -118.832008361816 2.564928054810
105.027862548828 -65.831649780273 -117.647224426270 3.162105798721
-88.300476074219 -71.805099487305 -119.362014770508 3.056079149246
-76.574226379395 -66.045440673828 -121.568679809570 2.057864427567
109.665702819824 -69.554542541504 -117.251022338867 1.918744444847
-61.452983856201 -62.471588134766 -118.375701904297 1.343976497650
113.753005981445 -73.774749755859 -132.722106933594 2.185493707657
110.104682922363 -71.864852905273 -130.659851074219 0.488363236189
107.357780456543 -71.551269531250 -127.023468017578 1.347390294075
-93.424179077148 -69.615821838379 -138.054412841797 2.065452098846
-47.023166656494 -69.300308227539 -142.279815673828 2.268137693405
-79.137962341309 -67.155136108398 -144.789352416992 3.660316228867
-69.346572875977 -69.109275817871 -149.355911254883 1.079253077507
-70.271286010742 -67.760406494141 -148.289550781250 1.809003472328
-55.156497955322 -68.619308471680 -144.055755615234 1.149488449097
-46.966316223145 -72.894523620605 -146.527740478516 2.252178668976
16.383373260498 -69.706497192383 -147.160858154297 2.014512062073
-94.123771667480 -66.120346069336 -143.097595214844 1.514079689980
-45.714599609375 -67.882331848145 -147.731109619141 1.786708950996
-52.139430999756 -63.467937469482 -148.025604248047 4.950269699097
-42.131881713867 -67.404441833496 -155.315414428711 1.366016268730
27.447280883789 -71.522125244141 -162.723983764648 1.959281206131
-50.063304901123 -69.479438781738 -151.437530517578 1.189299464226
-100.430679321289 -64.976821899414 -149.631576538086 2.281716823578
-45.368888854980 -66.319297790527 -157.244308471680 3.054221868515
25.694332122803 -71.525741577148 -148.995544433594 1.799199461937
-98.637565612793 -73.396125793457 -163.330612182617 5.440596580505
22.657232284546 -71.441848754883 -158.475326538086 1.712635159492
-107.750625610352 -65.921737670898 -170.002761840820 2.683792114258
-101.152938842773 -68.926673889160 -163.901977539063 1.749810695648
22.118173599243 -69.175376892090 -165.718215942383 1.166345000267
26.105352401733 -67.667076110840 -168.626266479492 1.183585643768
-108.443946838379 -70.517356872559 -173.876327514648 1.394159793854
-142.204299926758 -66.265251159668 -174.629760742188 1.141953110695
-20.000440597534 -69.096443176270 -189.994308471680 2.079391956329
-27.555643081665 -67.999374389648 -182.240295410156 1.903196692467
-115.497253417969 -69.366470336914 -187.187789916992 2.638696432114
-143.925643920898 -63.772304534912 -187.033248901367 1.002818584442
-103.528198242188 -65.752273559570 -181.828552246094 2.081638097763
-158.187591552734 -68.042747497559 -190.547882080078 3.516805171967
-131.443756103516 -71.976455688477 -195.444152832031 1.595740079880
-133.414001464844 -69.794700622559 -196.356124877930 1.022197842598
-19.986974716187 -67.036140441895 -190.010284423828 2.594058752060
-120.522140502930 -68.529266357422 -198.204086303711 1.438389778137
-117.183219909668 -64.785644531250 -199.149719238281 1.991876959801
-27.110864639282 -70.461593627930 -195.187026977539 0.984252214432
-154.507644653320 -65.478004455566 -197.911911010742 2.461762905121
-132.453628540039 -69.571350097656 -205.032363891602 1.548514127731
-125.136451721191 -65.778793334961 -204.679443359375 1.577162027359
17.906177520752 -70.654640197754 -202.652099609375 1.102829813957
-162.201431274414 -67.083259582520 -203.216003417969 1.755777359009
10.964954376221 -67.538322448730 -216.030929565430 0.857116639614
13.666927337646 -69.522232055664 -215.483612060547 1.307477951050
-17.228406906128 -65.020072937012 -209.622192382813 4.193977355957
-5.305163860321 -68.514068603516 -217.087081909180 1.855334758759
-170.254531860352 -64.934921264648 -210.307785034180 5.266176700592
-159.324142456055 -64.203323364258 -212.967010498047 3.178570985794
-94.983169555664 -67.575157165527 -218.814498901367 1.406669259071
-98.925376892090 -69.181266784668 -223.141204833984 0.569255352020
-161.264770507813 -67.713973999023 -225.253509521484 1.023620963097
-106.763748168945 -65.926811218262 -219.593322753906 3.178003549576
-12.324062347412 -66.811012268066 -214.863601684570 0.734118700027
-127.748565673828 -69.086959838867 -222.581954956055 1.985240340233
-142.428207397461 -68.040596008301 -224.252639770508 1.792359828949
-3.422334909439 -69.711601257324 -222.066116333008 1.680211305618
-134.606475830078 -65.888381958008 -224.974822998047 1.947011113167
-124.072769165039 -71.327156066895 -223.529495239258 1.624902248383
-114.665199279785 -69.530075073242 -225.089935302734 2.175155639648
0.036157000810 -63.646789550781 -228.823379516602 4.130514621735
-107.592117309570 -66.058372497559 -231.003906250000 1.550378084183
-160.724838256836 -62.273777008057 -222.983306884766 3.634213447571
-146.984100341797 -66.427513122559 -226.947662353516 1.714227080345
-165.726348876953 -66.654418945313 -225.249008178711 2.452632188797
-8.258796691895 -67.680068969727 -227.413513183594 2.630684852600
-8.759101867676 -68.243362426758 -233.304672241211 1.613324522972
78.122024536133 -70.870323181152 -226.613082885742 1.350071072578
-0.464246988297 -70.053680419922 -230.292343139648 1.667100310326
-143.345855712891 -66.996040344238 -236.395812988281 2.176659822464
-14.565678596497 -66.580520629883 -229.865005493164 3.060109376907
73.747070312500 -68.980560302734 -229.131256103516 2.158932209015
74.323905944824 -69.014160156250 -234.186325073242 1.464623212814
-134.922760009766 -65.918563842773 -232.689437866211 0.529282152653
-157.736999511719 -69.614730834961 -228.614135742188 2.128229141235
-114.541755676270 -66.106292724609 -233.251190185547 0.853626966476
-125.061561584473 -63.241062164307 -235.881729125977 2.166074275970
-164.052978515625 -65.797935485840 -234.987869262695 2.265244245529
-160.466094970703 -67.416236877441 -235.862533569336 2.248155593872
-147.070831298828 -63.654415130615 -234.321777343750 1.853140234947
-13.112549781799 -67.047187805176 -236.041763305664 2.784809827805
-5.583084106445 -67.357673645020 -241.209991455078 2.365785837173
-161.106430053711 -65.505783081055 -240.811996459961 2.345915079117
5.087921142578 -68.933403015137 -238.990371704102 1.998869061470
2.472639083862 -68.805473327637 -237.438507080078 1.804355502129
-160.472564697266 -66.696601867676 -238.986541748047 0.982280552387
16.368839263916 -71.797393798828 -243.136322021484 2.316512584686
50.356296539307 -70.559829711914 -246.367935180664 2.309292554855
50.160892486572 -70.521286010742 -245.401214599609 1.627632141113
-16.417072296143 -68.866539001465 -247.661193847656 2.736883401871
47.767513275146 -67.095123291016 -250.112792968750 1.089447975159
-161.960052490234 -63.776092529297 -250.225769042969 4.847603321075
-159.603210449219 -67.075988769531 -247.637939453125 1.208673119545
-161.017944335938 -70.189155578613 -249.755050659180 2.516171455383
54.251091003418 -68.063514709473 -249.708679199219 1.656022548676
-92.743316650391 -66.114830017090 -253.190292358398 2.986551284790
-125.431007385254 -66.190505981445 -254.657333374023 0.615238785744
-106.442443847656 -71.026870727539 -254.075042724609 2.635594129562
25.976810455322 -71.578025817871 -258.370941162109 2.840843439102
40.768932342529 -66.259094238281 -252.077880859375 0.970807552338
-101.370330810547 -64.667549133301 -255.258605957031 3.212614059448
-94.204185485840 -63.305149078369 -251.970489501953 4.366132259369
44.830249786377 -71.799194335938 -255.502456665039 2.593258619308
41.626621246338 -66.553627014160 -257.623718261719 0.679093956947
-155.563079833984 -71.272094726563 -258.168212890625 1.612465739250
29.816970825195 -67.957328796387 -260.133087158203 1.279046177864
-143.598083496094 -69.535148620605 -264.541473388672 1.503887295723
-114.158386230469 -66.481666564941 -262.708435058594 1.686303615570
-137.719863891602 -65.718528747559 -262.726776123047 2.940056800842
30.563648223877 -67.618225097656 -263.644805908203 1.853376150131
-126.899803161621 -65.641830444336 -263.739593505859 1.432029128075
-11.935415267944 -66.518280029297 -258.808135986328 2.061690330505
20.778261184692 -70.783149719238 -271.912780761719 3.761397838593
-6.465691089630 -71.662574768066 -266.104034423828 4.382308006287
18.914234161377 -69.570846557617 -280.738220214844 1.755330324173
-154.151855468750 -68.188156127930 -282.589935302734 2.876486063004
-11.796875000000 -66.182395935059 -281.302856445313 2.864349842072
-154.014694213867 -69.785072326660 -282.677429199219 2.279727458954
-124.698738098145 -68.227264404297 -285.243560791016 1.416124105453
-161.424301147461 -71.971488952637 -286.422454833984 1.463177323341
-115.657585144043 -66.518005371094 -287.309234619141 2.424179553986
-105.382965087891 -66.927757263184 -289.829772949219 2.387700080872
-7.860056877136 -65.919937133789 -285.936859130859 2.732083320618
-109.255813598633 -67.900871276855 -289.478790283203 1.225934982300
-117.394111633301 -64.474388122559 -285.378173828125 4.316007614136
-121.205451965332 -63.611518859863 -291.762939453125 3.088199377060
-138.996231079102 -66.182807922363 -289.936309814453 1.675115346909
-127.172119140625 -64.209915161133 -291.638336181641 1.763688564301
-158.668090820313 -70.630226135254 -290.013519287109 2.333987236023
-147.799758911133 -64.526100158691 -292.840118408203 1.481107354164
-157.500152587891 -63.875366210938 -301.770904541016 5.264536380768
-155.215744018555 -64.417190551758 -311.057830810547 4.555727005005
-159.323455810547 -64.697219848633 -301.070648193359 6.215305328369
-142.817245483398 -67.061965942383 -310.699584960938 2.736062765121
-150.639129638672 -67.242088317871 -313.891540527344 1.901824474335
36.234996795654 -72.630622863770 -9.646738052368 2.620671749115
47.562679290771 -75.639007568359 -17.203207015991 3.944979190826
24.878238677979 -68.557952880859 -24.086244583130 2.476254224777
51.157962799072 -72.372619628906 -28.116830825806 2.634567022324
28.846487045288 -73.803596496582 -34.992305755615 2.302780866623
33.550251007080 -72.705711364746 -35.240776062012 2.243400096893
-57.045688629150 -66.699134826660 -47.595100402832 2.983482122421
80.474243164063 -67.644317626953 -61.969516754150 1.678008198738
81.703544616699 -72.124305725098 -67.712921142578 1.921130418777
-89.776710510254 -70.909156799316 -62.448383331299 1.242263317108
-12.016739845276 -68.096878051758 -61.848785400391 2.068507671356
-91.918083190918 -71.673019409180 -70.185447692871 1.545316696167
97.004936218262 -73.087409973145 -69.627784729004 2.796547174454
-13.139751434326 -67.521377563477 -68.344245910645 0.351937025785
68.149864196777 -73.315811157227 -79.593101501465 2.458587169647
-41.443073272705 -74.090415954590 -79.608100891113 2.252087354660
-26.682353973389 -73.688339233398 -76.183418273926 2.146885395050
56.728237152100 -67.400238037109 -86.861808776855 1.645395040512
-43.623668670654 -79.818740844727 -84.823318481445 2.182011127472
65.385581970215 -63.553123474121 -87.605583190918 1.000096678734
53.342002868652 -74.458412170410 -90.454254150391 1.318483710289
54.115955352783 -70.543151855469 -94.348175048828 2.593112945557
60.012882232666 -74.885162353516 -91.564620971680 1.683280825615
57.291259765625 -67.596809387207 -96.378425598145 1.869296431541
100.176979064941 -67.863090515137 -98.539253234863 1.407521724701
106.415634155273 -66.749992370605 -99.440856933594 1.617113113403
60.184741973877 -72.795928955078 -100.647720336914 3.293596506119
107.343826293945 -66.769973754883 -100.344635009766 1.304036974907
-76.514709472656 -68.981864929199 -99.304580688477 1.947422385216
-72.278877258301 -68.877479553223 -102.084754943848 1.524445414543
100.741264343262 -67.577774047852 -99.289329528809 1.023709893227
53.632884979248 -70.813598632813 -101.481811523438 1.384876489639
70.828224182129 -71.732757568359 -99.409172058105 2.245326519012
-72.122917175293 -69.332931518555 -107.435455322266 2.553733110428
-84.774597167969 -67.869895935059 -107.197685241699 1.719897150993
89.536415100098 -73.100692749023 -105.163177490234 3.477398157120
40.573764801025 -71.183685302734 -104.849792480469 0.751829922199
105.234634399414 -67.154876708984 -106.632934570313 1.682196855545
46.865436553955 -72.037734985352 -114.117546081543 1.484720110893
110.480293273926 -70.616973876953 -104.412246704102 0.834015250206
-78.361686706543 -68.599334716797 -111.082847595215 1.265453100204
104.897628784180 -66.322425842285 -109.347984313965 2.287361860275
-84.002151489258 -66.540794372559 -121.165573120117 1.499402880669
-58.346111297607 -71.115356445313 -128.655227661133 1.369455575943
-55.653293609619 -67.993675231934 -124.963821411133 2.312203407288
-72.273529052734 -70.085189819336 -130.000396728516 2.164001703262
-50.769081115723 -70.186782836914 -131.091369628906 1.923204660416
-83.863243103027 -70.183525085449 -132.919891357422 2.078937292099
-77.310012817383 -65.746704101563 -133.010070800781 1.690098047256
-80.403877258301 -68.766021728516 -130.961502075195 1.976902961731
-60.113197326660 -72.981781005859 -141.682266235352 2.114269018173
-71.485702514648 -68.345634460449 -140.700958251953 1.348957896233
-59.884231567383 -71.866561889648 -135.241271972656 3.136319875717
-58.483100891113 -68.936149597168 -141.953231811523 1.182704448700
16.854516983032 -65.749923706055 -144.202850341797 1.661495208740
-90.898368835449 -68.850990295410 -142.184005737305 1.946927309036
-47.624996185303 -72.225456237793 -146.881210327148 2.326115369797
-96.435607910156 -66.513694763184 -149.660232543945 2.626184701920
-100.845207214355 -66.045501708984 -149.143249511719 2.807250499725
19.135313034058 -70.753959655762 -154.244949340820 2.757020473480
14.016304969788 -70.094062805176 -158.582412719727 1.127394795418
-95.893074035645 -69.751693725586 -159.719451904297 2.210141181946
-103.513511657715 -68.302864074707 -154.141616821289 3.621695041656
-100.476303100586 -66.838859558105 -168.324478149414 1.889604091644
21.936458587646 -68.012680053711 -170.328964233398 1.188533425331
-110.658660888672 -67.581893920898 -172.667877197266 1.835878610611
22.577152252197 -68.850776672363 -166.920410156250 1.150590777397
-147.789581298828 -67.673828125000 -176.347686767578 0.817575156689
17.652532577515 -68.308799743652 -176.867294311523 1.281893968582
23.915979385376 -69.129592895508 -186.376281738281 0.939445495605
-152.568557739258 -66.092453002930 -186.399841308594 1.475593805313
21.226070404053 -69.304725646973 -176.871261596680 0.787885606289
18.935771942139 -63.138687133789 -180.799087524414 3.478130578995
-143.928680419922 -70.851669311523 -184.691192626953 3.445261240005
-152.128082275391 -65.048187255859 -189.039962768555 2.202768564224
19.659549713135 -68.410324096680 -188.799270629883 2.054480314255
18.196331024170 -69.969596862793 -190.304565429688 1.542107820511
-142.471542358398 -69.194961547852 -193.692718505859 0.945402741432
-109.356033325195 -67.860466003418 -197.727691650391 1.487151265144
23.556587219238 -68.749633789063 -198.996215820313 3.416824102402
-125.160385131836 -67.248153686523 -194.781036376953 1.989169239998
10.322579383850 -70.156013488770 -200.382293701172 1.558692693710
-130.473968505859 -62.675323486328 -194.272689819336 2.805311203003
-159.709487915039 -65.097816467285 -190.490737915039 5.245337963104
-161.825042724609 -66.550941467285 -196.601150512695 2.795856237411
-159.122772216797 -68.142501831055 -194.983825683594 1.493183493614
-20.568441390991 -67.838653564453 -204.938690185547 2.104078292847
-167.978073120117 -69.180084228516 -199.472167968750 3.689255952835
-26.773218154907 -65.021163940430 -192.974319458008 3.775687694550
-15.814856529236 -69.256034851074 -196.292709350586 0.697720766068
9.476454734802 -63.831707000732 -196.055252075195 5.143583774567
-158.196289062500 -67.039756774902 -203.789154052734 3.098246097565
-108.500900268555 -66.199981689453 -202.287353515625 2.013749361038
-17.861124038696 -65.024147033691 -201.984466552734 3.452826976776
-160.528259277344 -63.067802429199 -201.548782348633 3.009302854538
16.359865188599 -68.274604797363 -202.013671875000 1.279487609863
-169.217071533203 -64.989410400391 -204.887268066406 4.040578842163
-121.144203186035 -69.494194030762 -202.870590209961 2.071270227432
-115.815284729004 -64.677642822266 -207.320510864258 3.864922523499
-123.390739440918 -66.332328796387 -204.299041748047 1.065829157829
-15.213084220886 -67.042594909668 -203.988708496094 1.833568930626
-17.772733688354 -68.073219299316 -204.879531860352 1.820760846138
-164.755096435547 -66.182792663574 -210.664916992188 1.184620618820
-160.534698486328 -64.961044311523 -212.354522705078 3.581449747086
-165.339660644531 -67.080787658691 -219.488830566406 2.009187936783
-141.833023071289 -68.833122253418 -214.185882568359 3.384291887283
-145.298110961914 -66.878524780273 -223.898300170898 0.728407680988
-3.449594020844 -66.061790466309 -220.395156860352 2.664216279984
-10.049729347229 -71.012641906738 -217.410491943359 1.878834128380
-100.484771728516 -65.520416259766 -220.986343383789 2.755284786224
-7.337299823761 -66.046020507813 -232.580810546875 1.895009160042
-167.619873046875 -64.202476501465 -228.934722900391 2.547044038773
-107.331268310547 -64.806381225586 -232.436981201172 3.333916664124
0.894008994102 -67.572845458984 -227.111724853516 1.615504980087
2.301590919495 -66.473068237305 -230.334030151367 1.588166952133
-112.361587524414 -67.339515686035 -233.194366455078 1.896812915802
-2.002023935318 -68.173278808594 -229.252593994141 1.448569059372
-118.280479431152 -64.070480346680 -234.362625122070 1.378630995750
-8.271258354187 -64.643302917480 -233.542144775391 2.986392259598
-2.749654054642 -66.311607360840 -235.327484130859 1.084210515022
-2.141840934753 -66.942749023438 -238.122848510742 1.413301110268
71.122932434082 -65.036254882813 -237.072082519531 3.322663068771
-11.326402664185 -70.054534912109 -238.067398071289 1.455761194229
6.808784961700 -67.945976257324 -237.708343505859 1.960988879204
10.600278854370 -66.462532043457 -239.590682983398 0.997009277344
4.882637023926 -67.959289550781 -239.318801879883 1.657088518143
2.001351118088 -68.666114807129 -241.596618652344 0.638993382454
63.648128509521 -63.793552398682 -239.142990112305 3.000918388367
68.427543640137 -64.861000061035 -240.843261718750 4.598215579987
7.762803077698 -66.965797424316 -247.379791259766 2.236924171448
53.487277984619 -68.459243774414 -242.825424194336 2.107479810715
55.008823394775 -71.080078125000 -241.330062866211 1.442180037498
46.406661987305 -64.341728210449 -249.895645141602 1.047505617142
40.724304199219 -65.255912780762 -251.813095092773 1.902497172356
40.091262817383 -66.148864746094 -256.948089599609 2.314020872116
-132.521331787109 -62.523971557617 -257.855041503906 2.072042226791
-10.990160942078 -66.543128967285 -250.421340942383 1.419939041138
27.734418869019 -65.939262390137 -258.540344238281 1.998698592186
44.452621459961 -66.491104125977 -248.637802124023 2.153314113617
26.740642547607 -69.437377929688 -254.419769287109 2.678864002228
-103.581741333008 -67.861877441406 -258.905792236328 2.797564029694
30.601373672485 -67.909286499023 -256.780609130859 1.409220457077
-147.853958129883 -67.921203613281 -260.955993652344 1.394493937492
-117.070022583008 -67.652656555176 -256.947265625000 1.698207855225
-109.532653808594 -66.123023986816 -258.003997802734 2.222457647324
-4.242199897766 -68.799659729004 -259.468383789063 3.387024402618
-151.152023315430 -67.340187072754 -257.345703125000 1.573663353920
34.591178894043 -66.796653747559 -262.358428955078 1.548693656921
-110.449234008789 -65.061614990234 -256.742248535156 2.642986536026
25.472146987915 -70.225822448730 -259.748504638672 1.554945826530
-135.693389892578 -67.652259826660 -262.829193115234 0.663670659065
-117.245872497559 -65.225708007813 -264.105987548828 1.581434011459
-110.281875610352 -65.551795959473 -261.408477783203 2.335412502289
-115.752502441406 -70.185623168945 -261.626037597656 2.252289533615
-140.737091064453 -67.523933410645 -257.892974853516 2.842723369598
28.299770355225 -67.434318542480 -260.695892333984 1.871312975883
-118.119041442871 -64.860244750977 -263.075744628906 1.233602523804
-145.101104736328 -67.484016418457 -263.532287597656 1.682114005089
-5.842245101929 -64.719573974609 -271.124114990234 3.043465614319
-151.629913330078 -67.985389709473 -281.166168212891 0.673073768616
-9.212173461914 -67.023910522461 -286.646789550781 2.594129800797
-6.214863777161 -64.299621582031 -283.274475097656 2.617789745331
-135.221435546875 -65.413391113281 -287.753875732422 1.907496452332
-128.462707519531 -66.009506225586 -290.519104003906 1.377741217613
-136.611526489258 -65.503532409668 -294.017974853516 4.047147750854
-127.501815795898 -64.506660461426 -291.839385986328 1.906632423401
-155.793746948242 -65.972198486328 -294.462463378906 1.837645053864
-157.117187500000 -65.726982116699 -300.176391601563 3.874645471573
-148.844619750977 -68.494728088379 -301.031799316406 2.546241044998
-150.761520385742 -66.095008850098 -303.345397949219 1.970160603523
-146.056655883789 -65.388114929199 -299.119354248047 3.854125499725
-150.468475341797 -64.592460632324 -304.217468261719 2.556009292603
-147.274429321289 -63.119838714600 -314.805847167969 5.204401493073
20.017724990845 -73.618095397949 -28.016708374023 1.562601447105
49.886085510254 -73.552764892578 -36.508659362793 2.867873430252
25.972843170166 -76.062698364258 -38.340847015381 5.245841503143
32.978363037109 -71.620941162109 -43.113746643066 2.055980920792
-42.077011108398 -64.634353637695 -48.118171691895 1.847528815269
-76.074035644531 -67.424468994141 -50.676025390625 2.402602434158
80.815696716309 -69.204269409180 -62.221107482910 2.776595115662
74.984436035156 -70.596176147461 -63.029983520508 2.912128448486
71.968399047852 -71.562088012695 -66.991088867188 2.566907405853
-98.964370727539 -68.633972167969 -72.813278198242 4.702345371246
99.634208679199 -73.170249938965 -76.653724670410 1.147670030594
-30.207874298096 -70.074981689453 -82.960380554199 5.648190021515
63.414302825928 -68.281730651855 -77.178710937500 3.109850645065
-42.914890289307 -66.011398315430 -82.908020019531 1.736712217331
-53.680702209473 -66.704399108887 -82.851074218750 2.451610565186
51.042217254639 -70.421333312988 -91.121421813965 2.277023553848
102.566513061523 -69.187675476074 -91.267845153809 1.500937819481
64.307167053223 -67.318099975586 -94.421195983887 1.171621441841
56.997409820557 -67.945175170898 -93.551895141602 1.585198044777
48.859310150146 -66.787414550781 -102.030868530273 1.502537846565
56.810573577881 -65.883979797363 -101.002159118652 1.915621876717
103.313705444336 -67.678016662598 -98.668266296387 0.713512003422
69.932678222656 -68.538604736328 -107.002723693848 3.797586679459
50.316478729248 -68.819343566895 -106.385520935059 2.111041545868
76.738891601563 -73.620109558105 -107.775398254395 4.977995395660
95.785903930664 -66.010177612305 -108.635971069336 2.443871021271
-75.082305908203 -66.497375488281 -101.735916137695 1.586333513260
-86.703987121582 -68.726844787598 -110.348281860352 1.121353387833
-82.121612548828 -68.898239135742 -112.941329956055 2.494437932968
-60.096763610840 -67.228012084961 -118.861763000488 2.570270061493
-57.164520263672 -71.365615844727 -126.284210205078 1.064895987511
-94.582328796387 -67.477577209473 -121.847709655762 1.209180355072
-75.055633544922 -69.341079711914 -119.641120910645 3.502811193466
-76.739456176758 -71.122299194336 -132.549316406250 2.237444877625
-60.855514526367 -65.733619689941 -128.504821777344 0.421905010939
-88.565834045410 -64.417098999023 -130.474273681641 1.350756406784
-89.779800415039 -67.129890441895 -130.195220947266 0.788208544254
-48.206485748291 -71.391326904297 -135.638427734375 0.630568802357
-51.506477355957 -68.508850097656 -136.906784057617 1.767326951027
-77.328109741211 -69.280700683594 -138.666168212891 1.731564640999
-54.025829315186 -69.448333740234 -141.799850463867 2.323848485947
-74.471977233887 -70.468101501465 -144.035827636719 1.788613915443
21.108680725098 -66.120460510254 -139.237548828125 1.387053489685
-57.538513183594 -71.462478637695 -145.088409423828 0.886143743992
-55.079109191895 -64.962333679199 -145.779449462891 2.837649345398
9.062596321106 -70.912567138672 -155.641540527344 1.991432428360
16.642639160156 -66.460174560547 -151.549636840820 0.853908836842
-142.519302368164 -67.213844299316 -174.085693359375 0.741108655930
-110.550621032715 -66.159599304199 -178.145980834961 0.980257093906
-109.916809082031 -63.750183105469 -189.714630126953 1.211700081825
-152.823455810547 -68.182052612305 -191.361236572266 2.253279209137
-113.273857116699 -66.143585205078 -185.744430541992 1.769346117973
-152.334976196289 -62.862079620361 -196.067413330078 1.985494375229
-114.415504455566 -65.332611083984 -198.549865722656 1.563783049583
-150.577545166016 -64.110832214355 -200.225021362305 1.944900989532
-150.870956420898 -66.417808532715 -206.172119140625 0.910638511181
-153.264160156250 -69.857231140137 -207.885375976563 2.055420398712
-148.219757080078 -65.868324279785 -223.808609008789 2.869195461273
-150.710235595703 -68.727066040039 -225.221374511719 2.024316310883
-105.445381164551 -64.243637084961 -226.069534301758 2.563450813293
-102.276107788086 -66.150260925293 -222.522659301758 1.899494886398
-123.699539184570 -62.044338226318 -230.440078735352 2.680922746658
-108.461570739746 -65.669288635254 -226.175094604492 1.103065609932
-156.889526367188 -67.002555847168 -230.521240234375 1.549376010895
-3.316181898117 -66.355964660645 -226.437240600586 1.805334687233
-134.274475097656 -67.742965698242 -230.760330200195 2.337587594986
-153.847366333008 -67.094337463379 -235.062805175781 1.485836505890
-137.381484985352 -68.273490905762 -233.231536865234 2.581912279129
-11.677751541138 -65.808525085449 -236.437530517578 3.076750040054
8.389500617981 -66.821701049805 -243.507308959961 1.733799099922
62.440456390381 -63.001121520996 -241.321517944336 3.737013816833
17.753564834595 -69.438140869141 -249.122497558594 1.930078506470
55.534511566162 -66.321212768555 -244.258255004883 2.581534624100
40.739021301270 -68.182800292969 -250.215484619141 1.642678022385
58.349952697754 -64.385261535645 -252.166122436523 4.465265750885
-152.971374511719 -65.639945983887 -250.169525146484 3.694083690643
-149.994537353516 -69.092170715332 -254.345367431641 2.820189952850
42.266407012939 -65.307838439941 -257.327362060547 1.755884051323
28.876155853271 -66.096244812012 -256.214141845703 2.478571653366
47.223403930664 -64.382270812988 -253.247802734375 1.745449185371
-145.348876953125 -68.271240234375 -259.496643066406 2.510692596436
-136.918151855469 -64.133056640625 -255.235519409180 3.533817052841
-125.462493896484 -63.479057312012 -257.875061035156 2.254923582077
-134.552978515625 -65.881210327148 -256.008270263672 1.596545934677
-141.396087646484 -66.247779846191 -257.866333007813 2.076847314835
-124.236373901367 -64.917655944824 -259.447601318359 1.273232460022
-143.325988769531 -63.960456848145 -260.186584472656 1.525764584541
-126.845191955566 -67.270431518555 -259.495758056641 1.276783227921
-123.010314941406 -65.683998107910 -264.388488769531 2.041520833969
-128.177444458008 -66.056274414063 -264.797576904297 1.901756048203
-121.018203735352 -62.615928649902 -264.007629394531 3.961750268936
-5.856908798218 -66.505516052246 -266.404418945313 1.202818512917
27.401729583740 -63.888664245605 -262.574890136719 0.622644484043
-146.842163085938 -61.909763336182 -266.763885498047 1.726108193398
25.585649490356 -66.509689331055 -269.604370117188 2.192849636078
-5.520411968231 -61.832389831543 -274.715026855469 5.338696956635
16.336351394653 -71.161193847656 -284.093872070313 2.183484315872
-142.375411987305 -65.593521118164 -289.103027343750 1.055945158005
-126.203445434570 -66.307960510254 -287.285400390625 0.752401947975
-132.998092651367 -61.516250610352 -290.226226806641 3.970022201538
-159.275573730469 -61.076679229736 -291.748992919922 5.388459682465
-126.805282592773 -60.836841583252 -289.227844238281 4.463718414307
-118.862045288086 -63.159690856934 -289.201965332031 3.003486156464
-126.411079406738 -66.742164611816 -295.683715820313 3.097063302994
-151.686798095703 -67.499305725098 -293.539978027344 2.120824337006
28.753089904785 -73.928115844727 -12.997550010681 2.204494476318
31.942007064819 -74.471870422363 -17.980138778687 1.956580638885
38.445438385010 -71.085792541504 -20.434661865234 1.789133191109
48.549659729004 -65.315589904785 -24.079641342163 3.215991258621
27.799491882324 -75.323402404785 -28.502437591553 3.529644727707
20.794214248657 -73.483322143555 -35.004470825195 2.095655202866
-33.991065979004 -69.630722045898 -46.626419067383 3.852143287659
-82.064331054688 -70.182609558105 -53.242977142334 2.385191917419
-16.142284393311 -68.791198730469 -58.941936492920 1.910686850548
73.004158020020 -67.593864440918 -65.427581787109 1.895997524261
101.965736389160 -68.533706665039 -69.406661987305 2.967594146729
64.876258850098 -67.375640869141 -83.558212280273 1.587607026100
61.502582550049 -64.311233520508 -83.666923522949 1.391867160797
100.412734985352 -68.919631958008 -85.148376464844 1.503112554550
-63.969356536865 -65.616134643555 -90.680114746094 1.835128307343
-65.328727722168 -67.879180908203 -91.380226135254 1.726792573929
49.736076354980 -66.483444213867 -93.892593383789 0.794802546501
-67.132125854492 -69.246971130371 -96.138259887695 2.854738950729
-71.493881225586 -67.460937500000 -100.958518981934 1.613602399826
-96.632804870605 -66.506195068359 -99.865600585938 2.339091062546
-75.700843811035 -64.553123474121 -100.203552246094 1.367096185684
46.939228057861 -65.265266418457 -102.151016235352 1.730869531631
-67.474464416504 -69.599494934082 -103.600685119629 3.353705644608
49.538536071777 -66.200141906738 -103.589332580566 2.103009700775
96.230300903320 -68.050392150879 -105.424636840820 2.593377113342
90.808181762695 -67.960533142090 -111.934288024902 4.734066963196
-72.917251586914 -67.026611328125 -114.596672058105 1.859783649445
-84.546211242676 -68.208030700684 -112.571586608887 1.514373302460
-61.942073822021 -67.176902770996 -119.328697204590 1.899660587311
-96.254905700684 -63.830867767334 -119.165321350098 2.371331930161
-76.792465209961 -68.831031799316 -127.416847229004 1.621413469315
-93.509002685547 -61.013919830322 -125.333396911621 1.959944844246
-63.392215728760 -65.586914062500 -118.092765808105 1.183520436287
-60.277885437012 -61.797954559326 -120.560073852539 2.199689388275
-88.797363281250 -67.407730102539 -129.668273925781 1.609696388245
-63.385742187500 -70.157936096191 -127.651634216309 3.422474861145
-84.255477905273 -65.944190979004 -132.597335815430 1.048325777054
-79.672317504883 -67.624092102051 -134.022445678711 1.514901041985
-62.246818542480 -70.338127136230 -134.751007080078 0.918389618397
-60.989707946777 -63.374408721924 -134.753341674805 1.909711241722
-54.812549591064 -62.389030456543 -135.630279541016 1.779804825783
-96.427192687988 -64.421417236328 -132.388946533203 4.454162120819
-97.159225463867 -64.111312866211 -144.172851562500 2.385332107544
-88.637115478516 -67.089630126953 -135.069763183594 2.789700746536
20.432186126709 -69.259025573730 -148.990097045898 2.966855764389
-50.088127136230 -67.458503723145 -142.081237792969 1.899401783943
17.822362899780 -66.768623352051 -150.694641113281 1.541531682014
-98.390556335449 -66.849945068359 -164.605865478516 3.233840703964
-103.160484313965 -70.110908508301 -171.522872924805 1.427685976028
-102.695991516113 -63.077060699463 -171.335189819336 1.377975821495
-108.083374023438 -61.567092895508 -171.326095581055 3.319231748581
-107.772842407227 -66.614814758301 -179.632598876953 2.700454950333
-110.836265563965 -65.623970031738 -178.376235961914 1.345239043236
-142.414154052734 -64.185401916504 -186.981689453125 1.738669037819
-112.201721191406 -64.602272033691 -186.513244628906 1.697879672050
-134.023757934570 -62.732418060303 -199.611190795898 2.132567167282
-149.612121582031 -67.377990722656 -198.350723266602 1.119142293930
-126.770034790039 -65.784980773926 -198.056808471680 2.280833721161
-157.156341552734 -67.142845153809 -196.440734863281 2.194957494736
-147.566848754883 -68.469917297363 -202.006591796875 2.781528472900
-125.486495971680 -61.155223846436 -198.784423828125 1.836689591408
-134.865646362305 -64.430007934570 -201.433502197266 0.896041631699
-141.860977172852 -69.990913391113 -206.506805419922 2.963698387146
