-136.001953125000 -63.692493438721 -224.136199951172 3.625861644745
-125.551551818848 -69.272010803223 -222.624053955078 2.617411613464
-116.118682861328 -67.639640808105 -224.212524414063 0.951029837132
-1.343369960785 -63.559329986572 -228.077377319336 4.115234851837
-108.997390747070 -64.354843139648 -230.175201416016 2.262012958527
-162.060729980469 -59.653270721436 -222.180358886719 6.444561481476
-148.387680053711 -64.068473815918 -226.095916748047 2.586271286011
-167.130065917969 -63.986541748047 -224.385589599609 2.938574314117
-9.697999954224 -67.446426391602 -226.610397338867 1.645248174667
-10.210809707642 -68.079788208008 -232.493362426758 1.028573274612
76.624565124512 -71.945213317871 -225.808502197266 0.710225701332
-1.942541956902 -69.976684570313 -229.461273193359 0.743125915527
-144.764892578125 -64.817291259766 -235.537429809570 2.378384351730
-15.989003181458 -66.283134460449 -229.073257446289 3.539331912994
72.277282714844 -70.022262573242 -228.349380493164 1.179689645767
72.850143432617 -70.131454467773 -233.403823852539 1.190236687660
-136.323837280273 -63.819763183594 -231.849578857422 1.488995671272
-159.189117431641 -67.112762451172 -227.715057373047 1.432942152023
-115.948455810547 -64.326255798340 -232.418395996094 0.819078028202
-126.425041198730 -61.335643768311 -235.081634521484 4.145946502686
-165.450363159180 -63.284461975098 -234.135711669922 5.062616348267
-161.889205932617 -64.968788146973 -234.990585327148 2.382767677307
-148.437011718750 -61.392032623291 -233.505996704102 1.271578431129
-14.547323226929 -66.853507995605 -235.243988037109 3.938393831253
-7.026949882507 -67.347244262695 -240.411209106445 1.850790858269
-162.503616333008 -63.114326477051 -239.964569091797 3.847847461700
3.620239973068 -69.056373596191 -238.175949096680 1.374150156975
1.008259057999 -68.868003845215 -236.624694824219 1.468054771423
-161.886764526367 -64.290466308594 -238.123840332031 2.448906660080
14.853320121765 -72.146903991699 -242.289001464844 2.096124887466
48.853538513184 -71.471557617188 -245.552673339844 2.107229471207
48.659397125244 -71.417266845703 -244.586456298828 1.595462203026
-17.887054443359 -68.775505065918 -246.836791992188 4.251420021057
46.315452575684 -68.017478942871 -249.341781616211 1.822503685951
-163.337036132813 -61.496315002441 -249.399978637695 7.106485366821
-161.029129028320 -64.797363281250 -246.769866943359 3.747326850891
-162.492660522461 -67.916244506836 -248.844970703125 1.214739441872
52.783756256104 -69.079391479492 -248.927947998047 0.944881379604
-94.166084289551 -64.931266784668 -252.365875244141 3.414499282837
-126.852111816406 -64.526885986328 -253.816421508789 1.997424960136
-107.939224243164 -69.644691467285 -253.179183959961 2.185631036758
24.453281402588 -72.275642395020 -257.529693603516 2.243167638779
39.329132080078 -67.100654602051 -251.314468383789 0.975644648075
-102.771392822266 -63.379791259766 -254.449096679688 4.682044506073
-95.583068847656 -62.083717346191 -251.182647705078 4.521718978882
43.303070068359 -72.746925354004 -254.667404174805 2.545968294144
40.178493499756 -67.481498718262 -256.856323242188 2.225661516190
-157.060638427734 -69.193458557129 -257.245635986328 1.388393044472
28.347099304199 -68.737632751465 -259.341369628906 1.814304947853
-145.074798583984 -67.723869323730 -263.646942138672 1.440832972527
-115.590667724609 -65.096580505371 -261.868255615234 1.214071273804
-139.137756347656 -63.973861694336 -261.885620117188 3.364312410355
29.096508026123 -68.456405639648 -262.857604980469 1.384676098824
-128.318466186523 -64.075874328613 -262.904449462891 1.072903037071
-13.377552032471 -66.643463134766 -258.015930175781 1.549414038658
19.258371353149 -71.580406188965 -271.078399658203 3.722764968872
-7.991927146912 -71.966667175293 -265.245727539063 5.243749141693
17.407144546509 -70.456466674805 -279.918243408203 2.329544544220
-155.618896484375 -66.454345703125 -281.706665039063 2.887368440628
-13.249017715454 -66.606948852539 -280.513153076172 3.410004377365
-155.506195068359 -68.054191589355 -281.773101806641 3.557077646255
-126.171592712402 -66.978500366211 -284.373413085938 2.237250804901
-162.950851440430 -70.176429748535 -285.485382080078 2.420958995819
-117.106781005859 -65.435012817383 -286.465759277344 3.250491619110
-106.841308593750 -66.034965515137 -288.985443115234 1.938041329384
-9.311765670776 -66.465911865234 -285.152069091797 3.352838277817
-110.728332519531 -66.944068908691 -288.619812011719 2.440394878387
-118.810592651367 -63.339767456055 -284.561035156250 5.279776096344
-122.612609863281 -62.503192901611 -290.954864501953 3.941899538040
-140.439346313477 -64.778015136719 -289.086029052734 2.041196107864
-128.587631225586 -63.008663177490 -290.819549560547 2.929040908813
-160.176879882813 -68.924995422363 -289.095184326172 1.339071035385
-149.218490600586 -63.025501251221 -292.007354736328 1.982001543045
-158.913833618164 -62.344684600830 -300.941406250000 7.292179584503
-156.644195556641 -63.043991088867 -310.221435546875 6.570521354675
-160.748992919922 -63.129257202148 -300.229492187500 8.270531654358
-144.287292480469 -65.872917175293 -309.834075927734 2.478156805038
-152.113174438477 -65.975669860840 -313.019683837891 0.825056195259
34.861381530762 -70.198799133301 -8.818202018738 2.879929304123
46.136722564697 -73.479476928711 -16.339565277100 2.204602479935
23.558435440063 -66.144218444824 -23.304943084717 3.993971824646
49.774131774902 -70.412864685059 -27.297105789185 1.758945465088
27.438783645630 -71.593498229980 -34.142566680908 1.503314733505
32.158599853516 -70.570991516113 -34.407741546631 1.990395069122
-58.343353271484 -63.344692230225 -46.797779083252 3.764624118805
79.136444091797 -66.580665588379 -61.223121643066 1.899916291237
80.293334960938 -71.154403686523 -66.907371520996 1.362471580505
-91.144828796387 -67.250007629395 -61.578712463379 1.588481068611
-13.350582122803 -65.618423461914 -61.052913665771 2.539439916611
-93.302825927734 -68.083206176758 -69.303993225098 2.669955492020
95.576942443848 -72.376388549805 -68.816528320313 2.294867038727
-14.469039916992 -65.111701965332 -67.554885864258 1.424954175949
66.715042114258 -72.295539855957 -78.764389038086 2.539609909058
-42.876949310303 -71.395782470703 -78.717597961426 2.002788782120
-28.109506607056 -71.174064636230 -75.305473327637 2.162646770477
55.380203247070 -66.302696228027 -86.105293273926 1.050068140030
-45.148269653320 -77.158523559570 -83.855606079102 2.072778463364
64.094787597656 -62.598461151123 -86.903923034668 1.920162081718
51.884166717529 -73.355155944824 -89.602516174316 1.343655705452
52.715198516846 -69.503967285156 -93.548225402832 1.915183782578
58.547000885010 -73.898406982422 -90.710289001465 2.014994621277
55.933761596680 -66.633552551270 -95.618736267090 2.775466203690
98.808959960938 -67.583557128906 -97.796020507813 0.757489502430
105.063278198242 -66.577911376953 -98.715202331543 1.482843160629
58.744640350342 -71.932228088379 -99.820289611816 2.195029020309
105.990447998047 -66.624015808105 -99.619071960449 1.493782401085
-77.879714965820 -66.012641906738 -98.463394165039 3.004885196686
-73.644653320313 -66.009727478027 -101.246696472168 1.237495183945
99.377029418945 -67.316825866699 -98.550079345703 1.322321176529
52.223258972168 -69.861213684082 -100.677429199219 2.160527467728
69.403945922852 -71.015518188477 -98.600914001465 1.114250898361
-73.499267578125 -66.538154602051 -106.590980529785 2.710144042969
-86.126968383789 -64.878982543945 -106.366622924805 2.460229873657
88.085205078125 -72.745025634766 -104.345130920410 2.748203992844
39.157745361328 -70.076202392578 -104.034080505371 1.732344388962
103.871398925781 -67.059684753418 -105.900741577148 0.247571945190
45.429412841797 -71.148643493652 -113.292694091797 2.074456691742
109.065071105957 -70.571884155273 -103.636940002441 1.660410284996
-79.728561401367 -65.757575988770 -110.244819641113 1.949913263321
103.545318603516 -66.258125305176 -108.626396179199 3.100819349289
-85.343704223633 -63.746482849121 -120.351219177246 2.530029296875
-59.765548706055 -68.811050415039 -127.791809082031 1.697564601898
-57.022895812988 -65.682373046875 -124.143264770508 1.455408215523
-73.676513671875 -67.586067199707 -129.143936157227 2.044049501419
-52.176860809326 -68.030609130859 -130.243576049805 0.939581751823
-85.268348693848 -67.545883178711 -132.056427001953 1.162196516991
-78.648185729980 -63.211280822754 -132.208328247070 1.758724212646
-81.786415100098 -66.155647277832 -130.118576049805 1.710545659065
-61.569690704346 -70.822196960449 -140.792190551758 2.598746776581
-72.869415283203 -66.000274658203 -139.866912841797 1.631500482559
-61.319389343262 -69.625610351563 -134.366622924805 1.541618943214
-59.878181457520 -66.805870056152 -141.117401123047 2.462611675262
15.497790336609 -64.801055908203 -143.444366455078 2.146268844604
-92.288528442383 -66.228530883789 -141.334030151367 2.398470163345
-49.074890136719 -70.325508117676 -146.006561279297 2.211686134338
-97.794448852539 -63.905876159668 -148.837890625000 1.014989137650
-102.196037292480 -63.363574981689 -148.325073242188 3.269436359406
17.695154190063 -69.971588134766 -153.420516967773 1.741213917732
12.583906173706 -69.290916442871 -157.763916015625 0.917711257935
-97.308197021484 -67.284400939941 -158.853683471680 1.261873722076
-104.901870727539 -65.645744323730 -153.291900634766 4.052286624908
-101.852188110352 -64.415817260742 -167.494293212891 1.763896703720
20.527023315430 -67.486152648926 -169.540664672852 1.444834232330
-112.047622680664 -65.060508728027 -171.822708129883 3.344965219498
21.157135009766 -68.288833618164 -166.121643066406 2.230819940567
-149.178085327148 -64.633735656738 -175.483520507813 1.881844282150
16.234682083130 -67.803138732910 -176.072494506836 1.568115234375
22.478471755981 -68.845085144043 -185.572738647461 1.695140361786
-153.939117431641 -63.112472534180 -185.553451538086 2.664868116379
19.792591094971 -68.853515625000 -176.064987182617 1.069333076477
17.594079971313 -62.705627441406 -180.072891235352 4.261546611786
-145.371765136719 -67.980148315430 -183.786102294922 2.768612384796
-153.484527587891 -62.110027313232 -188.207351684570 3.178915739059
18.231893539429 -68.092941284180 -188.003021240234 2.292114496231
16.744022369385 -69.649429321289 -189.486877441406 2.205099344254
-143.895553588867 -66.464965820313 -192.809417724609 0.791951596737
-110.766250610352 -65.689994812012 -196.877258300781 1.073166012764
22.116441726685 -68.626434326172 -198.196426391602 1.931493043900
-126.557426452637 -64.797416687012 -193.931533813477 3.217525720596
8.861568450928 -69.848648071289 -199.557571411133 1.324228167534
-131.800216674805 -60.137619018555 -193.481170654297 4.889037609100
-161.066772460938 -62.062980651855 -189.653778076172 8.182332992554
-163.208374023438 -63.564212799072 -195.743438720703 5.181030273438
-160.529647827148 -65.175369262695 -194.106506347656 3.930159330368
-21.993524551392 -67.119987487793 -204.129669189453 2.767864942551
-169.402770996094 -66.136741638184 -198.576568603516 4.131071567535
-28.146509170532 -64.050209045410 -192.200683593750 4.583355426788
-17.256328582764 -68.495491027832 -195.467941284180 1.210747122765
8.115028381348 -63.455535888672 -195.314102172852 5.887613773346
-159.592346191406 -64.203338623047 -202.926071166992 3.335747003555
-109.888923645020 -64.103157043457 -201.458877563477 2.738211631775
-19.241556167603 -64.308395385742 -201.214187622070 3.361274480820
-161.861892700195 -60.166965484619 -200.737304687500 5.270277500153
14.925783157349 -68.081413269043 -201.216506958008 0.764029562473
-170.581268310547 -61.999534606934 -204.046005249023 6.480260372162
-122.581451416016 -67.211227416992 -201.992553710938 1.688367605209
-117.182586669922 -62.535869598389 -206.508285522461 4.215610027313
-124.780395507813 -64.034561157227 -203.461624145508 1.480946540833
-16.625995635986 -66.393363952637 -203.192810058594 1.706878781319
-19.201683044434 -67.396438598633 -204.068725585938 2.438346862793
-166.141921997070 -63.337177276611 -209.809478759766 3.868526935577
-161.904495239258 -62.202476501465 -211.517074584961 4.769979476929
-166.746063232422 -64.342628479004 -218.620468139648 4.158442974091
-143.265365600586 -66.383689880371 -213.305877685547 2.343687772751
-146.706726074219 -64.504867553711 -223.041656494141 0.879432260990
-4.859928131104 -65.809234619141 -219.616317749023 2.825476884842
-11.532891273499 -70.618804931641 -216.563369750977 1.952511787415
-101.875915527344 -63.793235778809 -220.168975830078 4.189450263977
-8.755130767822 -65.895057678223 -231.799301147461 1.443714141846
-168.988403320313 -61.554862976074 -228.102508544922 4.568625450134
-108.718414306641 -63.126026153564 -231.624832153320 3.857131242752
-0.544421970844 -67.475082397461 -226.314376831055 1.212456822395
0.877624988556 -66.439605712891 -229.551605224609 1.577123403549
-113.787338256836 -65.591789245605 -232.346298217773 1.294656872749
-3.450725078583 -68.059425354004 -228.445755004883 1.922663569450
-119.656402587891 -62.248424530029 -233.554885864258 2.479252576828
-9.668206214905 -64.491050720215 -232.778656005859 3.165148973465
-4.173922061920 -66.266967773438 -234.544372558594 1.219827651978
-3.577697038651 -66.944198608398 -237.331436157227 1.545244693756
69.708351135254 -66.143577575684 -236.340423583984 2.264750480652
-12.808670043945 -69.914299011230 -237.230529785156 0.661904036999
5.356842994690 -68.078498840332 -236.907913208008 2.082313060760
9.169282913208 -66.678153991699 -238.811477661133 1.576794385910
3.429634094238 -68.083656311035 -238.517150878906 0.437120616436
0.536359012127 -68.776412963867 -240.784057617188 1.530211091042
62.252006530762 -64.814285278320 -238.424057006836 2.213809967041
67.013412475586 -65.977005004883 -240.112319946289 3.037670135498
6.319217205048 -67.240859985352 -246.591918945313 2.093827486038
52.018615722656 -69.372436523438 -242.039718627930 2.284907579422
53.500965118408 -71.996231079102 -240.510543823242 3.367016315460
44.996948242188 -65.240982055664 -249.160415649414 2.114688158035
39.300006866455 -66.093498229980 -251.062942504883 1.057508111000
38.649951934814 -67.044433593750 -256.185394287109 1.982861280441
-133.887756347656 -60.795017242432 -257.058990478516 3.967367887497
-12.427148818970 -66.571952819824 -249.629974365234 1.586541414261
26.296678543091 -66.667114257813 -257.774444580078 1.688959360123
43.011157989502 -67.343452453613 -247.873352050781 1.687026143074
25.252367019653 -70.094894409180 -253.607528686523 1.328679442406
-105.033767700195 -66.587867736816 -258.052703857422 2.205210208893
29.134399414063 -68.657295227051 -255.990188598633 1.301094174385
-149.303115844727 -65.997856140137 -260.081085205078 2.205964803696
-118.515968322754 -66.146736145020 -256.090759277344 3.185829877853
-110.956832885742 -64.746528625488 -257.171173095703 2.375657796860
-5.720516204834 -69.050643920898 -258.649536132813 2.995281696320
-152.589492797852 -65.318878173828 -256.477264404297 1.282343864441
33.136981964111 -67.679534912109 -261.584106445313 1.169811129570
-111.856246948242 -63.654670715332 -255.923110961914 3.800031900406
23.968399047852 -70.934196472168 -258.924774169922 2.363050937653
-137.141113281250 -65.939514160156 -261.963439941406 2.272045135498
-118.659553527832 -63.812171936035 -263.280853271484 2.038053035736
-111.699531555176 -64.208953857422 -260.582550048828 2.490971803665
-117.240432739258 -68.761131286621 -260.736236572266 2.454421520233
-142.178955078125 -65.668937683105 -257.026977539063 1.686576008797
26.837682723999 -68.198982238770 -259.910308837891 1.071814179420
-119.526336669922 -63.419830322266 -262.255126953125 2.702322959900
-146.545639038086 -65.636856079102 -262.664245605469 1.646418452263
-7.265902042389 -65.100929260254 -270.357452392578 2.657708644867
-153.093185424805 -66.271339416504 -280.286895751953 2.493072748184
-10.681060791016 -67.558380126953 -285.846710205078 3.833074092865
-7.640232086182 -64.835891723633 -282.512115478516 2.046854972839
-136.651779174805 -64.037597656250 -286.915740966797 3.650407075882
-129.904800415039 -64.773384094238 -289.676025390625 2.211982250214
-138.047286987305 -64.189231872559 -293.177459716797 4.004544258118
-128.921951293945 -63.302967071533 -291.016510009766 3.003060102463
-157.234725952148 -64.370605468750 -293.606658935547 2.045951843262
-158.558105468750 -64.180702209473 -299.322723388672 6.067271232605
-150.329345703125 -67.085586547852 -300.145355224609 1.390540122986
-152.210937500000 -64.687622070313 -302.489562988281 2.658999204636
-147.492980957031 -63.996932983398 -298.275482177734 2.851603269577
-151.895568847656 -63.201385498047 -303.381561279297 3.391247510910
-148.686538696289 -61.917747497559 -313.989959716797 4.849333286285
18.618574142456 -71.180992126465 -27.165882110596 1.923060417175
48.478740692139 -71.684204101563 -35.672000885010 1.953650474548
24.528726577759 -73.852478027344 -37.459598541260 2.892586708069
31.598052978516 -69.581710815430 -42.294094085693 2.360514402390
-43.345241546631 -61.515937805176 -47.355140686035 2.914130210876
-77.382629394531 -63.819858551025 -49.859897613525 3.104074001312
79.453865051270 -68.148841857910 -61.454227447510 1.659274458885
73.601486206055 -69.462059020996 -62.241889953613 3.043048381805
70.568389892578 -70.434028625488 -66.188461303711 2.943452358246
-100.303642272949 -64.971839904785 -71.968460083008 3.977699995041
98.199913024902 -72.592208862305 -75.841995239258 1.602067351341
-31.583992004395 -67.597099304199 -82.127952575684 3.958895206451
62.058536529541 -67.158233642578 -76.414527893066 3.379457950592
-44.227436065674 -63.339511871338 -82.123344421387 2.075245857239
-55.002540588379 -63.867137908936 -82.052177429199 2.289705514908
49.645847320557 -69.292579650879 -90.321914672852 1.650552868843
101.182876586914 -68.848312377930 -90.508872985840 1.658909440041
62.954418182373 -66.436241149902 -93.668663024902 0.842465221882
55.636524200439 -66.940017700195 -92.787712097168 2.898293495178
47.511356353760 -65.770179748535 -101.277420043945 2.007755756378
55.476181030273 -64.974815368652 -100.264480590820 1.671593546867
101.948059082031 -67.448143005371 -97.928947448730 0.801254034042
68.552177429199 -67.908653259277 -106.235603332520 3.979897022247
48.934394836426 -67.881477355957 -105.605514526367 1.652202963829
75.279479980469 -73.103324890137 -106.944229125977 4.556968212128
94.439903259277 -65.797317504883 -107.914283752441 1.370084285736
-76.411178588867 -63.582668304443 -100.928031921387 1.665885686874
-88.071342468262 -65.747901916504 -109.504707336426 3.139073371887
-83.493858337402 -66.023521423340 -112.097412109375 2.021253108978
-61.450054168701 -64.768363952637 -118.049774169922 1.225486159325
-58.586326599121 -69.047981262207 -125.418243408203 1.464252829552
-95.937408447266 -64.530441284180 -121.015937805176 2.659614562988
-76.439971923828 -66.662750244141 -118.794090270996 1.245061516762
-78.159477233887 -68.588409423828 -131.676818847656 1.123421192169
-62.192375183105 -63.390079498291 -127.711380004883 0.749411225319
-89.880683898926 -61.676475524902 -129.685028076172 3.873130559921
-91.135749816895 -64.366477966309 -129.369583129883 3.335197925568
-49.636013031006 -69.334129333496 -134.775527954102 1.181272268295
-52.892456054688 -66.418586730957 -136.080322265625 1.489470720291
-78.724044799805 -66.819000244141 -137.817199707031 1.319595456123
-55.429149627686 -67.384025573730 -140.959350585938 1.483566761017
-75.889991760254 -68.120742797852 -143.172042846680 0.725422143936
19.749137878418 -65.170913696289 -138.476593017578 2.267663240433
-58.974391937256 -69.387535095215 -144.219345092773 1.192438840866
-56.416477203369 -62.935420989990 -144.997406005859 3.636679410934
7.620253086090 -69.994720458984 -154.810150146484 1.494855165482
15.270153999329 -65.604980468750 -150.781021118164 1.422153592110
-143.899887084961 -64.224487304688 -173.230285644531 1.445029139519
-111.921562194824 -63.712528228760 -177.319183349609 2.535055398941
-111.258804321289 -61.466121673584 -188.918975830078 3.229162693024
-154.229232788086 -65.263298034668 -190.486663818359 3.003925561905
-114.649345397949 -63.755298614502 -184.915908813477 4.002995491028
-153.662734985352 -60.014049530029 -195.262985229492 1.684877157211
-115.787078857422 -63.096218109131 -197.730407714844 1.539135932922
-151.927368164063 -61.344326019287 -199.404556274414 1.534099578857
-152.259979248047 -63.724914550781 -205.320495605469 2.447950601578
-154.706573486328 -67.149711608887 -206.986999511719 2.801077842712
-149.612548828125 -63.449047088623 -222.963943481445 1.350665211678
-152.147338867188 -66.287818908691 -224.337615966797 2.793015956879
-106.819869995117 -62.508087158203 -225.266265869141 3.418917417526
-103.677696228027 -64.415878295898 -221.695983886719 2.747498273849
-125.041252136230 -60.088081359863 -229.656921386719 3.708533287048
-109.857551574707 -63.888755798340 -225.351562500000 2.035808086395
-158.303131103516 -64.539268493652 -229.656921386719 2.711796998978
-4.735085964203 -66.185211181641 -225.654052734375 0.891075015068
-135.702178955078 -65.628211975098 -229.896835327148 1.422011137009
-155.265792846680 -64.737510681152 -234.198303222656 1.508782386780
-138.818603515625 -66.143806457520 -232.359344482422 3.472094297409
-13.094042778015 -65.642250061035 -235.656768798828 3.927705287933
6.950644969940 -67.055213928223 -242.721969604492 2.006919145584
61.055110931396 -64.032348632813 -240.612304687500 3.215100526810
16.269887924194 -69.888374328613 -248.306488037109 2.141837596893
54.097297668457 -67.285049438477 -243.501647949219 2.227771520615
39.271099090576 -68.998901367188 -249.426788330078 2.559022426605
56.936660766602 -65.496978759766 -251.435745239258 2.570543289185
-154.377838134766 -63.496379852295 -249.323348999023 4.212786674500
-151.456878662109 -67.048553466797 -253.454574584961 2.356231689453
40.837429046631 -66.241828918457 -256.576751708984 1.998449802399
27.437448501587 -66.810775756836 -255.446914672852 2.980591773987
45.810726165771 -65.338287353516 -252.512130737305 2.057791948318
-146.802688598633 -66.366813659668 -258.618438720703 2.793440341949
-138.306884765625 -62.301990509033 -254.416351318359 4.245913505554
-126.844345092773 -61.858020782471 -257.069702148438 3.489064455032
-135.969207763672 -64.096138000488 -255.167037963867 2.647964239120
-142.818359375000 -64.382621765137 -257.016876220703 1.539731740952
-125.641395568848 -63.335834503174 -258.623657226563 1.860415339470
-144.714660644531 -62.096935272217 -259.366241455078 1.750363349915
-128.285873413086 -65.648902893066 -258.639465332031 0.932278037071
-124.430511474609 -64.186027526855 -263.554565429688 1.151565551758
-129.602996826172 -64.484687805176 -263.956268310547 1.388490557671
-122.391517639160 -61.143989562988 -263.215240478516 4.518773078918
-7.304666042328 -66.823928833008 -265.614532470703 1.954981088638
25.992630004883 -64.665153503418 -261.835601806641 0.672624111176
-148.203536987305 -60.079830169678 -265.968444824219 1.790917992592
24.132011413574 -67.350769042969 -268.828979492188 3.098958969116
-6.902431011200 -62.266689300537 -273.986358642578 5.695262908936
14.803019523621 -72.051429748535 -283.251342773438 2.531558513641
-143.808578491211 -64.126213073730 -288.259033203125 1.610188603401
-127.648185729980 -65.063575744629 -286.439727783203 1.746067643166
-134.370834350586 -60.207881927490 -289.440429687500 5.000958442688
-160.639572143555 -59.387039184570 -290.956512451172 6.886296749115
-128.167709350586 -59.610038757324 -288.454040527344 5.437364578247
-120.260848999023 -62.053432464600 -288.401184082031 4.343047142029
-127.868064880371 -65.605468750000 -294.831451416016 2.273036003113
-153.150955200195 -65.947959899902 -292.666015625000 1.197265863419
27.358282089233 -71.425987243652 -12.148049354553 1.218583822250
30.535173416138 -72.084182739258 -17.124511718750 0.891867578030
37.087902069092 -68.830581665039 -19.626642227173 2.305531024933
47.276611328125 -63.264083862305 -23.352334976196 2.733440160751
26.373064041138 -73.011260986328 -27.632684707642 1.509296178818
19.392333984375 -71.150428771973 -34.155178070068 1.831931114197
-35.335536956787 -66.615119934082 -45.801273345947 2.248273134232
-83.416069030762 -66.519828796387 -52.387344360352 0.901341557503
-17.484294891357 -66.211174011230 -58.135200500488 1.786793470383
71.665679931641 -66.461776733398 -64.678031921387 1.609243273735
100.606849670410 -67.896492004395 -68.657966613770 1.890483975410
63.529869079590 -66.358947753906 -82.806144714355 2.215443611145
60.203311920166 -63.245056152344 -82.953765869141 2.307078599930
99.037559509277 -68.466567993164 -84.392471313477 1.087185263634
-65.278633117676 -62.725334167480 -89.890075683594 3.070369958878
-66.672874450684 -64.976402282715 -90.559570312500 2.896302461624
48.398132324219 -65.372146606445 -93.144287109375 0.984999418259
-68.500152587891 -66.379211425781 -95.298263549805 3.408098936081
-72.837364196777 -64.590583801270 -100.139656066895 2.444344997406
-97.958038330078 -63.237518310547 -99.047630310059 0.935308575630
-76.998924255371 -61.609111785889 -99.421218872070 3.697695493698
45.614658355713 -64.220588684082 -101.416778564453 2.528036355972
-68.852851867676 -66.825027465820 -102.755210876465 2.787700176239
48.198421478271 -65.213989257813 -102.843833923340 2.244629383087
94.855255126953 -67.801483154297 -104.676475524902 1.838831305504
89.430763244629 -67.714797973633 -111.184188842773 4.152650356293
-74.263107299805 -64.314781188965 -113.781684875488 2.638278007507
-85.907386779785 -65.291534423828 -111.735694885254 2.480554103851
-63.294681549072 -64.695243835449 -118.516471862793 1.687698841095
-97.552299499512 -60.823482513428 -118.381202697754 2.003678798676
-78.174034118652 -66.228996276855 -126.575057983398 0.991838157177
-94.767845153809 -58.130550384521 -124.587272644043 2.352286338806
-64.719543457031 -63.067089080811 -117.300987243652 2.040168523788
-61.549373626709 -59.359077453613 -119.819633483887 2.560875892639
-90.157310485840 -64.652313232422 -128.839462280273 2.699409008026
-64.789299011230 -67.763557434082 -126.798583984375 2.322963476181
-85.595581054688 -63.297164916992 -131.789749145508 1.399276852608
-81.039558410645 -65.065567016602 -133.194686889648 1.990132331848
-63.658031463623 -68.054908752441 -133.895492553711 2.227443933487
-62.294723510742 -61.111846923828 -133.990478515625 1.078037619591
-56.103828430176 -60.232635498047 -134.883270263672 0.951703488827
-97.742477416992 -61.585979461670 -131.595779418945 7.118621826172
-98.477607727051 -61.420429229736 -143.382415771484 4.784067153931
-89.995857238770 -64.408081054688 -134.244750976563 2.637440919876
19.018238067627 -68.427352905273 -148.186492919922 2.078347206116
-51.461711883545 -65.458480834961 -141.268875122070 0.889118492603
16.445604324341 -65.920097351074 -149.922576904297 1.976742863655
-99.764350891113 -64.409645080566 -163.776855468750 2.551799774170
-104.588172912598 -67.688446044922 -170.647888183594 1.748741388321
-104.016197204590 -60.660648345947 -170.553436279297 3.745426654816
-109.379882812500 -59.068553924561 -170.561782836914 5.237850189209
-109.152061462402 -64.229728698730 -178.800949096680 1.199494242668
-112.199150085449 -63.175685882568 -177.556365966797 2.617233991623
-143.757171630859 -61.368640899658 -186.165237426758 2.535988092422
-113.554306030273 -62.240837097168 -185.705535888672 4.311513423920
-135.354064941406 -60.210994720459 -198.816787719727 3.386067867279
-151.010696411133 -64.600807189941 -197.487670898438 3.237337350845
-128.146743774414 -63.353225708008 -197.225585937500 2.494229316711
-158.549163818359 -64.225212097168 -195.577423095703 1.635596632957
-148.984786987305 -65.772056579590 -201.129760742188 1.148096203804
-126.793144226074 -58.753635406494 -198.014953613281 4.394215583801
-136.222991943359 -61.919456481934 -200.616104125977 2.886263608932
-143.305831909180 -67.439369201660 -205.612136840820 1.395225048065
-133.914031982422 -65.203842163086 -222.700759887695 3.596385717392
-112.408378601074 -64.927604675293 -228.847686767578 2.092069625854
-145.877944946289 -63.689834594727 -227.501373291016 1.679718613625
-120.509109497070 -61.725166320801 -230.351593017578 3.187777996063
-117.499359130859 -59.449642181396 -230.171569824219 5.205620765686
-124.606811523438 -63.986621856689 -232.391494750977 1.177502274513
-132.537353515625 -62.953536987305 -233.643081665039 2.982822656631
-117.491195678711 -60.537090301514 -235.784652709961 4.953388690948
2.591612100601 -64.811012268066 -235.462982177734 1.228514909744
-153.890930175781 -64.242950439453 -236.863327026367 2.485880374908
4.610729217529 -66.680938720703 -234.733032226563 1.041581392288
3.660738945007 -62.476364135742 -241.839111328125 1.281579375267
-0.038818001747 -67.345520019531 -240.984359741211 0.683335781097
12.184565544128 -62.608531951904 -240.457473754883 3.201725721359
-146.290603637695 -61.236763000488 -234.400695800781 2.157706260681
-6.968424797058 -66.558204650879 -246.786514282227 2.456247329712
17.557834625244 -65.513267517090 -241.007110595703 1.431281447411
47.735958099365 -64.753410339355 -249.528442382813 1.395580887794
48.779666900635 -64.924301147461 -250.157348632813 2.159128189087
-148.780914306641 -64.328079223633 -251.637802124023 2.283830642700
-7.813350200653 -66.159675598145 -251.188446044922 1.248174786568
20.842054367065 -66.511169433594 -255.601608276367 2.134081602097
-134.303817749023 -58.120788574219 -257.698181152344 6.459990978241
-126.117713928223 -61.486537933350 -257.917907714844 3.863412857056
-126.833503723145 -63.761642456055 -257.381622314453 1.832216501236
24.466199874878 -65.640327453613 -258.646331787109 1.164851427078
-136.019714355469 -60.738780975342 -264.855010986328 5.402574539185
28.634521484375 -64.008186340332 -260.424133300781 1.669761419296
30.505535125732 -66.147583007813 -263.281829833984 1.496592402458
-155.163360595703 -64.525138854980 -266.280731201172 2.625841379166
-149.026184082031 -67.705406188965 -286.234313964844 1.843975543976
-151.775283813477 -59.467910766602 -287.250732421875 3.279572248459
-146.216918945313 -60.421848297119 -293.534729003906 3.315285205841
9.708148002625 -68.592735290527 -292.015045166016 2.068531036377
-156.783538818359 -60.332565307617 -299.206207275391 7.422089099884
44.673248291016 -71.720207214355 -26.106878280640 1.635600328445
34.195426940918 -72.832992553711 -40.155338287354 2.597265958786
-62.457427978516 -62.443531036377 -45.609676361084 3.315786838531
-73.350547790527 -62.275074005127 -46.117416381836 2.276960134506
-28.216239929199 -63.163360595703 -50.353191375732 1.648288249969
-23.412147521973 -68.329139709473 -54.276023864746 2.531781673431
-12.665714263916 -62.085735321045 -66.538574218750 2.084220170975
-27.671037673950 -61.831134796143 -69.574691772461 1.353006124496
63.523956298828 -66.651344299316 -73.941429138184 2.421795606613
-98.167701721191 -58.715740203857 -78.220336914063 2.378608703613
-47.871860504150 -64.911804199219 -85.938919067383 2.385018110275
53.163524627686 -67.712379455566 -86.006164550781 1.036453843117
57.198898315430 -66.695999145508 -86.628242492676 1.933571100235
60.777153015137 -67.262886047363 -88.952400207520 2.255157709122
104.795074462891 -66.692611694336 -91.123947143555 1.093106389046
50.794563293457 -63.920494079590 -90.960929870605 0.624349296093
97.476028442383 -63.092090606689 -100.595893859863 3.806300401688
-83.546905517578 -65.593803405762 -102.835929870605 2.221308708191
-95.644744873047 -63.605758666992 -101.363975524902 2.823498964310
73.731788635254 -63.589782714844 -112.214797973633 3.398024559021
-79.057586669922 -63.238117218018 -103.374748229980 1.405735254288
-79.390739440918 -67.655181884766 -114.367721557617 1.831130862236
-85.678527832031 -67.897613525391 -118.580207824707 1.530798077583
-56.996582031250 -65.279853820801 -126.322113037109 0.473178356886
-79.136245727539 -64.032737731934 -128.456604003906 1.653828978539
-64.151779174805 -61.136615753174 -129.272079467773 0.286017239094
-85.608863830566 -65.140480041504 -134.604721069336 1.058262467384
-77.567291259766 -62.553504943848 -132.692901611328 1.676289081573
-81.352600097656 -60.757492065430 -125.031265258789 1.563077926636
-90.334632873535 -61.854640960693 -129.937683105469 4.119081974030
-67.254821777344 -61.260688781738 -134.081283569336 5.488614559174
-92.211479187012 -63.127437591553 -132.413818359375 2.942093849182
-51.727500915527 -65.944900512695 -133.248535156250 1.568329930305
-57.445838928223 -68.138137817383 -138.856063842773 2.081538915634
26.108228683472 -65.626518249512 -139.661087036133 1.888114333153
-58.489025115967 -58.849853515625 -136.741439819336 1.469886541367
13.522576332092 -69.056793212891 -144.133544921875 3.041025161743
14.761231422424 -64.425636291504 -148.185592651367 0.727651238441
16.109319686890 -62.107486724854 -153.488769531250 2.125662803650
-99.619018554688 -61.790138244629 -144.804672241211 4.091770648956
-93.031463623047 -63.511005401611 -149.700256347656 2.569042682648
-97.861816406250 -59.923625946045 -150.853012084961 3.576106071472
-106.563903808594 -63.230987548828 -160.857177734375 3.362456798553
-99.298721313477 -61.964134216309 -158.816680908203 1.953399062157
-153.744506835938 -62.094017028809 -174.908172607422 2.408940315247
-155.584304809570 -62.158840179443 -175.273498535156 3.630984544754
-112.187118530273 -60.843761444092 -181.254028320313 2.795010089874
-143.648071289063 -60.149505615234 -177.045425415039 1.617599844933
-111.749359130859 -59.744796752930 -180.857009887695 2.984253644943
-151.472961425781 -56.240581512451 -186.533355712891 6.661391258240
-113.338661193848 -59.768196105957 -191.812500000000 4.161153316498
-112.139015197754 -62.956325531006 -183.435150146484 3.625068187714
-145.892227172852 -61.675704956055 -198.357391357422 1.705721855164
-132.165542602539 -63.496459960938 -196.225250244141 1.175673127174
-109.089469909668 -62.840759277344 -197.317993164063 2.612395286560
-117.791870117188 -57.874233245850 -198.467849731445 5.845841407776
-114.815238952637 -63.168575286865 -199.945236206055 1.065309882164
-117.887886047363 -58.727104187012 -202.196090698242 4.573954105377
-136.077896118164 -59.770027160645 -197.011169433594 4.471382617950
-140.270996093750 -61.788673400879 -202.280441284180 2.105893135071
-132.885986328125 -60.750732421875 -206.526565551758 1.827667355537
-129.315383911133 -57.697593688965 -200.769332885742 5.028854846954
-126.325942993164 -61.012413024902 -204.392074584961 2.341010570526
-115.653488159180 -61.461490631104 -204.240753173828 3.339361190796
-149.983093261719 -61.029678344727 -213.379638671875 2.610889434814
-154.003005981445 -61.452217102051 -219.472976684570 4.001737594604
-155.007492065430 -60.382316589355 -221.961288452148 4.549446582794
-142.444747924805 -66.238159179688 -224.731063842773 2.770185232162
-133.996704101563 -58.398342132568 -226.648757934570 5.861649513245
-124.376014709473 -63.913524627686 -219.987518310547 5.619937896729
-142.877899169922 -63.494968414307 -228.438400268555 1.929181456566
-153.224166870117 -63.545021057129 -225.615921020508 1.579639792442
-136.103027343750 -62.843578338623 -225.827972412109 2.611611604691
-135.469802856445 -59.196292877197 -227.934219360352 4.854412555695
-149.702224731445 -61.952487945557 -228.863082885742 1.372228026390
-136.793975830078 -56.706668853760 -229.276275634766 7.296725749969
-129.677902221680 -60.598072052002 -230.162155151367 4.473667144775
-12.685312271118 -66.488746643066 -236.897659301758 2.584182024002
2.851387977600 -63.300148010254 -240.622299194336 1.608828783035
11.650979042053 -60.560317993164 -243.005096435547 1.672296166420
7.330183982849 -66.944839477539 -243.719055175781 2.212709665298
-10.530109405518 -66.449928283691 -239.965698242188 1.561855316162
-14.475134849548 -64.552162170410 -246.719131469727 3.758512735367
35.892799377441 -63.613868713379 -250.454574584961 3.007966995239
45.696952819824 -64.909301757813 -253.072921752930 1.521439790726
-148.116104125977 -60.126194000244 -253.548294067383 2.047456979752
39.849277496338 -63.439655303955 -255.103012084961 2.202112197876
36.201549530029 -65.930259704590 -253.586654663086 2.389566183090
-160.744018554688 -64.440200805664 -256.696166992188 4.466609954834
-153.050765991211 -60.845710754395 -256.713073730469 2.716453790665
-153.053756713867 -64.452178955078 -258.731170654297 1.627299904823
0.349292993546 -65.358093261719 -263.536834716797 1.556466221809
-153.223648071289 -61.839725494385 -266.038879394531 2.568892955780
-2.740036010742 -64.559043884277 -274.248962402344 3.564926147461
-148.777435302734 -63.686161041260 -274.135375976563 1.789278984070
-150.220565795898 -61.575130462646 -280.937835693359 1.037735223770
-153.492401123047 -61.191055297852 -284.374450683594 1.977451682091
-152.148223876953 -55.360542297363 -282.878875732422 7.447949886322
-147.633087158203 -59.880725860596 -288.709869384766 4.149225234985
-157.727966308594 -60.373081207275 -284.573883056641 4.063340663910
-153.587219238281 -61.160762786865 -285.477996826172 1.209618926048
-154.045196533203 -58.935791015625 -286.853332519531 3.399804592133
-149.967834472656 -60.678260803223 -286.771972656250 2.747191667557
-146.408843994141 -60.827266693115 -286.556030273438 2.051791429520
9.004864692688 -65.718566894531 -285.153350830078 5.350472927094
-149.341217041016 -60.772541046143 -292.613128662109 2.361815214157
-159.464569091797 -57.783790588379 -290.773162841797 7.167533874512
-157.616485595703 -56.750587463379 -287.915679931641 6.986599922180
-153.065490722656 -59.197597503662 -292.597229003906 4.120566844940
-151.171859741211 -55.787307739258 -288.551116943359 6.434541702271
-149.114257812500 -62.509513854980 -291.254547119141 2.450591802597
1.591354966164 -65.720466613770 -292.449035644531 1.470519304276
-146.589080810547 -59.170352935791 -293.714508056641 3.970222949982
-150.266952514648 -58.126789093018 -292.695037841797 4.587540626526
28.083179473877 -59.847984313965 -16.664108276367 2.870778322220
41.126441955566 -70.474235534668 -20.621135711670 1.229388475418
41.675235748291 -63.186779022217 -21.684772491455 1.420181870461
16.663476943970 -70.381965637207 -31.552371978760 3.292318344116
25.705553054810 -57.719680786133 -35.179611206055 2.733100414276
36.421825408936 -67.482124328613 -36.047737121582 2.155256748199
-57.694282531738 -61.863403320313 -44.049831390381 1.756164073944
-51.920116424561 -63.277454376221 -41.804771423340 3.656520843506
88.658584594727 -66.631225585938 -64.653259277344 2.128639459610
-96.943862915039 -60.795261383057 -64.854598999023 2.409873008728
94.926612854004 -73.924682617188 -63.241546630859 6.865971565247
66.682205200195 -67.048873901367 -70.135505676270 2.624363899231
99.199203491211 -68.524070739746 -78.126785278320 2.664269208908
62.254467010498 -69.565826416016 -76.408523559570 4.511339187622
-43.316165924072 -64.371582031250 -77.499038696289 2.298730611801
58.676513671875 -62.697723388672 -81.991188049316 2.802644968033
-54.864768981934 -60.415210723877 -78.148506164551 1.619267582893
57.578762054443 -64.987121582031 -84.305442810059 1.762915730476
60.983833312988 -63.138381958008 -85.496337890625 1.848409414291
-99.617637634277 -62.268222808838 -83.003845214844 2.821462154388
50.207969665527 -64.152954101563 -86.415191650391 4.370971679688
50.491882324219 -69.401077270508 -93.178085327148 1.901511907578
63.449714660645 -66.873428344727 -92.309082031250 1.614679574966
50.931819915771 -64.138381958008 -96.472396850586 2.090316772461
-82.432647705078 -61.020023345947 -106.134201049805 3.282273769379
81.408386230469 -69.567298889160 -106.174743652344 1.504371523857
-82.446395874023 -65.256500244141 -116.943115234375 1.353998422623
-78.246871948242 -60.760681152344 -106.085075378418 1.704908490181
-81.277290344238 -63.554786682129 -121.976982116699 2.041880369186
-87.394798278809 -61.638790130615 -114.381118774414 1.329300403595
-95.245399475098 -60.295036315918 -119.183876037598 3.290757179260
-82.060371398926 -63.338268280029 -122.361862182617 1.606265068054
-54.257129669189 -60.905998229980 -125.340339660645 1.534615874290
-79.665908813477 -60.630214691162 -134.075393676758 3.941277265549
-58.284061431885 -58.301010131836 -130.140502929688 1.978065967560
-89.762283325195 -59.991172790527 -136.304931640625 3.106014490128
27.928541183472 -63.849029541016 -137.874877929688 0.722609460354
17.973897933960 -64.602111816406 -140.699935913086 2.114295482635
-94.629524230957 -54.627788543701 -141.578598022461 7.927480697632
19.161537170410 -65.745117187500 -148.317535400391 0.715349853039
-91.787605285645 -64.142860412598 -145.774719238281 1.360206723213
-95.678932189941 -58.063255310059 -146.947738647461 4.823917388916
17.179685592651 -64.544723510742 -158.314132690430 4.936907291412
-97.648956298828 -60.804103851318 -146.246963500977 3.093745231628
-99.776939392090 -59.623283386230 -146.906127929688 4.547764778137
-104.977539062500 -60.571605682373 -155.947067260742 4.950616359711
-97.647468566895 -61.125564575195 -160.554367065430 1.852969050407
-105.809814453125 -63.087722778320 -177.374557495117 2.273837566376
-110.572120666504 -66.013038635254 -168.237915039063 2.751062154770
-101.073585510254 -61.813472747803 -164.606353759766 3.427640914917
-107.229049682617 -61.802146911621 -168.702529907227 2.457368135452
-142.457519531250 -61.935043334961 -177.295562744141 0.953335404396
-111.757179260254 -60.866756439209 -177.451309204102 3.308495044708
-143.135070800781 -60.538864135742 -186.885589599609 2.968793392181
-150.358734130859 -57.914108276367 -189.296264648438 5.326004505157
-154.641967773438 -57.194141387939 -189.015777587891 7.180068016052
-124.601173400879 -58.993858337402 -195.749053955078 3.571814775467
-131.797805786133 -62.958282470703 -194.936431884766 2.357812643051
-124.188850402832 -59.420581817627 -199.747283935547 2.582726478577
-145.012268066406 -62.709568023682 -201.083190917969 1.139221429825
-125.446235656738 -63.453556060791 -203.084030151367 0.655421197414
-148.240249633789 -61.421958923340 -203.564361572266 0.695919156075
-153.211181640625 -60.343643188477 -204.877075195313 1.656617283821
-156.755493164063 -58.627906799316 -226.811462402344 4.147118091583
-144.788482666016 -64.985687255859 -230.808090209961 2.414622306824
-129.455245971680 -58.941818237305 -231.243835449219 6.343087673187
-155.732543945313 -58.395526885986 -229.821853637695 3.676397800446
-4.965146064758 -67.655540466309 -238.658798217773 1.841312289238
10.449305534363 -61.156715393066 -238.820983886719 3.606008052826
-4.528237819672 -66.404907226563 -243.190917968750 2.386217594147
-151.550033569336 -59.137775421143 -244.123886108398 4.269989013672
-9.751545906067 -61.476646423340 -243.109603881836 4.123849868774
-153.163742065430 -63.580005645752 -252.647506713867 0.984444856644
-8.659154891968 -66.097763061523 -249.288543701172 1.456940293312
-151.535766601563 -61.440334320068 -253.101745605469 1.493332028389
19.856882095337 -65.774124145508 -252.426818847656 3.793768167496
-154.407760620117 -56.412815093994 -254.507415771484 6.083816528320
-151.205947875977 -59.707366943359 -254.487579345703 2.422157764435
-154.636474609375 -59.584835052490 -253.451385498047 2.833267450333
-151.498886108398 -58.590267181396 -257.008941650391 3.492464542389
31.788288116455 -64.096931457520 -258.177093505859 2.048130750656
28.695209503174 -63.383281707764 -263.422058105469 0.818514704704
-148.046234130859 -59.918815612793 -255.268188476563 1.683238148689
-153.565582275391 -56.203830718994 -259.521270751953 6.661778450012
-156.288436889648 -62.187461853027 -259.199707031250 2.395263195038
-149.341125488281 -57.765254974365 -259.053680419922 4.046546459198
24.994916915894 -62.571552276611 -262.559326171875 2.214022874832
26.993923187256 -63.382465362549 -265.847076416016 2.044384717941
-156.058380126953 -60.744731903076 -262.143981933594 2.523331642151
-145.455474853516 -59.495986938477 -262.547515869141 3.716410636902
-151.724777221680 -56.953498840332 -262.502105712891 4.509486675262
-146.294113159180 -59.262016296387 -263.480163574219 3.403339624405
-146.960037231445 -62.107414245605 -262.944396972656 1.008002161980
-149.390945434570 -63.286365509033 -265.028076171875 0.305262506008
-150.514465332031 -57.763454437256 -265.252410888672 4.611966133118
-152.218338012695 -56.696086883545 -284.807098388672 5.699577331543
-150.313339233398 -59.434120178223 -281.591674804688 2.851603269577
-150.289123535156 -59.777942657471 -278.962341308594 3.491758823395
15.024130821228 -63.670970916748 -282.152069091797 3.617951154709
-156.248886108398 -57.033142089844 -284.350524902344 6.178837299347
-149.108123779297 -58.744812011719 -287.343109130859 4.331938743591
-7.255852222443 -68.061523437500 -287.315124511719 0.807942390442
2.800800085068 -62.943973541260 -292.329772949219 0.694722235203
-154.235153198242 -60.364620208740 -294.149505615234 4.442142009735
25.854303359985 -71.450805664063 -21.742916107178 1.859527111053
44.339805603027 -65.689445495605 -28.428066253662 2.812167167664
48.474903106689 -71.098815917969 -32.828117370605 2.241762638092
40.077346801758 -61.682949066162 -35.033634185791 0.951127767563
24.203582763672 -71.962944030762 -37.198150634766 1.298659324646
43.712059020996 -69.573547363281 -40.189975738525 1.107619881630
78.668869018555 -63.165363311768 -62.354171752930 3.096660614014
75.669250488281 -65.685913085938 -62.474964141846 1.288789987564
-17.485486984253 -64.186248779297 -69.024040222168 3.593110799789
65.956779479980 -62.347152709961 -71.247924804688 1.944049119949
-29.249893188477 -65.899490356445 -73.302314758301 1.814420223236
-35.760616302490 -67.412734985352 -79.440032958984 1.883325576782
-58.042228698730 -60.997940063477 -76.043731689453 4.380497932434
-55.709255218506 -59.710720062256 -78.895454406738 1.573859810829
62.761470794678 -69.173202514648 -82.577903747559 1.274297952652
105.442756652832 -70.313064575195 -89.930931091309 3.100580692291
-61.700408935547 -59.956237792969 -85.870185852051 1.489419102669
55.644969940186 -65.080970764160 -95.918495178223 2.245769262314
62.504753112793 -62.959449768066 -93.903106689453 0.941151022911
102.166984558105 -65.532676696777 -94.906280517578 1.656705379486
-67.348907470703 -64.487495422363 -93.344276428223 1.706772565842
53.994411468506 -61.092658996582 -96.068740844727 1.853866577148
-67.199378967285 -65.323379516602 -104.764701843262 2.184103250504
66.786804199219 -65.968765258789 -96.886955261230 0.891585111618
66.283813476563 -64.482269287109 -103.299118041992 2.458417415619
-76.201477050781 -60.408214569092 -108.046890258789 2.322377681732
-98.825454711914 -58.976535797119 -111.669982910156 3.354788541794
-71.127113342285 -56.652332305908 -110.478385925293 1.223915338516
-85.021438598633 -62.419944763184 -111.057228088379 2.328710079193
-64.281829833984 -63.605571746826 -114.523056030273 1.442131519318
-85.425086975098 -59.203853607178 -108.791191101074 4.952464580536
-78.016624450684 -62.222663879395 -114.827102661133 1.680147886276
-78.105812072754 -63.576202392578 -115.567939758301 0.893943011761
-69.777275085449 -64.447624206543 -119.481513977051 3.138249158859
-86.206657409668 -63.692932128906 -125.725143432617 1.127968668938
33.324604034424 -63.505798339844 -128.082504272461 1.436257243156
-51.277385711670 -61.969875335693 -129.101013183594 0.963030099869
30.047370910645 -63.172412872314 -134.232681274414 1.812811851501
29.229831695557 -64.415107727051 -132.511474609375 1.683493733406
29.119155883789 -65.588096618652 -132.272583007813 2.414914846420
-54.908702850342 -60.241886138916 -132.010223388672 1.221057891846
19.460466384888 -63.494514465332 -145.887374877930 0.546706616879
21.791994094849 -64.101837158203 -144.082550048828 2.150267124176
-147.310363769531 -60.586563110352 -176.564468383789 2.657418966293
-151.981414794922 -56.240360260010 -174.421783447266 5.863133907318
-153.986968994141 -59.393409729004 -180.818939208984 4.599905490875
