101.203521728516 -77.563545227051 -194.775726318359 1.469845771790
-117.759246826172 -74.212089538574 -197.374862670898 2.379198074341
-26.137531280518 -78.429557800293 -188.139419555664 2.872516155243
-138.076919555664 -66.570396423340 -195.324996948242 3.720709085464
98.963966369629 -77.818099975586 -197.589584350586 2.098487615585
12.281291961670 -75.816970825195 -197.353866577148 2.162068367004
27.611921310425 -74.356407165527 -190.956634521484 2.169244527817
-144.415908813477 -70.644905090332 -199.935043334961 2.449448585510
-135.227157592773 -69.774971008301 -199.139907836914 3.063997507095
-6.439332008362 -74.022956848145 -204.827514648438 2.772086858749
-120.709648132324 -70.751106262207 -200.969146728516 1.569491982460
-140.252059936523 -72.749656677246 -196.789916992188 1.777746319771
7.589508056641 -75.185157775879 -197.820922851563 3.652776002884
-20.657310485840 -76.175148010254 -199.116088867188 1.407303690910
24.210893630981 -78.153839111328 -200.700500488281 3.753861427307
10.134485244751 -76.131019592285 -210.084503173828 2.044082641602
89.040031433105 -74.870841979980 -207.417037963867 3.425356388092
-14.777722358704 -71.578643798828 -209.945266723633 2.379637718201
94.914001464844 -75.298149108887 -207.867767333984 1.611991643906
100.546264648438 -79.452728271484 -206.004257202148 2.589972019196
-145.401641845703 -71.033767700195 -211.564285278320 2.322819709778
98.948822021484 -79.201187133789 -210.555160522461 4.595217704773
8.598550796509 -73.950302124023 -205.524627685547 3.132451295853
7.038157939911 -76.809341430664 -212.651977539063 1.612287044525
-29.367410659790 -73.302352905273 -204.901351928711 2.809315919876
-85.842773437500 -71.284042358398 -210.598098754883 3.902942657471
-22.716217041016 -75.228355407715 -208.838851928711 2.198421001434
88.607116699219 -76.401443481445 -215.760513305664 1.866414189339
92.768470764160 -76.356292724609 -215.902801513672 0.665985286236
-28.276082992554 -72.869338989258 -210.155395507813 1.748656868935
-80.793807983398 -69.018455505371 -215.886566162109 4.184116363525
2.369185924530 -76.484275817871 -216.901016235352 4.301734447479
85.624771118164 -73.651458740234 -211.960937500000 1.274229168892
-148.516738891602 -73.490188598633 -218.928680419922 2.625162601471
-162.181793212891 -67.906501770020 -211.216232299805 2.018702030182
-158.534591674805 -71.897552490234 -219.245437622070 3.687258720398
-18.011608123779 -74.646385192871 -224.883331298828 1.999569296837
-150.471603393555 -72.564468383789 -219.807662963867 3.144892454147
-2.336755990982 -75.408851623535 -222.611557006836 1.724139332771
10.006381034851 -75.744438171387 -216.625976562500 2.436061859131
-163.661071777344 -69.123809814453 -222.479232788086 1.682118892670
-155.342559814453 -69.840782165527 -224.391525268555 0.794688522816
82.520042419434 -79.840667724609 -230.240432739258 4.996915340424
3.709458112717 -73.288459777832 -224.807327270508 1.740684151649
-153.923919677734 -64.968856811523 -223.132080078125 2.552072048187
-139.048995971680 -71.589790344238 -221.526718139648 3.587146520615
-15.724617958069 -72.911407470703 -221.936447143555 1.827884197235
2.931484937668 -78.588127136230 -220.666122436523 4.379090309143
83.520774841309 -74.452789306641 -224.373107910156 0.860057890415
-157.743408203125 -67.768875122070 -224.864227294922 0.997648954391
-140.485748291016 -67.628578186035 -227.979888916016 2.464210748672
-121.630043029785 -68.887039184570 -228.168807983398 2.867300271988
82.139602661133 -78.166923522949 -225.451110839844 3.527440547943
-112.180519104004 -70.678047180176 -226.519073486328 1.263389945030
-142.943069458008 -69.758140563965 -226.415451049805 1.177814483643
-147.025405883789 -68.354804992676 -228.509429931641 1.022952675819
-145.593551635742 -70.446174621582 -228.457626342773 2.516013383865
-152.374160766602 -70.049888610840 -226.171691894531 2.873925685883
-161.619430541992 -69.695899963379 -226.026763916016 2.745374202728
-130.295135498047 -70.286941528320 -232.574188232422 2.818287372589
-129.877182006836 -71.304916381836 -230.385437011719 3.403090953827
-149.847595214844 -73.176139831543 -230.023239135742 1.691230535507
-141.872940063477 -66.313728332520 -233.951950073242 1.768759727478
-148.202102661133 -70.055656433105 -232.430984497070 4.085401535034
78.242118835449 -78.542037963867 -231.176940917969 2.345220565796
70.843444824219 -71.556549072266 -234.603286743164 0.150440126657
-153.529708862305 -68.015220642090 -232.438934326172 1.295411348343
75.247253417969 -72.135200500488 -231.931625366211 1.522514581680
-16.341335296631 -72.240493774414 -234.678634643555 2.321322202682
14.766413688660 -75.774658203125 -235.366012573242 2.563123703003
10.304500579834 -75.227676391602 -234.261596679688 2.100981235504
-151.106750488281 -69.518257141113 -239.757232666016 4.141093730927
17.965774536133 -74.048782348633 -239.386169433594 1.897820949554
64.358863830566 -74.860130310059 -236.597213745117 2.439654827118
16.870513916016 -72.202598571777 -236.205108642578 2.279169082642
8.711306571960 -74.775169372559 -239.803222656250 1.238088011742
-3.069415092468 -71.929756164551 -238.477584838867 1.720308542252
-17.737102508545 -72.088241577148 -240.873504638672 1.700874686241
1.646937966347 -74.013648986816 -240.150512695313 1.948436737061
7.093488216400 -76.851135253906 -243.244308471680 0.615904986858
60.742069244385 -76.872085571289 -240.196136474609 2.804869651794
-52.173362731934 -75.733543395996 -242.602981567383 2.431143045425
22.946605682373 -73.624092102051 -245.677078247070 1.816199779510
-56.197578430176 -73.275466918945 -239.603576660156 3.743246555328
-6.557344913483 -73.927528381348 -246.029922485352 2.402708053589
-62.673851013184 -68.716125488281 -247.998168945313 2.176923036575
-82.706893920898 -69.826103210449 -250.733367919922 1.873108625412
-79.341186523438 -72.433128356934 -249.777526855469 1.850798845291
-6.572223186493 -73.028823852539 -252.928741455078 3.771644830704
-120.617568969727 -69.994293212891 -256.400665283203 2.034790992737
-10.868123054504 -74.436416625977 -251.110137939453 1.473405480385
-113.715469360352 -70.451126098633 -253.111846923828 2.927896976471
-113.209609985352 -69.109039306641 -256.034423828125 1.365595817566
-100.290954589844 -70.643768310547 -254.039566040039 1.678815245628
-140.625930786133 -68.602661132813 -259.049560546875 3.078832626343
-141.824844360352 -68.914451599121 -264.447631835938 1.816681504250
-165.444686889648 -68.821968078613 -260.657806396484 1.501244664192
22.293651580811 -77.610221862793 -278.669921875000 5.330968856812
-54.989650726318 -69.940811157227 -283.194000244141 4.139340400696
-64.189025878906 -70.548820495605 -281.452606201172 5.122284412384
-39.191974639893 -73.989662170410 -281.832519531250 3.347134590149
-25.103242874146 -73.616806030273 -284.521148681641 2.140660762787
-93.406890869141 -72.467796325684 -286.807464599609 3.052816152573
-27.808874130249 -70.705078125000 -283.715454101563 3.636690378189
-1.152080059052 -73.427886962891 -284.383209228516 2.874167203903
-164.392608642578 -68.515411376953 -286.376525878906 1.286397218704
-12.970335006714 -75.110000610352 -284.030151367188 1.852762341499
9.257637023926 -74.854179382324 -286.233123779297 2.595134973526
16.967061996460 -78.284370422363 -281.986694335938 4.140987396240
-54.075672149658 -74.083274841309 -285.479705810547 0.987500846386
-30.327953338623 -72.887535095215 -289.484130859375 1.660337090492
17.131893157959 -71.991981506348 -291.387512207031 2.588243484497
-67.971633911133 -69.951614379883 -290.647216796875 1.200067162514
-37.261501312256 -69.783882141113 -287.075256347656 2.784948825836
-14.898918151855 -70.956459045410 -288.079223632813 1.084350228310
17.871116638184 -76.103507995605 -289.381378173828 2.401819229126
-8.745949745178 -74.706596374512 -292.385406494141 1.139094591141
6.841537952423 -72.374664306641 -292.051605224609 2.236079454422
17.086124420166 -75.823844909668 -288.945098876953 2.216276645660
-131.957992553711 -68.406326293945 -291.614532470703 0.821234583855
-142.156555175781 -71.335182189941 -296.377990722656 2.003844261169
-148.259384155273 -69.079811096191 -310.374725341797 2.346340894699
48.330131530762 -77.084083557129 -12.273628234863 7.904788970947
35.439228057861 -77.153259277344 -10.287077903748 6.165351867676
44.550964355469 -77.651123046875 -13.953229904175 6.042953968048
27.320575714111 -73.853202819824 -17.099281311035 2.021399021149
50.219287872314 -75.601150512695 -20.935146331787 4.373509883881
30.799007415771 -75.227790832520 -22.389623641968 4.248519897461
28.921737670898 -77.196342468262 -25.921537399292 5.690219879150
29.855123519897 -77.646881103516 -36.715084075928 6.367849826813
44.622226715088 -79.388236999512 -29.355667114258 7.151117324829
31.285907745361 -80.332214355469 -34.798397064209 8.283810615540
48.177947998047 -76.098976135254 -36.216247558594 3.858062267303
36.906925201416 -77.540069580078 -37.900032043457 4.930477619171
43.825874328613 -78.601783752441 -34.475433349609 5.682014465332
36.029998779297 -76.134277343750 -38.412128448486 3.555670499802
48.640209197998 -77.311241149902 -39.738311767578 6.980792999268
38.793731689453 -76.582443237305 -37.477775573730 4.754816055298
-35.914119720459 -73.016540527344 -46.159832000732 3.983438968658
-24.976987838745 -70.143501281738 -48.609596252441 5.619256019592
-84.389945983887 -71.669204711914 -52.295490264893 3.459962844849
-84.226554870605 -73.894630432129 -63.086589813232 3.396795988083
82.624946594238 -80.392372131348 -65.423255920410 8.277482986450
89.055541992188 -77.835868835449 -71.258605957031 3.271948099136
-14.839061737061 -73.044830322266 -71.577339172363 2.612798690796
-83.443412780762 -73.068649291992 -69.243270874023 3.850246906281
-20.429199218750 -74.088050842285 -74.724548339844 3.178075790405
-45.031696319580 -74.960739135742 -82.755401611328 1.941518306732
70.641525268555 -73.645538330078 -84.789405822754 0.376215398312
57.302669525146 -75.853790283203 -91.704879760742 2.622972011566
104.114410400391 -76.455368041992 -90.214141845703 5.310401916504
73.937355041504 -78.773193359375 -95.187202453613 3.578375577927
-63.639759063721 -74.657028198242 -88.689880371094 4.777607440948
-57.577316284180 -71.521049499512 -95.542221069336 5.749338626862
49.341873168945 -76.984291076660 -95.814743041992 1.751045227051
81.959449768066 -76.038703918457 -98.473014831543 1.225584030151
58.757556915283 -83.658355712891 -103.534828186035 8.282242774963
105.808906555176 -77.791358947754 -95.388175964355 5.298457145691
-90.755012512207 -73.833862304688 -104.687438964844 2.774444818497
44.274715423584 -76.460533142090 -109.012107849121 2.080557584763
111.440292358398 -78.987380981445 -107.516372680664 5.553319454193
52.919300079346 -76.314064025879 -109.641944885254 3.341595172882
105.872940063477 -78.919601440430 -108.475021362305 4.195095062256
-81.026351928711 -72.456207275391 -112.782524108887 3.921343564987
40.153797149658 -79.199020385742 -110.196853637695 1.694348096848
111.006591796875 -76.918586730957 -115.539436340332 3.820979595184
109.147781372070 -75.412414550781 -114.504768371582 2.748892545700
109.878036499023 -78.356506347656 -113.852127075195 4.102126598358
114.915229797363 -77.170494079590 -113.332618713379 5.120665073395
44.293670654297 -77.868766784668 -108.504570007324 1.690862298012
36.487178802490 -73.498771667480 -115.530715942383 1.837598800659
45.329391479492 -75.795066833496 -112.440689086914 1.153367757797
111.062957763672 -79.227226257324 -120.527030944824 3.533203601837
44.477809906006 -74.430152893066 -121.517135620117 0.715519785881
113.311912536621 -77.031608581543 -130.893005371094 1.568174719810
115.205268859863 -76.681152343750 -129.790771484375 1.457120776176
37.971729278564 -73.710113525391 -118.843704223633 3.233297586441
-73.663719177246 -72.375518798828 -122.856422424316 5.500011444092
118.129150390625 -75.520248413086 -132.986999511719 2.002385854721
-50.266403198242 -73.171089172363 -135.062316894531 1.368617653847
39.666843414307 -76.496025085449 -132.992858886719 2.081016778946
-69.127006530762 -72.883819580078 -132.875350952148 4.188180446625
31.061422348022 -77.632064819336 -129.876678466797 1.558982253075
-75.517395019531 -72.789390563965 -140.203643798828 1.111226677895
-41.316566467285 -76.185768127441 -139.591476440430 4.505446910858
-69.875198364258 -73.190498352051 -135.613388061523 3.898773431778
114.313140869141 -76.970039367676 -135.778869628906 1.984066724777
121.283088684082 -76.162117004395 -140.365554809570 5.763899326324
122.005981445313 -80.930213928223 -145.217590332031 8.992101669312
-73.234573364258 -71.407592773438 -141.030395507813 1.451388716698
12.069191932678 -70.957550048828 -148.780868530273 1.932420492172
-48.052753448486 -73.609550476074 -146.940246582031 3.138322353363
-46.896099090576 -73.866119384766 -152.861343383789 2.660059928894
110.731842041016 -77.729278564453 -160.378311157227 2.096598386765
-37.505455017090 -75.073585510254 -146.896865844727 4.407395839691
17.941246032715 -72.752845764160 -155.726364135742 2.888164043427
26.174751281738 -76.656867980957 -155.733825683594 1.639878988266
118.543243408203 -76.933151245117 -163.388748168945 3.714879989624
33.628273010254 -74.639915466309 -163.896377563477 1.891892790794
2.916727066040 -75.623687744141 -161.443038940430 2.137408733368
35.673057556152 -76.077072143555 -158.991989135742 3.674145221710
-63.824855804443 -70.832267761230 -155.085449218750 2.726847648621
-61.872341156006 -72.132194519043 -156.554794311523 2.998309612274
-64.992172241211 -70.976287841797 -163.034408569336 1.677864313126
118.642929077148 -74.306190490723 -160.159530639648 2.061765909195
-40.715553283691 -73.204605102539 -160.576705932617 2.057816267014
21.563724517822 -74.993782043457 -163.581207275391 1.567238092422
-60.112026214600 -71.372489929199 -167.053894042969 1.705956697464
-59.226524353027 -70.668792724609 -168.808349609375 2.424286603928
-37.448867797852 -74.009498596191 -157.870391845703 2.030266046524
-29.807821273804 -75.373252868652 -166.299179077148 1.627792954445
118.671409606934 -79.555946350098 -170.069015502930 5.422020435333
-33.192981719971 -68.533531188965 -177.357482910156 2.361680984497
17.462955474854 -75.603645324707 -171.173629760742 1.667212963104
114.275405883789 -79.831008911133 -183.044845581055 5.559598445892
-143.873916625977 -71.523025512695 -172.788909912109 2.396100282669
-142.092788696289 -69.685119628906 -170.281219482422 5.167768478394
-144.840423583984 -68.000946044922 -176.617263793945 0.434236913919
-138.730087280273 -71.216911315918 -179.520126342773 3.677202701569
-28.143547058105 -71.810661315918 -183.134796142578 2.560967445374
-19.433511734009 -73.452430725098 -183.439071655273 1.157541632652
26.981739044189 -71.136314392090 -189.117980957031 2.059211492538
-137.699234008789 -69.029678344727 -183.455627441406 3.483635663986
-143.583831787109 -69.939559936523 -185.252716064453 2.847510814667
-17.562059402466 -70.886505126953 -184.159225463867 2.866924762726
14.790111541748 -74.702552795410 -180.532257080078 0.479453146458
-145.687377929688 -69.428947448730 -190.930236816406 3.488729715347
-27.929630279541 -73.747459411621 -185.618270874023 1.998021841049
103.737518310547 -76.933753967285 -186.995117187500 1.619272708893
109.900398254395 -76.092834472656 -188.499176025391 1.281214475632
27.896825790405 -70.347229003906 -191.473922729492 3.467079639435
-9.850031852722 -73.797355651855 -186.282958984375 8.009477615356
-24.166490554810 -74.985237121582 -191.055145263672 2.106254816055
-151.731201171875 -70.233383178711 -195.777648925781 1.891298890114
-129.003189086914 -70.815116882324 -193.680633544922 1.848178267479
-121.450881958008 -67.547393798828 -191.888717651367 3.508485794067
-121.010192871094 -68.512580871582 -194.488098144531 1.348193883896
-18.759557723999 -69.165039062500 -193.830612182617 1.455714225769
16.243131637573 -76.230720520020 -190.467895507813 1.297030687332
96.076057434082 -79.980697631836 -199.843643188477 3.287084102631
-146.289855957031 -65.814147949219 -192.070556640625 2.139086723328
-141.356658935547 -67.075500488281 -195.430969238281 1.719180345535
-147.247390747070 -68.691955566406 -196.812820434570 1.682735562325
-151.213745117188 -66.963012695313 -194.078765869141 1.178366303444
-21.167943954468 -72.589241027832 -197.334243774414 1.405739426613
-7.065741062164 -72.095451354980 -193.207580566406 7.588734626770
-142.645065307617 -65.573356628418 -198.808456420898 1.181876420975
-14.866478919983 -72.460227966309 -198.944381713867 0.488650947809
-157.759216308594 -68.203041076660 -197.232589721680 3.180965185165
-130.710083007813 -69.517646789551 -196.211776733398 1.419016599655
19.182893753052 -75.925415039063 -205.111999511719 0.924761295319
-157.597335815430 -65.702392578125 -200.660491943359 2.246478796005
-142.573715209961 -70.653244018555 -203.221527099609 1.010978579521
11.839547157288 -72.134590148926 -200.820266723633 1.091422319412
-150.430343627930 -66.580039978027 -199.286254882813 1.552607059479
-20.997154235840 -72.439941406250 -199.572204589844 2.031686306000
100.901420593262 -77.302131652832 -198.065521240234 0.942506015301
-154.944152832031 -69.693756103516 -209.116638183594 3.166619062424
-160.997436523438 -71.641090393066 -204.287002563477 0.780686855316
-73.271903991699 -69.335746765137 -205.614028930664 6.177177906036
92.770492553711 -75.631690979004 -207.721817016602 1.627345561981
-0.365806013346 -72.209373474121 -216.337081909180 2.448544502258
-150.963317871094 -67.739799499512 -209.543655395508 2.463469505310
-84.109375000000 -70.970642089844 -210.713134765625 3.580842733383
-5.905286788940 -75.852111816406 -209.238098144531 1.238950967789
18.981029510498 -73.732444763184 -218.026077270508 2.579270124435
-141.476272583008 -69.725570678711 -216.830123901367 2.890066862106
-0.306988000870 -77.157142639160 -218.902542114258 2.071480989456
-15.985692977905 -73.877830505371 -216.081573486328 1.581524252892
-11.139186859131 -69.961143493652 -218.295547485352 0.951259016991
93.621398925781 -76.199356079102 -217.860610961914 2.239175319672
-17.273502349854 -71.631942749023 -214.637359619141 1.189536809921
-28.288089752197 -71.991828918457 -214.869979858398 1.832887291908
-104.058372497559 -65.943840026855 -221.825515747070 2.413002490997
-12.712252616882 -71.355598449707 -221.092010498047 1.737719297409
95.850387573242 -74.305122375488 -217.758255004883 4.339184761047
80.840011596680 -76.573692321777 -219.161300659180 3.467086553574
10.565908432007 -74.871437072754 -217.432022094727 2.581635475159
-7.766823768616 -70.967689514160 -223.322418212891 1.567474484444
81.964752197266 -76.369216918945 -220.742309570313 1.577334761620
-119.067474365234 -72.771942138672 -222.207687377930 3.704129457474
-16.603214263916 -70.951484680176 -221.057022094727 1.623488783836
-93.724090576172 -69.785911560059 -220.834716796875 0.422107011080
-99.110595703125 -70.331642150879 -221.347030639648 2.257483243942
-128.256118774414 -71.228401184082 -225.632049560547 1.829460740089
84.649139404297 -75.959411621094 -222.390716552734 1.551003813744
-119.825469970703 -70.143432617188 -224.297088623047 2.068453073502
8.064719200134 -72.899147033691 -226.873184204102 2.352768182755
84.597686767578 -74.493934631348 -223.185836791992 1.124357581139
-12.442525863647 -73.859481811523 -228.496154785156 1.172974944115
-10.228710174561 -73.673416137695 -225.398010253906 1.689762115479
1.305829048157 -78.157951354980 -228.031204223633 0.567424952984
13.563639640808 -75.484466552734 -225.609909057617 3.805833339691
92.159606933594 -77.282302856445 -225.338455200195 4.501764774323
13.299298286438 -72.175209045410 -229.574630737305 1.979052662849
8.876297950745 -73.219909667969 -227.583389282227 2.439686059952
-5.724429130554 -73.590217590332 -229.275222778320 1.250963449478
-3.459573030472 -73.958297729492 -228.183593750000 2.026217937469
22.061620712280 -72.680656433105 -230.996154785156 4.630517005920
-9.098270416260 -70.524284362793 -231.205230712891 1.043916225433
74.218803405762 -75.903945922852 -238.496688842773 3.694471836090
-5.842214107513 -71.491157531738 -236.842315673828 1.764320015907
22.241548538208 -74.848648071289 -234.035049438477 3.143870830536
-159.546096801758 -66.921783447266 -237.067718505859 2.552539110184
-2.259202003479 -71.009910583496 -235.129913330078 1.323734998703
-4.888775825500 -73.737724304199 -238.261840820313 0.574316978455
-164.489700317383 -68.481941223145 -247.388153076172 1.033162236214
-7.609319210052 -71.284805297852 -242.426620483398 2.099061965942
18.809385299683 -71.102439880371 -243.742233276367 1.274689435959
-144.528182983398 -70.402290344238 -248.606597900391 1.518869757652
-70.115837097168 -70.221252441406 -247.860992431641 2.685923337936
-58.484035491943 -72.054870605469 -244.597244262695 1.039425373077
55.522747039795 -72.598114013672 -245.380035400391 1.080714583397
-71.492492675781 -70.414474487305 -244.258819580078 3.208845376968
19.971977233887 -74.248168945313 -247.808334350586 1.257857322693
-69.971237182617 -71.178459167480 -248.766983032227 2.212530374527
-12.158955574036 -71.056877136230 -243.914718627930 1.352461338043
-142.439453125000 -71.213775634766 -249.554779052734 1.339764237404
49.790069580078 -71.302398681641 -248.505081176758 0.721875309944
-77.029060363770 -72.659614562988 -253.133361816406 2.262794494629
-99.587463378906 -67.020851135254 -252.163787841797 2.080111980438
-96.307060241699 -71.516296386719 -251.811294555664 2.094661235809
-116.730735778809 -67.483558654785 -250.009063720703 5.944947242737
-102.710533142090 -67.361663818359 -254.257736206055 2.599950075150
-102.784378051758 -69.418739318848 -255.263092041016 1.645995497704
24.640199661255 -71.211235046387 -256.842071533203 2.777320146561
-126.320526123047 -66.625862121582 -261.977111816406 1.115075707436
-11.072028160095 -73.175689697266 -273.582550048828 3.114710330963
-144.857269287109 -65.742614746094 -280.037017822266 2.280285835266
-166.045059204102 -69.049842834473 -282.107238769531 3.543753862381
-122.289680480957 -69.749656677246 -281.095306396484 5.069006443024
-111.454277038574 -66.115173339844 -283.885986328125 5.893375873566
-72.820526123047 -66.211563110352 -281.895111083984 6.835980892181
-54.943119049072 -71.395896911621 -284.298278808594 2.953656673431
-39.298198699951 -70.210342407227 -283.805480957031 3.217213869095
-12.923535346985 -74.941383361816 -287.836517333984 2.466781854630
-11.268570899963 -69.693977355957 -289.723937988281 2.209314823151
-35.956718444824 -73.106956481934 -287.991546630859 1.546317219734
-31.889348983765 -71.218460083008 -286.599731445313 2.145138025284
-16.434045791626 -68.926467895508 -286.695953369141 2.719351053238
-69.344772338867 -69.253273010254 -290.469665527344 1.480290770531
-53.079902648926 -70.069030761719 -288.690155029297 0.279314666986
-15.126625061035 -68.509986877441 -289.444030761719 2.222954034805
-11.351737022400 -73.536468505859 -287.755615234375 2.197823047638
-1.297706007957 -71.480789184570 -290.491424560547 2.015298604965
4.953714847565 -69.252952575684 -290.345947265625 2.728013753891
-89.746742248535 -69.704391479492 -290.240661621094 1.535064101219
-137.418045043945 -69.781440734863 -291.852111816406 1.954406857491
-113.925003051758 -69.827064514160 -289.703491210938 1.726552009583
-151.133193969727 -66.611648559570 -291.611907958984 1.664550065994
-149.652557373047 -68.416984558105 -296.238189697266 1.887968063354
-144.361328125000 -66.341880798340 -296.784393310547 2.389446258545
49.734020233154 -74.283843994141 -19.566215515137 2.875060081482
25.002696990967 -78.388526916504 -21.647262573242 5.321755886078
54.745372772217 -73.869285583496 -23.427303314209 5.420809745789
52.123313903809 -77.195838928223 -33.461154937744 6.644022941589
92.292831420898 -76.889122009277 -68.903282165527 4.091751575470
100.165618896484 -78.862129211426 -72.726669311523 6.750641345978
105.823829650879 -76.946922302246 -76.959266662598 8.014089584351
102.831436157227 -77.717796325684 -82.296432495117 6.040950775146
61.172111511230 -76.849487304688 -87.878555297852 4.423344135284
49.898471832275 -80.594360351563 -89.610382080078 7.109904766083
67.827911376953 -75.015510559082 -89.289833068848 3.611452341080
-60.637321472168 -69.847923278809 -90.604156494141 0.439013987780
75.332084655762 -75.792274475098 -86.410949707031 1.262099981308
105.404968261719 -71.025314331055 -97.699623107910 1.219859242439
78.889587402344 -77.006423950195 -99.753768920898 3.024113178253
98.681869506836 -75.804145812988 -101.357131958008 3.750991582870
-80.175575256348 -72.447021484375 -100.811294555664 1.609284877777
49.582363128662 -74.463150024414 -96.516616821289 1.132869720459
-82.106216430664 -72.826164245605 -99.617980957031 2.351192951202
55.413982391357 -76.821075439453 -108.830444335938 5.062011718750
41.981914520264 -80.160041809082 -102.030372619629 3.253287792206
106.511199951172 -76.140090942383 -102.155189514160 2.552858829498
41.527984619141 -74.868324279785 -104.309700012207 1.481441020966
46.767322540283 -76.127632141113 -116.971893310547 2.194002628326
47.004344940186 -74.954902648926 -111.458732604980 1.461471199989
114.354820251465 -75.890693664551 -111.338813781738 3.681577920914
-77.217933654785 -75.273414611816 -118.969238281250 5.062619686127
116.247642517090 -80.166519165039 -123.032081604004 6.636895179749
44.245147705078 -71.539924621582 -123.111091613770 0.827591896057
44.727352142334 -74.286979675293 -118.629753112793 1.879063725471
39.142993927002 -75.218208312988 -119.247436523438 3.623417615891
-51.760635375977 -76.074455261230 -127.226020812988 5.646965026855
34.330516815186 -73.780136108398 -121.781303405762 1.795166850090
-73.343727111816 -69.672912597656 -135.233901977539 1.290900230408
-51.391777038574 -75.202224731445 -130.269607543945 2.971756458282
-75.421028137207 -69.270935058594 -132.279907226563 1.510999202728
39.651832580566 -72.900772094727 -129.106475830078 0.477341502905
-55.626789093018 -72.940696716309 -131.217071533203 1.744343996048
39.154346466064 -73.952781677246 -131.752609252930 1.845863103867
-67.968315124512 -69.662368774414 -137.099075317383 4.057156085968
-55.244445800781 -69.489662170410 -138.332839965820 2.795689344406
29.553506851196 -74.978027343750 -140.960830688477 2.862692356110
114.670501708984 -79.278411865234 -142.196777343750 2.914784431458
119.279022216797 -73.152069091797 -136.187530517578 2.230431318283
34.606288909912 -74.442199707031 -139.873947143555 2.069145441055
-44.308681488037 -73.419265747070 -137.938476562500 2.529954671860
110.601081848145 -74.473205566406 -151.229827880859 1.579772710800
-71.664390563965 -71.131072998047 -140.549621582031 2.109910964966
-54.735260009766 -71.818191528320 -139.935073852539 1.459756612778
35.513439178467 -70.569915771484 -145.780685424805 1.472044467926
-73.730323791504 -72.437286376953 -143.649124145508 0.823001861572
-66.830627441406 -71.246459960938 -147.785202026367 1.520899534225
118.549591064453 -80.277931213379 -148.727325439453 5.989098072052
-60.889663696289 -70.799995422363 -152.685775756836 5.109599590302
-35.510562896729 -69.623474121094 -150.004577636719 5.066877841949
29.546424865723 -72.687660217285 -144.309448242188 3.220228433609
-69.375587463379 -71.701431274414 -143.559417724609 1.800841927528
16.167959213257 -73.307434082031 -148.003295898438 2.747550725937
35.543701171875 -73.646789550781 -155.340148925781 2.646679162979
34.797569274902 -72.065689086914 -148.608947753906 2.032030344009
18.813823699951 -77.936103820801 -152.468856811523 4.601342678070
-46.210708618164 -73.285171508789 -150.982955932617 2.329874992371
28.435989379883 -75.328041076660 -151.533401489258 2.833426713943
-42.414882659912 -71.156074523926 -147.917633056641 2.031402349472
8.417806625366 -73.648345947266 -152.248321533203 2.146617889404
24.213478088379 -73.181076049805 -148.280944824219 1.567425727844
-65.199478149414 -70.611221313477 -154.960922241211 2.265187740326
-42.873924255371 -69.190139770508 -151.826812744141 2.448596239090
-64.462631225586 -70.817504882813 -151.323898315430 2.475472927094
21.792333602905 -72.624259948730 -156.773040771484 2.133623838425
27.953216552734 -73.236145019531 -148.448150634766 1.706452131271
6.084811210632 -73.232887268066 -162.698394775391 1.716113209724
25.000446319580 -73.724517822266 -151.915695190430 2.346999406815
34.270145416260 -73.694236755371 -165.586318969727 2.790605068207
-43.781871795654 -73.054672241211 -160.984130859375 1.792123198509
-33.408527374268 -78.035766601563 -161.137863159180 2.343980789185
-37.285163879395 -72.737625122070 -158.645004272461 1.945607185364
31.405387878418 -74.310607910156 -157.091995239258 2.158125162125
-40.719917297363 -70.193626403809 -164.541763305664 3.053551435471
-36.228698730469 -70.515777587891 -164.177536010742 1.404131531715
24.887893676758 -72.437263488770 -164.089569091797 3.070767164230
-36.464393615723 -72.330055236816 -173.014816284180 1.060534000397
31.455081939697 -70.470794677734 -168.459335327148 3.380089044571
115.228691101074 -73.297271728516 -164.015747070313 1.866194248199
-30.093118667603 -71.941322326660 -169.873107910156 1.150738239288
106.189376831055 -73.673210144043 -172.284576416016 1.271835327148
-31.196365356445 -71.540771484375 -175.255844116211 2.510431766510
-34.168643951416 -74.613243103027 -179.267395019531 0.476836472750
24.428337097168 -76.233245849609 -175.384384155273 1.968789458275
109.078689575195 -76.225166320801 -181.102111816406 1.515466690063
-28.146516799927 -70.409690856934 -180.753753662109 2.356348276138
-31.809715270996 -71.357635498047 -175.334075927734 2.066842794418
-20.037347793579 -75.456108093262 -184.811126708984 1.698498964310
-145.771148681641 -69.089103698730 -185.736145019531 3.783793926239
16.226282119751 -72.927986145020 -181.623352050781 1.468920350075
108.191993713379 -74.354171752930 -190.176757812500 2.082906484604
-155.703353881836 -67.792663574219 -189.786514282227 2.900055646896
-19.667861938477 -69.139244079590 -187.431625366211 2.319824218750
-112.490379333496 -70.941314697266 -194.483291625977 2.787221431732
-127.627090454102 -70.311241149902 -192.579116821289 1.242206335068
-104.733901977539 -70.030296325684 -196.992904663086 4.506880760193
-110.467903137207 -68.570358276367 -197.353713989258 2.095704793930
-9.186516761780 -73.053398132324 -194.408859252930 5.074345111847
23.292621612549 -72.033599853516 -194.426040649414 1.985126614571
-12.594168663025 -68.516159057617 -199.844833374023 1.003471493721
-123.600906372070 -68.932304382324 -202.581207275391 1.164210677147
-17.637413024902 -68.355918884277 -200.925506591797 1.978278279305
-126.179695129395 -67.762207031250 -199.912170410156 3.839322090149
-12.283451080322 -72.229629516602 -198.272567749023 1.700529932976
-142.890014648438 -67.255622863770 -199.653182983398 2.686298608780
94.967048645020 -71.378715515137 -205.386688232422 2.103800296783
-161.217864990234 -63.228992462158 -198.115478515625 3.422169446945
0.188661992550 -73.818733215332 -215.999740600586 2.905026912689
14.491026878357 -73.845840454102 -208.154342651367 3.473424911499
13.266239166260 -74.658248901367 -215.285507202148 2.926660060883
85.635017395020 -74.567611694336 -215.588378906250 2.116151809692
11.529685020447 -73.549079895020 -211.302078247070 2.848565578461
15.674219131470 -71.788635253906 -213.012435913086 1.936526298523
-12.894568443298 -75.030189514160 -213.955093383789 3.207397937775
-87.406150817871 -70.129722595215 -211.816040039063 3.683736801147
-94.942893981934 -69.618606567383 -213.881423950195 2.667764425278
3.038285017014 -71.210731506348 -217.278518676758 4.410789966583
-163.475448608398 -69.323783874512 -218.679428100586 2.661515712738
18.194210052490 -70.663513183594 -217.888488769531 1.869236588478
-141.570068359375 -67.481529235840 -218.128234863281 3.128889322281
15.913699150085 -72.827438354492 -223.226913452148 1.477981686592
-131.668701171875 -69.689773559570 -221.851852416992 3.158344984055
-112.961669921875 -69.803298950195 -224.338211059570 2.435584545135
19.781490325928 -71.922653198242 -219.182312011719 0.795825242996
81.368049621582 -74.425834655762 -220.211730957031 2.659766197205
9.723482131958 -72.345726013184 -221.691619873047 1.833420634270
-106.900665283203 -68.270256042480 -228.090423583984 2.060362339020
75.260124206543 -75.045303344727 -226.609085083008 2.908574342728
86.888198852539 -75.510009765625 -228.396453857422 3.903959989548
-122.269714355469 -68.263427734375 -232.140960693359 2.872454166412
-114.069046020508 -68.785514831543 -227.580764770508 0.947916984558
-6.996940135956 -68.705604553223 -225.854064941406 1.712672829628
74.864265441895 -74.788513183594 -230.197586059570 0.721797168255
67.518844604492 -74.447883605957 -231.940231323242 2.181733369827
76.212364196777 -73.659347534180 -228.297500610352 2.155803680420
-132.226257324219 -64.947036743164 -231.023956298828 1.438471317291
73.032951354980 -75.112380981445 -231.155807495117 1.869306087494
69.098815917969 -71.729484558105 -234.053237915039 1.760706901550
-163.112838745117 -65.993064880371 -227.221755981445 3.239051103592
4.100835800171 -78.266799926758 -239.219085693359 1.471309304237
22.174976348877 -73.726501464844 -237.857818603516 3.423111915588
-3.108362913132 -69.229690551758 -238.782241821289 1.988342285156
18.744497299194 -67.571479797363 -237.555938720703 3.561570167542
69.043556213379 -74.789024353027 -236.914169311523 0.985007882118
11.783441543579 -70.373161315918 -241.632217407227 1.793192625046
-7.927433967590 -65.752609252930 -238.819198608398 1.674968004227
2.416117906570 -68.861099243164 -235.613159179688 1.106057524681
67.735588073730 -74.384468078613 -241.204849243164 0.840142130852
5.866995811462 -72.510078430176 -240.795074462891 1.983076214790
-4.192448139191 -72.442901611328 -241.283874511719 0.601009070873
17.028232574463 -74.655960083008 -241.248031616211 2.178723335266
-164.630554199219 -68.775299072266 -237.847549438477 1.306112408638
58.778442382813 -73.746910095215 -245.947311401367 2.496410369873
52.834377288818 -67.740844726563 -249.407226562500 1.580208659172
60.977241516113 -74.266456604004 -241.526855468750 2.053512334824
-9.339748382568 -69.801589965820 -245.982299804688 1.619254469872
59.966911315918 -73.299537658691 -244.383529663086 2.775609493256
-71.099952697754 -69.212890625000 -247.396377563477 2.689088344574
53.512813568115 -73.651657104492 -247.303817749023 1.033628225327
-85.985130310059 -69.030883789063 -249.891998291016 2.830405712128
-120.512649536133 -69.254028320313 -253.771209716797 3.414959907532
-129.634460449219 -67.925369262695 -249.940490722656 4.400066852570
48.792190551758 -74.613777160645 -250.486190795898 2.217689037323
-129.873016357422 -70.439605712891 -250.218536376953 3.524886369705
-106.414443969727 -66.835426330566 -252.279571533203 3.063647270203
-113.300025939941 -66.137474060059 -254.575271606445 3.170305728912
-81.033195495605 -69.720939636230 -252.123779296875 1.883642315865
-108.253761291504 -66.781478881836 -256.313079833984 1.656417608261
-121.497833251953 -71.241561889648 -259.539794921875 3.543168544769
-143.809722900391 -64.849212646484 -264.448944091797 0.830487251282
-12.669944763184 -69.762268066406 -263.663391113281 2.200129985809
-168.725311279297 -68.624290466309 -261.137176513672 1.006321310997
-12.055546760559 -70.418647766113 -271.837371826172 1.609465241432
-156.280853271484 -63.778972625732 -263.995635986328 1.857168793678
-150.136520385742 -67.261840820313 -270.245300292969 3.101253747940
-167.397079467773 -66.421447753906 -274.179412841797 4.269159317017
-11.781576156616 -70.940582275391 -277.407196044922 0.362786650658
-127.801315307617 -69.806259155273 -280.200866699219 5.102123260498
-155.599441528320 -66.395416259766 -282.975982666016 2.289615392685
-141.461288452148 -66.204704284668 -277.835571289063 5.491190433502
-132.486709594727 -70.182334899902 -277.507659912109 6.306688308716
-5.654603958130 -65.325622558594 -282.508666992188 2.083923816681
-123.525047302246 -71.032455444336 -280.516784667969 4.717816352844
-138.556777954102 -65.145721435547 -282.488433837891 5.490923404694
-113.404243469238 -70.707084655762 -282.903320312500 3.420840501785
-76.573623657227 -66.999366760254 -285.489562988281 3.058857679367
-58.355880737305 -70.035743713379 -284.705352783203 2.008606433868
-4.694107055664 -71.861099243164 -285.977661132813 1.476432919502
-51.516819000244 -68.433639526367 -283.396881103516 5.417758464813
-54.801235198975 -67.182136535645 -286.262054443359 4.053263187408
-68.023429870605 -67.336822509766 -287.842956542969 3.111208677292
-85.725181579590 -67.578918457031 -291.153167724609 1.088996052742
-92.625236511230 -66.144622802734 -286.276855468750 4.412401199341
-157.959396362305 -65.594017028809 -288.180389404297 2.182675600052
-158.789337158203 -67.332405090332 -290.444946289063 2.367055892944
-122.392478942871 -70.188301086426 -290.973236083984 2.249516963959
-142.358047485352 -67.049186706543 -291.854248046875 1.834328889847
-150.903106689453 -68.729583740234 -300.549926757813 1.402794241905
-148.410827636719 -68.748596191406 -308.983123779297 1.805683135986
52.868839263916 -74.812057495117 -13.262257575989 8.103249549866
21.475402832031 -76.793884277344 -28.156909942627 4.429943084717
46.755550384521 -72.448249816895 -33.200016021729 1.872761845589
-11.134634971619 -76.773803710938 -64.457832336426 6.286786556244
86.261566162109 -74.582038879395 -64.047554016113 3.883956670761
93.182830810547 -72.630126953125 -64.922309875488 4.577584743500
82.233512878418 -79.273620605469 -64.422912597656 8.273975372314
77.080085754395 -77.234489440918 -68.104179382324 5.449087142944
95.456619262695 -78.761283874512 -73.999465942383 5.323361396790
-91.618247985840 -68.322074890137 -67.514434814453 1.473914623260
72.123535156250 -76.389503479004 -74.219947814941 3.139937162399
-32.239429473877 -73.937667846680 -75.231857299805 3.713372707367
103.132095336914 -76.328437805176 -84.966377258301 4.471819400787
65.720504760742 -72.737754821777 -89.106147766113 3.184275388718
111.125267028809 -80.831764221191 -92.877487182617 11.199622154236
105.534622192383 -79.649696350098 -97.574668884277 6.595937728882
76.380065917969 -75.231140136719 -99.486297607422 1.487857341766
-76.052268981934 -70.123260498047 -98.937156677246 1.008262038231
58.380134582520 -74.746719360352 -102.909736633301 3.217331171036
111.168350219727 -73.612686157227 -105.158065795898 2.493056535721
50.990177154541 -75.109703063965 -111.013084411621 2.517437219620
83.929374694824 -74.358131408691 -104.311103820801 3.678674459457
45.627422332764 -74.010841369629 -105.997772216797 3.025160074234
108.263229370117 -75.739791870117 -102.365119934082 2.189917564392
51.544574737549 -73.954574584961 -106.388481140137 2.660597085953
111.055068969727 -80.734764099121 -109.134536743164 6.791051864624
113.980453491211 -78.925209045410 -110.556259155273 6.533226013184
-75.438026428223 -69.073883056641 -111.567436218262 1.796059608459
-79.030258178711 -69.084716796875 -116.730110168457 2.192820549011
47.686653137207 -77.094085693359 -118.657989501953 1.938513398170
117.564346313477 -77.511909484863 -120.537811279297 5.094524860382
117.470802307129 -75.612518310547 -122.796684265137 2.382632255554
-83.429412841797 -69.653327941895 -124.309432983398 2.190706014633
109.686012268066 -77.440513610840 -124.939498901367 1.959810256958
-55.721759796143 -75.325744628906 -129.459197998047 3.161295652390
-82.394493103027 -70.859886169434 -124.651931762695 1.142825841904
-68.766487121582 -71.073242187500 -124.628326416016 7.101024150848
-55.318855285645 -67.546272277832 -124.315872192383 2.199931144714
35.363464355469 -73.262214660645 -128.609725952148 2.920849323273
46.101314544678 -72.258003234863 -133.223434448242 5.148285388947
-69.433799743652 -70.374412536621 -134.071929931641 3.446020841599
32.505973815918 -71.611175537109 -129.329284667969 1.838274240494
115.275566101074 -75.450302124023 -142.091293334961 0.967856049538
-36.587341308594 -71.414772033691 -146.046875000000 4.603776931763
33.929454803467 -74.027656555176 -147.276229858398 1.368803977966
117.488273620605 -73.830268859863 -146.871978759766 1.715319514275
39.159851074219 -73.997535705566 -141.216186523438 1.678270220757
114.023315429688 -74.247451782227 -139.957458496094 0.856581926346
-48.752456665039 -71.254745483398 -147.043304443359 2.373320817947
-67.627159118652 -67.993888854980 -148.414245605469 2.460206031799
-51.565876007080 -71.359657287598 -150.179306030273 1.586637854576
-38.720554351807 -74.371070861816 -162.746414184570 3.029536008835
8.186267852783 -73.663665771484 -154.049179077148 1.128611207008
113.337249755859 -75.392929077148 -152.655868530273 1.670414924622
112.430183410645 -74.933486938477 -158.750045776367 1.885431289673
13.564031600952 -71.896591186523 -155.647918701172 1.551393866539
6.776370048523 -72.294387817383 -159.456329345703 2.651463508606
22.768533706665 -72.042160034180 -153.536895751953 1.537296772003
29.204505920410 -71.631866455078 -153.994628906250 1.824658989906
112.149124145508 -74.512756347656 -164.741744995117 2.268212556839
112.874183654785 -77.947021484375 -166.889831542969 0.861285150051
27.357488632202 -69.972419738770 -172.681427001953 1.902960538864
28.381105422974 -74.781211853027 -162.192657470703 1.613243341446
115.710975646973 -73.186538696289 -161.112213134766 1.943600416183
-25.731891632080 -69.972091674805 -175.005737304688 1.588805437088
113.591842651367 -75.141441345215 -166.892517089844 2.111298561096
20.938125610352 -72.980682373047 -165.877395629883 0.465624064207
25.046407699585 -72.479896545410 -166.030578613281 2.803275823593
111.880249023438 -74.969200134277 -171.969528198242 1.392757892609
30.159152984619 -71.837249755859 -168.718200683594 2.174740791321
115.563308715820 -74.024490356445 -182.839218139648 4.238698959351
-34.911026000977 -70.194076538086 -175.449783325195 1.078574419022
28.516222000122 -72.226325988770 -169.435562133789 1.181756258011
110.750137329102 -74.416160583496 -182.953445434570 1.021090388298
26.409837722778 -73.405975341797 -176.894149780273 1.156874060631
-148.500000000000 -66.223510742188 -183.162445068359 2.603419065475
-24.884263992310 -67.955558776855 -187.128555297852 1.144004940987
27.923389434814 -70.312202453613 -183.195816040039 1.280530810356
-110.531600952148 -69.943809509277 -188.943496704102 1.075058817863
-107.524604797363 -66.252883911133 -188.366500854492 1.952748298645
27.013256072998 -72.787773132324 -186.857452392578 1.734823465347
15.002475738525 -70.140846252441 -183.207138061523 1.214445471764
-23.575065612793 -68.340103149414 -188.033462524414 1.553456306458
-26.477771759033 -74.565292358398 -187.092071533203 2.892412185669
-24.738939285278 -71.222587585449 -185.033142089844 1.842772006989
18.183897018433 -70.179351806641 -178.190109252930 1.366836547852
-147.596954345703 -67.428550720215 -191.790466308594 2.480256080627
-142.072265625000 -67.300186157227 -189.608139038086 1.462024807930
-141.241134643555 -70.424903869629 -195.141128540039 1.253749489784
-19.653148651123 -70.002120971680 -189.262756347656 2.541332006454
16.860708236694 -69.620147705078 -197.761215209961 0.679890930653
102.060020446777 -73.309173583984 -192.359329223633 0.829003632069
-110.482673645020 -67.268104553223 -195.388092041016 1.910534024239
24.347782135010 -75.188362121582 -196.706253051758 3.196988821030
-12.088853836060 -70.007827758789 -193.501007080078 3.628544330597
-14.526274681091 -70.297492980957 -196.657577514648 0.919798433781
104.121864318848 -72.928161621094 -198.568847656250 0.812068521976
11.046260833740 -73.441711425781 -197.490020751953 1.740150570869
-18.726232528687 -69.154251098633 -194.368408203125 1.884662032127
-118.247589111328 -70.976104736328 -200.122619628906 3.690225124359
-131.006546020508 -67.864990234375 -200.170669555664 2.885736942291
-110.812278747559 -63.890510559082 -201.934646606445 2.681958436966
-139.065521240234 -70.241477966309 -200.227966308594 2.167964458466
20.694267272949 -71.496574401855 -196.024505615234 1.709040760994
96.891433715820 -75.056228637695 -200.868103027344 1.798049926758
-162.606552124023 -62.488155364990 -197.980087280273 4.750741004944
103.113227844238 -73.639434814453 -201.236328125000 3.002624511719
-18.617622375488 -74.241714477539 -204.033432006836 2.056230545044
97.688064575195 -71.690406799316 -209.535125732422 1.279303908348
91.057655334473 -74.909263610840 -210.506378173828 1.519822716713
15.193384170532 -73.235153198242 -204.247055053711 3.550482511520
22.830846786499 -71.106658935547 -210.312393188477 3.871427059174
15.994832992554 -68.776763916016 -206.073242187500 2.276671648026
-7.912743091583 -71.021949768066 -220.453063964844 2.449550628662
-91.448959350586 -70.413177490234 -215.893661499023 1.250029087067
-7.437644958496 -72.883270263672 -210.367507934570 1.491764426231
92.033592224121 -73.686363220215 -215.305374145508 2.025821685791
-90.567092895508 -70.655426025391 -214.982772827148 0.401900202036
-98.079063415527 -66.063758850098 -218.384353637695 2.618936777115
-91.447013854980 -69.122016906738 -216.776397705078 1.739559292793
91.121414184570 -74.932342529297 -220.987030029297 1.345148324966
-132.324111938477 -67.721008300781 -222.054306030273 2.612303733826
-129.583587646484 -71.194190979004 -223.692672729492 1.622728824615
-113.677490234375 -67.707199096680 -221.886322021484 3.990202188492
-110.055931091309 -65.347389221191 -220.251586914063 3.220971822739
-130.350112915039 -65.926361083984 -224.095703125000 2.043073892593
-108.926940917969 -74.435523986816 -224.717086791992 1.498625516891
-109.260604858398 -67.749336242676 -225.166580200195 2.083222150803
-4.010995864868 -73.960723876953 -222.792968750000 2.525734663010
-13.045739173889 -72.787513732910 -221.223785400391 0.863552391529
1.961855053902 -68.941024780273 -228.586624145508 1.284005880356
-7.168772220612 -67.897476196289 -225.042083740234 1.544137001038
18.224044799805 -72.012084960938 -231.855850219727 1.503597259521
-15.909509658813 -68.769882202148 -227.110931396484 0.387553900480
-163.787307739258 -64.948226928711 -218.858184814453 3.190064907074
-1.246742010117 -70.734611511230 -231.614181518555 1.665886759758
83.734725952148 -70.326606750488 -230.110549926758 2.976101398468
13.775169372559 -72.913421630859 -231.971694946289 2.285873413086
-3.026736974716 -69.985107421875 -232.901092529297 1.348054409027
-153.920379638672 -64.378402709961 -233.167022705078 1.641083836555
-139.312805175781 -65.652214050293 -227.222091674805 2.367857456207
65.442420959473 -71.291809082031 -234.664077758789 1.854468584061
-2.824634075165 -71.634368896484 -232.268112182617 1.792541384697
12.138744354248 -73.181503295898 -229.032882690430 1.687767624855
72.240409851074 -74.961380004883 -229.163528442383 1.898015975952
79.776260375977 -73.356849670410 -233.237869262695 2.240773439407
73.776466369629 -73.809158325195 -240.257675170898 3.677525043488
1.196581006050 -73.564498901367 -233.911453247070 1.630193471909
60.888835906982 -70.764144897461 -236.680801391602 0.696288824081
-16.269998550415 -72.787483215332 -237.771148681641 1.046090722084
-12.409531593323 -68.098358154297 -238.395812988281 1.759850263596
11.036385536194 -70.922080993652 -237.621902465820 1.754684686661
67.501655578613 -75.710823059082 -236.755187988281 1.708469629288
68.253967285156 -71.107223510742 -239.456954956055 1.317831873894
52.343101501465 -72.263687133789 -244.793869018555 2.092572689056
63.812534332275 -75.472229003906 -241.555801391602 0.942235171795
-12.920522689819 -74.598564147949 -247.758407592773 2.911623954773
-80.829917907715 -65.758407592773 -251.512832641602 4.227324008942
-74.088180541992 -66.527458190918 -250.347229003906 3.632047653198
46.910385131836 -74.628990173340 -246.434844970703 4.012826919556
-146.399093627930 -67.697357177734 -247.419265747070 1.108829855919
38.654338836670 -71.531738281250 -254.760299682617 1.836554288864
-89.404403686523 -71.548217773438 -249.241561889648 3.515708684921
