-14.897851943970 -75.161499023438 -205.187118530273 2.451605319977
-16.763977050781 -74.800392150879 -212.317428588867 1.754034042358
-38.546257019043 -75.650726318359 -204.983871459961 2.450678110123
5.797990798950 -75.795631408691 -206.067382812500 1.691982150078
-80.184387207031 -76.048316955566 -208.498214721680 2.715603828430
13.306158065796 -76.797561645508 -214.051620483398 2.625412702560
-37.613674163818 -75.404541015625 -205.399169921875 2.389693021774
-147.295516967773 -78.661170959473 -204.938995361328 1.784640073776
-145.666564941406 -72.918167114258 -207.677551269531 1.547864556313
-89.987304687500 -76.647056579590 -210.915481567383 3.161227464676
-37.662822723389 -74.397674560547 -209.262374877930 2.835255384445
-21.007089614868 -79.664733886719 -212.039718627930 4.042576789856
-34.152099609375 -76.710166931152 -207.759979248047 1.881438732147
-93.919746398926 -77.495323181152 -214.834030151367 1.973351597786
-90.099960327148 -77.370201110840 -212.569519042969 2.974843978882
4.823238849640 -79.923828125000 -220.658401489258 2.420315027237
-152.402252197266 -72.852005004883 -210.940368652344 2.347549676895
-16.231151580811 -78.654846191406 -212.500228881836 1.352976202965
6.104322910309 -81.104644775391 -218.422683715820 3.413318634033
-147.279708862305 -75.518203735352 -215.842697143555 0.899303376675
-24.508712768555 -77.680351257324 -216.809692382813 1.516093015671
-3.470865964890 -74.073646545410 -220.717941284180 0.971882760525
-9.040409088135 -77.506294250488 -219.048614501953 2.667286872864
-155.312042236328 -74.228858947754 -220.353164672852 2.403467655182
-141.819946289063 -70.408287048340 -223.393753051758 1.179429650307
-8.072093963623 -76.850471496582 -224.075363159180 0.614676892757
-151.553024291992 -81.655899047852 -223.818283081055 0.384268462658
-1.674746036530 -73.544227600098 -229.926467895508 2.282690763474
14.170459747314 -76.450782775879 -234.614135742188 2.621359109879
-4.404159069061 -78.166519165039 -231.007431030273 1.723373770714
-3.713918924332 -72.964096069336 -234.052917480469 0.673407375813
5.033923149109 -76.329742431641 -231.876235961914 1.882748842239
-154.734710693359 -77.411132812500 -234.275344848633 2.953346014023
-22.721290588379 -75.200241088867 -234.924530029297 3.081837177277
-37.937103271484 -78.634963989258 -238.015762329102 1.775128483772
0.320600986481 -75.308059692383 -233.615356445313 2.908247470856
-1.543274998665 -80.224044799805 -240.337478637695 3.228969573975
-0.470986992121 -75.978744506836 -233.954162597656 2.924883604050
-59.836334228516 -76.204025268555 -241.133636474609 3.691962718964
-152.318969726563 -74.908607482910 -244.416809082031 1.993397474289
-155.743545532227 -77.732841491699 -244.125747680664 4.326587677002
7.436099052429 -78.620079040527 -246.924148559570 1.177514314651
20.374532699585 -78.385871887207 -247.416992187500 1.334049344063
-64.095016479492 -75.184432983398 -246.361984252930 0.872054278851
-146.941452026367 -80.660324096680 -249.041046142578 2.029987573624
-156.762084960938 -80.052726745605 -250.831008911133 3.784836769104
-155.883834838867 -82.133750915527 -253.587951660156 2.734220981598
-146.226623535156 -75.492973327637 -258.325439453125 1.851294994354
-143.393508911133 -77.722305297852 -253.311904907227 2.231853246689
-12.546911239624 -78.479255676270 -256.075286865234 2.116800308228
-148.493316650391 -78.976715087891 -259.283142089844 2.827055454254
-16.985433578491 -78.606460571289 -265.727722167969 4.802682876587
-151.372131347656 -77.098342895508 -270.236999511719 1.543420910835
-151.751785278320 -77.989601135254 -278.890930175781 1.509142041206
-153.296493530273 -77.128929138184 -279.872924804688 3.413901805878
-7.746386051178 -74.418121337891 -284.803771972656 3.073051691055
-150.228042602539 -74.364799499512 -281.081359863281 2.124995470047
-32.224567413330 -78.784278869629 -285.714202880859 1.700611591339
-32.807483673096 -76.323104858398 -285.575836181641 1.247765183449
-19.498193740845 -76.489295959473 -291.227569580078 0.591373622417
-16.746538162231 -76.150527954102 -290.548919677734 1.175043225288
8.736651420593 -80.098983764648 -291.421325683594 1.472451448441
-129.466598510742 -79.139228820801 -286.733856201172 2.509974479675
-63.813983917236 -78.108612060547 -286.311157226563 3.104368686676
-44.802852630615 -76.197242736816 -288.789215087891 2.185691833496
-36.865379333496 -78.693878173828 -287.525695800781 1.189740657806
-13.366449356079 -76.830253601074 -291.996551513672 1.605876564980
0.991091012955 -78.641670227051 -288.242614746094 3.349350214005
-146.920043945313 -79.730339050293 -292.486999511719 2.477513790131
5.560999870300 -78.599563598633 -293.875305175781 2.750614404678
-157.275802612305 -76.866378784180 -298.366973876953 3.853212594986
-156.668243408203 -81.462020874023 -297.567260742188 4.223282814026
-157.774353027344 -76.311210632324 -308.156250000000 3.789105415344
-149.045883178711 -78.126647949219 -306.763977050781 1.358179211617
-49.463951110840 -70.618598937988 -51.414810180664 3.701538801193
-54.115741729736 -73.469741821289 -54.997856140137 2.571067571640
-64.980422973633 -69.736824035645 -53.855831146240 4.180023193359
-40.655475616455 -70.044807434082 -60.029808044434 4.470260620117
-35.505985260010 -71.170951843262 -58.495956420898 3.694574117661
-19.809129714966 -70.659599304199 -68.755416870117 2.362863540649
-81.340744018555 -69.718467712402 -67.004730224609 6.033335685730
84.321098327637 -72.301902770996 -80.179496765137 3.145992040634
-89.698684692383 -70.575309753418 -75.182823181152 2.916597843170
82.073936462402 -70.935081481934 -80.921943664551 5.631611824036
87.372550964355 -69.273948669434 -85.911445617676 7.835627555847
96.102996826172 -70.085472106934 -90.347206115723 3.899601936340
-60.038059234619 -75.601753234863 -94.270332336426 3.646355867386
82.794746398926 -72.797058105469 -97.387969970703 2.633062839508
77.890045166016 -74.976478576660 -93.327697753906 2.258869647980
86.955398559570 -72.554725646973 -92.187294006348 4.662686824799
-60.683811187744 -73.806518554688 -95.978454589844 3.890553236008
50.598678588867 -71.036163330078 -98.762268066406 3.308031082153
45.708847045898 -72.423912048340 -107.536933898926 3.702506780624
40.435398101807 -73.269081115723 -104.985557556152 0.570139408112
36.965980529785 -72.856643676758 -105.267204284668 3.357627391815
-91.651290893555 -69.991531372070 -105.231506347656 3.602826118469
35.523994445801 -71.961601257324 -118.096122741699 1.996606826782
-84.915245056152 -73.215225219727 -106.653953552246 1.986143589020
40.952171325684 -74.613243103027 -126.252815246582 1.293413281441
33.049789428711 -73.914093017578 -122.106285095215 1.452037453651
33.501232147217 -67.884269714355 -122.493850708008 1.717129230499
43.417041778564 -71.888236999512 -119.410446166992 2.344777584076
40.056800842285 -75.212417602539 -128.409210205078 2.043656110764
-52.887676239014 -68.668800354004 -134.224365234375 3.255550146103
36.295269012451 -76.152084350586 -135.448867797852 1.577724695206
35.104701995850 -73.187736511230 -143.924362182617 2.378380298615
-54.953498840332 -71.164985656738 -140.805252075195 1.965103149414
-46.973369598389 -73.469474792480 -139.300521850586 0.629224598408
34.050842285156 -73.108299255371 -143.710876464844 1.790238738060
110.061050415039 -70.319854736328 -143.786544799805 0.498392045498
112.060340881348 -71.122611999512 -146.973907470703 2.677964925766
25.737247467041 -74.595596313477 -143.169326782227 1.548835277557
-41.914566040039 -75.451988220215 -148.187622070313 2.029248952866
113.684906005859 -78.021171569824 -155.758193969727 1.081095933914
-39.790847778320 -72.300170898438 -152.095703125000 2.097023963928
-69.147048950195 -73.662498474121 -158.892761230469 0.749926745892
109.462379455566 -76.765815734863 -160.626892089844 2.377659797668
21.423416137695 -74.560836791992 -165.169479370117 1.430083870888
-0.681672990322 -74.989303588867 -162.757080078125 1.195626378059
110.778228759766 -73.932411193848 -156.847595214844 1.224596619606
-65.491600036621 -73.601303100586 -163.770751953125 2.047888517380
-39.225696563721 -74.251892089844 -162.339035034180 2.801506996155
110.882904052734 -74.302665710449 -167.120635986328 1.248002171516
27.284055709839 -70.631202697754 -159.166183471680 2.371619701385
-63.862438201904 -69.447189331055 -163.950622558594 3.021221160889
110.708923339844 -74.515075683594 -168.764389038086 0.577753305435
-66.515686035156 -75.671089172363 -167.033920288086 1.535633087158
-51.746353149414 -76.481124877930 -179.204315185547 0.771235704422
104.812149047852 -73.357498168945 -173.826431274414 1.658358573914
-61.169441223145 -72.649742126465 -169.562149047852 1.748458147049
110.352256774902 -73.749435424805 -178.790222167969 2.119320392609
-62.172458648682 -73.858528137207 -173.773773193359 1.414200782776
-16.526239395142 -72.594085693359 -177.035614013672 4.040392875671
-12.788924217224 -78.098464965820 -180.477874755859 1.955948352814
106.442085266113 -75.452728271484 -171.260620117188 1.145185470581
19.722988128662 -74.913436889648 -172.087356567383 2.268775939941
28.301059722900 -71.257774353027 -170.587158203125 0.898652911186
-58.661926269531 -73.445220947266 -175.737731933594 0.572018444538
16.629127502441 -73.214721679688 -182.316619873047 1.868022918701
-59.155735015869 -74.306213378906 -174.211853027344 2.026490926743
-53.609142303467 -73.449417114258 -189.464401245117 2.430361270905
10.848739624023 -72.833198547363 -184.214004516602 2.414702177048
-58.639144897461 -71.399810791016 -178.866012573242 2.761246919632
105.078689575195 -73.066177368164 -189.305007934570 2.231720447540
23.099912643433 -76.064971923828 -181.836868286133 0.780563592911
-35.483737945557 -72.798934936523 -187.567428588867 2.850346326828
-44.509162902832 -75.910568237305 -189.806320190430 2.215290546417
9.327050209045 -75.715934753418 -192.879989624023 2.311285257339
-20.794523239136 -75.626602172852 -188.901931762695 1.896274089813
-50.649421691895 -75.836524963379 -193.370681762695 2.394665241241
100.986450195313 -77.134071350098 -185.766616821289 3.527218580246
10.532980918884 -76.751594543457 -190.678833007813 2.335118532181
-135.574234008789 -78.462646484375 -195.736450195313 2.869935512543
-47.695301055908 -76.532920837402 -193.268737792969 1.480668067932
93.691123962402 -74.464973449707 -200.945159912109 1.656336307526
-150.793304443359 -80.306121826172 -198.439056396484 0.723993957043
16.342542648315 -75.089012145996 -197.948699951172 2.399298191071
-44.829612731934 -72.850128173828 -204.469238281250 3.832641839981
-33.207328796387 -77.155265808105 -204.840652465820 1.515439629555
-39.250194549561 -75.480201721191 -202.116302490234 1.314055562019
-46.610473632813 -78.507652282715 -196.189193725586 1.410316348076
98.090087890625 -75.112319946289 -205.499084472656 1.945488214493
-22.533840179443 -77.314155578613 -200.677734375000 2.625681400299
-152.298950195313 -75.057334899902 -199.200042724609 2.599148273468
13.893433570862 -76.465812683105 -203.614151000977 1.046468377113
-78.888008117676 -78.798065185547 -204.949264526367 3.593632936478
-148.795501708984 -73.891990661621 -208.762313842773 2.693839073181
92.675216674805 -76.282150268555 -213.964263916016 1.192380070686
-35.009449005127 -73.999282836914 -206.287338256836 1.298486351967
-31.191045761108 -75.501495361328 -211.697235107422 1.678908348083
6.659740924835 -75.984191894531 -210.573257446289 2.080589771271
-73.688072204590 -78.006271362305 -207.887481689453 1.731901288033
-30.319042205811 -80.076171875000 -206.785736083984 1.853649973869
-9.132983207703 -76.138603210449 -215.605072021484 2.518111467361
-74.474082946777 -76.774452209473 -212.372116088867 1.816371560097
-16.714576721191 -75.701889038086 -216.917495727539 2.214317560196
5.617575168610 -69.879692077637 -212.575103759766 2.299868822098
11.989024162292 -77.568130493164 -220.578491210938 1.012155294418
-152.365081787109 -76.531303405762 -213.480072021484 3.725494623184
-10.683753013611 -75.184501647949 -214.149139404297 2.362658262253
-101.268127441406 -72.160499572754 -217.991577148438 2.639703273773
-24.284843444824 -74.909049987793 -219.125625610352 0.486529290676
87.695159912109 -78.947776794434 -213.740417480469 2.743691205978
5.267679214478 -74.582878112793 -225.747421264648 0.899312317371
16.775386810303 -74.754066467285 -216.841522216797 1.734560847282
78.372161865234 -76.157424926758 -218.674957275391 4.169172286987
-1.478219032288 -78.029899597168 -228.356765747070 0.740711927414
83.323165893555 -75.734252929688 -218.882003784180 2.540513753891
-21.809579849243 -73.079627990723 -222.903015136719 1.642805933952
13.368973731995 -73.801910400391 -219.361618041992 3.243536472321
-149.744400024414 -76.923782348633 -217.199035644531 1.107972621918
-25.723295211792 -76.932334899902 -224.693862915039 2.613865375519
-0.905448973179 -74.792907714844 -229.169342041016 3.424486637115
-158.313507080078 -79.699684143066 -222.728912353516 4.933070659637
-139.568038940430 -77.152816772461 -224.822540283203 1.644002676010
2.529067039490 -75.447029113770 -224.500854492188 1.838642358780
-6.563976764679 -73.716117858887 -227.867279052734 2.200578212738
-139.309341430664 -73.371948242188 -226.921356201172 2.188319206238
-149.378036499023 -76.712272644043 -235.761947631836 1.571080923080
-150.738113403320 -76.190155029297 -232.448577880859 2.268661499023
-35.110973358154 -76.811477661133 -236.602752685547 2.509853601456
-146.871185302734 -77.920326232910 -239.272750854492 2.587482929230
14.633894920349 -76.823486328125 -241.766708374023 3.434189796448
2.303905010223 -76.016403198242 -243.878967285156 1.233836054802
-153.263122558594 -72.371421813965 -233.751815795898 0.455124676228
-152.252334594727 -76.141777038574 -240.465728759766 1.969445228577
-49.364223480225 -77.513343811035 -242.848068237305 2.204280138016
-34.481864929199 -77.055091857910 -244.813049316406 2.102913618088
1.651466965675 -77.003494262695 -244.039276123047 1.261876344681
-40.360481262207 -77.515426635742 -244.303192138672 1.762998342514
19.315044403076 -76.697280883789 -247.163787841797 1.499071002007
-8.677065849304 -78.677536010742 -250.749588012695 1.444852590561
-149.881774902344 -77.061309814453 -249.312896728516 2.474932670593
-12.024174690247 -80.321159362793 -251.708023071289 4.366891384125
-150.879348754883 -75.049194335938 -245.554962158203 1.350733041763
-69.451507568359 -77.715507507324 -248.108642578125 1.530173659325
-151.387039184570 -83.436836242676 -255.768844604492 2.092293024063
-130.106353759766 -76.286048889160 -255.532135009766 3.817154645920
-154.659713745117 -75.161010742188 -255.156326293945 1.432184815407
-15.062623023987 -74.708213806152 -266.170410156250 2.217439174652
-149.494003295898 -81.286903381348 -265.981781005859 2.373075485229
-153.155700683594 -77.295806884766 -264.302490234375 3.555480957031
-14.612540245056 -77.966232299805 -269.949920654297 1.893430352211
-148.960769653320 -77.389732360840 -267.095886230469 2.484480381012
-9.005302429199 -76.644767761230 -277.383209228516 2.047211170197
-49.825531005859 -76.912910461426 -283.899383544922 2.233298778534
-138.367355346680 -75.837051391602 -285.273986816406 2.740755319595
-138.381988525391 -76.550712585449 -282.763427734375 4.682943344116
-128.286193847656 -75.002609252930 -280.834533691406 3.574049711227
-56.344753265381 -76.617095947266 -285.086975097656 1.396261930466
-117.187644958496 -75.480987548828 -282.951538085938 4.086870670319
12.099733352661 -77.116363525391 -291.423431396484 2.551301717758
-62.133132934570 -75.994064331055 -287.213928222656 1.367158293724
-145.230957031250 -76.934288024902 -288.787902832031 3.338210821152
-66.746337890625 -76.331451416016 -288.723602294922 1.977935433388
-147.886383056641 -81.279830932617 -289.070434570313 1.172409057617
-120.873977661133 -75.660766601563 -287.839447021484 1.476112961769
-50.444953918457 -78.815628051758 -289.098480224609 2.525260448456
-38.173686981201 -77.578125000000 -290.256805419922 1.940964102745
-140.215179443359 -74.784248352051 -290.987426757813 2.332113504410
-16.639848709106 -74.039016723633 -285.298706054688 3.123718738556
-0.676500022411 -77.172393798828 -288.674102783203 2.664470911026
2.616523981094 -76.437461853027 -290.915679931641 1.737954497337
11.156617164612 -78.279739379883 -294.782592773438 3.511676073074
-153.758834838867 -80.233261108398 -293.604675292969 2.039546728134
-150.221496582031 -75.925018310547 -292.327239990234 1.962312698364
-66.706047058105 -69.939704895020 -59.736442565918 6.519833564758
89.001274108887 -71.653366088867 -75.207443237305 3.887229204178
79.414459228516 -71.735229492188 -78.396606445313 4.016618251801
-26.580423355103 -72.841148376465 -75.887001037598 2.290410757065
84.778572082520 -69.642051696777 -77.170326232910 4.275323867798
-36.300247192383 -72.798439025879 -79.040748596191 1.862509012222
85.361907958984 -69.083862304688 -82.389831542969 6.603373527527
95.439071655273 -68.829605102539 -82.720695495605 4.484588623047
-64.490409851074 -65.706779479980 -93.410552978516 1.758661389351
74.205032348633 -71.759429931641 -95.370697021484 2.594217538834
80.529724121094 -70.232849121094 -98.970275878906 3.033183574677
95.057502746582 -73.277305603027 -96.564720153809 2.090021133423
55.513877868652 -72.650764465332 -98.525054931641 1.011080384254
-70.366882324219 -71.347953796387 -99.757644653320 2.105728387833
-74.226684570313 -67.689590454102 -99.714813232422 1.069240689278
50.043922424316 -73.296112060547 -105.211189270020 1.613414406776
-88.935348510742 -73.212493896484 -101.407447814941 5.315391063690
46.081581115723 -70.409080505371 -118.461685180664 1.234565138817
110.400108337402 -71.410179138184 -121.361259460449 0.158757671714
112.154556274414 -73.837600708008 -133.194717407227 1.491022825241
22.602924346924 -71.216163635254 -138.034347534180 2.086579084396
109.927185058594 -73.277206420898 -128.859375000000 1.938692927361
27.393520355225 -71.125068664551 -134.346511840820 1.715872526169
112.787780761719 -68.627273559570 -133.302719116211 1.762048125267
37.209659576416 -71.313255310059 -135.259048461914 1.022699236870
-54.909973144531 -73.044944763184 -140.516204833984 0.663689136505
34.931575775146 -74.519325256348 -144.386505126953 3.125537395477
108.609741210938 -70.892547607422 -138.343902587891 1.317292332649
-48.555027008057 -71.745239257813 -143.034423828125 2.712195634842
31.270679473877 -72.315132141113 -149.807662963867 2.020158290863
-57.057743072510 -68.918563842773 -139.174850463867 1.726253271103
-57.431468963623 -73.095451354980 -144.474777221680 1.665855765343
-52.514316558838 -75.019645690918 -148.535842895508 1.601485133171
-65.567955017090 -75.150871276855 -154.392044067383 1.962329626083
112.365036010742 -75.465400695801 -149.977783203125 2.116503000259
-51.050994873047 -77.193687438965 -153.973663330078 1.294510722160
21.521427154541 -76.290428161621 -155.927139282227 1.954803943634
107.579833984375 -73.772865295410 -162.209991455078 1.112316012383
-66.940277099609 -72.655006408691 -153.936340332031 1.143095970154
-46.167186737061 -74.051216125488 -155.543029785156 2.340083360672
7.737410068512 -70.932960510254 -154.753387451172 0.711847424507
-68.819076538086 -72.989112854004 -155.320129394531 0.417314708233
-63.900871276855 -74.775550842285 -158.211502075195 1.668541073799
-1.405801057816 -73.386482238770 -162.054046630859 1.279177069664
-44.087024688721 -71.270553588867 -166.525619506836 2.388847112656
28.592754364014 -71.568969726563 -166.613983154297 1.377125501633
-63.892536163330 -70.979423522949 -165.716583251953 2.447677612305
-57.754467010498 -74.667617797852 -165.928192138672 1.431747198105
15.796773910522 -75.184555053711 -160.555465698242 4.181166172028
-31.907821655273 -72.910285949707 -168.052169799805 1.719127893448
-30.549970626831 -75.423149108887 -166.020385742188 1.751961708069
14.495032310486 -74.535224914551 -174.740844726563 3.623479366302
-43.538681030273 -75.572418212891 -171.771453857422 2.175154209137
-12.474823951721 -74.304244995117 -172.179183959961 2.683745145798
-64.668579101563 -71.182594299316 -170.518020629883 2.165866613388
-7.847174167633 -71.420333862305 -172.610275268555 2.784693479538
-23.785875320435 -74.082649230957 -179.043762207031 1.900329113007
21.437219619751 -71.921325683594 -183.115798950195 2.613059759140
-40.227516174316 -74.284240722656 -171.178268432617 1.465749979019
18.448049545288 -70.924034118652 -177.088134765625 1.519778847694
-24.434051513672 -70.686073303223 -183.983078002930 1.336283087730
-33.679851531982 -75.469650268555 -178.585998535156 1.111730456352
-149.443344116211 -72.372817993164 -186.462478637695 0.633051633835
-21.159910202026 -76.758384704590 -184.135131835938 1.744843006134
-143.824096679688 -72.921638488770 -185.724777221680 2.388039350510
-153.757247924805 -73.655502319336 -183.796356201172 2.930438280106
-50.339664459229 -72.520454406738 -186.630157470703 1.509083628654
96.529090881348 -73.628128051758 -196.606979370117 2.411396503448
-146.479675292969 -74.830017089844 -188.286453247070 1.484264969826
-150.805664062500 -73.349952697754 -192.750259399414 1.026003599167
20.117204666138 -73.104240417480 -197.285964965820 1.143079042435
-139.135910034180 -73.858375549316 -193.758880615234 3.447562932968
13.883420944214 -71.660026550293 -198.923110961914 2.082776069641
-141.075637817383 -75.390243530273 -195.635498046875 1.273425459862
11.261724472046 -71.631889343262 -197.283828735352 1.308705091476
-135.806625366211 -71.677162170410 -195.058715820313 3.014455318451
4.180993080139 -72.403778076172 -204.203781127930 2.313381671906
-152.787216186523 -74.100028991699 -200.587280273438 1.038380622864
92.440620422363 -74.268157958984 -207.153808593750 1.597200870514
-18.029975891113 -76.290985107422 -205.217178344727 1.565856695175
-32.459640502930 -73.568824768066 -207.116622924805 2.011126041412
-13.173102378845 -71.562797546387 -205.123565673828 1.533430457115
-149.151016235352 -77.193954467773 -207.748397827148 2.492807626724
-37.435089111328 -74.297622680664 -203.432418823242 1.859694838524
-85.010650634766 -76.166358947754 -204.325576782227 7.053803443909
-28.892169952393 -75.588035583496 -208.203613281250 1.777005791664
14.078368186951 -74.748596191406 -212.007171630859 3.144547224045
-149.191696166992 -73.464584350586 -210.834396362305 1.556606292725
-92.208465576172 -75.717826843262 -214.884628295898 1.921519875526
-31.802368164063 -73.534271240234 -215.953948974609 1.336912631989
-28.910097122192 -74.101249694824 -218.865509033203 2.461642980576
-12.984713554382 -75.619224548340 -210.568161010742 3.330962896347
-29.512887954712 -73.732131958008 -209.149246215820 0.845851719379
-85.108680725098 -74.703033447266 -217.498321533203 0.887241542339
-90.636497497559 -78.110206604004 -216.628967285156 1.617449998856
-25.702188491821 -74.339073181152 -219.896316528320 1.820407032967
-4.426752090454 -79.705627441406 -223.054534912109 1.199084997177
-155.641952514648 -75.712768554688 -213.625488281250 4.251612663269
-4.725454807281 -76.156867980957 -219.884124755859 0.808695197105
83.874443054199 -77.638160705566 -227.366180419922 3.833580970764
-143.087539672852 -76.947990417480 -220.558074951172 3.246564149857
-8.702593803406 -75.582969665527 -221.926254272461 2.565543651581
-142.693191528320 -76.140220642090 -222.830322265625 1.203081846237
-149.522262573242 -82.228897094727 -222.361923217773 2.533384799957
-8.738983154297 -73.800498962402 -228.615280151367 2.173451423645
17.005140304565 -75.107315063477 -217.652450561523 2.202706813812
-142.322082519531 -73.723564147949 -226.179199218750 2.473597526550
-19.346361160278 -75.867355346680 -227.802383422852 2.224051952362
72.150016784668 -75.574371337891 -227.612792968750 2.895873546600
73.119941711426 -75.047187805176 -234.156692504883 2.549403190613
6.991933822632 -76.281753540039 -230.469833374023 2.264020681381
-33.675640106201 -76.500076293945 -235.765380859375 2.594396829605
-24.318262100220 -80.551963806152 -240.587631225586 1.582792758942
1.194947957993 -73.893043518066 -243.040527343750 1.957984209061
-50.030094146729 -72.348327636719 -241.676177978516 1.603443503380
-24.709592819214 -74.149452209473 -242.200256347656 1.364312767982
6.567184925079 -73.404289245605 -240.818801879883 2.278383731842
-66.163764953613 -75.713882446289 -243.822250366211 3.355219125748
-36.835819244385 -78.214942932129 -242.707336425781 0.579196274281
-43.220077514648 -73.900680541992 -244.175537109375 0.639015972614
-151.684295654297 -74.099632263184 -242.628662109375 2.396291494370
-48.634292602539 -77.648132324219 -246.505996704102 1.601140737534
-55.908214569092 -71.104858398438 -246.426391601563 1.329075455666
-69.125740051270 -75.531005859375 -247.924179077148 1.408043861389
-13.566849708557 -78.071258544922 -247.460067749023 4.365296840668
-82.866348266602 -76.290672302246 -252.047622680664 1.092354655266
-158.898956298828 -80.533828735352 -250.998931884766 5.657110691071
-144.135726928711 -75.431549072266 -251.570358276367 2.082429647446
-126.200126647949 -76.764167785645 -256.742065429688 1.866747140884
-159.635772705078 -72.719367980957 -257.144561767578 2.140185356140
16.681697845459 -80.316604614258 -265.169128417969 2.091849803925
-17.029676437378 -77.794311523438 -267.906585693359 4.413245201111
-156.504684448242 -78.496650695801 -269.387298583984 3.560044288635
-155.371063232422 -81.221595764160 -274.423034667969 3.889876365662
-148.783645629883 -79.517662048340 -281.700347900391 1.944776535034
-61.834320068359 -73.025405883789 -280.780334472656 5.577370166779
-42.243698120117 -73.320518493652 -284.827545166016 2.435733318329
-25.066686630249 -74.432220458984 -287.548645019531 1.395215868950
-14.198231697083 -74.030929565430 -281.596649169922 4.008389472961
-69.468467712402 -78.474166870117 -284.205657958984 2.805902719498
-83.856727600098 -78.727973937988 -284.380981445313 3.601176738739
-6.385656833649 -77.293785095215 -284.209320068359 3.589875221252
1.455512046814 -77.537445068359 -290.311767578125 1.331075191498
-141.813049316406 -75.498527526855 -284.563232421875 2.240385532379
-83.105789184570 -74.436431884766 -285.283020019531 1.232013940811
-150.895370483398 -75.911209106445 -284.548400878906 2.119818210602
-97.974914550781 -81.460716247559 -284.312072753906 7.126587390900
-82.202262878418 -75.988311767578 -285.223602294922 0.571637272835
-88.796714782715 -74.542716979980 -291.669097900391 2.385519742966
-65.464447021484 -76.153968811035 -289.682800292969 2.558500289917
-32.608032226563 -72.381088256836 -293.033050537109 0.745968401432
-10.235587120056 -76.141426086426 -290.754241943359 1.518191576004
-155.923294067383 -72.041702270508 -293.849884033203 2.096358776093
-153.902862548828 -75.409751892090 -296.926757812500 2.978075981140
-148.708068847656 -76.557556152344 -300.142456054688 1.839211702347
-160.609710693359 -76.716758728027 -302.148284912109 5.894995689392
-55.686092376709 -67.428176879883 -54.303005218506 5.179604530334
-45.834705352783 -68.521957397461 -51.866191864014 3.134166002274
-38.012004852295 -70.116004943848 -53.435474395752 2.810115098953
-75.557182312012 -71.339096069336 -59.083934783936 4.350895881653
-27.975513458252 -68.781745910645 -62.933444976807 6.793984413147
-32.277069091797 -69.874702453613 -78.630966186523 3.078076601028
75.561637878418 -72.911582946777 -83.062835693359 2.606748819351
75.957305908203 -71.086608886719 -81.780670166016 4.326785087585
74.172409057617 -69.243461608887 -85.124244689941 5.944161415100
99.001976013184 -68.235092163086 -91.947891235352 3.004569292068
70.858093261719 -72.277481079102 -90.546836853027 1.804256677628
50.704032897949 -72.209968566895 -91.310890197754 2.064608573914
50.378036499023 -74.982109069824 -101.231033325195 2.606756448746
-66.659942626953 -69.996383666992 -99.515945434570 1.709637761116
-72.989501953125 -65.602058410645 -100.430992126465 1.620098114014
45.145744323730 -71.969718933105 -103.899864196777 1.393844842911
-82.161323547363 -75.414878845215 -107.348724365234 1.318143367767
-93.183807373047 -69.463851928711 -109.142013549805 3.818322896957
51.143253326416 -70.769889831543 -108.129318237305 2.002067089081
107.417251586914 -70.210624694824 -115.403305053711 1.306770086288
32.543674468994 -73.215301513672 -123.594108581543 0.527991116047
43.809982299805 -72.370353698730 -119.368606567383 2.037964105606
40.839054107666 -71.126495361328 -124.764320373535 1.762671947479
29.630083084106 -72.707885742188 -123.831733703613 1.772701263428
108.874671936035 -71.320030212402 -122.196319580078 1.622982144356
38.946277618408 -73.474319458008 -130.735488891602 1.703781485558
32.332019805908 -68.745529174805 -132.154968261719 2.561591863632
-46.137397766113 -71.332450866699 -141.856521606445 1.913060307503
-71.752296447754 -73.814147949219 -142.555969238281 2.056968212128
-54.456851959229 -70.827217102051 -145.562164306641 1.897122621536
-73.746002197266 -74.637817382813 -144.158752441406 1.346640229225
-40.588527679443 -71.177848815918 -146.372467041016 2.684013366699
106.328002929688 -71.826965332031 -155.924896240234 3.350125551224
-72.709815979004 -73.763038635254 -153.992752075195 2.140191555023
22.977331161499 -75.044708251953 -147.827133178711 1.718830585480
29.635263442993 -74.168205261230 -151.395538330078 2.310604810715
111.606521606445 -74.660087585449 -163.096466064453 0.865976572037
8.352869033813 -74.188339233398 -159.145584106445 0.516174197197
31.501802444458 -70.628532409668 -155.853027343750 0.906410276890
-64.890045166016 -73.576255798340 -157.527938842773 1.278067111969
-43.021293640137 -74.165184020996 -170.304870605469 2.338385581970
19.269895553589 -71.804176330566 -163.423934936523 2.283725023270
-65.661819458008 -71.361145019531 -158.031005859375 1.618156909943
-70.430343627930 -72.785926818848 -163.662094116211 2.310563087463
110.254470825195 -73.995925903320 -168.059051513672 1.105765581131
-9.024420738220 -73.336074829102 -166.100524902344 4.091208457947
-65.291374206543 -72.044692993164 -172.220123291016 1.889206886292
-33.316875457764 -73.876182556152 -167.477157592773 2.128474473953
-56.151233673096 -71.628463745117 -171.216461181641 3.811389207840
28.090524673462 -72.406593322754 -172.890045166016 1.328111052513
109.457229614258 -71.065681457520 -174.844619750977 1.253961086273
100.919776916504 -72.301277160645 -185.308624267578 3.128565073013
104.129562377930 -73.207626342773 -191.140518188477 1.117717981339
105.508209228516 -71.145278930664 -178.905258178711 1.159925341606
-53.945552825928 -72.408180236816 -188.870971679688 3.571562767029
-50.863075256348 -70.446968078613 -181.604263305664 3.787882089615
25.096454620361 -73.393806457520 -183.569290161133 2.200159311295
-50.445602416992 -71.748825073242 -185.675354003906 1.837964177132
-22.030990600586 -73.599235534668 -183.460800170898 1.515515208244
-52.638355255127 -75.128662109375 -190.067474365234 0.741916477680
-152.915771484375 -72.799034118652 -189.440917968750 2.030628919601
99.538192749023 -74.605186462402 -194.588745117188 1.744405627251
-46.490020751953 -71.066032409668 -192.706085205078 3.890713214874
-16.287939071655 -74.907211303711 -197.702606201172 0.827683687210
-141.852966308594 -73.689399719238 -191.247985839844 3.918373584747
-45.071945190430 -71.372695922852 -196.487106323242 4.729451656342
100.192916870117 -72.796798706055 -198.837219238281 0.461525738239
105.324653625488 -71.675964355469 -187.551910400391 2.429722070694
-46.289604187012 -73.259765625000 -195.111557006836 2.276168584824
-25.035461425781 -78.488449096680 -196.992630004883 1.636843323708
-149.857635498047 -77.563377380371 -196.314941406250 1.855745315552
-26.902238845825 -73.873214721680 -195.957778930664 2.388306856155
-159.303207397461 -74.423927307129 -194.275802612305 3.641781091690
-154.755325317383 -79.168098449707 -200.354721069336 2.524369716644
-145.174407958984 -75.584152221680 -198.455947875977 1.948824048042
-40.362667083740 -74.041687011719 -198.638977050781 0.898551821709
99.204566955566 -74.114624023438 -203.379486083984 1.680166959763
-42.931972503662 -71.717269897461 -198.527877807617 3.237050294876
-145.299652099609 -77.095497131348 -201.510223388672 2.836579084396
-39.905395507813 -70.609169006348 -204.666763305664 2.555689573288
-22.893095016479 -77.684928894043 -208.992370605469 3.825769901276
94.960945129395 -75.258132934570 -206.794204711914 1.979831814766
89.062438964844 -74.729667663574 -214.744003295898 1.541351199150
-36.733970642090 -72.580101013184 -216.071060180664 5.096865653992
-89.644393920898 -74.831687927246 -208.759460449219 4.457677841187
-77.877120971680 -74.434509277344 -209.740188598633 1.303215503693
-20.910213470459 -74.028335571289 -212.970550537109 2.229895830154
-151.899444580078 -74.714286804199 -202.362503051758 1.894093871117
87.948440551758 -73.820236206055 -214.942382812500 0.682706177235
86.573417663574 -72.215316772461 -219.711410522461 2.118614435196
87.798965454102 -74.005737304688 -221.559722900391 2.368587017059
-104.653869628906 -74.101593017578 -217.729827880859 3.046061992645
-155.449630737305 -76.628669738770 -218.390350341797 4.996976375580
-22.450386047363 -72.974601745605 -221.857803344727 1.545344710350
77.386192321777 -71.915824890137 -227.350509643555 1.533997893333
-152.075241088867 -77.600555419922 -220.412399291992 3.606734752655
-30.396600723267 -75.130149841309 -217.977111816406 2.095923185349
-136.104324340820 -73.062301635742 -228.188796997070 2.000041007996
-14.435603141785 -76.606742858887 -229.289489746094 2.025560617447
14.944385528564 -73.574752807617 -226.026062011719 2.516132593155
17.001136779785 -75.250534057617 -232.702011108398 1.249011397362
-157.491363525391 -77.649398803711 -230.576568603516 2.739376068115
-128.547760009766 -71.449966430664 -229.859146118164 3.133909225464
-10.943903923035 -73.789794921875 -234.669952392578 1.553071141243
-2.712322950363 -73.835502624512 -236.845336914063 1.873403072357
66.499435424805 -74.061256408691 -233.953063964844 1.936822295189
67.840843200684 -71.895683288574 -239.101348876953 1.017712354660
-3.230797052383 -73.244323730469 -239.896286010742 1.175749063492
13.549131393433 -71.263336181641 -239.738769531250 0.627466976643
-33.052249908447 -69.008865356445 -239.732467651367 5.935744762421
-36.562423706055 -80.099723815918 -240.236923217773 1.541668653488
-49.690120697021 -73.988388061523 -237.359420776367 3.757037162781
-42.135448455811 -72.720848083496 -239.794357299805 2.653109550476
-20.365646362305 -75.836418151855 -241.943572998047 1.121467590332
-55.368049621582 -73.079376220703 -242.411514282227 1.829956531525
-1.101192951202 -74.933845520020 -244.727188110352 1.253952264786
-71.123321533203 -75.323226928711 -242.349838256836 4.661819458008
17.688276290894 -75.457420349121 -247.113250732422 1.936354517937
-147.070632934570 -76.943740844727 -241.661727905273 2.040142774582
-75.762489318848 -77.127204895020 -249.714080810547 2.774765968323
12.265531539917 -76.257751464844 -249.045532226563 2.115810155869
-164.389877319336 -73.870086669922 -245.760955810547 2.636756896973
11.939237594604 -78.010528564453 -252.602539062500 3.241342067719
-83.068321228027 -71.142639160156 -248.823104858398 1.253082275391
-78.277603149414 -75.444877624512 -248.885162353516 1.910678863525
16.440771102905 -76.290252685547 -255.000274658203 3.186500310898
-92.315788269043 -74.219444274902 -250.013671875000 1.957101225853
-128.889144897461 -72.523300170898 -252.224426269531 2.544859170914
-136.827560424805 -77.327590942383 -256.327667236328 1.489599466324
-138.244461059570 -77.239875793457 -251.536392211914 3.733388662338
-150.418106079102 -75.781776428223 -257.475799560547 1.551738500595
-147.541564941406 -72.740745544434 -251.811157226563 1.995291471481
-138.186981201172 -73.626884460449 -258.629791259766 2.543534755707
-165.000625610352 -72.671592712402 -257.133087158203 2.305872440338
-130.474746704102 -74.402290344238 -263.206970214844 1.080635190010
-138.713333129883 -71.790992736816 -259.519165039063 4.059897899628
-167.179489135742 -72.870529174805 -263.700073242188 2.284291028976
-160.130813598633 -72.936592102051 -260.596801757813 2.373807191849
-152.769989013672 -73.699867248535 -262.111694335938 2.337423324585
-151.470916748047 -75.592323303223 -262.197967529297 2.348883628845
12.972732543945 -77.922302246094 -278.396636962891 1.222932577133
-169.586090087891 -75.086013793945 -263.281494140625 3.196596384048
-155.504409790039 -76.158065795898 -269.920135498047 1.998232722282
-9.348988533020 -82.126342773438 -272.323608398438 2.384840965271
-160.861968994141 -73.447052001953 -268.992034912109 2.796815872192
8.392939567566 -79.122711181641 -281.663787841797 2.458228349686
-156.066192626953 -75.225349426270 -278.330505371094 4.861729621887
-168.423004150391 -76.557434082031 -283.942749023438 2.292546749115
-158.633987426758 -77.273834228516 -276.647552490234 2.668841838837
-169.029266357422 -74.216636657715 -283.990997314453 0.773330390453
-2.568979978561 -78.118118286133 -286.964080810547 1.643361926079
3.503278970718 -79.742607116699 -282.620361328125 1.405403614044
-106.008338928223 -74.331672668457 -288.367645263672 2.414899587631
-157.858016967773 -79.703842163086 -284.008239746094 3.472377061844
-152.183166503906 -73.924278259277 -282.520751953125 0.802043199539
-111.317626953125 -74.801582336426 -288.082489013672 1.842320680618
-156.231369018555 -77.804962158203 -288.273956298828 2.566072702408
-152.424545288086 -78.427139282227 -285.827056884766 2.411459922791
-76.173461914063 -78.047561645508 -290.546722412109 1.786266088486
-169.746170043945 -77.381095886230 -285.613098144531 3.122529745102
-127.142127990723 -73.157424926758 -288.549163818359 3.278374195099
-47.118450164795 -78.935852050781 -286.493804931641 2.716444253922
-157.330535888672 -75.468353271484 -284.937530517578 2.211113929749
-137.220779418945 -71.844421386719 -290.434143066406 1.932337164879
-22.703876495361 -73.934959411621 -293.055664062500 2.341099500656
-132.078765869141 -73.315444946289 -290.443298339844 3.340615272522
1.740218997002 -76.717041015625 -294.012176513672 2.630586624146
11.301236152649 -73.939903259277 -292.483551025391 3.001293659210
-137.606811523438 -73.244194030762 -288.684356689453 2.930875062943
-149.803421020508 -77.168380737305 -293.727752685547 2.649743556976
-160.659317016602 -78.277465820313 -310.176116943359 6.960453033447
-70.895599365234 -64.677711486816 -50.831825256348 4.959670066833
-21.302980422974 -64.333137512207 -63.347026824951 3.593614101410
-19.323642730713 -70.843200683594 -64.426788330078 2.871687412262
73.251632690430 -67.468276977539 -78.355979919434 5.645158767700
91.680549621582 -69.001525878906 -77.406623840332 5.701748371124
-36.388324737549 -68.986694335938 -78.052070617676 1.742372512817
75.871849060059 -68.842247009277 -80.846763610840 6.222427845001
90.030326843262 -72.672889709473 -83.763145446777 4.791641712189
68.448928833008 -69.424484252930 -84.684219360352 2.258540391922
73.065383911133 -68.901123046875 -90.069656372070 4.939093589783
-49.319217681885 -70.894798278809 -85.081130981445 1.378563165665
-91.402496337891 -71.660728454590 -86.294227600098 2.090418100357
58.997207641602 -71.624290466309 -94.783584594727 1.773994088173
50.267162322998 -71.333076477051 -99.784049987793 3.486317157745
93.908233642578 -67.579902648926 -100.975547790527 2.902074098587
-92.084526062012 -66.161453247070 -99.817291259766 6.101773738861
82.069572448730 -66.920806884766 -100.764945983887 2.517422914505
73.221580505371 -70.300773620605 -101.329475402832 0.852212131023
91.854545593262 -71.473548889160 -99.944313049316 2.644545793533
83.379135131836 -69.510192871094 -99.530372619629 1.790479183197
83.170600891113 -72.442985534668 -99.994239807129 1.338213920593
-85.244758605957 -71.641197204590 -100.490219116211 5.346120834351
42.468807220459 -68.812934875488 -107.518226623535 1.720387220383
105.362014770508 -71.056221008301 -112.741058349609 1.870534658432
107.981956481934 -70.676307678223 -112.819633483887 1.047708749771
47.870540618896 -72.722694396973 -119.521156311035 0.942684948444
110.834762573242 -72.622009277344 -123.150779724121 1.834264516830
116.025482177734 -73.439727783203 -137.102828979492 2.411629438400
-51.958610534668 -68.848953247070 -130.145202636719 0.750158011913
26.747692108154 -70.455085754395 -134.927734375000 1.640398859978
40.027614593506 -73.221031188965 -134.191925048828 2.067192316055
24.315032958984 -68.632003784180 -143.188156127930 1.894295096397
112.273529052734 -73.455574035645 -140.512481689453 1.493455886841
111.214653015137 -71.537048339844 -133.967605590820 1.612952470779
-74.501304626465 -71.172836303711 -146.641723632813 1.487074494362
-44.735172271729 -70.436233520508 -141.879623413086 1.712679386139
-72.191467285156 -69.537147521973 -149.817779541016 1.650640249252
18.763994216919 -69.964096069336 -149.999679565430 1.899610161781
111.583984375000 -69.361282348633 -151.720474243164 1.907508373260
-54.591480255127 -72.377342224121 -149.711471557617 1.661199569702
-72.214668273926 -69.981910705566 -149.510375976563 1.501173973083
-39.907901763916 -74.280456542969 -151.485015869141 2.361068964005
31.338079452515 -66.870063781738 -153.905380249023 3.279731988907
109.031478881836 -68.651245117188 -153.475341796875 2.131935596466
114.185447692871 -70.624061584473 -162.919418334961 2.103970050812
-69.294136047363 -68.443664550781 -153.678649902344 1.813459992409
-73.831275939941 -72.999107360840 -159.536193847656 2.285828351974
20.509267807007 -74.745391845703 -163.562179565430 1.684628963470
-61.398490905762 -69.640357971191 -165.600357055664 2.006916522980
-34.011013031006 -70.222343444824 -161.765884399414 1.916403889656
6.636981964111 -72.670639038086 -163.478759765625 1.712761402130
107.540153503418 -69.754211425781 -163.942123413086 1.832255959511
6.540424823761 -74.316314697266 -166.948562622070 2.399104118347
-34.110694885254 -71.903190612793 -164.904418945313 1.367303371429
-3.216907978058 -67.894470214844 -165.752334594727 5.175044059753
106.255271911621 -69.002449035645 -170.348068237305 2.268476724625
-42.671535491943 -69.180961608887 -164.735015869141 3.506292581558
27.775060653687 -69.224090576172 -172.801818847656 1.655211210251
111.568000793457 -74.594833374023 -174.644577026367 1.368421196938
-58.738105773926 -69.082443237305 -175.038009643555 4.302536964417
-29.659767150879 -74.129127502441 -173.923858642578 1.725912332535
101.511085510254 -71.935882568359 -176.222320556641 3.945693731308
27.751714706421 -69.971611022949 -170.277008056641 1.397079110146
106.118263244629 -73.574333190918 -177.320724487305 1.631920099258
-38.444576263428 -68.949951171875 -177.425216674805 3.039099693298
106.771354675293 -74.388740539551 -182.833023071289 1.016010284424
-63.407371520996 -69.597534179688 -176.342453002930 5.624594211578
-27.063896179199 -75.471275329590 -178.153610229492 1.075616478920
-148.044784545898 -67.530578613281 -180.646987915039 1.396286606789
-55.738414764404 -71.067962646484 -179.572021484375 3.526223659515
-148.795532226563 -72.321495056152 -183.174072265625 2.841556310654
-35.746074676514 -70.104713439941 -184.323516845703 2.950713872910
25.277181625366 -75.449440002441 -182.151046752930 1.123786091805
104.827270507813 -72.629547119141 -185.457015991211 2.539546251297
-35.673160552979 -72.182792663574 -183.119995117188 2.031259059906
9.204710006714 -72.798362731934 -190.942977905273 2.969033718109
15.261316299438 -72.176933288574 -203.860015869141 2.995592117310
-149.904510498047 -72.636428833008 -186.617782592773 0.786178290844
103.169715881348 -74.344123840332 -197.641433715820 0.931338667870
-23.158376693726 -70.024032592773 -192.750061035156 2.223596811295
99.602272033691 -73.028854370117 -190.305191040039 0.996170878410
11.130097389221 -69.921897888184 -189.731903076172 2.431808948517
-138.917037963867 -72.111190795898 -200.838134765625 1.623842597008
-140.743240356445 -72.019790649414 -196.981933593750 1.675150632858
98.273109436035 -74.937721252441 -203.313446044922 2.384200096130
-13.863837242126 -75.962707519531 -200.010452270508 2.047710180283
-18.365016937256 -73.374343872070 -202.542007446289 3.229171037674
8.454702377319 -74.526046752930 -207.465332031250 2.026260614395
-152.069595336914 -70.893516540527 -202.799636840820 2.060171604156
-148.336166381836 -73.812355041504 -204.960037231445 1.655150413513
98.021331787109 -68.651313781738 -206.775314331055 2.819925069809
-84.288154602051 -72.146392822266 -206.425262451172 5.808516979218
-38.018589019775 -73.012191772461 -200.831710815430 2.007829189301
16.598419189453 -75.282997131348 -213.595886230469 1.461594104767
-27.362394332886 -73.165351867676 -210.521652221680 2.504749536514
-78.626464843750 -70.998390197754 -206.269805908203 4.344660758972
88.850547790527 -72.783584594727 -211.539520263672 1.075999140739
-82.600563049316 -70.404113769531 -210.712509155273 2.822106122971
-149.647781372070 -73.151268005371 -215.513397216797 1.128651976585
-82.162605285645 -71.486068725586 -211.565765380859 2.123397111893
-15.384207725525 -68.243286132813 -209.669830322266 1.674064993858
-22.981536865234 -70.552597045898 -218.477676391602 1.359040498734
16.288898468018 -72.682060241699 -213.614639282227 2.011004209518
-7.819571018219 -74.279647827148 -219.296844482422 3.707173109055
-90.571701049805 -75.910545349121 -216.863372802734 1.021268248558
90.391204833984 -72.086128234863 -215.512512207031 1.589373350143
-100.629295349121 -71.823745727539 -213.585083007813 4.153533935547
-154.637771606445 -72.198120117188 -220.892349243164 2.008146047592
-27.599025726318 -72.047950744629 -223.095825195313 4.078248977661
15.498780250549 -73.317802429199 -216.322540283203 0.534610211849
-104.355239868164 -72.957275390625 -217.820159912109 2.431782245636
5.075950145721 -69.972579956055 -219.024749755859 3.638121604919
-27.917369842529 -72.857185363770 -215.007507324219 1.396464824677
80.422012329102 -71.539031982422 -225.905075073242 0.689389646053
-147.616470336914 -72.069122314453 -216.115371704102 1.408052921295
7.864853858948 -71.804115295410 -225.961547851563 1.930975437164
-11.941089630127 -75.952285766602 -225.352294921875 1.302448391914
15.098844528198 -67.374404907227 -222.954345703125 2.109617471695
81.220382690430 -73.846122741699 -223.939132690430 2.448138475418
-16.114437103271 -75.299301147461 -228.107864379883 0.724909961224
-133.010879516602 -74.069656372070 -223.749450683594 1.049260020256
-16.276933670044 -73.194732666016 -224.096694946289 1.887331366539
14.172512054443 -73.622787475586 -231.386260986328 2.440136432648
-129.187942504883 -74.971527099609 -224.485656738281 2.197432756424
-154.124679565430 -69.983726501465 -226.444061279297 2.135254383087
-144.903671264648 -72.007057189941 -225.915313720703 2.842339038849
-133.384048461914 -71.186912536621 -225.174270629883 0.848138868809
-15.599168777466 -71.059410095215 -224.934127807617 2.107003450394
69.317840576172 -72.824119567871 -229.615890502930 1.213618040085
-145.957489013672 -69.826164245605 -233.342987060547 2.557991027832
68.244918823242 -74.223495483398 -230.127883911133 2.359580993652
-22.998298645020 -76.223487854004 -229.046264648438 3.848728656769
-144.784988403320 -76.150428771973 -226.225784301758 2.199441194534
74.777465820313 -77.793540954590 -230.254714965820 2.933032751083
7.072328090668 -76.936134338379 -233.483062744141 0.865429759026
-144.257171630859 -77.166419982910 -232.152481079102 2.412958860397
-152.681304931641 -72.148063659668 -230.736358642578 2.432223796844
14.250384330750 -70.061576843262 -231.830734252930 1.510068774223
-5.422972202301 -75.622161865234 -237.477218627930 2.356309890747
-30.403163909912 -72.743873596191 -236.557693481445 3.567429065704
-4.368954181671 -69.491882324219 -237.599868774414 2.276230573654
-163.488800048828 -75.141036987305 -234.258850097656 1.757036328316
5.093811035156 -72.409729003906 -243.647674560547 1.417036175728
-167.446746826172 -73.661643981934 -235.263885498047 1.941134095192
-15.528271675110 -74.413810729980 -237.299133300781 1.611519455910
