-112.400093078613 -69.779617309570 -263.245971679688 2.874254941940
-14.931601524353 -72.735694885254 -261.791809082031 0.982641696930
-142.176208496094 -71.686584472656 -262.721466064453 1.518079996109
-126.449676513672 -71.547012329102 -261.606079101563 1.736923694611
-154.730438232422 -70.257850646973 -264.572723388672 1.931619763374
23.070278167725 -75.419525146484 -270.136383056641 1.848711848259
-149.031326293945 -74.222984313965 -280.431427001953 2.813856124878
-168.729217529297 -72.058387756348 -282.208953857422 3.498991727829
-8.540309906006 -74.356002807617 -279.241302490234 1.997802495956
-146.169036865234 -72.036125183105 -282.285766601563 1.250754237175
-9.811043739319 -72.864257812500 -283.023406982422 2.186622142792
12.568047523499 -75.023529052734 -285.591613769531 2.080091953278
-136.852600097656 -70.880805969238 -287.647125244141 2.303817510605
-68.539245605469 -75.086540222168 -287.595703125000 1.324272513390
-33.567993164063 -76.153312683105 -288.198211669922 0.737562894821
-113.137741088867 -72.521011352539 -285.730041503906 1.291095018387
-95.527595520020 -76.520538330078 -291.253173828125 1.453817129135
-89.775024414063 -73.357948303223 -292.392608642578 1.274674654007
-49.982143402100 -75.036270141602 -292.287567138672 3.748702049255
-116.194839477539 -76.572738647461 -289.901550292969 1.822411656380
-113.888618469238 -73.863014221191 -291.591064453125 0.829367578030
-33.235527038574 -71.667808532715 -289.407562255859 2.557234287262
-115.454963684082 -73.151710510254 -294.373626708984 1.626952409744
-127.180625915527 -68.538070678711 -291.805267333984 1.849024772644
-144.536285400391 -74.169204711914 -295.333374023438 2.384376287460
6.986700057983 -74.447914123535 -291.122100830078 1.444971442223
16.464567184448 -76.534881591797 -292.753509521484 0.911907255650
-160.019195556641 -71.966987609863 -294.839538574219 1.633436799049
-158.365600585938 -75.614128112793 -302.603454589844 3.595567703247
-146.862976074219 -73.746536254883 -312.288208007813 1.757014155388
-151.815185546875 -71.215126037598 -312.747375488281 0.620279431343
-152.404861450195 -73.898002624512 -315.431793212891 3.079350233078
25.036933898926 -74.199623107910 -14.201311111450 3.262595415115
27.085794448853 -69.596549987793 -17.595420837402 1.056902885437
17.783466339111 -71.542846679688 -23.705036163330 3.721728324890
25.530416488647 -69.603843688965 -38.617153167725 1.529246091843
-61.386474609375 -69.419265747070 -50.311374664307 2.625010728836
-68.483070373535 -69.817863464355 -50.839748382568 1.784047961235
-42.175479888916 -73.455123901367 -50.548057556152 2.428319692612
-87.483306884766 -66.421531677246 -63.917915344238 4.388135433197
78.178779602051 -75.906959533691 -72.759956359863 2.630812406540
-18.434478759766 -69.630798339844 -71.037704467773 1.915103435516
85.998855590820 -74.006561279297 -64.864067077637 3.050484418869
96.392662048340 -73.179290771484 -75.332389831543 0.936637878418
-95.486663818359 -68.379150390625 -77.411247253418 1.508453965187
64.732994079590 -72.886390686035 -79.226280212402 4.635211467743
-43.926418304443 -74.922378540039 -85.895118713379 2.588617324829
98.031318664551 -72.598083496094 -80.434516906738 1.833092331886
-58.379898071289 -69.744514465332 -89.182594299316 1.736230015755
48.254772186279 -73.237174987793 -89.596191406250 2.647340536118
68.090736389160 -78.271537780762 -89.446739196777 4.999979019165
52.805728912354 -72.221969604492 -95.290428161621 2.629225969315
50.126155853271 -74.713249206543 -97.560691833496 0.685942471027
71.655509948730 -76.386940002441 -94.343040466309 2.633529663086
43.909858703613 -72.798774719238 -104.328369140625 2.129278659821
97.758209228516 -74.494529724121 -99.124687194824 2.232625722885
103.266700744629 -77.874847412109 -104.658515930176 4.764128684998
77.417839050293 -70.905914306641 -102.108703613281 1.563745379448
89.182464599609 -74.968360900879 -101.918731689453 1.733686089516
98.137367248535 -74.024177551270 -93.486312866211 1.974990844727
106.888275146484 -74.613571166992 -101.930053710938 1.337852001190
37.009380340576 -72.937797546387 -105.328948974609 3.278446674347
110.156631469727 -71.758567810059 -116.844383239746 1.416164755821
111.353424072266 -75.626274108887 -117.010765075684 2.663446903229
29.017141342163 -71.633308410645 -122.857559204102 2.053652048111
42.332214355469 -74.419754028320 -117.975837707520 2.303480863571
113.013488769531 -74.958534240723 -128.312667846680 2.005506038666
33.962234497070 -72.740089416504 -125.891510009766 1.781824946404
112.730117797852 -77.993553161621 -125.809371948242 2.497992515564
106.395095825195 -75.294364929199 -120.639518737793 2.089339733124
24.267192840576 -73.927612304688 -134.916870117188 2.811921596527
-50.101844787598 -72.272018432617 -134.509399414063 1.553317308426
-54.222137451172 -70.241310119629 -135.608367919922 3.181604623795
109.198371887207 -73.929557800293 -133.157546997070 2.455811977386
-71.308975219727 -75.220481872559 -141.148574829102 1.627612709999
-74.868484497070 -72.237800598145 -141.108612060547 2.071131229401
-60.976623535156 -72.351806640625 -141.756713867188 3.149126529694
29.919961929321 -73.363021850586 -142.896911621094 3.255118131638
114.173385620117 -76.511772155762 -143.971633911133 2.367805004120
-71.286918640137 -68.656532287598 -147.868011474609 0.978793680668
-49.971744537354 -71.738914489746 -143.006896972656 2.802055358887
31.508909225464 -74.088050842285 -150.471633911133 2.224083185196
-70.042442321777 -72.881881713867 -148.512313842773 1.426872730255
111.980590820313 -73.727806091309 -139.440536499023 1.324659109116
110.092628479004 -73.087493896484 -155.713455200195 2.057630538940
114.443008422852 -75.996368408203 -151.018539428711 1.783428549767
-40.248554229736 -74.758445739746 -153.302215576172 2.164147138596
-66.384498596191 -72.085983276367 -164.965194702148 1.150665283203
-70.889297485352 -68.821655273438 -157.915466308594 3.982789993286
28.215839385986 -74.409782409668 -145.656143188477 2.937035083771
-3.807358980179 -74.947181701660 -161.799224853516 2.053271532059
107.445693969727 -74.459289550781 -159.786407470703 1.041362643242
110.004447937012 -73.134254455566 -151.171188354492 1.188214659691
110.467315673828 -77.071670532227 -156.474380493164 1.888141155243
-65.390739440918 -69.338562011719 -160.725860595703 3.160117864609
-46.990600585938 -74.256004333496 -165.555618286133 2.223205089569
-3.938036918640 -72.289276123047 -164.798843383789 3.267297744751
-30.728487014771 -72.934654235840 -175.016387939453 3.251607894897
104.373367309570 -74.023170471191 -165.442428588867 3.192645311356
-36.095279693604 -75.391014099121 -160.204818725586 0.884387433529
107.841529846191 -73.439300537109 -166.531356811523 1.568751573563
-43.269840240479 -73.028251647949 -173.907836914063 1.727104783058
107.090461730957 -72.804885864258 -166.819076538086 1.199008703232
-152.865188598633 -71.713386535645 -181.853698730469 2.148602008820
-28.313856124878 -69.098098754883 -176.894287109375 1.184853672981
-21.652553558350 -73.028198242188 -183.319335937500 1.146962523460
23.393613815308 -76.602516174316 -176.416320800781 1.213203430176
13.706990242004 -73.180038452148 -182.632431030273 1.607062339783
26.272520065308 -74.109245300293 -182.331039428711 1.467355012894
102.843963623047 -78.747360229492 -181.879333496094 1.833745241165
-153.073883056641 -67.974395751953 -186.743194580078 1.785838484764
-21.084796905518 -75.172874450684 -184.779190063477 1.706493020058
100.742317199707 -75.760749816895 -176.813461303711 5.210223674774
101.943664550781 -71.965080261230 -187.939315795898 2.974687099457
106.725387573242 -76.094108581543 -175.934097290039 2.101994514465
97.805923461914 -76.681495666504 -191.986251831055 3.234807014465
-152.479766845703 -71.385978698730 -198.330474853516 1.571754097939
98.934623718262 -75.947097778320 -203.738586425781 1.682752013206
-29.369333267212 -70.826690673828 -197.256500244141 3.192200899124
96.327003479004 -74.747367858887 -194.072738647461 3.039435148239
-122.552139282227 -74.484497070313 -201.459823608398 0.856020271778
-31.105785369873 -77.219673156738 -190.158981323242 1.674141645432
-143.009704589844 -67.078956604004 -200.027511596680 2.676112651825
94.152999877930 -75.098030090332 -196.927383422852 3.443333148956
7.466841220856 -74.290527343750 -198.603576660156 3.458030223846
22.633359909058 -72.470245361328 -191.914077758789 1.805689215660
-149.191726684570 -71.346488952637 -204.675918579102 0.907443404198
-140.034912109375 -70.331405639648 -203.703933715820 1.537458181381
-11.108412742615 -72.929244995117 -206.518295288086 1.260890126228
-125.469215393066 -71.148895263672 -205.197021484375 0.943202495575
-145.069854736328 -73.319999694824 -201.393417358398 1.665912270546
2.778371095657 -73.734642028809 -199.186172485352 6.269407749176
-25.417762756348 -75.144798278809 -201.065109252930 0.676627159119
19.496726989746 -76.539207458496 -201.637008666992 1.076280713081
5.602827072144 -74.929283142090 -211.366561889648 1.406367778778
84.407585144043 -72.516876220703 -207.032531738281 5.496874332428
-19.364915847778 -70.719749450684 -211.870223999023 1.663586020470
90.295166015625 -72.873275756836 -207.346633911133 2.876166582108
95.940238952637 -76.905273437500 -205.265350341797 1.665780425072
-149.918075561523 -72.018447875977 -216.311355590820 1.712055444717
94.439315795898 -76.781410217285 -209.854232788086 1.595789074898
3.938807964325 -72.664886474609 -206.893249511719 2.565782070160
2.572592973709 -75.709693908691 -213.983428955078 4.283506393433
-34.036991119385 -72.527587890625 -207.102264404297 1.013102531433
-90.396423339844 -71.422843933105 -214.058486938477 1.555069923401
-27.276361465454 -74.452224731445 -210.849456787109 1.635460615158
84.177337646484 -74.246337890625 -215.345153808594 1.573281645775
88.339828491211 -74.146972656250 -215.398910522461 1.040541052818
-32.837089538574 -72.201454162598 -212.340332031250 2.300927877426
-85.263839721680 -69.210884094238 -219.288833618164 3.399989843369
-2.006427049637 -75.547798156738 -218.338394165039 1.940488576889
81.076393127441 -71.450492858887 -211.676239013672 5.857232093811
-152.838668823242 -74.687767028809 -223.681350708008 2.236969709396
-166.742004394531 -69.116226196289 -216.397888183594 0.521469533443
-162.867553710938 -73.241554260254 -224.250869750977 1.274161696434
-22.230789184570 -74.177391052246 -226.798248291016 2.180692672729
-154.786056518555 -73.809791564941 -224.623687744141 1.922757029533
-6.600494861603 -74.670219421387 -224.172515869141 2.026704788208
5.612414836884 -74.696266174316 -217.916564941406 1.908962130547
-167.958724975586 -70.614662170410 -227.658416748047 1.046371221542
-159.591613769531 -71.260704040527 -229.373947143555 2.993484497070
78.454147338867 -78.104164123535 -229.867935180664 2.715198040009
-0.536565005779 -72.517913818359 -226.286895751953 1.459012389183
-158.265823364258 -66.341743469238 -228.199005126953 1.407672166824
-143.342620849609 -72.717407226563 -226.119003295898 2.259420394897
-20.031984329224 -72.343109130859 -223.844406127930 2.103033542633
-1.334099054337 -77.730392456055 -222.040084838867 1.714647650719
79.254714965820 -72.568382263184 -224.108566284180 0.826969146729
-162.008956909180 -69.233695983887 -229.946716308594 3.726490259171
-144.690795898438 -68.927101135254 -232.692825317383 2.649763584137
-125.820365905762 -69.928810119629 -232.446441650391 2.535952091217
77.946990966797 -76.325248718262 -225.128540039063 1.714571595192
-116.386093139648 -71.550285339355 -230.552200317383 0.685499548912
-147.153106689453 -71.053596496582 -231.132034301758 2.600887537003
-151.207092285156 -69.755760192871 -233.345733642578 2.667676210403
-149.748977661133 -71.825363159180 -233.214050292969 3.176886558533
-156.582550048828 -71.469970703125 -231.084442138672 1.948782086372
-165.832672119141 -71.240562438965 -231.146804809570 1.415799736977
-134.367813110352 -71.550132751465 -237.003143310547 2.717288970947
-133.984222412109 -72.511215209961 -234.782608032227 1.486333727837
-153.931091308594 -74.649444580078 -234.806289672852 2.946029901505
-145.964691162109 -67.770362854004 -238.722549438477 3.208145380020
-152.275146484375 -71.563171386719 -237.250671386719 1.767310857773
74.180770874023 -76.886856079102 -230.926498413086 2.126698970795
66.766273498535 -70.085632324219 -234.674285888672 0.440507143736
-157.628005981445 -69.597312927246 -237.421142578125 1.328062415123
71.118026733398 -70.541244506836 -231.895645141602 1.268489599228
-20.379278182983 -71.976379394531 -236.609161376953 2.356974363327
10.780387878418 -75.095138549805 -236.543975830078 1.376441597939
6.288537979126 -74.584434509277 -235.548950195313 2.437371015549
-155.026062011719 -71.235977172852 -244.648300170898 1.733463168144
14.043477058411 -73.418861389160 -240.533798217773 1.197145581245
60.371334075928 -73.523880004883 -236.729125976563 2.218147516251
12.854541778564 -71.514739990234 -237.421249389648 1.790897369385
4.810811042786 -74.282592773438 -241.132659912109 1.788314342499
-7.032899856567 -71.570343017578 -240.127944946289 0.468396276236
-21.641384124756 -71.987098693848 -242.834472656250 2.061355829239
-2.253812074661 -73.627067565918 -241.649642944336 0.999141573906
3.296288013458 -76.459945678711 -244.558074951172 1.766241073608
56.861083984375 -75.668540954590 -240.356796264648 2.423396348953
-55.980087280273 -76.147239685059 -245.218338012695 1.947977900505
19.154354095459 -73.071311950684 -246.724319458008 0.650432348251
-60.101203918457 -73.676155090332 -242.364730834961 2.498326063156
-10.328215599060 -73.790702819824 -247.704589843750 1.176436424255
-66.452835083008 -69.402618408203 -251.001434326172 3.269179105759
-86.404838562012 -70.852561950684 -254.140151977539 2.158557176590
-83.026382446289 -73.389945983887 -253.051177978516 2.116494178772
-10.204457283020 -73.052467346191 -254.621322631836 1.869630098343
-124.177177429199 -71.676177978516 -260.616210937500 1.807874679565
-14.519906997681 -74.476776123047 -252.863006591797 2.277367353439
-117.343040466309 -71.961181640625 -257.169860839844 0.937444806099
-116.791427612305 -70.680351257324 -260.111541748047 3.254563331604
-103.900093078613 -71.989677429199 -257.803771972656 2.138625621796
-144.139709472656 -70.623077392578 -263.726867675781 1.859255790710
-145.216247558594 -71.076477050781 -269.140686035156 3.535745859146
-168.912338256836 -71.222702026367 -265.863067626953 2.886592149734
19.274934768677 -77.829910278320 -279.620880126953 3.067080259323
-57.986515045166 -71.336593627930 -285.985351562500 1.430005431175
-67.212799072266 -72.031196594238 -284.428466796875 1.555045247078
-42.169792175293 -75.134010314941 -284.189636230469 2.791345119476
-28.031934738159 -74.628845214844 -286.582550048828 0.964505136013
-96.278663635254 -74.477546691895 -290.364135742188 1.908166527748
-30.793052673340 -71.736900329590 -285.903839111328 1.756776213646
-4.094123840332 -74.105682373047 -285.933868408203 1.287023782730
-167.303253173828 -71.497962951660 -291.553314208984 3.373069047928
-15.893820762634 -75.942382812500 -285.795745849609 1.827320575714
6.371573925018 -75.430435180664 -287.525421142578 0.757480025291
14.031468391418 -78.654350280762 -283.034759521484 2.242522954941
-56.967761993408 -75.517906188965 -288.152984619141 1.528323054314
-33.156311035156 -74.087135314941 -291.672546386719 1.645905852318
14.317657470703 -72.579910278320 -292.574981689453 1.483800292015
-70.801406860352 -71.699661254883 -293.713836669922 2.073641777039
-40.181518554688 -71.024620056152 -289.486907958984 1.529110908508
-17.788703918457 -71.910881042480 -289.981750488281 1.154209375381
15.067605018616 -76.633216857910 -290.457427978516 0.802170217037
-11.493794441223 -75.674430847168 -294.065338134766 2.362751245499
4.050257205963 -73.120117187500 -293.451141357422 0.556913435459
14.269620895386 -76.354393005371 -290.044830322266 1.372772216797
-134.766342163086 -71.061950683594 -296.093475341797 2.064761400223
-144.818572998047 -74.241165161133 -301.005157470703 1.215435504913
-150.643890380859 -72.395484924316 -315.179016113281 2.439725637436
39.480503082275 -70.767997741699 -12.811934471130 2.432278156281
26.551368713379 -70.969306945801 -11.102090835571 2.535987138748
35.746791839600 -71.426010131836 -14.558673858643 1.184474229813
18.540121078491 -67.940612792969 -18.162975311279 3.637657165527
41.538368225098 -69.460289001465 -21.463233947754 0.648652970791
22.151212692261 -69.389259338379 -23.343530654907 2.492698431015
20.377876281738 -71.464935302734 -26.867822647095 1.394975781441
21.552581787109 -72.152641296387 -37.625236511230 2.293408632278
36.177398681641 -73.518592834473 -29.910982131958 6.168235301971
22.976821899414 -74.772781372070 -35.615695953369 3.089519977570
39.837913513184 -70.340423583984 -36.768810272217 1.748265862465
28.626523971558 -71.975852966309 -38.660385131836 1.445635080338
35.482597351074 -72.862129211426 -35.063747406006 2.410056829453
27.742338180542 -70.594566345215 -39.224094390869 0.902662336826
40.393058776855 -71.627517700195 -40.250686645508 1.219517469406
30.490739822388 -70.982696533203 -38.220237731934 2.109798192978
-44.050674438477 -68.652191162109 -48.588809967041 1.907263994217
-33.101902008057 -65.685791015625 -50.869491577148 3.957964658737
-92.394676208496 -68.117759704590 -55.795856475830 4.170842170715
-91.966125488281 -70.590293884277 -66.525718688965 1.005461931229
74.968429565430 -74.833160400391 -65.119148254395 5.190040111542
81.490257263184 -72.323974609375 -70.873214721680 1.768915653229
-22.427261352539 -68.978385925293 -73.539375305176 0.957079291344
-91.059837341309 -69.896514892578 -72.681823730469 2.343702316284
-27.932975769043 -70.171470642090 -76.780754089355 1.046620368958
-52.340499877930 -71.570144653320 -85.316322326660 2.825455427170
63.321823120117 -68.703422546387 -84.891677856445 2.247901678085
50.167701721191 -71.255607604980 -92.038757324219 1.797430992126
96.939620971680 -71.175239562988 -89.527587890625 2.784426450729
66.911857604980 -74.024711608887 -95.092910766602 4.373480319977
-70.816978454590 -71.661376953125 -91.655242919922 6.502300262451
-64.648696899414 -68.601585388184 -98.447303771973 1.295882344246
42.314277648926 -72.591026306152 -96.291259765625 2.854578018188
74.966629028320 -71.256484985352 -98.268676757813 2.082030773163
51.984306335449 -79.311477661133 -103.648170471191 1.556207656860
98.764305114746 -72.607269287109 -94.631172180176 1.947675824165
-97.585113525391 -71.584259033203 -108.247352600098 2.612322092056
37.529895782471 -72.443481445313 -109.603233337402 0.649769067764
104.674537658691 -74.006187438965 -106.603988647461 2.159840345383
46.183452606201 -72.192153930664 -110.050216674805 2.836239337921
99.129028320313 -74.037620544434 -107.683517456055 4.145030021667
-87.701271057129 -70.260276794434 -116.161376953125 1.658063173294
33.472660064697 -75.265411376953 -110.811737060547 3.191686868668
104.388565063477 -72.130142211914 -114.680885314941 0.944837689400
102.487716674805 -70.626228332520 -113.722091674805 2.712546586990
103.242698669434 -73.544029235840 -112.984954833984 1.927048683167
108.251106262207 -72.276756286621 -112.385185241699 0.820522427559
37.556522369385 -73.839172363281 -109.062477111816 1.554891824722
29.847755432129 -69.741577148438 -116.355606079102 4.589148521423
38.650207519531 -71.843162536621 -113.023017883301 1.213389635086
104.584541320801 -74.552795410156 -119.610534667969 2.737695693970
37.978862762451 -70.700942993164 -122.145225524902 1.731542587280
107.029808044434 -72.567207336426 -129.974426269531 2.671654939651
108.893814086914 -72.165145874023 -128.840240478516 2.136823177338
31.406957626343 -70.009132385254 -119.630012512207 2.656203031540
-80.122200012207 -70.311378479004 -126.073669433594 1.694302201271
111.871047973633 -71.038337707520 -131.999191284180 2.001096725464
-56.455478668213 -71.066177368164 -137.751342773438 1.249602556229
33.447498321533 -73.098617553711 -133.670120239258 3.034551620483
-75.361488342285 -70.989051818848 -135.977966308594 1.453676581383
24.791992187500 -74.280967712402 -130.713973999023 4.172077178955
-81.591072082520 -71.152900695801 -143.442245483398 4.418066024780
-47.369544982910 -74.061027526855 -142.014877319336 2.658169746399
-76.045585632324 -71.369445800781 -138.723526000977 1.183882951736
108.136543273926 -72.605087280273 -134.837707519531 3.022716760635
115.193588256836 -71.807441711426 -139.291091918945 1.580860733986
116.085670471191 -76.676284790039 -144.013168334961 2.467969894409
-79.309356689453 -69.759208679199 -144.251907348633 2.933419227600
6.129745960236 -68.309715270996 -150.173873901367 3.758558988571
-53.977420806885 -71.749252319336 -149.565338134766 1.115681648254
-52.688468933105 -72.127006530762 -155.452514648438 2.132911920547
105.103530883789 -73.983863830566 -159.483886718750 3.294821977615
-43.415012359619 -73.065933227539 -149.260696411133 1.183500766754
12.175412178040 -70.184204101563 -156.947357177734 1.493764519691
20.458389282227 -73.973152160645 -156.686035156250 0.956190824509
112.967498779297 -73.149826049805 -162.343444824219 1.469837188721
28.060798645020 -72.043121337891 -164.731445312500 2.198945522308
-2.681168079376 -73.394241333008 -162.916961669922 1.742094039917
30.016996383667 -73.337791442871 -159.751815795898 2.848517656326
-69.603553771973 -69.379859924316 -158.110916137695 3.024602413177
-67.602287292480 -70.686386108398 -159.506988525391 1.916159868240
-70.595046997070 -69.724250793457 -166.077575683594 4.370483875275
112.961662292480 -70.447578430176 -159.175399780273 0.837744176388
-46.350330352783 -71.559158325195 -163.046539306641 0.868073523045
15.998024940491 -72.556343078613 -164.667678833008 2.454302549362
-65.623466491699 -70.146026611328 -169.980743408203 3.311691045761
-64.709327697754 -69.471015930176 -171.731765747070 3.942889213562
-43.133064270020 -72.255851745605 -160.252426147461 1.805127978325
-35.292354583740 -73.708885192871 -168.480529785156 3.123951435089
113.276382446289 -75.924766540527 -168.955993652344 1.708080530167
-38.526103973389 -67.174827575684 -179.766632080078 5.234773635864
12.072460174561 -73.398696899414 -172.330154418945 5.058919429779
109.168739318848 -76.561332702637 -182.013351440430 2.152405500412
-149.230789184570 -71.587448120117 -177.511291503906 2.430578947067
-147.529479980469 -69.667449951172 -175.009704589844 1.759374380112
-150.160324096680 -68.168777465820 -181.441192626953 2.600860357285
-143.945785522461 -71.366386413574 -184.135620117188 2.708137750626
-33.308555603027 -70.514892578125 -185.355438232422 1.126454591751
-24.572853088379 -72.042701721191 -185.433654785156 1.477016448975
21.920356750488 -69.217414855957 -190.165512084961 2.224917888641
-142.858489990234 -69.256942749023 -188.098297119141 1.225142717361
-148.689819335938 -70.289505004883 -189.999694824219 2.600888252258
-22.720468521118 -69.468536376953 -186.173416137695 0.832149684429
9.592784881592 -72.751846313477 -181.762680053711 5.050131797791
-150.675537109375 -69.939781188965 -195.731597900391 1.290719389915
-33.014698028564 -72.505607604980 -187.787597656250 2.106656074524
98.681938171387 -73.902397155762 -186.256347656250 4.259119510651
104.864440917969 -73.011451721191 -187.646804809570 1.362060070038
22.876064300537 -68.470581054688 -192.519104003906 2.320799112320
-14.925828933716 -72.320945739746 -188.061813354492 4.724005222321
-29.117614746094 -73.816955566406 -193.111679077148 1.404825925827
-156.600845336914 -70.939865112305 -200.687667846680 2.266680955887
-133.918289184570 -71.158561706543 -198.089111328125 0.941123247147
-126.451095581055 -67.746078491211 -196.212356567383 3.012647867203
-125.940948486328 -68.765075683594 -198.778274536133 3.915836095810
-23.729379653931 -67.988464355469 -195.906066894531 0.688004195690
11.282578468323 -74.489715576172 -191.626159667969 0.405560076237
91.344039916992 -77.352020263672 -199.191635131836 5.105844974518
-151.301086425781 -66.361068725586 -196.969161987305 2.154489994049
-146.279327392578 -67.631668090820 -200.192123413086 2.622175693512
-152.116439819336 -69.361015319824 -201.662048339844 1.753576040268
-156.164199829102 -67.624145507813 -199.055313110352 2.679107427597
-26.014886856079 -71.525947570801 -199.379348754883 1.959789037704
-12.013952255249 -70.741706848145 -194.962982177734 2.405013084412
-147.513595581055 -66.226188659668 -203.630889892578 3.167449951172
-19.682048797607 -71.347198486328 -200.856124877930 2.589914321899
-162.622177124023 -69.027328491211 -202.319229125977 1.921001076698
-135.586654663086 -69.943840026855 -200.686157226563 2.448561429977
14.536992073059 -74.483383178711 -206.206756591797 3.164495468140
-162.418838500977 -66.604827880859 -205.800613403320 2.649975776672
-147.278274536133 -71.405548095703 -207.920928955078 2.111359119415
7.051867008209 -70.695960998535 -202.164169311523 2.316800355911
-155.272476196289 -67.351211547852 -204.252288818359 2.938455104828
-25.797286987305 -71.426223754883 -201.616012573242 3.037422657013
96.093338012695 -74.566497802734 -197.373504638672 2.458162069321
-159.528747558594 -70.754096984863 -214.101684570313 2.124576807022
-165.659561157227 -72.672439575195 -209.359024047852 1.668347239494
-77.964416503906 -69.185920715332 -208.852249145508 3.235324621201
88.153617858887 -73.232948303223 -207.239044189453 3.472767114639
-4.809773921967 -71.299186706543 -217.933944702148 2.589530706406
-155.565933227539 -68.755714416504 -214.488739013672 3.043501853943
-88.665252685547 -71.088264465332 -214.143524169922 1.790755867958
-10.453897476196 -74.852600097656 -210.872207641602 2.449722766876
14.587897300720 -72.593399047852 -219.170120239258 1.587029933929
-145.896469116211 -70.778533935547 -221.520782470703 1.636966586113
-4.629073143005 -76.303825378418 -220.380676269531 1.122927069664
-20.407915115356 -73.177055358887 -217.975418090820 0.920797884464
-15.566826820374 -69.246124267578 -220.175964355469 1.893760681152
89.233131408691 -74.023689270020 -217.341064453125 0.908188223839
-21.756742477417 -70.916305541992 -216.612380981445 1.685097217560
-32.757862091064 -71.433723449707 -217.073379516602 2.880410909653
-108.432106018066 -66.596694946289 -225.797454833984 1.573475241661
-17.059759140015 -70.726646423340 -222.972106933594 0.709473669529
91.433929443359 -72.096961975098 -217.235275268555 2.284346103668
76.489303588867 -74.604743957520 -218.907272338867 4.741783142090
6.177728176117 -73.834541320801 -218.730651855469 2.635489940643
-12.072422981262 -70.322219848633 -225.104095458984 2.397488832474
77.645462036133 -74.421447753906 -220.468078613281 2.846304893494
-123.337020874023 -73.638671875000 -226.342010498047 0.996825516224
-20.955596923828 -70.375656127930 -223.030334472656 2.811827421188
-98.071655273438 -70.271537780762 -224.494628906250 0.982202827930
-103.437950134277 -70.903411865234 -225.109756469727 1.585262179375
-132.468475341797 -72.302116394043 -229.998550415039 1.826547622681
80.359497070313 -74.012893676758 -222.067535400391 1.268994808197
-124.084167480469 -71.070045471191 -228.508377075195 2.304233312607
3.857187032700 -72.116432189941 -228.267135620117 1.917932629585
80.305900573730 -72.567100524902 -222.897750854492 2.372110128403
-16.595140457153 -73.397544860840 -230.307922363281 1.739357113838
-14.452157974243 -73.109115600586 -227.168075561523 0.994184076786
-2.804173946381 -77.493606567383 -229.446517944336 1.546223521233
9.361166954041 -74.595497131348 -226.825500488281 2.219957351685
87.949478149414 -75.299812316895 -224.821136474609 2.821776390076
9.139386177063 -71.383018493652 -230.871612548828 2.254710674286
4.688275814056 -72.442321777344 -228.951995849609 1.782305240631
-9.865817070007 -73.053558349609 -230.948394775391 1.646777272224
-7.620627880096 -73.364891052246 -229.799942016602 2.198215484619
17.936609268188 -71.800094604492 -232.092041015625 1.580597758293
-13.237259864807 -70.080139160156 -233.021987915039 1.925392746925
70.283424377441 -74.475036621094 -238.391021728516 1.920999407768
-9.846331596375 -71.132331848145 -238.563446044922 2.122638463974
18.211692810059 -74.035263061523 -235.074615478516 1.456837296486
-163.555953979492 -68.694763183594 -242.202682495117 2.222537517548
-6.308281898499 -70.562026977539 -236.786132812500 1.700935482979
-8.832296371460 -73.397804260254 -239.908996582031 1.039113044739
-168.251861572266 -70.561965942383 -252.587600708008 1.471057772636
-11.493703842163 -71.079948425293 -244.187789916992 1.316362380981
14.942662239075 -70.562911987305 -244.938674926758 2.220910310745
-148.244689941406 -72.233894348145 -253.330917358398 2.785371541977
-73.875335693359 -71.006904602051 -250.989089965820 1.851056814194
-62.294162750244 -72.603385925293 -247.433715820313 1.791905403137
51.699707031250 -71.588462829590 -245.750701904297 2.368348360062
-75.327606201172 -71.135581970215 -247.413833618164 2.285712480545
16.235532760620 -73.785690307617 -248.903839111328 2.846446037292
-73.698257446289 -71.982772827148 -251.869033813477 1.777021646500
-16.012405395508 -70.949493408203 -245.778366088867 3.413559675217
-146.125137329102 -73.038192749023 -254.214630126953 1.429091811180
46.019863128662 -70.444923400879 -249.027908325195 1.893313646317
-80.638732910156 -73.662185668945 -256.350250244141 2.100247621536
-103.286033630371 -68.314865112305 -255.998870849609 2.332470893860
-99.954521179199 -72.755149841309 -255.470428466797 0.715078353882
-120.464584350586 -68.964447021484 -254.203170776367 3.328527450562
-106.357833862305 -68.747268676758 -258.150939941406 2.657866001129
-106.382316589355 -70.827926635742 -259.109100341797 1.890608429909
21.058986663818 -70.894760131836 -257.903869628906 3.229571580887
-129.801406860352 -68.517097473145 -266.391601562500 3.080910444260
-14.249966621399 -73.740318298340 -275.358032226563 2.818274497986
-147.949615478516 -68.309135437012 -284.861877441406 2.335597991943
-169.041244506836 -71.956069946289 -287.309234619141 2.594717979431
-125.312919616699 -72.027259826660 -285.340057373047 0.747973322868
-114.468544006348 -68.309005737305 -287.981536865234 1.480899453163
-75.889587402344 -67.825096130371 -285.158264160156 2.992803812027
-57.896511077881 -72.816116333008 -287.053894042969 2.479232072830
-42.283248901367 -71.403274536133 -286.252624511719 1.627543449402
-15.766190528870 -75.861419677734 -289.603149414063 2.163748025894
-14.140454292297 -70.636802673340 -291.577209472656 2.035045862198
-38.812896728516 -74.349685668945 -290.296661376953 1.524122834206
-34.802391052246 -72.373382568359 -288.862396240234 1.967662334442
-19.380563735962 -69.870788574219 -288.679870605469 3.783029079437
-72.187271118164 -71.016441345215 -293.582305908203 3.178466796875
-55.955699920654 -71.565788269043 -291.434631347656 2.293112277985
-18.019126892090 -69.500091552734 -291.408233642578 3.088940858841
-14.215383529663 -74.433410644531 -289.521423339844 1.808980226517
-4.132294178009 -72.302917480469 -292.087829589844 2.594322681427
2.084237098694 -69.986099243164 -291.860260009766 1.674318671227
-92.581573486328 -71.744140625000 -293.781738281250 2.991784572601
-140.201095581055 -72.517562866211 -296.416107177734 3.941179513931
-116.762023925781 -72.188568115234 -293.762115478516 1.948241233826
-153.959228515625 -69.532958984375 -296.545501708984 1.472663164139
-152.354034423828 -71.424430847168 -301.095214843750 1.971789240837
-147.080261230469 -69.289588928223 -301.576019287109 2.481782913208
41.005836486816 -68.118431091309 -20.136363983154 1.423238992691
16.382686614990 -72.611770629883 -22.652034759521 5.289883136749
46.094314575195 -67.724258422852 -23.897417068481 2.759727716446
43.736457824707 -71.318466186523 -33.904487609863 2.454721212387
84.662467956543 -71.278213500977 -68.471664428711 1.308123111725
92.642425537109 -73.230300903320 -72.077423095703 1.296218991280
98.365676879883 -71.335685729980 -76.231109619141 2.294338464737
95.501029968262 -72.271392822266 -81.611854553223 2.900137186050
53.965610504150 -72.108734130859 -88.107757568359 1.002820611000
42.783336639404 -76.048248291016 -89.993309020996 7.052037239075
60.625621795654 -70.216133117676 -89.418182373047 2.121673822403
-67.837783813477 -66.856903076172 -93.616859436035 3.750898838043
68.074844360352 -70.822128295898 -86.361083984375 2.980356216431
98.320838928223 -65.902870178223 -97.108993530273 2.410055875778
71.938621520996 -72.295989990234 -99.592102050781 1.826201558113
91.743423461914 -70.857696533203 -100.797080993652 2.257360219955
-87.112220764160 -69.961799621582 -104.178131103516 3.362954378128
42.536434173584 -70.083755493164 -97.046791076660 3.146418809891
-89.063232421875 -70.339828491211 -103.018051147461 5.193944454193
48.666362762451 -72.645683288574 -109.173561096191 0.954665124416
35.134708404541 -76.011474609375 -102.587509155273 6.046092987061
99.592094421387 -71.103782653809 -101.418418884277 1.935402989388
34.660202026367 -70.780807495117 -104.999687194824 5.201313972473
40.191017150879 -72.260772705078 -117.513175964355 2.590923309326
40.291992187500 -70.957382202148 -112.025245666504 1.409966707230
107.630310058594 -70.958946228027 -110.434494018555 1.814527034760
-83.721519470215 -73.167236328125 -122.196876525879 3.377406120300
109.834724426270 -75.478141784668 -121.980728149414 2.186753034592
37.742580413818 -67.851936340332 -123.811225891113 2.763987064362
38.163387298584 -70.487426757813 -119.257293701172 1.675923943520
32.606739044189 -71.509841918945 -119.972938537598 2.319595336914
-58.081619262695 -73.807472229004 -129.882995605469 1.700813412666
27.831996917725 -70.197570800781 -122.642814636230 3.235783338547
-79.568115234375 -67.892295837402 -138.501434326172 1.092298507690
-57.658058166504 -73.001014709473 -132.937591552734 0.438839137554
-81.714569091797 -67.450691223145 -135.603073120117 1.734120130539
33.299770355225 -69.414787292480 -129.870437622070 1.191613078117
-61.901126861572 -70.820823669434 -134.028778076172 1.813057422638
32.874221801758 -70.534629821777 -132.501235961914 1.782268762589
-74.153877258301 -67.850677490234 -140.250274658203 1.382883310318
-61.409534454346 -67.530731201172 -141.213729858398 2.108051300049
23.491188049316 -71.905715942383 -141.887252807617 2.031259775162
108.664634704590 -75.056465148926 -141.190490722656 1.206363081932
113.058876037598 -68.729331970215 -135.228973388672 0.907497882843
28.511457443237 -71.275032043457 -140.704803466797 1.446352124214
-50.433616638184 -71.298576354980 -140.492034912109 2.604156494141
104.729736328125 -70.518692016602 -150.419311523438 5.774057388306
-77.753860473633 -69.449943542480 -143.744094848633 1.958506941795
-60.834526062012 -69.888526916504 -142.749526977539 1.542878270149
29.495677947998 -67.528556823730 -146.679946899414 1.710615754128
-79.734062194824 -70.856101989746 -146.855804443359 3.945966005325
-72.762184143066 -69.666206359863 -150.869308471680 1.658473253250
112.698333740234 -76.153396606445 -147.610809326172 1.625088691711
-66.722129821777 -69.251388549805 -155.650070190430 1.211977362633
-41.425525665283 -67.662269592285 -152.451858520508 2.764547586441
23.526700973511 -69.693916320801 -145.288101196289 3.002573966980
-75.392509460449 -70.058227539063 -146.689727783203 0.899987339973
10.241497993469 -70.584053039551 -149.253341674805 1.532783627510
29.775594711304 -70.825515747070 -156.161682128906 1.077397942543
28.861703872681 -69.099250793457 -149.487045288086 1.829558253288
13.045628547668 -75.277984619141 -153.551040649414 2.611667871475
-52.052043914795 -71.493240356445 -153.573974609375 0.908096849918
22.609495162964 -72.516159057617 -152.470291137695 1.488914132118
-48.352733612061 -69.241378784180 -150.478530883789 0.972559571266
2.591084957123 -71.130393981934 -153.654937744141 4.463507652283
18.288766860962 -70.352951049805 -149.360733032227 1.658898591995
-70.983383178711 -69.175010681152 -158.021209716797 3.750699996948
-48.752471923828 -67.373138427734 -154.441757202148 3.162041664124
-70.323432922363 -69.286712646484 -154.365325927734 1.574903368950
16.046379089355 -70.026679992676 -157.913681030273 1.396853804588
22.031667709351 -70.360168457031 -149.446105957031 2.223191261292
0.481442004442 -70.989616394043 -164.159652709961 1.620563745499
19.162061691284 -70.969581604004 -152.963958740234 2.800302982330
28.726757049561 -71.128097534180 -166.428924560547 1.689218878746
-49.408748626709 -71.461120605469 -163.523239135742 2.555116653442
-38.969093322754 -76.300552368164 -163.336776733398 3.045380115509
-42.969448089600 -71.000137329102 -161.052978515625 0.804800152779
25.685714721680 -71.586914062500 -157.986083984375 1.005594730377
-46.308235168457 -68.641258239746 -167.080352783203 4.515983104706
-41.822147369385 -68.892761230469 -166.612136840820 2.758643150330
19.298154830933 -69.966590881348 -165.164291381836 2.284218311310
-41.840682983398 -70.914512634277 -175.407409667969 3.468442678452
25.932397842407 -68.011344909668 -169.436721801758 0.989208221436
109.619285583496 -69.575637817383 -163.126800537109 1.394146442413
-35.545249938965 -70.365005493164 -172.139358520508 2.000543832779
100.768440246582 -70.268104553223 -171.577072143555 5.723746299744
-36.535964965820 -70.104644775391 -177.552505493164 1.216753363609
-39.378780364990 -73.310089111328 -181.553817749023 3.622772932053
19.135871887207 -74.029388427734 -176.374145507813 0.950444877148
103.883277893066 -72.983604431152 -180.268066406250 1.780533075333
-33.382160186768 -69.059272766113 -183.008560180664 1.548584818840
-37.149848937988 -69.931869506836 -177.648193359375 1.661750555038
-25.119853973389 -74.085807800293 -186.770950317383 1.810524821281
-150.877182006836 -69.480812072754 -190.549911499023 2.450248718262
11.028670310974 -70.983367919922 -182.863998413086 3.714231252670
103.170059204102 -71.335937500000 -189.401107788086 1.816011548042
-160.735015869141 -68.416053771973 -194.842346191406 0.918509066105
-24.777418136597 -67.826889038086 -189.530471801758 1.041643142700
-117.391677856445 -71.075035095215 -198.533157348633 2.896787166595
-132.573410034180 -70.610305786133 -196.970382690430 0.992765426636
-109.595085144043 -70.115303039551 -200.896026611328 2.170663833618
-115.338775634766 -68.743522644043 -201.414276123047 2.925933361053
-14.095052719116 -71.756477355957 -196.186798095703 1.233590245247
18.360269546509 -70.288436889648 -195.529174804688 0.843041300774
-17.443355560303 -67.394027709961 -201.799835205078 2.594718456268
-128.348556518555 -69.408096313477 -206.913162231445 3.547761917114
-22.463495254517 -67.328620910645 -202.992218017578 2.641970157623
-131.000350952148 -68.212203979492 -204.328430175781 1.337382912636
-17.117603302002 -71.065399169922 -200.134506225586 1.277538061142
-147.717605590820 -67.930809020996 -204.440948486328 3.493774652481
90.241828918457 -68.897010803223 -204.957687377930 4.552384376526
-166.126678466797 -64.123374938965 -203.392868041992 2.916296482086
-4.241415977478 -72.892478942871 -217.547058105469 1.648906469345
9.885374069214 -72.539962768555 -209.397308349609 0.668885171413
8.827479362488 -73.534332275391 -216.532135009766 1.316487908363
81.178024291992 -72.450271606445 -215.280105590820 2.983638763428
6.989760875702 -72.357223510742 -212.614135742188 0.883924186230
11.146832466125 -70.579780578613 -214.275802612305 0.734705865383
-17.348871231079 -74.236961364746 -215.756469726563 1.879725694656
-91.948074340820 -70.318794250488 -215.336532592773 1.489037156105
-99.444084167480 -69.959938049316 -217.575012207031 1.040919780731
-1.399544000626 -70.275672912598 -218.825119018555 0.975866615772
-167.853439331055 -70.723899841309 -223.851852416992 2.127858638763
13.757458686829 -69.533271789551 -219.121582031250 0.810102045536
-145.991790771484 -68.566703796387 -222.872940063477 2.132807970047
11.623049736023 -71.851699829102 -224.455535888672 2.380381822586
-135.982955932617 -70.723587036133 -226.329818725586 1.925542235374
-117.226242065430 -70.636093139648 -228.409790039063 0.994773626328
15.389233589172 -70.800003051758 -220.351028442383 1.690058350563
77.011489868164 -72.474723815918 -219.996231079102 4.279984474182
5.394924163818 -71.420150756836 -223.065521240234 2.452635526657
-111.105728149414 -69.106811523438 -232.065719604492 0.243775978684
71.053459167480 -73.326713562012 -226.507202148438 3.038357973099
82.722946166992 -73.671936035156 -228.032592773438 1.883843660355
-126.381423950195 -69.406356811523 -236.444992065430 2.594157218933
-118.276031494141 -69.709159851074 -231.698425292969 1.694036960602
-11.277653694153 -68.109008789063 -227.671005249023 1.057010889053
70.732643127441 -73.158691406250 -230.108428955078 1.342996239662
63.423133850098 -72.960136413574 -232.016204833984 4.780607700348
72.023788452148 -71.967247009277 -228.206817626953 1.366417288780
-136.403259277344 -66.202926635742 -235.620605468750 2.435503005981
68.927169799805 -73.529975891113 -231.097961425781 1.259813547134
65.012504577637 -70.269874572754 -234.157974243164 2.149893045425
-167.348831176758 -67.587425231934 -232.460235595703 2.773289918900
0.235598996282 -77.823150634766 -240.566024780273 2.370566368103
18.213647842407 -73.003074645996 -238.923217773438 1.556950688362
-7.101146221161 -68.878860473633 -240.496688842773 2.138542890549
14.695720672607 -66.890716552734 -238.839813232422 3.426736354828
65.060462951660 -73.395385742188 -236.946807861328 1.836001515388
7.863237857819 -69.882118225098 -242.997985839844 1.429441809654
-11.964147567749 -65.470535278320 -240.718933105469 1.559607267380
-1.652559995651 -68.360565185547 -237.219009399414 1.039108157158
63.841209411621 -73.108535766602 -241.272964477539 1.299445271492
1.958912014961 -72.080642700195 -242.238388061523 1.713273167610
-8.087470054626 -72.163894653320 -242.944931030273 1.863670468330
13.154972076416 -74.081939697266 -242.400619506836 1.593640327454
-168.597030639648 -70.635971069336 -243.047988891602 2.715173959732
54.982021331787 -72.704986572266 -246.220672607422 2.042261362076
49.035430908203 -66.863494873047 -249.947723388672 1.463517189026
57.090522766113 -73.091461181641 -241.742965698242 1.688084483147
-13.165702819824 -69.703620910645 -247.813720703125 1.271397948265
56.130004882813 -72.205085754395 -244.642623901367 0.739223718643
-74.882705688477 -70.001739501953 -250.569549560547 1.503662347794
49.746456146240 -72.714012145996 -247.692001342773 0.932730734348
-89.710968017578 -70.083442687988 -253.388412475586 1.384789109230
-124.139549255371 -70.873771667480 -258.003204345703 2.398276329041
-133.359695434570 -69.582901000977 -254.401870727539 2.228626728058
45.109661102295 -73.814819335938 -250.951736450195 2.287899732590
-133.558624267578 -72.105964660645 -254.625885009766 1.077663779259
-110.110725402832 -68.226570129395 -256.265808105469 0.674857556820
-116.953239440918 -67.677284240723 -258.724884033203 0.308967858553
-84.702735900879 -70.756530761719 -255.496322631836 1.506558060646
-111.862113952637 -68.291580200195 -260.338134765625 1.712390899658
-124.972015380859 -73.007942199707 -263.743408203125 1.236060738564
-147.254592895508 -67.040191650391 -269.280151367188 3.331415653229
-16.109357833862 -70.120269775391 -265.558410644531 1.843308925629
-172.184066772461 -71.081565856934 -266.417449951172 4.721964836121
-15.307980537415 -70.957420349121 -273.699615478516 1.557228803635
-159.745803833008 -66.132240295410 -269.120483398438 4.113145351410
-153.420639038086 -69.673782348633 -275.153015136719 2.424879312515
-170.600891113281 -69.163528442383 -279.476196289063 4.782577037811
-14.905559539795 -71.604507446289 -279.248474121094 3.829341173172
-130.841522216797 -72.139305114746 -284.563293457031 2.943335533142
-158.615417480469 -69.178344726563 -288.015106201172 2.956844329834
-144.596649169922 -68.673072814941 -282.577606201172 1.739099502563
-135.579177856445 -72.517578125000 -281.963439941406 3.113374948502
-8.744010925293 -66.025154113770 -284.347381591797 3.013707637787
-126.543426513672 -73.313255310059 -284.758270263672 1.523291468620
-141.605621337891 -67.682182312012 -287.190521240234 0.664805471897
-116.378158569336 -72.903419494629 -286.933502197266 1.729331493378
-79.552497863770 -68.747833251953 -288.813140869141 1.520452737808
-61.317386627197 -71.513069152832 -287.566131591797 2.517350673676
-7.621054172516 -72.625396728516 -287.640502929688 2.400225400925
-54.530460357666 -69.786666870117 -286.148803710938 2.716660737991
-57.767929077148 -68.647445678711 -289.112548828125 1.684778690338
-70.949226379395 -69.021522521973 -290.973480224609 2.863013505936
-88.569717407227 -69.584999084473 -294.657135009766 2.523895263672
-95.593070983887 -68.133560180664 -289.965423583984 2.313483953476
-160.871658325195 -68.530517578125 -293.286468505859 2.692518949509
-161.628738403320 -70.332244873047 -295.526916503906 2.595146656036
-125.194206237793 -72.696166992188 -295.204895019531 1.408537983894
-145.175827026367 -69.854652404785 -296.588653564453 2.508705139160
-153.505889892578 -71.854164123535 -305.424285888672 2.441068649292
-150.830078125000 -72.034217834473 -313.799163818359 1.510039567947
44.009052276611 -68.456970214844 -13.755762100220 2.726870298386
12.977412223816 -71.217384338379 -29.271703720093 7.074254512787
38.301509857178 -66.640762329102 -33.870422363281 0.904994130135
-18.829795837402 -72.489723205566 -66.256233215332 2.232980728149
78.496444702148 -68.942771911621 -63.802322387695 1.730113148689
85.408546447754 -66.916168212891 -64.573554992676 2.420494794846
74.540382385254 -73.697029113770 -64.153991699219 5.643089294434
69.441841125488 -71.815231323242 -67.992141723633 3.374567508698
87.961402893066 -73.224098205566 -73.453247070313 2.726119518280
-99.332962036133 -65.224609375000 -71.241165161133 3.372322320938
64.609161376953 -71.180870056152 -74.231269836426 4.724368572235
-39.730278015137 -70.196174621582 -77.545410156250 1.274569749832
95.841369628906 -70.940277099609 -84.306594848633 3.338227748871
58.484550476074 -67.964080810547 -89.333412170410 2.889972686768
104.064613342285 -75.514869689941 -91.936004638672 5.632448196411
98.562591552734 -74.519416809082 -96.778823852539 2.170623064041
69.400436401367 -70.549842834473 -99.420433044434 1.744365096092
-83.062126159668 -67.538429260254 -102.270790100098 1.483564496040
51.474666595459 -70.393814086914 -103.240737915039 2.577950000763
104.279617309570 -68.582527160645 -104.378913879395 1.428937077522
44.268852233887 -71.046691894531 -111.490440368652 1.123242020607
77.040985107422 -69.684638977051 -104.100875854492 0.655345916748
38.783729553223 -69.906097412109 -106.618843078613 0.833612799644
101.342811584473 -70.684272766113 -101.599937438965 0.834582507610
44.706729888916 -69.777107238770 -106.883377075195 1.026881098747
104.348037719727 -75.795768737793 -108.188598632813 1.613932728767
107.279403686523 -73.979393005371 -109.589149475098 1.073211908340
-82.186340332031 -66.773757934570 -114.906089782715 1.911791801453
-85.664550781250 -66.953933715820 -120.143173217773 0.716951489449
41.159725189209 -73.253257751465 -119.155952453613 2.865091800690
111.061195373535 -72.748466491699 -119.521713256836 1.528643727303
110.991699218750 -70.903427124023 -121.826049804688 0.759468257427
-89.889244079590 -67.758880615234 -127.799942016602 1.841726303101
103.280570983887 -72.888061523438 -124.092330932617 4.829191684723
-62.002674102783 -73.165565490723 -132.217834472656 3.207467317581
-88.831115722656 -68.958625793457 -128.091674804688 0.297717303038
-75.205238342285 -68.982955932617 -127.769889831543 1.108722567558
-61.815792083740 -65.264114379883 -127.251098632813 1.606248855591
29.006769180298 -69.823867797852 -129.457702636719 1.959970951080
39.828456878662 -68.778533935547 -133.861648559570 2.061734199524
-75.675483703613 -68.512542724609 -137.239471435547 1.693221330643
26.143930435181 -68.229614257813 -130.277145385742 4.403336048126
109.216209411621 -71.218940734863 -141.161911010742 1.021720528603
-42.564487457275 -69.376045227051 -148.477279663086 1.398929119110
27.990911483765 -71.041610717773 -148.127639770508 0.894002318382
