-57.290248870850 -77.498832702637 -88.770126342773 3.650838136673
99.675941467285 -77.095039367676 -97.703598022461 2.906413078308
57.868652343750 -74.655273437500 -92.655395507813 1.284171104431
64.548736572266 -70.920959472656 -91.319061279297 2.642450094223
-96.996971130371 -65.253204345703 -98.255912780762 2.741632938385
106.527946472168 -73.265853881836 -93.120811462402 4.230325222015
42.818489074707 -70.120109558105 -99.386711120605 1.492879748344
100.127120971680 -71.492195129395 -98.170021057129 1.297839283943
105.527030944824 -69.648139953613 -105.990432739258 1.827593445778
100.030632019043 -72.006668090820 -104.600326538086 3.665283679962
72.586532592773 -73.754211425781 -100.978034973145 2.377970933914
86.060966491699 -73.611206054688 -106.716499328613 4.131996154785
48.812435150146 -71.081199645996 -111.600585937500 2.431499719620
109.400451660156 -69.615402221680 -103.562553405762 1.234179735184
44.952896118164 -73.879913330078 -105.883804321289 3.016713142395
39.305667877197 -69.507690429688 -102.018096923828 2.920722246170
111.548660278320 -72.068031311035 -110.330291748047 1.489198803902
-79.736892700195 -67.722030639648 -110.879402160645 1.148134469986
44.916843414307 -70.420593261719 -113.285736083984 1.500443577766
33.573413848877 -73.042518615723 -115.576942443848 2.373246669769
104.273674011230 -69.376129150391 -110.089027404785 2.661978006363
38.227066040039 -68.412750244141 -111.941558837891 2.237509250641
-89.251358032227 -69.794761657715 -114.164787292480 1.836867570877
-96.725990295410 -67.244819641113 -116.120941162109 2.966261863708
102.894973754883 -74.628578186035 -119.187316894531 4.020269870758
-95.930671691895 -71.363166809082 -119.979324340820 2.705893039703
37.831733703613 -73.054649353027 -121.751464843750 2.955044507980
35.838169097900 -70.731506347656 -121.233421325684 1.831382393837
-84.522750854492 -69.676940917969 -125.457633972168 1.774065375328
31.377332687378 -69.065124511719 -135.165573120117 1.238481283188
109.802413940430 -72.738983154297 -131.207122802734 0.556832432747
-53.649356842041 -69.824226379395 -137.082641601563 3.217193603516
-89.285552978516 -68.733833312988 -132.897964477539 2.279152154922
36.875709533691 -74.084594726563 -132.139450073242 2.132533788681
-90.086601257324 -65.637306213379 -137.107421875000 1.399836063385
-89.903480529785 -71.811134338379 -140.901138305664 4.383367061615
-50.677001953125 -71.267578125000 -137.822830200195 2.172736167908
-71.827232360840 -68.077529907227 -140.646194458008 1.138573050499
-51.722087860107 -69.172470092773 -134.466049194336 2.186164617538
114.438537597656 -68.767601013184 -137.469818115234 1.457871675491
-74.239921569824 -71.293922424316 -137.973724365234 1.832491993904
35.475936889648 -71.178321838379 -131.758209228516 1.352690219879
-79.663154602051 -68.725830078125 -141.319580078125 2.096020221710
-74.337257385254 -69.572830200195 -136.911178588867 1.756513118744
-92.349922180176 -67.688751220703 -141.391540527344 2.394694328308
-54.784690856934 -67.808677673340 -148.052383422852 0.964246451855
30.528438568115 -66.808502197266 -146.242279052734 2.036827087402
26.628170013428 -68.814971923828 -150.024612426758 0.815052807331
18.230430603027 -65.966896057129 -144.869155883789 1.304945468903
111.896125793457 -70.590080261230 -146.256134033203 2.481868505478
-94.381347656250 -67.984405517578 -153.751464843750 1.859490275383
12.105835914612 -71.818374633789 -153.023788452148 1.072069287300
-72.803771972656 -69.052406311035 -154.457138061523 2.342845439911
22.574062347412 -69.497718811035 -150.306808471680 1.883183956146
-50.016029357910 -68.727874755859 -156.413040161133 2.194108009338
8.699954032898 -68.924217224121 -153.872512817383 1.978728175163
14.251127243042 -72.546119689941 -159.021286010742 1.808353900909
16.967342376709 -74.321868896484 -164.515808105469 2.161541223526
-49.732162475586 -71.549659729004 -163.572845458984 2.772012948990
-40.040702819824 -68.852622985840 -155.775726318359 1.201913356781
-47.197956085205 -70.009773254395 -162.024810791016 0.203178852797
-104.433052062988 -69.574333190918 -173.287597656250 2.155037164688
21.001390457153 -71.072059631348 -174.617431640625 1.844137549400
-35.485050201416 -69.319305419922 -176.875930786133 1.142785906792
14.715209007263 -73.536720275879 -178.942962646484 2.368041753769
-144.359863281250 -68.723045349121 -177.336563110352 1.235330224037
-32.964618682861 -66.715934753418 -173.691558837891 1.836294651031
-155.758316040039 -73.027938842773 -179.528060913086 4.226885795593
22.766469955444 -65.829811096191 -182.330551147461 3.761319160461
-33.687606811523 -70.595314025879 -172.395904541016 1.400156736374
-108.382331848145 -67.340202331543 -179.045455932617 2.180281877518
-107.824813842773 -72.902320861816 -184.938201904297 4.102444648743
-30.643013000488 -65.208534240723 -186.069915771484 4.047669410706
-24.334812164307 -73.402725219727 -182.659667968750 2.163535356522
13.338826179504 -68.810508728027 -189.893325805664 3.018799066544
16.392950057983 -67.324508666992 -197.802658081055 2.004209041595
13.202289581299 -69.657379150391 -187.583526611328 2.751375436783
-143.515869140625 -67.575935363770 -189.057128906250 2.165861129761
20.950119018555 -66.453048706055 -190.489227294922 3.104761838913
6.953412055969 -69.441444396973 -197.410385131836 1.739740133286
-137.702316284180 -67.087654113770 -195.980636596680 3.609269142151
-114.945274353027 -68.351417541504 -196.834426879883 0.597813010216
14.333621025085 -68.007408142090 -201.799087524414 1.154611945152
-116.953186035156 -67.590003967285 -198.217010498047 2.880110740662
-108.373901367188 -64.176986694336 -193.510116577148 3.168153524399
-165.914337158203 -69.538848876953 -201.857818603516 0.725799798965
-24.882349014282 -68.288734436035 -200.879898071289 1.364181041718
12.337175369263 -68.105514526367 -200.874649047852 0.877602636814
-143.540969848633 -68.624191284180 -205.570358276367 1.968027472496
-136.337554931641 -70.222007751465 -207.947174072266 4.417812824249
-20.629783630371 -67.597129821777 -208.129928588867 1.856891632080
-12.463265419006 -70.371398925781 -205.358535766602 0.595324099064
-15.323861122131 -69.874664306641 -206.773025512695 1.749450087547
-141.385772705078 -71.560531616211 -206.078079223633 3.084326267242
-17.030643463135 -69.499328613281 -213.745346069336 1.274577975273
-10.979877471924 -72.779151916504 -215.122070312500 3.534324169159
17.061944961548 -66.991607666016 -211.602981567383 2.019775867462
-15.381870269775 -72.476829528809 -212.354873657227 0.822514474392
9.979376792908 -69.666625976563 -210.726028442383 1.556511402130
-10.863115310669 -70.078018188477 -216.412734985352 2.193099260330
-21.477407455444 -66.672836303711 -212.826171875000 5.096559524536
12.217516899109 -73.611328125000 -221.706451416016 2.534156322479
-2.039609909058 -73.954788208008 -220.586944580078 1.118829011917
10.800011634827 -65.989761352539 -221.834716796875 1.491355419159
-6.437185764313 -71.074363708496 -227.697326660156 0.892700791359
-159.189758300781 -68.672271728516 -227.087768554688 2.123252153397
80.390296936035 -72.022964477539 -220.376892089844 2.193074941635
-135.642593383789 -66.420059204102 -225.975646972656 1.323320388794
-135.441085815430 -69.884185791016 -224.797866821289 1.417694568634
-8.802289962769 -69.857208251953 -226.057876586914 2.500005245209
8.226538658142 -69.001625061035 -234.541519165039 1.795119762421
-157.255981445313 -67.711364746094 -231.328323364258 1.559123516083
87.624916076660 -68.572784423828 -220.201629638672 1.882593035698
-2.530736923218 -68.035774230957 -226.516494750977 1.804641366005
0.223472997546 -69.906318664551 -223.752746582031 1.933928489685
73.645797729492 -72.231376647949 -229.687438964844 1.439162015915
0.319849997759 -66.967597961426 -235.612670898438 1.542492032051
-15.101654052734 -70.933746337891 -228.036437988281 2.422633647919
-126.813636779785 -66.679054260254 -235.901397705078 2.020637750626
-4.565736770630 -68.790390014648 -237.693542480469 2.210827589035
2.143212080002 -67.034118652344 -232.713104248047 0.736715018749
65.753135681152 -67.704032897949 -238.621093750000 1.284547328949
-158.537399291992 -69.147346496582 -240.086380004883 2.167924404144
-12.737380981445 -68.383552551270 -245.561065673828 1.911954879761
-169.387817382813 -70.074111938477 -240.747634887695 2.569815158844
9.610647201538 -66.459762573242 -242.772659301758 2.139811038971
-164.864364624023 -68.614967346191 -240.876342773438 0.844959020615
-161.009674072266 -69.166389465332 -247.975082397461 2.065876007080
56.785526275635 -69.310333251953 -245.675567626953 0.805046081543
62.000049591064 -70.755393981934 -243.079818725586 1.440976500511
55.899322509766 -69.905494689941 -244.936416625977 1.179102182388
51.519485473633 -69.227905273438 -249.411285400391 0.815737068653
-155.700073242188 -68.631019592285 -245.881713867188 1.249484777451
-156.725311279297 -65.552215576172 -250.287155151367 4.021192550659
-13.589188575745 -71.623558044434 -250.339584350586 0.897171497345
-151.624954223633 -67.495780944824 -248.555313110352 1.598548769951
19.427049636841 -70.453903198242 -251.908966064453 2.319640398026
-169.975082397461 -72.214675903320 -253.081054687500 2.737520456314
-167.840515136719 -66.151496887207 -250.263763427734 2.668899536133
-82.379127502441 -69.759895324707 -250.288238525391 1.660961866379
-169.613906860352 -67.247238159180 -261.783630371094 2.387260913849
-85.583122253418 -67.864402770996 -258.125244140625 3.013567924500
42.323020935059 -68.369918823242 -253.769638061523 1.372869133949
22.044326782227 -72.271781921387 -257.000061035156 1.310554146767
-158.848678588867 -68.456848144531 -263.784210205078 1.720298647881
-100.979431152344 -62.768600463867 -261.087371826172 2.854424476624
39.047706604004 -69.368110656738 -256.344909667969 1.214929342270
-105.066940307617 -74.200988769531 -260.677246093750 2.200108766556
-154.230636596680 -63.533924102783 -266.776245117188 2.770484447479
-105.388626098633 -67.073013305664 -260.049102783203 2.720663309097
-168.049209594727 -69.535194396973 -261.651611328125 0.499566495419
-113.285926818848 -69.026359558105 -264.966888427734 4.025193691254
-153.454330444336 -69.745811462402 -267.670410156250 2.147207260132
-158.730895996094 -66.156730651855 -265.476196289063 2.752130985260
-166.217803955078 -67.012664794922 -265.741729736328 2.784309387207
-164.241424560547 -66.011703491211 -264.266448974609 2.536934614182
-165.874130249023 -67.637428283691 -267.707153320313 1.287620425224
-165.895797729492 -68.263015747070 -264.694915771484 1.847589612007
25.620996475220 -70.199028015137 -265.970733642578 1.048441886902
-150.028808593750 -70.967239379883 -265.587036132813 2.305246353149
-149.833648681641 -67.130386352539 -286.085784912109 1.207471013069
24.632280349731 -69.705696105957 -277.138732910156 2.750349044800
-11.781467437744 -70.264724731445 -275.431488037109 2.068936347961
-125.852073669434 -66.491546630859 -286.117279052734 0.550673007965
-136.399948120117 -68.602783203125 -287.897003173828 0.641790032387
-134.486129760742 -66.662864685059 -290.296661376953 0.826897084713
-126.904418945313 -68.291282653809 -287.653106689453 1.194186449051
-114.378593444824 -66.629524230957 -291.545837402344 1.064126610756
-105.358924865723 -64.566932678223 -287.120849609375 3.291821956635
9.272813796997 -71.364257812500 -293.294097900391 3.405814886093
-85.034881591797 -68.671211242676 -291.414062500000 1.985058426857
-149.160095214844 -68.186218261719 -290.240600585938 0.921527683735
-101.744972229004 -68.033073425293 -292.309356689453 2.442033767700
-129.267837524414 -65.238121032715 -293.624359130859 2.247490882874
9.543937683105 -71.112281799316 -289.009490966797 2.579245090485
-112.050125122070 -62.827590942383 -290.686065673828 4.576986312866
2.886576890945 -68.807891845703 -294.032196044922 1.973824024200
-143.245513916016 -67.148315429688 -290.647277832031 1.307910323143
-152.979034423828 -67.977867126465 -297.877105712891 2.167955398560
-157.913497924805 -66.832290649414 -316.088165283203 6.049795150757
-155.134780883789 -66.478935241699 -313.753662109375 2.885502576828
46.186439514160 -73.865020751953 -25.132131576538 2.029606342316
21.717672348022 -71.655570983887 -36.107166290283 1.181141138077
29.225023269653 -72.584884643555 -37.193069458008 2.041378021240
-46.433132171631 -72.784011840820 -48.556438446045 2.826824665070
-14.141180992126 -68.997161865234 -63.050758361816 1.529058337212
92.880653381348 -72.569480895996 -68.575317382813 2.176788091660
67.269958496094 -67.228645324707 -69.879646301270 2.234401464462
-25.597743988037 -70.472236633301 -75.322227478027 1.682172894478
-99.382110595703 -73.662910461426 -87.804672241211 4.426729202271
-43.861053466797 -70.348167419434 -83.587677001953 2.106335878372
60.177524566650 -70.290504455566 -81.804573059082 2.507926225662
60.859546661377 -73.292655944824 -86.346626281738 1.797734022141
52.149745941162 -68.662139892578 -87.965965270996 0.616233050823
-60.223937988281 -68.932525634766 -91.416191101074 1.097406506538
65.499717712402 -67.228454589844 -89.585754394531 1.808596491814
42.373638153076 -73.766799926758 -98.394714355469 2.679713010788
67.163879394531 -72.416511535645 -95.012992858887 4.336756229401
-63.551010131836 -68.117126464844 -97.138008117676 2.882112264633
48.822193145752 -72.539833068848 -93.633529663086 1.510484099388
44.395294189453 -72.215660095215 -98.864288330078 1.552518606186
102.077064514160 -68.278419494629 -100.595802307129 0.980690836906
-67.775352478027 -69.714210510254 -100.025573730469 0.624614179134
109.324035644531 -70.426116943359 -100.384864807129 1.909300684929
-80.302162170410 -71.671783447266 -102.358085632324 1.798823356628
53.242485046387 -73.095657348633 -105.396400451660 2.277660131454
46.740707397461 -68.845909118652 -101.114921569824 1.766368389130
90.589134216309 -69.072578430176 -103.935310363770 1.888088583946
83.268600463867 -69.237678527832 -106.807540893555 2.401123046875
53.557315826416 -70.438964843750 -104.924484252930 0.781416296959
-77.507995605469 -70.119163513184 -112.271118164063 0.885307550430
-77.994125366211 -68.696960449219 -116.113365173340 1.514778375626
-81.545913696289 -70.576492309570 -119.562774658203 1.527049899101
-94.365539550781 -73.900222778320 -119.800491333008 2.646257638931
103.748748779297 -65.771903991699 -116.485595703125 3.307517528534
-89.554420471191 -71.594718933105 -120.286781311035 2.841504573822
-77.799880981445 -65.852981567383 -122.387123107910 1.122811913490
108.378814697266 -69.497047424316 -116.024772644043 2.435224771500
-62.711318969727 -62.279361724854 -119.042884826660 0.491724252701
112.630996704102 -73.779083251953 -131.434295654297 1.088918685913
108.962036132813 -71.858428955078 -129.419189453125 1.758559226990
106.175903320313 -71.528861999512 -125.814201354980 2.653218030930
-94.472084045410 -69.472038269043 -139.042098999023 2.318152427673
-48.027492523193 -69.210212707520 -142.762207031250 1.453768014908
-80.111167907715 -67.048461914063 -145.630020141602 4.857673645020
-70.272224426270 -69.027824401855 -150.082077026367 0.617478668690
-71.207366943359 -67.674171447754 -149.030975341797 1.141261577606
-56.140388488770 -68.529335021973 -144.629318237305 0.560843884945
-47.927387237549 -72.820526123047 -146.995666503906 2.871840000153
15.428138732910 -69.686386108398 -146.949661254883 2.541733026505
-95.113647460938 -65.995101928711 -144.105758666992 0.510294556618
-46.658340454102 -67.813941955566 -148.204208374023 1.568360328674
-53.075809478760 -63.395473480225 -148.585433959961 4.928119182587
-42.992713928223 -67.367660522461 -155.750717163086 1.434078693390
26.659564971924 -71.569892883301 -162.384201049805 2.315813302994
-50.967727661133 -69.421524047852 -151.951797485352 1.534837603569
-101.347938537598 -64.871185302734 -150.712432861328 1.555624604225
-46.207565307617 -66.287200927734 -157.718902587891 3.743781805038
24.756996154785 -71.520126342773 -148.675781250000 1.557722330093
-99.412719726563 -73.343719482422 -164.359207153320 5.248262405396
21.823537826538 -71.469635009766 -158.188385009766 2.504955768585
-108.446083068848 -65.887229919434 -171.158554077148 3.510750770569
-101.917892456055 -68.874427795410 -164.974853515625 1.525280237198
21.365436553955 -69.230155944824 -165.445236206055 1.793347716331
25.385379791260 -67.736114501953 -168.315292358398 0.993272781372
-109.101043701172 -70.496910095215 -175.022064208984 2.509891986847
-142.847518920898 -66.220268249512 -176.159805297852 1.663316488266
-20.485832214355 -69.208869934082 -190.179473876953 2.248565912247
-28.124210357666 -68.076324462891 -182.512542724609 1.506535172462
-116.007766723633 -69.390686035156 -188.413925170898 2.881012439728
-144.431365966797 -63.772872924805 -188.590652465820 1.186310291290
-104.094795227051 -65.765953063965 -182.938110351563 2.018065214157
-158.657775878906 -68.044998168945 -192.244506835938 1.968056440353
-131.865493774414 -72.018936157227 -196.833847045898 1.721343398094
-133.823822021484 -69.839042663574 -197.775482177734 1.901584982872
-20.470434188843 -67.148651123047 -190.203079223633 2.126779794693
-120.911499023438 -68.591087341309 -199.487457275391 2.419857978821
-117.559265136719 -64.853790283203 -200.410736083984 0.829990804195
-27.540363311768 -70.587882995605 -195.444259643555 1.150984168053
-154.895538330078 -65.511123657227 -199.577575683594 1.707537531853
-132.768692016602 -69.649307250977 -206.441497802734 2.356859445572
-125.452560424805 -65.861396789551 -206.023101806641 2.026713132858
17.555234909058 -70.845748901367 -202.416992187500 1.290263652802
-162.532394409180 -67.130187988281 -204.959197998047 1.996555685997
10.762999534607 -67.774444580078 -215.882431030273 0.704608261585
13.457146644592 -69.758460998535 -215.298171997070 1.350225687027
-17.496419906616 -65.209053039551 -209.791198730469 4.173462867737
-5.495460987091 -68.740959167480 -217.112319946289 1.719678163528
-170.505844116211 -65.002166748047 -212.146453857422 6.136523246765
-159.546478271484 -64.289512634277 -214.689025878906 3.476033449173
-95.148460388184 -67.735725402832 -219.821487426758 2.198706388474
-99.044616699219 -69.354995727539 -224.184844970703 0.868367791176
-161.355987548828 -67.845062255859 -226.982635498047 2.211926698685
-106.918434143066 -66.080772399902 -220.734985351563 2.102695941925
-12.536734580994 -67.023796081543 -214.972000122070 0.726103007793
-127.872100830078 -69.235160827637 -223.940429687500 1.206172704697
-142.531753540039 -68.183197021484 -225.775100708008 0.677536964417
-3.559464931488 -69.958862304688 -222.065963745117 1.687985777855
-134.700775146484 -66.040084838867 -226.420028686523 1.849844217300
-124.188095092773 -71.481910705566 -224.839355468750 1.206233501434
-114.762535095215 -69.698387145996 -226.303833007813 1.107642412186
-0.022306000814 -63.922470092773 -228.807952880859 3.909848213196
-107.622421264648 -66.254837036133 -232.153350830078 2.496931076050
-160.836212158203 -62.396747589111 -224.727218627930 2.973121404648
-147.056594848633 -66.576622009277 -228.525726318359 0.796949028969
-165.816436767578 -66.781875610352 -227.030792236328 1.838738441467
-8.335583686829 -67.943641662598 -227.473434448242 2.683617115021
-8.772089958191 -68.528816223145 -233.367523193359 1.742690324783
78.028617858887 -71.201026916504 -225.718658447266 0.952811777592
-0.512130022049 -70.334465026855 -230.258087158203 1.522299051285
-143.316009521484 -67.183853149414 -237.931411743164 2.245075225830
-14.614412307739 -66.848258972168 -229.997726440430 2.769074678421
73.682998657227 -69.317253112793 -228.291534423828 1.549895048141
74.314903259277 -69.370452880859 -233.339828491211 1.939793825150
-134.932922363281 -66.099205017090 -234.137451171875 0.753081977367
-157.793395996094 -69.761383056641 -230.297363281250 1.820258855820
-114.547172546387 -66.305610656738 -234.476119995117 2.008127212524
-125.035209655762 -63.441814422607 -237.232070922852 2.986380100250
-164.036239624023 -65.963607788086 -236.753982543945 1.729736089706
-160.441406250000 -67.588119506836 -237.583343505859 1.824202656746
-147.060531616211 -63.831378936768 -235.910766601563 0.977458536625
-13.094405174255 -67.339477539063 -236.156433105469 2.480279684067
-5.509288787842 -67.675636291504 -241.241027832031 2.647310256958
-161.026092529297 -65.695884704590 -242.546676635742 1.985276579857
5.135523796082 -69.251625061035 -238.899169921875 1.991100788116
2.503582000732 -69.115699768066 -237.376434326172 2.018601179123
-160.413177490234 -66.880302429199 -240.709945678711 1.796631336212
16.458538055420 -72.140449523926 -242.910980224609 2.397833824158
50.480262756348 -70.942733764648 -245.776275634766 1.973307132721
50.274360656738 -70.900375366211 -244.811889648438 0.993543148041
-16.273561477661 -69.200096130371 -247.804275512695 2.575975179672
47.935436248779 -67.490119934082 -249.562194824219 0.526399195194
-161.775512695313 -64.001144409180 -251.975662231445 5.230512142181
-159.449859619141 -67.293136596680 -249.349838256836 0.866355419159
-160.844070434570 -70.413139343262 -251.470489501953 1.949879527092
54.413391113281 -68.462242126465 -249.083724975586 1.989943861961
-92.532585144043 -66.407318115234 -254.176055908203 2.193197488785
-125.202384948730 -66.461990356445 -255.999313354492 1.188276886940
-106.225433349609 -71.311538696289 -255.191650390625 2.088370084763
26.232273101807 -71.986534118652 -258.040588378906 3.304880380630
40.959415435791 -66.655853271484 -251.606658935547 1.255333065987
-101.135292053223 -64.960861206055 -256.343811035156 2.720233678818
-94.004272460938 -63.591854095459 -252.982879638672 3.451085090637
45.053108215332 -72.212173461914 -254.965789794922 2.152472972870
41.877285003662 -66.972061157227 -257.141662597656 0.952707648277
-155.298706054688 -71.532341003418 -259.819488525391 1.784438133240
30.094511032104 -68.375656127930 -259.774414062500 1.574531674385
-143.263442993164 -69.829246520996 -266.068359375000 1.942484259605
-113.842880249023 -66.792770385742 -263.925781250000 2.695343017578
-137.402099609375 -66.010566711426 -264.204040527344 2.987768888474
30.879734039307 -68.050453186035 -263.278991699219 1.840809106827
-126.571578979492 -65.946495056152 -265.099060058594 0.469939172268
-11.668597221375 -66.897682189941 -258.910461425781 2.024058103561
21.182399749756 -71.238693237305 -271.641235351563 3.410085439682
-6.124022006989 -72.073989868164 -266.126770019531 4.771420478821
19.415771484375 -70.058280944824 -280.490997314453 2.061060428619
-153.618591308594 -68.541984558105 -284.235809326172 1.418714284897
-11.284448623657 -66.647033691406 -281.403411865234 2.361913919449
-153.481842041016 -70.139335632324 -284.315765380859 1.035566568375
-124.138328552246 -68.615066528320 -286.567840576172 0.946814119816
-160.852035522461 -72.333892822266 -288.133117675781 0.849673569202
-115.073730468750 -66.920982360840 -288.541198730469 1.572566151619
-104.772583007813 -67.348625183105 -290.947906494141 3.140265703201
-7.297102928162 -66.405311584473 -285.995147705078 2.137930154800
-108.649856567383 -68.317253112793 -290.635528564453 1.410505652428
-116.829460144043 -64.868659973145 -286.636901855469 3.459927558899
-120.570205688477 -64.026863098145 -293.066070556641 3.475166559219
-138.382034301758 -66.576766967773 -291.423950195313 1.236670494080
-126.538383483887 -64.619934082031 -293.004302978516 2.763609647751
-158.055664062500 -71.008460998535 -291.698974609375 1.700263977051
-147.151947021484 -64.923904418945 -294.429870605469 1.523607611656
-156.753814697266 -64.299095153809 -303.468322753906 5.027101516724
-154.368713378906 -64.877914428711 -312.727661132813 2.932538986206
-158.585342407227 -65.116806030273 -302.784912109375 5.651745319366
-141.977111816406 -67.531387329102 -312.224212646484 3.611060142517
-149.763885498047 -67.717231750488 -315.500610351563 3.350414276123
33.776332855225 -72.106239318848 -9.217144966125 3.754539728165
45.183181762695 -75.152404785156 -16.638175964355 3.384579420090
22.581211090088 -68.079017639160 -23.794954299927 3.309508085251
48.900062561035 -71.930259704590 -27.524177551270 0.997915089130
26.663684844971 -73.369110107422 -34.637191772461 1.958892703056
31.370815277100 -72.276008605957 -34.838474273682 1.933810949326
-59.079833984375 -66.242614746094 -48.202980041504 3.359849452972
78.587829589844 -67.353912353516 -61.072631835938 1.721131205559
79.875869750977 -71.856605529785 -66.785324096680 1.598693013191
-91.650497436523 -70.482215881348 -63.396450042725 2.006308794022
-13.899323463440 -67.730865478516 -61.959201812744 0.420493185520
-93.708015441895 -71.273612976074 -71.153472900391 2.089646816254
95.196403503418 -72.839378356934 -68.529495239258 2.436629056931
-14.950936317444 -67.179039001465 -68.468658447266 1.648935675621
66.451545715332 -73.082046508789 -78.808074951172 3.165167093277
-43.135330200195 -73.767662048340 -80.015724182129 2.250056982040
-28.412498474121 -73.364624023438 -76.431755065918 1.288489580154
55.114929199219 -67.184745788574 -86.223236083984 1.192272186279
-45.263805389404 -79.513908386230 -85.232757568359 2.761557340622
63.783153533936 -63.347507476807 -86.887031555176 1.410175085068
51.762050628662 -74.253707885742 -89.825729370117 1.772192358971
52.581768035889 -70.353843688965 -93.725730895996 1.567159652710
58.444274902344 -74.690078735352 -90.861640930176 2.128035783768
55.781539916992 -67.417785644531 -95.732330322266 2.470249652863
98.688026428223 -67.727088928223 -97.424148559570 0.693143010139
104.937095642090 -66.622474670410 -98.261840820313 1.106042146683
58.716968536377 -72.635368347168 -99.950141906738 2.784315586090
105.875068664551 -66.646636962891 -99.155357360840 1.950629353523
-77.985687255859 -68.705184936523 -100.112777709961 1.109453558922
-73.719703674316 -68.614761352539 -102.846946716309 2.084043264389
99.260704040527 -67.445068359375 -98.169105529785 0.941684365273
52.176292419434 -70.650886535645 -100.863136291504 2.642810821533
69.347213745117 -71.576164245605 -98.599578857422 1.478328108788
-73.505790710449 -69.090583801270 -108.193870544434 1.400074124336
-86.158050537109 -67.616378784180 -108.099655151367 1.909259200096
88.115875244141 -72.981063842773 -104.143943786621 2.886075019836
39.154369354248 -71.023109436035 -104.371963500977 1.379470348358
103.834259033203 -67.053611755371 -105.464797973633 0.237389430404
45.546012878418 -71.917335510254 -113.567230224609 2.082850456238
109.052429199219 -70.511543273926 -103.173950195313 1.875625014305
-79.703781127930 -68.365722656250 -111.911849975586 1.537045001984
103.527595520020 -66.231170654297 -108.186477661133 2.696871042252
-85.232185363770 -66.340774536133 -122.063201904297 1.824795484543
-59.499900817871 -70.964492797852 -129.255203247070 0.695331215858
-56.844841003418 -67.831047058105 -125.546447753906 1.318986892700
-73.410934448242 -69.928100585938 -130.756103515625 1.644525051117
-51.895965576172 -70.051300048828 -131.612014770508 1.403452634811
-84.968200683594 -70.028068542480 -133.801467895508 1.135409235954
-78.410591125488 -65.596946716309 -133.836898803711 1.746313929558
-81.529190063477 -68.605979919434 -131.810836791992 1.455198049545
-61.126399993896 -72.878761291504 -142.293594360352 3.111926794052
-72.504974365234 -68.229698181152 -141.453918457031 0.594489812851
-60.966743469238 -71.739364624023 -135.854751586914 2.781763553619
-59.489990234375 -68.835510253906 -142.562042236328 0.815201342106
15.870370864868 -65.719032287598 -144.001663208008 1.153233885765
-91.900733947754 -68.724891662598 -143.146743774414 2.401697397232
-48.581604003906 -72.152259826660 -147.358810424805 2.872834205627
-97.354110717773 -66.411399841309 -150.691696166992 2.835841894150
-101.768676757813 -65.937667846680 -150.224624633789 2.083370923996
18.256278991699 -70.762886047363 -153.999313354492 2.044987678528
13.185444831848 -70.115249633789 -158.394821166992 0.556983590126
-96.704666137695 -69.687881469727 -160.732101440430 2.500720262527
-104.384246826172 -68.211761474609 -155.243240356445 3.609872579575
-101.191284179688 -66.803909301758 -169.397537231445 1.288105845451
21.235010147095 -68.084762573242 -170.062042236328 1.609905600548
-111.326293945313 -67.555099487305 -173.848922729492 2.190487146378
21.837776184082 -68.910476684570 -166.643569946289 1.621481418610
-148.414947509766 -67.630790710449 -177.933212280273 2.372762680054
17.022396087646 -68.402145385742 -176.645553588867 1.179390192032
23.388473510742 -69.264007568359 -186.082458496094 1.522355556488
-153.082656860352 -66.083587646484 -188.042800903320 1.052415966988
20.594913482666 -69.400985717773 -176.606781005859 0.437288463116
18.352853775024 -63.247993469238 -180.582595825195 3.482348442078
-144.465988159180 -70.843322753906 -186.222061157227 2.295981884003
-152.612518310547 -65.049674987793 -190.681884765625 3.238275766373
19.159337997437 -68.550453186035 -188.554443359375 1.979042410851
17.711292266846 -70.114219665527 -190.069717407227 1.769481539726
-142.909347534180 -69.221870422363 -195.213333129883 1.554421782494
-109.750679016113 -67.929557800293 -198.891815185547 2.277994871140
23.167062759399 -68.931510925293 -198.706909179688 2.992267608643
-125.585700988770 -67.293258666992 -196.120086669922 2.690600872040
9.947761535645 -70.332382202148 -200.231964111328 1.784412860870
-130.900604248047 -62.714225769043 -195.686996459961 1.464469909668
-160.177688598633 -65.098632812500 -192.215072631836 4.488152503967
-162.227722167969 -66.573150634766 -198.342681884766 1.212112426758
-159.544601440430 -68.160774230957 -196.689987182617 1.638248801231
-20.889739990234 -68.007171630859 -205.133804321289 2.051957607269
-168.351318359375 -69.208145141602 -201.270721435547 2.333997011185
-27.222223281860 -65.139389038086 -193.248565673828 3.769835948944
-16.231945037842 -69.395698547363 -196.431198120117 0.715154826641
9.059896469116 -63.991054534912 -195.938308715820 5.039316654205
-158.521194458008 -67.092117309570 -205.488769531250 2.095466375351
-108.844451904297 -66.287040710449 -203.448120117188 2.179448604584
-18.212400436401 -65.183715820313 -202.160858154297 3.273923635483
-160.874084472656 -63.109817504883 -203.288986206055 3.107472419739
16.004083633423 -68.462059020996 -201.804473876953 0.836244344711
-169.527603149414 -65.036987304688 -206.714782714844 3.580819129944
-121.483451843262 -69.573158264160 -204.156784057617 1.736456155777
-116.102203369141 -64.777816772461 -208.566467285156 4.836246967316
-123.711578369141 -66.414894104004 -205.621597290039 0.837725996971
-15.544384002686 -67.211883544922 -204.128463745117 1.590512633324
-18.095043182373 -68.243789672852 -205.043258666992 2.152933835983
-165.003890991211 -66.255851745605 -212.438858032227 2.152893066406
-160.764282226563 -65.043930053711 -214.086929321289 3.525729417801
-165.492965698242 -67.186752319336 -221.265182495117 0.931511819363
-142.047058105469 -68.938102722168 -215.699539184570 2.510137081146
-145.404342651367 -67.017463684082 -225.456481933594 2.127477169037
-3.601830005646 -66.302726745605 -220.409194946289 2.726217269897
-10.238348007202 -71.236877441406 -217.478042602539 1.702912688255
-100.624290466309 -65.684753417969 -222.060958862305 2.173442363739
-7.356390953064 -66.329910278320 -232.636505126953 1.733945965767
-167.667556762695 -64.342353820801 -230.746185302734 4.096580982208
-107.344886779785 -65.008491516113 -233.588211059570 4.215048313141
0.813475012779 -67.842720031738 -227.072219848633 1.463794231415
2.257055044174 -66.756286621094 -230.283111572266 1.433169960976
-112.368812561035 -67.540390014648 -234.390869140625 2.822098016739
-2.059549093246 -68.448890686035 -229.242279052734 1.657002687454
-118.271812438965 -64.270988464355 -235.635955810547 2.533867835999
-8.278612136841 -64.930076599121 -233.613265991211 2.888190269470
-2.739290952682 -66.609619140625 -235.331939697266 1.188487291336
-2.101567029953 -67.251831054688 -238.118103027344 1.546152949333
71.148986816406 -65.400894165039 -236.275344848633 2.934514999390
-11.288840293884 -70.355918884277 -238.151107788086 1.673329830170
6.843145847321 -68.260749816895 -237.602188110352 2.195709228516
10.656208038330 -66.787521362305 -239.448654174805 1.301173448563
4.934666156769 -68.278594970703 -239.233505249023 1.732156395912
2.077790975571 -68.991691589355 -241.539932250977 0.783384203911
63.698280334473 -64.159965515137 -238.432342529297 2.410292625427
68.495040893555 -65.237724304199 -240.076339721680 3.938409328461
7.903420925140 -67.317947387695 -247.266296386719 2.431132078171
53.574214935303 -68.831306457520 -242.207778930664 2.649531126022
55.077121734619 -71.447692871094 -240.686019897461 1.847506284714
46.574645996094 -64.734817504883 -249.370315551758 0.846708118916
40.912761688232 -65.651634216309 -251.346176147461 1.707376241684
40.334999084473 -66.563499450684 -256.484375000000 2.304316520691
-132.254272460938 -62.801818847656 -259.288024902344 2.002526283264
-10.814888000488 -66.891555786133 -250.513809204102 1.820226430893
27.996437072754 -66.349884033203 -258.212066650391 2.279396533966
44.605167388916 -66.877838134766 -248.125747680664 2.120258331299
26.954793930054 -69.831573486328 -254.089431762695 2.772831678391
-103.309516906738 -68.167175292969 -260.002807617188 2.717032670975
30.842348098755 -68.315559387207 -256.413757324219 1.872168064117
-147.556777954102 -68.198280334473 -262.535614013672 2.205378055573
-116.818176269531 -67.939582824707 -258.192382812500 0.733679294586
-109.268432617188 -66.420082092285 -259.172576904297 1.830487489700
-3.970590114594 -69.187789916992 -259.478088378906 3.857343912125
-150.893524169922 -67.600936889648 -258.963745117188 1.964401841164
34.893695831299 -67.227287292480 -261.951904296875 1.720530152321
-110.197807312012 -65.353164672852 -257.924896240234 2.143483877182
25.743818283081 -70.639144897461 -259.428680419922 1.723495841026
-135.376281738281 -67.946311950684 -264.277069091797 0.439734786749
-116.913871765137 -65.539604187012 -265.361663818359 1.284975528717
-109.979980468750 -65.861137390137 -262.587158203125 2.309838056564
-115.451873779297 -70.491310119629 -262.846862792969 1.366305351257
-140.473403930664 -67.795211791992 -259.396697998047 2.472193479538
28.583986282349 -67.853546142578 -260.355682373047 2.026694297791
-117.797904968262 -65.169532775879 -264.342407226563 1.660863399506
-144.775619506836 -67.773086547852 -265.083374023438 0.869490504265
-5.439936161041 -65.150543212891 -271.165924072266 2.677550554276
-151.112152099609 -68.335884094238 -282.785400390625 1.683639168739
-8.642337799072 -67.510864257813 -286.715606689453 1.855963826180
-5.679662227631 -64.776268005371 -283.321105957031 1.986036658287
-134.630615234375 -65.802169799805 -289.203399658203 1.124929308891
-127.842643737793 -66.414230346680 -291.892425537109 1.271053195000
-135.952377319336 -65.914878845215 -295.481903076172 4.552351474762
-126.866119384766 -64.917175292969 -293.207824707031 2.349631309509
-155.128997802734 -66.369644165039 -296.133850097656 3.129316568375
-156.389831542969 -66.144973754883 -301.862731933594 3.064654588699
-148.110794067383 -68.922660827637 -302.617401123047 2.991058349609
-150.000305175781 -66.530151367188 -304.960815429688 2.775757551193
-145.341201782227 -65.811096191406 -300.686401367188 3.384773492813
-149.696487426758 -65.031158447266 -305.835296630859 2.892936229706
-146.385894775391 -63.601207733154 -316.393676757813 5.690922737122
17.759534835815 -73.150047302246 -27.759077072144 2.946569442749
47.718776702881 -73.141120910645 -35.924865722656 2.169317245483
23.824804306030 -75.638542175293 -38.008331298828 4.627760410309
30.885753631592 -71.220565795898 -42.721256256104 1.808330416679
-44.104587554932 -64.191986083984 -48.570514678955 2.052456855774
-78.074066162109 -66.964141845703 -51.488548278809 3.751693725586
78.930671691895 -68.915084838867 -61.314590454102 2.018804073334
73.107398986816 -70.305305480957 -62.181774139404 3.923329114914
70.133911132813 -71.283752441406 -66.171875000000 3.718797683716
-100.722633361816 -68.238807678223 -73.869468688965 5.262160778046
97.902069091797 -72.950950622559 -75.525970458984 1.813224196434
-31.860813140869 -69.774063110352 -83.260368347168 5.815552234650
61.694236755371 -68.035018920898 -76.464508056641 4.231767654419
-44.564170837402 -65.699989318848 -83.361976623535 0.893549501896
-55.330551147461 -66.384025573730 -83.419868469238 1.884293913841
49.473125457764 -70.217315673828 -90.533180236816 1.022115588188
100.996986389160 -69.026084899902 -90.122169494629 1.255909681320
62.775913238525 -67.137374877930 -93.699745178223 0.557765364647
55.456581115723 -67.755210876465 -92.907875061035 2.667796850204
47.412433624268 -66.622940063477 -101.479431152344 1.635330677032
55.352771759033 -65.722076416016 -100.367454528809 1.778727173805
101.826133728027 -67.545051574707 -97.519630432129 0.788322150707
68.537261962891 -68.410049438477 -106.214454650879 3.981562614441
48.915267944336 -68.672508239746 -105.810226440430 1.331588268280
75.347160339355 -73.499969482422 -106.893638610840 4.790790557861
94.408912658691 -65.908821105957 -107.575088500977 1.242461800575
-76.524742126465 -66.231079101563 -102.537696838379 1.310527920723
-88.053703308105 -68.483680725098 -111.267860412598 1.060462355614
-83.443458557129 -68.668601989746 -113.810096740723 1.220750689507
-61.353939056396 -67.038688659668 -119.496170043945 2.292271614075
-58.344451904297 -71.206733703613 -126.870506286621 1.686249494553
-95.805084228516 -67.271537780762 -122.857185363770 2.588284254074
-76.305213928223 -69.142539978027 -120.430679321289 2.638807535172
-77.849685668945 -70.971229553223 -133.349655151367 1.220710992813
-62.006198883057 -65.580184936523 -129.152496337891 0.193140596151
-89.692260742188 -64.248611450195 -131.429077148438 1.907362341881
-90.911514282227 -66.959335327148 -131.153060913086 1.442242503166
-49.284957885742 -71.275115966797 -136.126281738281 1.020369052887
-52.568458557129 -68.394790649414 -137.441421508789 1.588357329369
-78.370018005371 -69.152305603027 -139.479476928711 0.893140852451
-55.035099029541 -69.350730895996 -142.358093261719 1.886419653893
-75.456504821777 -70.362342834473 -144.813140869141 1.457312703133
20.069812774658 -66.074234008789 -138.988876342773 1.483672261238
-58.513427734375 -71.374450683594 -145.677154541016 1.614994764328
-56.041084289551 -64.878967285156 -146.365859985352 2.903415918350
8.199260711670 -70.918594360352 -155.505096435547 1.458709359169
15.738024711609 -66.456909179688 -151.347579956055 0.450112849474
-143.169265747070 -67.166534423828 -175.615615844727 0.929877877235
-111.157310485840 -66.153633117676 -179.330856323242 2.144295215607
-110.395301818848 -63.788528442383 -190.900924682617 1.408385515213
-153.285217285156 -68.191734313965 -192.998764038086 1.838952898979
-113.797492980957 -66.164169311523 -186.958572387695 1.404763579369
-152.740890502930 -62.890010833740 -197.719375610352 1.487188696861
-114.798721313477 -65.400726318359 -199.778671264648 1.977248191833
-150.939285278320 -64.155914306641 -201.852813720703 2.408695697784
-151.169784545898 -66.485137939453 -207.794021606445 0.867271780968
-153.547103881836 -69.929077148438 -209.520278930664 2.777179718018
-148.325927734375 -66.004554748535 -225.402481079102 3.574182033539
-150.803298950195 -68.866592407227 -226.831512451172 3.237395048141
-105.528076171875 -64.423194885254 -227.202743530273 2.340946912766
-102.399299621582 -66.318946838379 -223.614334106445 2.063654422760
-123.731597900391 -62.225612640381 -231.780441284180 3.157803773880
-108.544151306152 -65.846778869629 -227.335830688477 1.146505117416
-156.922943115234 -67.157135009766 -232.204971313477 2.455565929413
-3.402781009674 -66.619873046875 -226.448303222656 1.735840916634
-134.307266235352 -67.916816711426 -232.194519042969 1.139123320580
-153.831527709961 -67.268569946289 -236.712677001953 2.318106889725
-137.387603759766 -68.454170227051 -234.697448730469 2.306509733200
-11.654318809509 -66.103485107422 -236.541198730469 2.978671312332
8.487971305847 -67.159713745117 -243.387771606445 1.362551450729
62.515113830566 -63.374801635742 -240.626907348633 3.407186746597
17.910480499268 -69.804992675781 -248.890563964844 1.714811801910
55.638778686523 -66.700370788574 -243.626235961914 2.719449758530
40.907554626465 -68.572463989258 -249.737457275391 2.100113391876
58.541950225830 -64.796646118164 -251.510177612305 4.062102794647
-152.789581298828 -65.872070312500 -251.814331054688 2.587930202484
-149.770324707031 -69.342491149902 -255.944381713867 2.350492477417
42.514865875244 -65.725685119629 -256.843048095703 1.294480681419
29.112602233887 -66.498985290527 -255.873001098633 2.385814189911
47.427864074707 -64.788711547852 -252.713180541992 2.205929756165
-145.068069458008 -68.544830322266 -261.047729492188 2.494915246964
-136.680786132813 -64.397407531738 -256.710540771484 3.317098617554
-125.196456909180 -63.762706756592 -259.227416992188 1.237076044083
-134.308807373047 -66.150398254395 -257.450836181641 2.299948930740
-141.131561279297 -66.518424987793 -259.382049560547 2.109791994095
-123.954490661621 -65.208244323730 -260.781036376953 1.517890691757
-143.034088134766 -64.238334655762 -261.731842041016 0.893629848957
-126.564643859863 -67.559059143066 -260.848754882813 1.725691676140
-122.675277709961 -65.994277954102 -265.705322265625 3.011242389679
-127.837951660156 -66.363891601563 -266.169372558594 1.784093260765
-120.684822082520 -62.926403045654 -265.314331054688 4.019287109375
-5.507597923279 -66.918601989746 -266.439941406250 1.089150547981
27.709518432617 -64.314300537109 -262.257720947266 1.097520589828
-146.476562500000 -62.209693908691 -268.354797363281 2.924443721771
25.967975616455 -66.960426330566 -269.296691894531 2.556025505066
-5.076496124268 -62.277229309082 -274.763977050781 5.807170867920
16.873283386230 -71.659210205078 -283.868530273438 2.023710250854
-141.769592285156 -65.981590270996 -290.629791259766 2.250826597214
-125.619033813477 -66.702285766602 -288.633178710938 1.407768845558
-132.377105712891 -61.916217803955 -291.666015625000 4.619333267212
-158.636047363281 -61.461059570313 -293.477020263672 4.656185626984
-126.194976806641 -61.238067626953 -290.602722167969 3.995144605637
-118.254478454590 -63.567256927490 -290.481414794922 3.057305812836
-125.735427856445 -67.168098449707 -297.031555175781 4.550724029541
-151.033660888672 -67.896583557129 -295.160827636719 1.400117039680
26.330310821533 -73.410324096680 -12.644456863403 2.660044193268
29.572914123535 -73.975524902344 -17.589870452881 1.417367815971
36.105613708496 -70.604042053223 -19.986064910889 2.966022491455
46.253910064697 -64.855880737305 -23.542352676392 3.451372623444
25.544675827026 -74.863502502441 -28.153444290161 2.494681596756
18.612300872803 -73.042350769043 -34.738407135010 2.571718454361
-36.039661407471 -69.189247131348 -46.971790313721 2.617732048035
-84.038352966309 -69.727111816406 -54.110263824463 1.326498031616
-18.056917190552 -68.410835266113 -59.094936370850 0.681778788567
71.155952453613 -67.310478210449 -64.612144470215 2.201333761215
100.158386230469 -68.288909912109 -68.271461486816 2.366476535797
63.226455688477 -67.154266357422 -82.831062316895 2.399512052536
59.856781005859 -64.087554931641 -82.988128662109 1.427869558334
98.776832580566 -68.733131408691 -84.027610778809 1.128400802612
-65.532272338867 -65.317039489746 -91.364730834961 2.467614173889
-66.885856628418 -67.581611633301 -92.071083068848 3.104749441147
48.200645446777 -66.288879394531 -93.333282470703 0.409113585949
-68.638427734375 -68.965927124023 -96.843307495117 3.282450199127
-72.945823669434 -67.194602966309 -101.717575073242 1.189309477806
-98.094345092773 -66.215309143066 -100.902580261230 1.107037782669
-77.158294677734 -64.280532836914 -101.019531250000 1.814179658890
45.495071411133 -65.099693298340 -101.626266479492 1.658316254616
-68.899658203125 -69.346412658691 -104.307640075684 3.898746967316
48.109111785889 -66.042121887207 -103.032600402832 1.569859981537
94.816520690918 -67.937232971191 -104.351425170898 1.514071226120
89.465797424316 -67.867599487305 -110.920127868652 4.119404792786
-74.220001220703 -66.810737609863 -115.371978759766 0.806951761246
-85.871360778809 -67.975036621094 -113.469436645508 1.905603647232
-63.194004058838 -66.987854003906 -119.983390808105 2.351899147034
-97.503700256348 -63.613342285156 -120.206985473633 2.374017238617
-77.956710815430 -68.660514831543 -128.226760864258 1.908104777336
-94.688285827637 -60.821990966797 -126.355331420898 2.800596237183
-64.656181335449 -65.392021179199 -118.769363403320 1.083835482597
-61.511894226074 -61.614955902100 -121.216835021973 2.712853431702
-89.935111999512 -67.235984802246 -130.614379882813 0.838743209839
-64.549354553223 -69.999183654785 -128.310256958008 3.775645732880
-85.360313415527 -65.787231445313 -133.499221801758 2.206857442856
-80.763313293457 -67.476234436035 -134.867889404297 0.961659729481
-63.333232879639 -70.207160949707 -135.396057128906 0.940536439419
-62.070220947266 -63.244529724121 -135.410964965820 1.212387084961
-55.883029937744 -62.267498016357 -136.224166870117 1.499476790428
-97.532264709473 -64.253791809082 -133.429367065430 5.618525505066
-98.135475158691 -63.987682342529 -145.221649169922 3.032583951950
-89.715698242188 -66.938453674316 -136.014953613281 2.194391727448
19.497039794922 -69.249130249023 -148.736312866211 2.209634065628
-51.092864990234 -67.365180969238 -142.604034423828 1.973837494850
16.908088684082 -66.763076782227 -150.478607177734 1.738954067230
-99.146224975586 -66.802619934082 -165.656387329102 2.326689481735
-103.843215942383 -70.085861206055 -172.612655639648 1.697401762009
-103.374794006348 -63.051731109619 -172.446472167969 1.844460248947
-108.760665893555 -61.537361145020 -172.501861572266 2.576956748962
-108.363868713379 -66.616729736328 -180.785354614258 2.664893627167
-111.439964294434 -65.618652343750 -179.566238403320 2.520357847214
-142.920883178711 -64.187004089355 -188.521041870117 1.308475255966
-112.715721130371 -64.626647949219 -187.721466064453 1.544236779213
-134.392013549805 -62.788639068604 -201.063659667969 1.110474467278
-149.997146606445 -67.416740417480 -199.955780029297 1.323181986809
-127.158279418945 -65.841186523438 -199.418716430664 1.686342000961
-157.561553955078 -67.168243408203 -198.129104614258 2.758888244629
-147.913070678711 -68.524154663086 -203.584976196289 3.253314733505
-125.862930297852 -61.215259552002 -200.149749755859 1.342243790627
-135.215423583984 -64.492431640625 -202.888610839844 1.889799714088
-142.159744262695 -70.066802978516 -208.016891479492 2.103892803192
-132.607543945313 -67.534553527832 -224.974700927734 0.880604684353
-111.039596557617 -66.889366149902 -230.870605468750 1.527694821358
-144.536804199219 -66.148483276367 -229.898605346680 2.630853652954
-119.168472290039 -63.790363311768 -232.438003540039 1.113564729691
-116.194435119629 -61.473354339600 -232.202224731445 2.767314910889
-123.209297180176 -66.091484069824 -234.545837402344 1.066393971443
-131.139282226563 -65.161430358887 -235.879089355469 3.429577827454
-116.106521606445 -62.507556915283 -237.824676513672 5.432715892792
4.014334201813 -65.047370910645 -236.159011840820 1.165257096291
-152.433746337891 -66.729057312012 -239.356994628906 4.177734851837
6.052033901215 -66.894706726074 -235.423187255859 1.281518936157
5.121870994568 -62.637451171875 -242.500473022461 1.818484902382
1.484146952629 -67.567443847656 -241.733581542969 1.172064542770
13.630431175232 -62.659374237061 -241.022003173828 2.004034757614
-144.906555175781 -63.636646270752 -236.779190063477 1.254078745842
-5.389676094055 -66.825714111328 -247.607635498047 3.774280309677
19.051355361938 -65.480789184570 -241.536590576172 1.223385691643
49.310272216797 -64.204238891602 -249.702209472656 1.936057686806
50.363452911377 -64.354072570801 -250.320617675781 1.497945189476
-147.155136108398 -66.600875854492 -254.071762084961 1.460332989693
-6.190138816833 -66.397918701172 -252.015121459961 0.832711100578
