29.070817947388 -75.526603698730 -172.441848754883 2.255855083466
110.464973449707 -74.617225646973 -171.871032714844 1.407556176186
102.245834350586 -75.430320739746 -182.627182006836 2.007252931595
105.628089904785 -76.149986267090 -188.387191772461 1.852967023849
106.641807556152 -74.529220581055 -176.050216674805 1.073651790619
-52.436336517334 -74.460441589355 -190.901458740234 1.792447090149
-49.567958831787 -72.775871276855 -183.479354858398 2.474184036255
26.400243759155 -76.117919921875 -183.235534667969 1.288721919060
-49.032600402832 -73.935783386230 -187.579452514648 1.384487271309
-20.708860397339 -76.037643432617 -184.568374633789 2.119981527328
-51.106891632080 -77.144981384277 -192.153350830078 1.229938030243
-151.343399047852 -74.223182678223 -194.495956420898 2.254000186920
101.137458801270 -77.396759033203 -192.020919799805 1.127380013466
-44.860153198242 -73.029594421387 -194.457931518555 2.460964202881
-14.539042472839 -76.877441406250 -198.666275024414 1.739363789558
-140.235092163086 -75.117141723633 -195.996032714844 1.124481439590
-43.328521728516 -73.211334228516 -198.202560424805 2.774616956711
101.931121826172 -75.443618774414 -196.180709838867 1.150530099869
106.720458984375 -74.753288269043 -184.711837768555 2.196030616760
-44.597267150879 -75.138259887695 -196.932479858398 1.576951265335
-23.322214126587 -80.427719116211 -198.350234985352 2.926163673401
-148.100326538086 -78.760658264160 -201.438369750977 2.670231819153
-25.196432113647 -75.840507507324 -197.209640502930 0.833888649940
-157.587921142578 -75.637184143066 -199.577529907227 3.265108346939
-152.880065917969 -80.191703796387 -205.679672241211 3.097795248032
-143.343780517578 -76.735900878906 -203.364364624023 0.982295811176
-38.569114685059 -75.831588745117 -200.303451538086 1.240715146065
101.075691223145 -76.594230651855 -200.794799804688 1.924913406372
-41.128822326660 -73.496810913086 -200.188201904297 2.435949325562
-143.383071899414 -78.137718200684 -206.472702026367 1.998091220856
-37.910095214844 -72.191352844238 -206.189010620117 2.055912733078
-20.809326171875 -79.214393615723 -210.243179321289 4.337877750397
96.932899475098 -77.590438842773 -204.375473022461 1.836115956306
91.283378601074 -76.745536804199 -212.477325439453 0.418434858322
-34.400917053223 -73.778030395508 -217.554244995117 3.764413356781
-87.521163940430 -75.961296081543 -211.940353393555 1.623610138893
-75.727516174316 -75.602027893066 -212.547882080078 1.121577501297
-18.687065124512 -75.431930541992 -214.027008056641 2.641672611237
-149.941528320313 -75.687431335449 -207.440429687500 1.848403453827
90.180587768555 -75.822845458984 -212.677124023438 1.394830107689
88.960395812988 -74.042205810547 -217.425872802734 1.171080112457
90.232902526855 -75.773780822754 -219.298370361328 0.627678513527
-102.245002746582 -74.822929382324 -221.331726074219 1.848714709282
-153.008850097656 -77.013153076172 -223.626663208008 1.860956192017
-19.948995590210 -74.055770874023 -222.914047241211 1.676187992096
80.013061523438 -73.416900634766 -225.325546264648 1.965158939362
-149.579086303711 -77.933776855469 -225.578308105469 2.172505140305
-28.021133422852 -76.298095703125 -219.355819702148 1.724558115005
-133.354736328125 -73.222061157227 -232.699340820313 1.021103620529
-11.728857994080 -77.472526550293 -230.222564697266 1.854174852371
17.552379608154 -74.738067626953 -225.961257934570 0.415962308645
19.804109573364 -76.189804077148 -232.626754760742 1.666434884071
-154.681564331055 -77.590621948242 -235.897903442383 4.223479270935
-125.742500305176 -71.598220825195 -234.080764770508 0.898227810860
-8.059811592102 -74.488945007324 -235.391006469727 1.450752258301
0.234193995595 -74.508399963379 -237.315185546875 0.841299295425
69.322891235352 -75.261093139648 -232.328216552734 1.921365141869
70.832275390625 -72.923461914063 -237.353256225586 2.153822898865
-0.187603995204 -73.806739807129 -240.357620239258 1.650024890900
16.589441299438 -71.935623168945 -239.619476318359 0.964901864529
-29.978275299072 -69.396659851074 -240.951141357422 5.620693206787
-33.527431488037 -80.441047668457 -241.955154418945 0.441064000130
-46.706001281738 -74.354568481445 -239.263504028320 0.583607614040
-39.073986053467 -73.048301696777 -241.420974731445 2.095312356949
-17.264617919922 -76.219703674316 -243.015945434570 1.033243060112
-52.221878051758 -73.232978820801 -244.450607299805 2.656924247742
2.080368995667 -75.337776184082 -245.178359985352 0.923136949539
-67.982803344727 -75.380813598633 -244.947937011719 1.910701751709
20.931211471558 -75.892189025879 -247.008682250977 1.571005940437
-143.922805786133 -76.558197021484 -246.628860473633 2.200703382492
-72.403335571289 -76.895256042480 -252.509277343750 1.349517941475
15.566204071045 -76.590515136719 -249.132232666016 1.310792684555
-161.092620849609 -73.235496520996 -251.141571044922 2.504741430283
15.340129852295 -78.214630126953 -252.757446289063 1.561476826668
-79.702651977539 -70.901107788086 -251.629333496094 1.765627980232
-74.934112548828 -75.227813720703 -251.698135375977 1.430302619934
19.921630859375 -76.438484191895 -254.954589843750 1.150551676750
-88.924774169922 -73.877136230469 -253.209075927734 1.626319050789
-125.404228210449 -71.879478454590 -256.470062255859 2.164787054062
-133.237457275391 -76.487129211426 -260.980743408203 2.249459505081
-134.799972534180 -76.559860229492 -256.234710693359 1.728303432465
-146.778488159180 -74.818336486816 -262.486328125000 2.799512147903
-144.061416625977 -71.996826171875 -256.632507324219 2.404763936996
-134.507003784180 -72.699203491211 -263.190460205078 1.762485504150
-161.348724365234 -71.632690429688 -262.477355957031 2.784009218216
-126.662223815918 -73.359939575195 -267.555480957031 3.283617734909
-134.996582031250 -70.829872131348 -264.029785156250 1.110288739204
-163.326446533203 -71.586364746094 -269.110534667969 3.568091869354
-156.376541137695 -71.805183410645 -265.798553466797 2.293802976608
-148.976715087891 -72.559715270996 -267.114868164063 2.520255804062
-147.685211181641 -74.455886840820 -267.228637695313 0.689853787422
17.163513183594 -77.222511291504 -278.488769531250 1.834884524345
-165.755920410156 -73.800422668457 -268.844207763672 2.878226757050
-151.483139038086 -74.723968505859 -275.085174560547 1.600527524948
-5.354714870453 -81.501098632813 -273.250640869141 1.791330456734
-156.852813720703 -72.014549255371 -274.224945068359 2.653907060623
12.679904937744 -78.278732299805 -281.934265136719 0.894547879696
-151.782363891602 -73.491592407227 -283.470367431641 1.291678309441
-163.968093872070 -74.548881530762 -289.499694824219 1.328732252121
-154.410827636719 -75.582389831543 -281.940032958984 2.420973062515
-164.560745239258 -72.204162597656 -289.483306884766 1.880699872971
1.890669941902 -77.020408630371 -287.526702880859 2.263488531113
7.818758964539 -78.834442138672 -283.060577392578 2.365229606628
-101.436714172363 -72.551666259766 -291.941741943359 1.825662732124
-153.422103881836 -77.755844116211 -289.355224609375 2.727960109711
-147.766296386719 -72.067321777344 -287.491729736328 3.034971237183
-106.754554748535 -72.998733520508 -291.835144042969 1.641406774521
-151.655990600586 -75.717628479004 -293.499450683594 1.030803680420
-147.929077148438 -76.449134826660 -290.961486816406 1.681317687035
-71.568283081055 -76.371475219727 -293.342437744141 4.228158473969
-165.243621826172 -75.304939270020 -291.237670898438 1.798098921776
-122.548820495605 -71.241981506348 -292.724487304688 1.930900692940
-42.655879974365 -77.580650329590 -288.441436767578 2.156297683716
-152.844985961914 -73.493515014648 -290.117248535156 2.864678144455
-132.558258056641 -69.801414489746 -294.867492675781 2.154496431351
-18.026803970337 -72.501312255859 -294.075927734375 2.956202983856
-127.425865173340 -71.302742004395 -294.772338867188 1.346522927284
6.420729160309 -75.397964477539 -294.386291503906 1.312134742737
15.944380760193 -72.735260009766 -292.469970703125 2.545572996140
-133.004776000977 -71.259674072266 -293.180999755859 1.508773684502
-145.060913085938 -74.928451538086 -298.729156494141 1.971554756165
-155.413452148438 -75.389686584473 -315.529174804688 4.270873069763
-73.566520690918 -71.502388000488 -53.254669189453 2.538253784180
-23.612766265869 -71.020896911621 -64.235054016113 4.710389614105
-21.634258270264 -77.500831604004 -65.484268188477 1.812379837036
71.340080261230 -74.204978942871 -76.461822509766 0.343056887388
89.723289489746 -75.883918762207 -75.007148742676 2.288109302521
-38.264053344727 -75.059875488281 -79.548049926758 1.027717709541
74.028358459473 -75.506256103516 -78.918891906738 1.179956912994
88.249946594238 -79.318458557129 -81.537124633789 2.982506752014
66.723587036133 -75.907112121582 -82.998657226563 4.540816307068
71.505393981934 -75.222381591797 -88.219184875488 2.256779432297
-50.983108520508 -76.639289855957 -87.030548095703 1.602962255478
-93.012840270996 -77.103492736816 -89.549926757813 2.106883287430
57.574581146240 -77.691047668457 -93.452575683594 3.746364116669
49.003353118896 -77.169944763184 -98.702880859375 1.263982534409
92.678878784180 -73.645111083984 -98.432136535645 0.655421555042
-93.252571105957 -71.126319885254 -102.883949279785 2.649825572968
80.842811584473 -72.921173095703 -98.558601379395 1.843792200089
71.999259948730 -76.224716186523 -99.511589050293 3.300427436829
90.574897766113 -77.560043334961 -97.602592468262 3.180971622467
82.100830078125 -75.560508728027 -97.377349853516 0.874205827713
81.891761779785 -78.473770141602 -97.951057434082 3.220466852188
-86.423217773438 -76.620796203613 -103.542358398438 4.460289478302
41.458362579346 -74.330574035645 -106.576515197754 1.632154226303
104.469871520996 -76.774314880371 -109.959579467773 2.755724906921
107.092872619629 -76.407966613770 -109.944877624512 2.730795860291
47.205299377441 -77.847404479980 -118.540626525879 1.137595295906
110.250854492188 -78.005340576172 -120.246932983398 2.146080732346
115.862213134766 -78.362030029297 -134.054809570313 3.064563989639
-52.230804443359 -72.988197326660 -132.053146362305 1.123937249184
26.575922012329 -74.907829284668 -134.492660522461 2.084003448486
39.812915802002 -77.779518127441 -133.451690673828 2.074059009552
24.406631469727 -72.779464721680 -142.753433227539 1.274398565292
112.216407775879 -78.234489440918 -137.575454711914 2.894954442978
110.967315673828 -76.541679382324 -131.001922607422 1.622035622597
-74.269195556641 -74.589973449707 -149.299972534180 2.582431316376
-44.659511566162 -74.204689025879 -143.611267089844 0.880039989948
-71.854927062988 -72.857437133789 -152.344268798828 1.815525889397
19.060129165649 -73.836227416992 -149.773635864258 3.663655042648
111.891151428223 -73.743049621582 -148.646987915039 2.396097660065
-54.281044006348 -75.807640075684 -151.803283691406 2.542576551437
-71.889778137207 -73.312622070313 -152.053680419922 1.350318312645
-39.559856414795 -77.737106323242 -153.195617675781 2.170217037201
31.763423919678 -70.683555603027 -153.182769775391 1.289440155029
109.397209167480 -72.955871582031 -150.452438354492 0.824705660343
114.827941894531 -74.625778198242 -159.799331665039 0.875361084938
-68.835220336914 -71.646186828613 -156.073989868164 1.917431950569
-73.213844299316 -75.964134216309 -162.224731445313 4.331217765808
21.195714950562 -78.146537780762 -163.437774658203 1.835994958878
-60.584335327148 -72.469871520996 -167.784866333008 0.953121423721
-33.330425262451 -73.354988098145 -163.141921997070 1.497535824776
7.338056087494 -75.990875244141 -163.702972412109 1.419104814529
108.221572875977 -73.679588317871 -160.992279052734 1.814856052399
7.339479923248 -77.512451171875 -167.230285644531 3.957065582275
-33.342449188232 -74.923385620117 -166.339660644531 1.014688730240
-2.417290925980 -71.077026367188 -166.104507446289 2.586703062057
107.137290954590 -72.694343566895 -167.403656005859 1.053774833679
-41.890575408936 -72.156311035156 -166.334381103516 1.741932630539
28.768907546997 -72.347320556641 -172.250457763672 1.279780745506
112.550735473633 -78.164131164551 -171.732131958008 3.021476984024
-57.633380889893 -71.595588684082 -177.111480712891 2.482913255692
-28.628709793091 -76.856918334961 -175.292755126953 1.573095202446
102.560440063477 -75.389457702637 -173.519866943359 3.734167814255
28.664468765259 -73.183319091797 -169.755630493164 1.566967964172
107.190750122070 -77.016380310059 -174.535003662109 2.646333932877
-37.275852203369 -71.503555297852 -178.873916625977 2.548913002014
108.008216857910 -77.639739990234 -180.050277709961 1.986464023590
-62.263057708740 -72.035644531250 -178.574844360352 4.244795799255
-25.911344528198 -78.064872741699 -179.486511230469 1.390926122665
-146.717407226563 -69.298370361328 -185.376602172852 3.558927774429
-54.506332397461 -73.438247680664 -181.619674682617 1.037851691246
-147.414657592773 -73.992416381836 -188.093658447266 0.312955915928
-34.373233795166 -72.430702209473 -185.723541259766 1.311046957970
26.527050018311 -78.223396301270 -181.886245727539 1.319504976273
106.154335021973 -75.777130126953 -182.668167114258 0.872996628284
-34.347728729248 -74.550369262695 -184.592803955078 1.085730910301
10.744985580444 -75.165039062500 -191.063598632813 0.945131719112
17.197399139404 -74.125350952148 -203.760192871094 2.346467018127
-148.419235229492 -74.178802490234 -191.578521728516 1.098750352859
104.862045288086 -77.050437927246 -194.950515747070 2.059655427933
-21.533130645752 -72.129981994629 -193.755020141602 2.651529788971
101.078300476074 -75.972999572754 -187.684188842773 2.491339921951
12.646912574768 -72.344985961914 -189.693252563477 0.544343531132
-136.998886108398 -73.219520568848 -205.430404663086 4.205471992493
-138.941848754883 -73.253059387207 -201.630737304688 1.860345721245
100.138496398926 -77.413414001465 -200.786376953125 2.132644891739
-12.050771713257 -77.865699768066 -200.935272216797 2.355976104736
-16.459157943726 -75.162017822266 -203.509231567383 2.354418277740
10.492590904236 -76.303924560547 -207.651992797852 1.332963109016
-150.078872680664 -71.852638244629 -207.746765136719 1.907905340195
-146.295852661133 -74.716293334961 -209.894729614258 2.042089223862
100.024673461914 -71.007316589355 -204.029205322266 1.542093396187
-82.225402832031 -73.392990112305 -209.350509643555 2.322505474091
-36.153804779053 -74.739768981934 -202.385940551758 2.828883409500
18.816299438477 -76.894042968750 -213.554916381836 1.594345450401
-25.206768035889 -74.616294860840 -211.746505737305 0.389507949352
-76.565391540527 -72.285980224609 -208.982238769531 1.364411354065
90.983291625977 -74.912490844727 -209.213760375977 2.278647899628
-80.398513793945 -71.510887145996 -213.519943237305 2.400517225266
-147.280303955078 -73.675132751465 -220.453018188477 1.416751980782
-79.940109252930 -72.564735412598 -214.397308349609 1.029588580132
-13.235531806946 -69.801010131836 -210.356613159180 1.385779023170
-20.571149826050 -71.751342773438 -219.467895507813 1.510299086571
18.520664215088 -74.292213439941 -213.490814208984 1.460822820663
-5.410260200500 -75.540199279785 -219.957015991211 1.356786966324
-88.205299377441 -76.747772216797 -220.101898193359 2.784219503403
92.648406982422 -74.084724426270 -213.110809326172 1.339306235313
-98.337768554688 -72.717529296875 -216.988265991211 0.351379632950
-152.098342895508 -72.502128601074 -225.944137573242 1.968039274216
-25.052551269531 -73.054405212402 -224.274520874023 2.206879138947
17.810638427734 -74.827133178711 -216.242355346680 2.071015119553
-101.937957763672 -73.677986145020 -221.372283935547 1.179823994637
7.492512226105 -71.324684143066 -219.140106201172 2.752978563309
-25.622537612915 -74.146606445313 -216.233428955078 2.237414836884
83.005058288574 -73.110008239746 -223.775955200195 1.625158548355
-145.226058959961 -72.584915161133 -220.954147338867 1.568522095680
10.483241081238 -72.927368164063 -226.049423217773 2.085234403610
-9.352810859680 -76.972747802734 -226.190567016602 2.069669961929
17.644069671631 -68.651046752930 -222.668319702148 1.354771852493
83.731170654297 -75.489898681641 -221.869674682617 0.933363199234
-13.436453819275 -76.197311401367 -229.046951293945 2.390376329422
-130.403823852539 -74.404434204102 -228.206451416016 2.537896156311
-13.711063385010 -74.234657287598 -224.970474243164 1.293768525124
16.944787979126 -74.592163085938 -231.340774536133 1.686543226242
-126.564765930176 -75.303222656250 -228.857498168945 2.259935379028
-151.404266357422 -70.096382141113 -231.395629882813 3.394456624985
-142.214141845703 -72.193695068359 -230.658660888672 1.631328821182
-130.718612670898 -71.470970153809 -229.538833618164 3.120863914490
-12.997174263000 -72.075309753418 -225.710647583008 0.883657753468
72.013381958008 -74.195114135742 -227.866149902344 2.145387411118
-143.028945922852 -69.745605468750 -238.032943725586 1.458483099937
70.949569702148 -75.568939208984 -228.459854125977 2.785671472549
-20.292938232422 -77.045516967773 -230.226547241211 1.122164845467
-142.106964111328 -76.324188232422 -231.112106323242 1.819136738777
77.464790344238 -79.172332763672 -228.514389038086 3.224746942520
9.895472526550 -77.785789489746 -233.768829345703 1.336258292198
-141.403030395508 -77.133605957031 -237.052307128906 3.811557769775
-149.841094970703 -72.116714477539 -235.716079711914 1.960975885391
17.054256439209 -71.018028259277 -231.656112670898 1.330769300461
-2.464838981628 -76.254966735840 -238.092224121094 1.000131011009
-27.446594238281 -73.257583618164 -237.831680297852 1.118618726730
-1.376551985741 -70.130767822266 -237.965270996094 1.053523778915
-160.550659179688 -74.917083740234 -239.669692993164 1.209134459496
8.252101898193 -72.891410827637 -243.822021484375 1.132729172707
-164.468429565430 -73.378868103027 -240.741592407227 2.070713281631
-12.564609527588 -74.991622924805 -238.178939819336 1.593570590019
61.780597686768 -75.093414306641 -238.972213745117 2.432696580887
-12.836291313171 -72.965171813965 -238.602905273438 1.184014320374
-24.584362030029 -72.963958740234 -244.973236083984 3.016706943512
-24.731199264526 -73.240333557129 -242.376785278320 0.885369420052
-12.593264579773 -75.968109130859 -241.371429443359 2.923429012299
-146.146179199219 -73.341468811035 -232.814239501953 2.541198015213
8.370025634766 -73.271545410156 -242.609909057617 0.570171475410
64.542282104492 -73.819892883301 -243.416259765625 1.962322831154
15.023034095764 -71.892509460449 -245.340057373047 1.952721238136
-165.692855834961 -71.212066650391 -243.571228027344 1.379660010338
-50.219173431396 -72.524200439453 -241.651382446289 1.664595842361
4.254323005676 -80.448577880859 -248.493484497070 1.540510058403
17.298818588257 -74.008132934570 -244.440048217773 2.282734155655
-53.874904632568 -72.735992431641 -248.096710205078 2.186165809631
-2.471066951752 -69.990875244141 -248.655242919922 4.454647541046
21.243974685669 -78.636650085449 -248.128036499023 1.369814753532
-168.778045654297 -70.896347045898 -250.800430297852 2.146971702576
-67.248168945313 -76.445701599121 -249.208221435547 1.311897516251
-51.233390808105 -72.314041137695 -248.277725219727 2.717331886292
-80.731391906738 -72.252601623535 -252.500076293945 2.976829528809
-160.686645507813 -73.541381835938 -248.936645507813 1.713055133820
-150.368637084961 -67.029846191406 -251.393447875977 0.839735090733
-59.760032653809 -75.045211791992 -250.642898559570 1.825873970985
-68.403907775879 -73.083168029785 -251.013061523438 1.747658491135
-153.226013183594 -70.781517028809 -254.605133056641 0.845198512077
-151.647827148438 -73.363922119141 -254.204620361328 1.785036206245
-75.442489624023 -70.111549377441 -255.533401489258 3.508172273636
-93.016227722168 -70.617408752441 -256.550720214844 2.014882087708
-163.987045288086 -68.085639953613 -254.251663208008 2.892839908600
-156.374984741211 -72.715347290039 -261.692382812500 2.050501346588
-134.377334594727 -74.090179443359 -260.021453857422 0.521480143070
-82.768661499023 -73.052467346191 -252.590133666992 2.504048585892
-161.767761230469 -69.812492370605 -254.952758789063 2.971152305603
-141.416854858398 -70.902336120605 -258.702911376953 3.212712049484
-84.951103210449 -72.193122863770 -252.521789550781 1.240917444229
-96.233596801758 -70.743446350098 -261.723327636719 2.891383647919
-144.657043457031 -73.425796508789 -257.855529785156 2.620033264160
-93.076789855957 -72.614700317383 -257.467742919922 1.895596623421
-152.173355102539 -70.983688354492 -257.960327148438 2.760741472244
-101.912773132324 -72.388504028320 -257.035247802734 1.076614379883
-168.235092163086 -71.705612182617 -260.960632324219 1.021677255630
-161.008972167969 -73.753135681152 -265.463836669922 1.789379954338
-126.015884399414 -75.414955139160 -258.294586181641 1.527219772339
-151.240859985352 -72.611701965332 -261.387817382813 2.809108734131
-111.366180419922 -70.092697143555 -263.489013671875 2.633328437805
-13.871559143066 -72.270072937012 -262.481536865234 1.438761830330
-141.123260498047 -72.253616333008 -262.876373291016 1.654517650604
-125.393852233887 -72.003601074219 -261.822631835938 1.465662479401
-153.696411132813 -70.896888732910 -264.651855468750 1.082882761955
24.115579605103 -74.497489929199 -271.025146484375 3.262471914291
-148.031784057617 -74.542907714844 -280.599243164063 2.250782012939
-167.753982543945 -72.510566711426 -282.259368896484 3.038850784302
-7.540608882904 -73.538757324219 -279.982055664063 2.438122987747
-145.195266723633 -72.301124572754 -282.427398681641 0.801361799240
-8.839362144470 -71.993011474609 -283.732818603516 1.789160728455
13.545631408691 -73.923553466797 -286.428527832031 1.133108735085
-135.911178588867 -70.977485656738 -287.805969238281 2.372793197632
-67.566131591797 -74.620498657227 -288.104064941406 1.757775902748
-32.590183258057 -75.388633728027 -288.866760253906 1.909025907516
-112.175865173340 -72.454811096191 -286.013610839844 2.134293317795
-94.556999206543 -76.213989257813 -291.675964355469 2.314671278000
-88.835296630859 -72.985069274902 -292.784362792969 2.283929347992
-49.029941558838 -74.337036132813 -292.869689941406 4.142738819122
-115.217262268066 -76.459602355957 -290.241516113281 2.837857723236
-112.940368652344 -73.702445983887 -291.893676757813 1.005092024803
-32.299449920654 -70.880500793457 -290.000366210938 1.530725836754
-114.524154663086 -72.956542968750 -294.657257080078 2.051947355270
-126.276214599609 -68.484306335449 -291.962554931641 1.982125639915
-143.599960327148 -74.197029113770 -295.516204833984 2.689055681229
7.936583042145 -73.299369812012 -291.925628662109 1.702643871307
17.424243927002 -75.279945373535 -293.631072998047 1.927491188049
-159.098129272461 -72.131233215332 -294.921813964844 1.976841807365
-157.447433471680 -75.631195068359 -302.753784179688 2.748003244400
-146.001235961914 -73.503395080566 -312.451690673828 1.577928900719
-150.975845336914 -71.005386352539 -312.847290039063 0.278227657080
-151.554855346680 -73.646690368652 -315.574920654297 2.791080951691
27.147380828857 -77.642356872559 -15.116874694824 5.681830406189
29.144298553467 -72.965141296387 -18.439832687378 1.191707372665
19.832593917847 -74.883155822754 -24.544107437134 2.918764114380
27.500732421875 -72.625427246094 -39.452110290527 2.035921335220
-59.463119506836 -72.956832885742 -50.788425445557 3.476818799973
-66.558380126953 -73.404785156250 -51.294734954834 1.594597816467
-40.220966339111 -76.829635620117 -51.172294616699 4.525782585144
-85.640495300293 -69.941749572754 -64.235473632813 2.600506782532
80.054916381836 -77.909217834473 -73.911483764648 3.514838457108
-16.598283767700 -72.459678649902 -71.689567565918 1.828244090080
87.892311096191 -76.079887390137 -66.015983581543 3.261334657669
98.234947204590 -74.987945556641 -76.510696411133 1.730637431145
-93.684211730957 -71.734001159668 -77.727790832520 1.563753962517
66.557861328125 -74.889297485352 -80.270408630371 4.689877033234
-42.108337402344 -77.706024169922 -86.531921386719 1.463750720024
99.847351074219 -74.306015014648 -81.608718872070 2.134253740311
-56.617313385010 -72.591911315918 -89.671394348145 2.051254272461
50.039638519287 -75.198287963867 -90.577812194824 3.014902830124
69.916511535645 -80.070861816406 -90.595268249512 5.221205234528
54.558189392090 -74.048301696777 -96.272232055664 1.284894824028
51.889541625977 -76.522346496582 -98.573997497559 0.905848979950
73.445167541504 -78.073432922363 -95.472969055176 2.954442977905
45.629440307617 -74.543601989746 -105.282539367676 2.325456142426
99.511222839355 -75.884452819824 -100.327400207520 2.695732355118
105.023849487305 -79.124053955078 -105.940711975098 4.239554405212
79.129867553711 -72.412994384766 -103.166816711426 1.797042608261
90.927978515625 -76.381034851074 -103.094322204590 3.232133865356
99.910209655762 -75.507575988770 -94.683372497559 3.783254384995
108.630088806152 -75.880233764648 -103.171447753906 1.586628913879
38.726184844971 -74.722320556641 -106.257331848145 1.706165194511
111.812332153320 -72.743530273438 -118.047760009766 0.942910850048
113.039970397949 -76.597831726074 -118.285316467285 3.145161628723
30.649988174438 -73.183883666992 -123.728393554688 2.068611860275
44.007766723633 -75.943679809570 -118.949287414551 1.389958500862
114.647026062012 -75.723083496094 -129.580764770508 0.661969363689
35.591167449951 -74.197792053223 -126.800941467285 2.815362930298
114.398979187012 -78.802742004395 -127.128746032715 4.032149791718
108.063896179199 -76.244720458984 -121.887680053711 2.421210289001
25.868318557739 -75.310493469238 -135.805892944336 1.246027588844
-48.509384155273 -74.274902343750 -135.068130493164 1.947179317474
-52.650707244873 -72.259704589844 -136.115356445313 1.425180196762
110.803314208984 -74.642799377441 -134.391738891602 0.958049654961
-69.719429016113 -77.283927917480 -141.670730590820 3.691840887070
-73.302986145020 -74.331787109375 -141.565155029297 1.094244122505
-59.413497924805 -74.320228576660 -142.271514892578 1.398985505104
31.482713699341 -74.562835693359 -143.797973632813 3.398334980011
115.753784179688 -76.998458862305 -145.268630981445 3.606922626495
-69.779220581055 -70.605957031250 -148.276626586914 1.245923399925
-48.419345855713 -73.595375061035 -143.555694580078 2.962456941605
33.045696258545 -75.144989013672 -151.390396118164 1.580543398857
-68.502983093262 -74.809272766113 -148.998352050781 1.302271366119
113.557373046875 -74.310615539551 -140.681579589844 1.065580844879
111.595901489258 -73.407440185547 -156.933334350586 0.437833130360
115.989578247070 -76.360305786133 -152.306701660156 1.023213982582
-38.715152740479 -76.358032226563 -153.940673828125 1.711936593056
-64.920814514160 -73.701751708984 -165.449874877930 1.445739626884
-69.422470092773 -70.595802307129 -158.326965332031 2.497390270233
29.775621414185 -75.576225280762 -146.567810058594 2.945564031601
-2.309649944305 -76.101051330566 -162.587554931641 1.269222497940
108.943168640137 -74.731079101563 -161.018432617188 1.748789668083
111.527183532715 -73.532669067383 -152.392211914063 0.567458212376
111.999916076660 -77.374778747559 -157.763992309570 0.555196404457
-63.931732177734 -71.019210815430 -161.168121337891 2.026642322540
-45.512493133545 -75.701492309570 -166.156173706055 1.164438247681
-2.474636077881 -73.393356323242 -165.540603637695 2.564334154129
-29.301605224609 -74.084465026855 -175.658843994141 3.401535749435
105.843643188477 -74.223541259766 -166.653625488281 1.401022434235
-34.585884094238 -76.838119506836 -160.869918823242 1.573547601700
109.302322387695 -73.592567443848 -167.746444702148 1.717149972916
-41.837005615234 -74.300346374512 -174.501159667969 1.395472645760
108.544891357422 -72.959526062012 -168.020202636719 2.009022712708
-151.471847534180 -73.752670288086 -181.978225708008 1.527058720589
-26.926303863525 -70.196556091309 -177.480453491211 1.266032218933
-20.260171890259 -73.961090087891 -183.998962402344 1.968693375587
24.842287063599 -77.281784057617 -177.341232299805 0.532498598099
15.102003097534 -73.833328247070 -183.458343505859 1.771011590958
27.675857543945 -74.664001464844 -183.223953247070 1.657526135445
104.283843994141 -78.678131103516 -183.162780761719 1.977926850319
-151.731613159180 -69.932388305664 -186.801986694336 2.173471927643
-19.681053161621 -76.075714111328 -185.497680664063 1.019339323044
102.179176330566 -75.796081542969 -178.037948608398 4.032929420471
103.302726745605 -71.800765991211 -189.101837158203 1.889376878738
108.168411254883 -76.095138549805 -177.188735961914 1.133412837982
99.186683654785 -76.481155395508 -193.212234497070 2.584448575974
-151.158325195313 -73.140121459961 -198.448394775391 2.767657279968
100.259971618652 -75.536422729492 -204.954742431641 0.496710628271
-28.053159713745 -71.584999084473 -197.864883422852 2.631663560867
97.683265686035 -74.523849487305 -195.259231567383 2.143058538437
-121.219810485840 -75.937942504883 -201.751922607422 2.707860708237
-29.707502365112 -78.112625122070 -190.871047973633 2.236366748810
-141.730987548828 -68.726799011230 -200.109741210938 3.017889022827
95.500221252441 -74.843498229980 -198.110610961914 2.386159896851
8.804092407227 -74.721656799316 -199.420715332031 2.670454978943
23.983203887939 -72.891250610352 -192.762619018555 1.614025950432
-147.897399902344 -72.964935302734 -204.805526733398 1.933963060379
-138.745193481445 -71.891227722168 -203.853454589844 2.224119186401
-9.814744949341 -73.378189086914 -207.235443115234 1.911367774010
-124.179702758789 -72.563003540039 -205.419464111328 2.005676031113
-143.745803833008 -74.960311889648 -201.574096679688 2.265003681183
4.108831882477 -74.194526672363 -199.974639892578 4.816534042358
-24.082483291626 -75.804580688477 -201.763000488281 1.907216548920
20.839094161987 -76.818901062012 -202.541091918945 0.785231351852
6.891757011414 -75.157196044922 -212.185119628906 1.859212398529
85.691688537598 -72.170127868652 -208.130355834961 3.816425323486
-18.111431121826 -71.145515441895 -212.515121459961 2.087907791138
91.580612182617 -72.472579956055 -208.474441528320 1.726521372795
97.267127990723 -76.492965698242 -206.485549926758 1.626697778702
-148.667129516602 -73.443595886230 -216.447723388672 1.349275946617
95.745971679688 -76.302947998047 -211.065505981445 0.584461569786
5.228105068207 -72.983482360840 -207.666900634766 2.487937688828
3.857032060623 -75.917640686035 -214.802658081055 2.940749883652
-32.748088836670 -73.155525207520 -207.719329833984 1.686419129372
-89.143386840820 -72.396255493164 -214.426666259766 2.365781545639
-25.987764358521 -74.959968566895 -211.526397705078 0.656739950180
85.440650939941 -73.758888244629 -216.470428466797 1.785729169846
89.601936340332 -73.624328613281 -216.539367675781 1.169416308403
-31.572908401489 -72.729904174805 -212.955856323242 1.706695437431
-84.051063537598 -70.052886962891 -219.639114379883 3.906741619110
-0.741411983967 -75.718955993652 -219.135559082031 1.933731555939
82.332412719727 -71.051902770996 -212.741531372070 4.881072998047
-151.596755981445 -76.010353088379 -223.850494384766 1.691841840744
-165.514404296875 -70.679031372070 -216.416152954102 1.816112041473
-161.639419555664 -74.637275695801 -224.354400634766 2.714349746704
-21.011653900146 -74.370628356934 -227.488494873047 2.559730768204
-153.555175781250 -75.132446289063 -224.769714355469 2.874529123306
-5.366963863373 -74.779525756836 -224.935089111328 2.920764923096
6.871923923492 -74.812034606934 -218.730133056641 2.131524801254
-166.766143798828 -71.994483947754 -227.695693969727 1.545376896858
-158.401321411133 -72.542106628418 -229.456024169922 2.638098001480
79.688201904297 -77.414588928223 -231.033874511719 1.371664643288
0.670247018337 -72.541458129883 -227.036834716797 0.934490978718
-157.110824584961 -67.633216857910 -228.202270507813 1.979017972946
-142.127441406250 -73.920379638672 -226.292526245117 2.419013023376
-18.815515518188 -72.569122314453 -224.512573242188 2.181943416595
-0.066835999489 -77.832260131836 -222.876846313477 2.325498104095
80.467712402344 -71.971801757813 -225.183700561523 1.462752103806
-160.837524414063 -70.525581359863 -229.984115600586 3.301204204559
-143.534133911133 -70.029350280762 -232.794845581055 1.691728591919
-124.655281066895 -70.879615783691 -232.642318725586 1.545847058296
79.186454772949 -75.721305847168 -226.262634277344 1.401741027832
-115.200202941895 -72.455490112305 -230.814483642578 1.409938097000
-145.972412109375 -72.202453613281 -231.260772705078 2.006794929504
-150.046127319336 -70.900367736816 -233.435409545898 3.101624488831
-148.570602416992 -72.959838867188 -233.345169067383 2.405631065369
-155.397857666016 -72.697257995605 -231.182052612305 1.030692219734
-164.649719238281 -72.543037414551 -231.202896118164 0.888761460781
-133.208267211914 -72.493072509766 -237.191406250000 2.980800628662
-132.807510375977 -73.488830566406 -234.989257812500 0.887446701527
-152.736175537109 -75.790611267090 -234.968612670898 2.104104518890
-144.842742919922 -68.780105590820 -238.798645019531 2.388983011246
-151.115768432617 -72.649414062500 -237.366409301758 1.830576300621
75.400619506836 -76.214599609375 -232.054031372070 1.540121078491
67.915138244629 -69.411537170410 -235.654495239258 0.988984227180
-156.485183715820 -70.725097656250 -237.481399536133 1.832232117653
72.282104492188 -69.878776550293 -232.901763916016 1.918569922447
-19.219413757324 -71.986824035645 -237.267639160156 2.071878671646
11.964682579041 -74.849411010742 -237.382476806641 1.622149229050
7.473031044006 -74.392845153809 -236.360610961914 3.100542306900
-153.900329589844 -72.218315124512 -244.746109008789 2.831982135773
15.197179794312 -73.078254699707 -241.356170654297 2.384275674820
61.539916992188 -72.866683959961 -237.742019653320 1.877829909325
14.005817413330 -71.237548828125 -238.206634521484 1.225510120392
5.969442844391 -74.007652282715 -241.932281494141 1.587511420250
-5.891699790955 -71.410675048828 -240.833114624023 1.588810920715
-20.507532119751 -71.901390075684 -243.487045288086 1.788206696510
-1.102406978607 -73.401603698730 -242.409240722656 1.038446784019
4.458380222321 -76.138458251953 -245.388351440430 1.439913630486
58.032096862793 -74.977783203125 -241.391647338867 0.787493050098
-54.820816040039 -76.302894592285 -245.802459716797 2.295887708664
20.278993606567 -72.582702636719 -247.560546875000 1.194590091705
-58.949954986572 -73.915054321289 -242.890182495117 2.370215892792
-9.200569152832 -73.528091430664 -248.433273315430 0.323349654675
-65.372505187988 -69.546791076660 -251.426452636719 2.897213220596
-85.325012207031 -71.107124328613 -254.508544921875 1.312808394432
-81.921394348145 -73.634857177734 -253.476974487305 1.287686705589
-9.111904144287 -72.670578002930 -255.336776733398 2.920032024384
-123.116233825684 -72.130958557129 -260.844360351563 1.928213357925
-13.408150672913 -74.160285949707 -253.585647583008 1.806338071823
-116.265579223633 -72.418594360352 -257.431152343750 1.514801621437
-115.736808776855 -71.083099365234 -260.352691650391 2.805070400238
-102.825630187988 -72.325469970703 -258.120056152344 1.060567855835
-143.099594116211 -71.189277648926 -263.855407714844 1.154580235481
-144.195129394531 -71.558799743652 -269.271789550781 3.757678985596
-167.875244140625 -71.956329345703 -265.900970458984 2.646651744843
20.300239562988 -76.776367187500 -280.534088134766 3.523009300232
-57.037715911865 -70.811851501465 -286.472503662109 0.403080254793
-66.251403808594 -71.608993530273 -284.890289306641 1.455447077751
-41.183105468750 -74.509002685547 -284.806396484375 2.144556999207
-27.060022354126 -73.846488952637 -287.247711181641 1.503697156906
-95.320983886719 -74.192771911621 -290.748992919922 1.300416469574
-29.841793060303 -70.989433288574 -286.508270263672 1.846372604370
-3.124771118164 -73.137298583984 -286.687316894531 0.768661081791
-166.371902465820 -71.778556823730 -291.598480224609 2.532435655594
-14.908386230469 -75.073249816895 -286.532836914063 1.842549562454
7.344618797302 -74.348342895508 -288.343841552734 1.198932528496
15.049388885498 -77.585426330566 -283.940277099609 3.593359947205
-55.993961334229 -74.946914672852 -288.715606689453 2.388391494751
-32.209991455078 -73.259971618652 -292.306793212891 0.585631668568
15.245867729187 -71.346427917480 -293.376007080078 2.263875722885
-69.881576538086 -71.148155212402 -294.153961181641 2.384116888046
-39.250732421875 -70.293296813965 -290.040466308594 1.892673254013
-16.853706359863 -70.986434936523 -290.641357421875 1.240852355957
16.037788391113 -75.429069519043 -291.331359863281 0.777006268501
-10.545475959778 -74.627540588379 -294.814422607422 3.547231435776
4.979633808136 -71.956138610840 -294.219604492188 1.982435107231
15.239295005798 -75.163932800293 -290.910797119141 1.298336863518
-133.859008789063 -70.996833801270 -296.262573242188 1.891352295876
-143.905471801758 -74.174224853516 -301.187194824219 2.000612735748
-149.805175781250 -72.134262084961 -315.303558349609 2.546438694000
41.568145751953 -74.116134643555 -13.727507591248 1.657989382744
28.648384094238 -74.453201293945 -11.968884468079 2.748194456100
37.832626342773 -74.774894714355 -15.470100402832 3.507312059402
20.583074569702 -71.370201110840 -18.944200515747 1.622655034065
43.578899383545 -72.643630981445 -22.363391876221 1.943833112717
24.184083938599 -72.700164794922 -24.163455963135 0.720063209534
22.412969589233 -74.729743957520 -27.715599060059 2.728083133698
23.548049926758 -75.223518371582 -38.487907409668 4.292220115662
38.215812683105 -76.600769042969 -30.857662200928 6.086697578430
25.002075195313 -77.865844726563 -36.529399871826 6.578110694885
41.821407318115 -73.275634765625 -37.674781799316 3.149555206299
30.615901947021 -74.970756530762 -39.548587799072 2.802420854568
37.494033813477 -75.861953735352 -35.995548248291 3.776054620743
29.718101501465 -73.587356567383 -40.084926605225 2.139715433121
42.372413635254 -74.498321533203 -41.180442810059 2.426279783249
32.473773956299 -73.969955444336 -39.099044799805 2.139001846313
-42.127082824707 -72.076545715332 -49.123363494873 2.880947351456
-31.212583541870 -68.981437683105 -51.397274017334 1.400318861008
-90.503677368164 -71.817161560059 -56.123828887939 4.818576335907
-90.100028991699 -74.102058410645 -66.896171569824 3.410909414291
76.868034362793 -76.992851257324 -66.240409851074 6.258018493652
83.344917297363 -74.331893920898 -71.977035522461 1.385581374168
-20.606737136841 -71.797454833984 -74.163444519043 1.526772499084
-89.225311279297 -73.295570373535 -73.043098449707 1.060766100883
-26.116090774536 -72.980209350586 -77.402427673340 1.994840979576
-50.547016143799 -74.433624267578 -85.861557006836 2.492483139038
65.088783264160 -70.621742248535 -85.857452392578 1.600203156471
51.926040649414 -73.159507751465 -92.993782043457 1.776112437248
98.705871582031 -72.736785888672 -90.671539306641 1.803740382195
68.679275512695 -75.737876892090 -96.162940979004 2.757209300995
-69.048599243164 -74.568572998047 -92.126029968262 3.988063097000
-62.934108734131 -71.342254638672 -98.889610290527 3.988095045090
44.065990447998 -74.486602783203 -97.236640930176 1.336300015450
76.697753906250 -72.849433898926 -99.323448181152 1.333954095840
53.759601593018 -81.000236511230 -104.746932983398 2.840287208557
100.520736694336 -74.066162109375 -95.806304931641 2.487109661102
-95.885940551758 -74.428009033203 -108.605552673340 1.845281720161
39.224685668945 -74.150642395020 -110.524589538574 1.992830634117
106.391853332520 -75.211189270020 -107.825256347656 1.153480410576
47.873943328857 -73.820411682129 -111.002334594727 1.493169426918
100.842300415039 -75.269836425781 -108.882629394531 3.528219223022
-86.046569824219 -72.887367248535 -116.535774230957 3.190591573715
35.185592651367 -76.984802246094 -111.764831542969 3.427705287933
106.056632995605 -73.199600219727 -115.867561340332 1.734640955925
104.147605895996 -71.728027343750 -114.875396728516 1.334531068802
104.929489135742 -74.651695251465 -114.191482543945 1.326350092888
109.929855346680 -73.353652954102 -113.590415954590 1.743113398552
39.264980316162 -75.555122375488 -110.007965087891 1.973811149597
31.492429733276 -71.396949768066 -117.198379516602 2.332167148590
40.325675964355 -73.482666015625 -113.938095092773 2.488519191742
106.251678466797 -75.535812377930 -120.838783264160 2.354689598083
39.606708526611 -72.190040588379 -123.036567687988 0.859350442886
108.637084960938 -73.353042602539 -131.176940917969 1.129774570465
110.502494812012 -72.955116271973 -130.043609619141 1.157070875168
33.039997100830 -71.595558166504 -120.483200073242 2.649358987808
-78.509048461914 -72.706352233887 -126.478179931641 2.669908046722
113.457130432129 -71.749908447266 -133.194839477539 1.649729847908
-54.886222839355 -73.066139221191 -138.263076782227 0.936524510384
35.046703338623 -74.427352905273 -134.582397460938 2.695113420486
-73.784606933594 -73.175148010254 -136.411895751953 2.717261314392
26.413640975952 -75.731407165527 -131.611846923828 2.977697610855
-80.043952941895 -73.262535095215 -143.852539062500 3.090572357178
-45.794116973877 -75.912612915039 -142.614212036133 1.401004552841
-74.477104187012 -73.514114379883 -139.160766601563 0.180639088154
109.723655700684 -73.298553466797 -136.044616699219 2.379931449890
116.755172729492 -72.366683959961 -140.512283325195 1.403733849525
117.667152404785 -77.146476745605 -145.320755004883 4.456473827362
-77.777114868164 -71.836441040039 -144.647430419922 1.228053450584
7.621655941010 -69.581901550293 -150.890533447266 2.054612398148
-52.452320098877 -73.526458740234 -150.097015380859 0.100726887584
-51.185066223145 -73.792755126953 -155.994995117188 1.809368610382
106.598495483398 -74.280212402344 -160.698303222656 2.175944328308
-41.878322601318 -74.761085510254 -149.857894897461 2.024148225784
13.653922080994 -71.290298461914 -157.719665527344 1.186602592468
21.968595504761 -75.014785766602 -157.556991577148 1.856647729874
114.443298339844 -73.332588195801 -163.575042724609 1.500421762466
29.521120071411 -72.884765625000 -165.598922729492 2.932245016098
-1.200888037682 -74.519981384277 -163.683074951172 1.189044475555
31.508729934692 -74.248313903809 -160.650207519531 1.271631240845
-68.133041381836 -71.139968872070 -158.537170410156 1.724266052246
-66.127052307129 -72.405868530273 -159.963562011719 2.247491359711
-69.155151367188 -71.356101989746 -166.504486083984 2.655306100845
114.428703308105 -70.685104370117 -160.361114501953 2.231103897095
-44.883735656738 -73.042800903320 -163.603836059570 1.375151991844
17.463315963745 -73.498367309570 -165.494995117188 1.715213298798
-64.196739196777 -71.670028686523 -170.434463500977 1.870957016945
-63.295505523682 -70.957641601563 -172.177352905273 3.213344335556
-41.649181365967 -73.760696411133 -160.835159301758 2.993050813675
-33.831497192383 -75.008026123047 -169.118743896484 3.229989051819
114.747055053711 -75.991302490234 -170.235412597656 1.804737091064
-37.165897369385 -68.308609008789 -180.277908325195 3.574097156525
13.512607574463 -74.241760253906 -173.154769897461 4.131446838379
110.589935302734 -76.438095092773 -183.284973144531 1.770333170891
-147.820388793945 -73.671142578125 -177.649078369141 2.408638477325
-146.124313354492 -71.780296325684 -175.121871948242 1.299731135368
-148.794311523438 -70.193473815918 -181.515960693359 3.094739437103
-142.565231323242 -73.293190002441 -184.290039062500 2.358519792557
-31.944763183594 -71.509422302246 -185.944320678711 1.614175200462
-23.197280883789 -72.963645935059 -186.084182739258 0.604511559010
23.251007080078 -69.674804687500 -190.955642700195 2.451813936234
-141.511871337891 -71.107345581055 -188.220336914063 1.701919555664
-147.342498779297 -72.155212402344 -190.115493774414 2.451537609100
-21.369108200073 -70.362022399902 -186.787216186523 1.310072660446
10.988126754761 -73.454002380371 -182.564682006836 3.474019289017
-149.355072021484 -71.723808288574 -195.832427978516 1.805257201195
-31.644874572754 -73.455726623535 -188.411422729492 2.156104564667
100.064033508301 -73.793411254883 -187.439132690430 2.758815526962
106.233154296875 -72.827888488770 -188.839187622070 2.413327217102
24.190687179565 -68.879951477051 -193.299942016602 1.483812093735
-13.559432983398 -73.117370605469 -188.755889892578 4.493522167206
-27.759613037109 -74.643600463867 -193.772994995117 1.217364549637
-155.292785644531 -72.687690734863 -200.780838012695 2.480538606644
-132.598480224609 -72.763946533203 -198.278533935547 1.044291615486
-125.151596069336 -69.322677612305 -196.373870849609 2.067669630051
-124.643928527832 -70.293373107910 -198.958923339844 2.302959680557
-22.430953979492 -68.723937988281 -196.488876342773 1.638504385948
12.650607109070 -75.008804321289 -192.463287353516 1.608465075493
92.700286865234 -77.081459045410 -200.401779174805 4.052531242371
-150.015014648438 -68.129707336426 -197.005889892578 2.259259700775
-144.996643066406 -69.303535461426 -200.270523071289 3.303095817566
-150.825546264648 -71.055503845215 -201.746200561523 2.752978801727
-154.876388549805 -69.396919250488 -199.093627929688 2.083782434464
-24.702060699463 -72.220161437988 -200.013000488281 2.371113538742
-10.689570426941 -71.396293640137 -195.640716552734 3.258665323257
-146.256790161133 -67.849617004395 -203.679641723633 3.314994096756
-18.377155303955 -71.963989257813 -201.512207031250 2.479899168015
-161.336349487305 -70.797187805176 -202.354888916016 1.677576780319
-134.287612915039 -71.518737792969 -200.847564697266 1.505852937698
15.843578338623 -74.726089477539 -207.054733276367 2.467049121857
-161.167419433594 -68.313858032227 -205.795013427734 1.955275774002
-145.997192382813 -72.952674865723 -208.058807373047 1.880527138710
8.344815254211 -71.070220947266 -202.917434692383 2.452456474304
-154.008758544922 -69.027725219727 -204.288742065430 1.515730500221
-24.494680404663 -72.080375671387 -202.248489379883 1.660455465317
97.434265136719 -74.288436889648 -198.555435180664 0.666113197803
-158.278442382813 -72.296478271484 -214.177688598633 1.610459089279
-164.373397827148 -74.346168518066 -209.443756103516 1.629503965378
-76.708297729492 -70.146423339844 -209.233352661133 2.216090440750
89.442543029785 -72.851669311523 -208.364334106445 1.921517729759
-3.577646017075 -71.501136779785 -218.646926879883 1.802936792374
-154.333724975586 -70.259185791016 -214.546493530273 3.005444049835
-87.415382385254 -72.046020507813 -214.512985229492 1.214641094208
-9.162837982178 -75.221282958984 -211.624313354492 1.796665430069
15.824584960938 -72.614135742188 -219.983871459961 2.002781629562
-144.677688598633 -72.081604003906 -221.651397705078 1.085788726807
-3.366350889206 -76.461494445801 -221.179840087891 1.091439962387
-19.159961700439 -73.506469726563 -218.657272338867 1.120884895325
-14.360431671143 -69.498695373535 -220.809722900391 1.744382381439
90.486030578613 -73.460472106934 -218.482727050781 1.261809110641
-20.521472930908 -71.280570983887 -217.250198364258 1.996118307114
-31.519836425781 -71.880645751953 -217.675323486328 1.988607406616
-107.267044067383 -67.518653869629 -226.007812500000 0.323984742165
-15.852955818176 -70.943389892578 -223.624755859375 1.678911447525
92.671440124512 -71.517761230469 -218.352859497070 1.935952067375
77.740905761719 -74.119606018066 -220.006912231445 3.194494724274
7.426754951477 -73.931861877441 -219.531600952148 2.157032489777
-10.878089904785 -70.461456298828 -225.769729614258 1.721185684204
78.888961791992 -73.900100708008 -221.569030761719 1.552352905273
-122.116096496582 -74.672836303711 -226.612533569336 2.136355161667
-19.751737594604 -70.623565673828 -223.661132812500 2.858860492706
-96.871543884277 -71.129760742188 -224.810287475586 2.341495275497
-102.235031127930 -71.795204162598 -225.414367675781 1.787459969521
-131.273437500000 -73.349166870117 -230.208511352539 1.378424763680
81.592826843262 -73.441886901855 -223.172241210938 2.321763277054
-122.893295288086 -72.073745727539 -228.731475830078 1.216402530670
5.052214145660 -72.069953918457 -229.027725219727 1.956453204155
