-83.423416137695 -74.605026245117 -219.184997558594 1.942280054092
-89.025650024414 -77.938522338867 -218.533706665039 1.859616279602
-23.982351303101 -75.222404479980 -220.364974975586 1.486979007721
-2.740741968155 -80.866729736328 -223.255310058594 2.210048437119
-154.028976440430 -74.480598449707 -216.776885986328 3.046343326569
-3.044609069824 -77.411743164063 -219.983444213867 0.967958807945
85.653526306152 -80.236038208008 -225.708801269531 4.452362537384
-141.355926513672 -75.726081848145 -223.488235473633 1.184646964073
-6.967957973480 -76.705223083496 -222.087112426758 1.212778210640
-140.900573730469 -74.856399536133 -225.725967407227 1.657483816147
-147.841125488281 -80.834381103516 -225.584625244141 1.645139694214
-6.834545135498 -74.718879699707 -228.717224121094 2.203204393387
18.649585723877 -76.816703796387 -217.280014038086 1.510520577431
-140.418502807617 -72.345527648926 -228.990325927734 1.124956369400
-17.490369796753 -76.621009826660 -228.183944702148 2.381695747375
73.973823547363 -77.957916259766 -226.129302978516 4.839473247528
75.088684082031 -77.248359680176 -232.632766723633 2.701845169067
8.886801719666 -77.421119689941 -230.328063964844 2.973625183105
-31.659465789795 -76.755744934082 -236.451736450195 1.797742605209
-22.274431228638 -80.823867797852 -241.206115722656 1.748027324677
3.394557952881 -74.546989440918 -242.933929443359 1.382039666176
-47.813835144043 -72.135749816895 -242.561950683594 1.610612511635
-22.522453308105 -74.369140625000 -242.627685546875 2.042636394501
8.726947784424 -74.221755981445 -240.589645385742 1.937050461769
-63.954563140869 -75.147293090820 -245.137878417969 1.039791584015
-34.703304290771 -78.201377868652 -243.506057739258 1.865894436836
-40.980823516846 -73.731651306152 -244.969421386719 2.123456239700
-149.441238403320 -72.052665710449 -245.630096435547 1.492193698883
-46.408691406250 -77.309471130371 -247.523956298828 1.211167216301
-53.569629669189 -70.643608093262 -247.389724731445 2.346135139465
-66.826919555664 -74.786651611328 -249.291427612305 2.450559854507
-11.341366767883 -78.325584411621 -247.779067993164 3.948904991150
-80.489677429199 -75.176002502441 -253.714279174805 1.054638385773
-156.589126586914 -78.099090576172 -254.339874267578 3.664840459824
-141.732025146484 -73.244560241699 -254.453704833984 1.234276652336
-123.718063354492 -74.736679077148 -259.299224853516 2.230817794800
-157.063949584961 -70.088676452637 -260.254730224609 1.467601537704
19.226497650146 -80.565376281738 -264.931793212891 0.721568107605
-14.372454643250 -77.362709045410 -268.273315429688 2.200096130371
-153.777969360352 -75.543914794922 -272.604125976563 3.402081727982
-152.586547851563 -78.133438110352 -277.697662353516 1.724915981293
-145.820816040039 -76.325164794922 -284.783721923828 2.400267124176
-58.811126708984 -71.408271789551 -281.899780273438 3.843551635742
-39.148406982422 -71.927261352539 -285.555938720703 1.387314558029
-21.940006256104 -73.260002136230 -287.961059570313 3.003928184509
-11.192564964294 -73.233695983887 -281.780242919922 2.654899835587
-66.464447021484 -76.613502502441 -285.646026611328 2.271518230438
-80.848167419434 -76.606422424316 -286.120941162109 1.641856431961
-3.384277105331 -76.553359985352 -284.333496093750 2.489922046661
4.576938152313 -76.749603271484 -290.280242919922 1.138378143311
-138.724365234375 -72.344795227051 -287.378997802734 2.228638172150
-80.005264282227 -72.303329467773 -286.874511718750 2.703831672668
-147.810745239258 -72.596473693848 -287.561157226563 2.601696491241
-95.009429931641 -79.088989257813 -286.422973632813 4.865729331970
-79.129867553711 -73.872093200684 -286.844757080078 2.234230756760
-85.562973022461 -72.113456726074 -293.374938964844 1.877039670944
-62.308116912842 -74.198486328125 -290.966491699219 2.212862014771
-29.329305648804 -70.908760070801 -293.531280517578 3.508089065552
-7.076804161072 -75.133445739746 -290.916412353516 1.684047698975
-152.576934814453 -68.355987548828 -296.838684082031 1.018930673599
-150.550827026367 -71.663803100586 -299.976562500000 2.799145221710
-145.310592651367 -72.804847717285 -303.120178222656 1.666676759720
-157.168869018555 -72.691436767578 -305.371002197266 1.245477318764
-57.285079956055 -72.842506408691 -55.279499053955 2.290648698807
-47.506736755371 -74.184898376465 -52.678310394287 2.155616283417
-39.681484222412 -75.868850708008 -54.137096405029 2.457891702652
-77.116348266602 -76.252250671387 -60.581150054932 1.702078461647
-29.428037643433 -74.423393249512 -63.383731842041 3.099220752716
-33.419879913330 -74.959762573242 -79.191574096680 2.681997537613
74.419937133789 -79.773315429688 -81.526634216309 4.569117546082
74.819999694824 -77.995674133301 -80.180900573730 2.928159713745
73.136924743652 -76.019851684570 -83.501434326172 1.866066694260
98.116806030273 -75.244331359863 -89.785552978516 1.548113226891
69.884788513184 -78.827491760254 -89.081329345703 4.334845066071
49.755115509033 -78.378982543945 -90.251625061035 5.165599346161
49.588348388672 -80.840545654297 -100.257286071777 3.744701147079
-67.357475280762 -73.833091735840 -100.763542175293 2.685778141022
-73.590461730957 -69.301216125488 -101.670539855957 2.234565734863
44.465087890625 -77.655639648438 -102.937332153320 1.746456027031
-82.782867431641 -78.733795166016 -109.072906494141 2.724974393845
-93.662147521973 -72.536064147949 -110.904640197754 1.434333682060
50.569023132324 -76.433792114258 -107.005142211914 1.594524741173
106.983604431152 -76.651428222656 -113.115280151367 2.222351789474
32.256355285645 -78.075126647949 -122.912261962891 0.579352617264
43.445049285889 -77.559745788574 -118.434982299805 0.793419659138
40.608840942383 -76.099098205566 -123.848831176758 0.323655545712
29.357458114624 -77.509048461914 -123.193145751953 2.075623512268
108.562950134277 -77.578491210938 -119.908370971680 2.013208866119
38.800903320313 -78.229446411133 -129.926879882813 2.070301532745
32.299541473389 -73.342849731445 -131.333419799805 1.691988110542
-45.983631134033 -74.239074707031 -142.700149536133 1.518007516861
-71.617134094238 -76.243232727051 -143.995452880859 1.356581687927
-54.214256286621 -73.473289489746 -146.556411743164 2.196451187134
-73.590843200684 -76.982040405273 -145.663040161133 1.711329579353
-40.340095520020 -74.045082092285 -147.095657348633 2.092169761658
106.710830688477 -77.009506225586 -153.681228637695 4.270271778107
-72.335289001465 -75.825767517090 -155.442276000977 3.444809198380
23.166761398315 -78.993286132813 -147.379333496094 2.640244483948
29.911581039429 -78.126487731934 -150.783142089844 0.802440106869
112.088272094727 -79.715454101563 -160.828384399414 3.244887828827
8.797947883606 -77.532112121582 -158.960266113281 1.260263085365
31.930843353271 -74.485977172852 -155.090316772461 1.247667312622
-64.441551208496 -75.669891357422 -158.810623168945 1.877748250961
-42.324787139893 -76.256248474121 -171.153396606445 2.655261993408
19.840900421143 -75.212493896484 -162.940521240234 1.638763785362
-65.164657592773 -73.427093505859 -159.260543823242 1.491949915886
-69.838584899902 -74.594329833984 -165.028549194336 2.964481830597
110.851409912109 -78.876106262207 -165.794479370117 2.426287889481
-8.413621902466 -76.159492492676 -166.236633300781 1.805154681206
-64.510597229004 -73.683311462402 -173.453567504883 2.708367347717
-32.677829742432 -76.226051330566 -168.121826171875 1.685992836952
-55.387554168701 -73.460227966309 -172.252304077148 2.789203882217
28.845117568970 -75.681900024414 -172.239852905273 2.059460163116
110.245903015137 -75.726242065430 -172.501007080078 1.533666968346
101.908287048340 -76.489860534668 -183.169250488281 1.740336060524
105.222824096680 -77.274459838867 -188.960052490234 0.597332596779
106.381507873535 -75.611640930176 -176.641448974609 1.744555115700
-52.828418731689 -73.739265441895 -189.874099731445 1.925568819046
-49.864799499512 -72.055984497070 -182.489227294922 3.524893760681
26.057603836060 -76.289108276367 -183.003036499023 1.059552311897
-49.384990692139 -73.240066528320 -186.589294433594 1.606143236160
-21.058490753174 -75.661285400391 -183.857025146484 2.222711086273
-51.543346405029 -76.444694519043 -191.127349853516 0.494706869125
-151.757492065430 -72.355903625488 -192.463485717773 2.133051395416
100.680999755859 -78.484306335449 -192.542266845703 2.115864992142
-45.272766113281 -72.413116455078 -193.513870239258 2.617134571075
-15.043368339539 -76.635292053223 -198.013015747070 2.246367692947
-140.676315307617 -73.386856079102 -194.072418212891 2.165526151657
-43.781726837158 -72.629241943359 -197.273025512695 3.720822811127
101.454902648926 -76.558876037598 -196.718658447266 1.976336598396
106.368980407715 -75.874588012695 -185.302322387695 2.884736061096
-45.059883117676 -74.535545349121 -195.981430053711 2.458872795105
-23.863792419434 -80.080726623535 -197.591674804688 1.960458993912
-148.638885498047 -76.961547851563 -199.418029785156 1.195537447929
-25.672443389893 -75.466857910156 -196.452743530273 1.328089833260
-158.069747924805 -73.718711853027 -197.474868774414 3.450373649597
-153.478134155273 -78.354927062988 -203.604003906250 1.356667280197
-143.878890991211 -75.001274108887 -201.401382446289 2.072507619858
-39.075035095215 -75.314414978027 -199.410385131836 1.577169179916
100.538932800293 -77.719573974609 -201.318603515625 1.926218032837
-41.605934143066 -72.949241638184 -199.279632568359 2.400857925415
-143.966369628906 -76.416137695313 -204.502822875977 0.907124340534
-38.433666229248 -71.708007812500 -205.318679809570 1.658151149750
-21.458591461182 -78.949150085449 -209.514907836914 4.479734420776
96.348388671875 -78.682731628418 -204.852416992188 2.296311378479
90.626602172852 -77.807044982910 -212.900115966797 1.395577788353
-35.059665679932 -73.385597229004 -216.711761474609 4.263339519501
-88.141647338867 -74.920074462891 -210.548110961914 2.769309997559
-76.351432800293 -74.702033996582 -211.277175903320 1.552181601524
-19.331008911133 -75.208496093750 -213.337127685547 2.645018339157
-150.505264282227 -73.893249511719 -205.414810180664 1.785516262054
89.532699584961 -76.872344970703 -213.092834472656 0.157397076488
88.284950256348 -75.098327636719 -217.836914062500 2.124514579773
89.517898559570 -76.852920532227 -219.714431762695 1.186144828796
-102.946388244629 -73.650001525879 -219.794265747070 1.950911283493
-153.753189086914 -75.253776550293 -221.562896728516 1.709242343903
-20.667533874512 -73.856575012207 -222.216979980469 1.342771887779
79.265258789063 -74.402595520020 -225.647903442383 2.342511653900
-150.354568481445 -76.223175048828 -223.545150756836 0.779357969761
-28.728559494019 -75.988304138184 -218.566772460938 1.349281549454
-134.149841308594 -71.733634948730 -230.851974487305 2.089205741882
-12.563088417053 -77.401664733887 -229.593261718750 2.488173007965
16.790168762207 -74.992713928223 -225.642349243164 0.791446447372
18.956497192383 -76.500000000000 -232.323791503906 1.381402254105
-155.557907104492 -75.865348815918 -233.813766479492 3.008046865463
-126.533645629883 -70.205398559570 -232.318054199219 2.758335351944
-8.912409782410 -74.484069824219 -234.812149047852 1.854885578156
-0.639306008816 -74.609390258789 -236.820480346680 0.599995136261
68.483207702637 -76.151756286621 -232.533111572266 2.499668121338
69.968399047852 -73.854064941406 -237.583724975586 1.419036507607
-1.083943963051 -73.916168212891 -239.861587524414 1.578682780266
15.720513343811 -72.239051818848 -239.302551269531 1.440943837166
-30.825475692749 -69.159080505371 -240.171936035156 6.192296504974
-34.513706207275 -80.165306091309 -241.090057373047 0.960775792599
-47.591941833496 -73.912696838379 -238.291931152344 1.756439566612
-39.967620849609 -72.705650329590 -240.532775878906 3.252789735794
-18.214305877686 -76.139991760254 -242.335189819336 1.449259877205
-53.147056579590 -72.749137878418 -243.427673339844 2.268049955368
1.116556048393 -75.494857788086 -244.698196411133 0.784543454647
-68.936294555664 -74.713844299316 -243.754989624023 2.897904872894
19.939918518066 -76.278694152832 -246.717651367188 0.911907970905
-144.898071289063 -75.006423950195 -244.658142089844 2.671255588531
-73.451309204102 -76.209381103516 -251.264083862305 1.119983673096
14.545680999756 -76.923255920410 -248.783340454102 2.206916570663
-162.073059082031 -71.502067565918 -249.010894775391 2.451688289642
14.263567924500 -78.560478210449 -252.398727416992 2.373210191727
-80.670600891113 -70.126098632813 -250.336944580078 1.823751091957
-75.953979492188 -74.508789062500 -250.434753417969 1.728926897049
18.842838287354 -76.847923278809 -254.650329589844 1.236397147179
-89.942588806152 -73.000488281250 -251.809387207031 1.105186462402
-126.427589416504 -70.588745117188 -254.708160400391 2.163567781448
-134.359909057617 -75.123794555664 -259.118133544922 1.298347592354
-135.874557495117 -75.157356262207 -254.356155395508 1.936033248901
-147.895156860352 -73.302658081055 -260.493408203125 0.861371695995
-145.085556030273 -70.487632751465 -254.680282592773 1.667258143425
-135.607559204102 -71.330940246582 -261.331878662109 1.408412218094
-162.426269531250 -69.946067810059 -260.350616455078 1.537759542465
-127.816085815430 -72.102905273438 -265.773437500000 2.331315279007
-136.083786010742 -69.459678649902 -262.174560546875 1.262684226036
-164.471008300781 -69.905593872070 -266.963439941406 2.103541851044
-157.490646362305 -70.191513061523 -263.721374511719 1.404511690140
-150.114013671875 -71.038681030273 -265.109497070313 2.386687755585
-148.846023559570 -72.950378417969 -265.227813720703 2.921492815018
15.835288047791 -77.702644348145 -278.151489257813 0.863246977329
-166.923370361328 -72.089767456055 -266.662475585938 2.532531499863
-152.726928710938 -73.208259582520 -273.044036865234 1.472836375237
-6.676734924316 -81.693412780762 -272.665374755859 2.104361772537
-158.055465698242 -70.432205200195 -272.141448974609 1.478017210960
11.304639816284 -78.721206665039 -281.546417236328 1.088758945465
-153.097427368164 -72.009223937988 -281.431243896484 1.536169290543
-165.355682373047 -72.949714660645 -287.331481933594 1.389014005661
-155.734390258789 -74.062271118164 -279.864837646484 4.178690433502
-165.920654296875 -70.598144531250 -287.319641113281 1.709613919258
0.474263012409 -77.360755920410 -287.034423828125 2.199158430099
6.426064014435 -79.224708557129 -282.620697021484 1.494872570038
-102.833465576172 -71.697921752930 -290.418395996094 2.239672183990
-154.847030639648 -76.279670715332 -287.279846191406 1.174378514290
-149.106277465820 -70.649871826172 -285.499633789063 2.901973962784
-108.154808044434 -72.082015991211 -290.255676269531 2.096733331680
-153.099655151367 -74.280525207520 -291.450958251953 1.982364535332
-149.355804443359 -75.044631958008 -288.947753906250 0.885127484798
-73.027664184570 -75.874443054199 -292.105590820313 4.365258693695
-166.657684326172 -73.698348999023 -289.052978515625 2.085930347443
-123.935699462891 -70.143760681152 -290.992248535156 1.315764904022
-44.082805633545 -77.401672363281 -287.493499755859 1.702420711517
-154.227890014648 -72.027793884277 -288.066894531250 2.131854772568
-133.948974609375 -68.595123291016 -293.039794921875 2.053287506104
-19.454875946045 -72.636756896973 -293.401031494141 3.151333808899
-128.833801269531 -70.156204223633 -292.990081787109 2.122359037399
4.952633857727 -75.821723937988 -293.946960449219 1.893215179443
14.525882720947 -73.262710571289 -292.139617919922 1.893067002296
-134.395263671875 -70.040626525879 -291.342285156250 1.492889881134
-146.549591064453 -73.591812133789 -296.750976562500 1.728392362595
-157.078033447266 -74.005043029785 -313.442565917969 2.598886251450
-72.514266967773 -69.929862976074 -52.034225463867 1.248458385468
-22.673171997070 -70.083351135254 -63.524169921875 4.607072830200
-20.783500671387 -76.591491699219 -64.764259338379 2.329432964325
72.105934143066 -74.436203002930 -76.701606750488 0.667858600616
90.482147216797 -76.324584960938 -75.426437377930 2.209185361862
-37.526496887207 -74.017021179199 -78.669021606445 1.501863837242
74.753547668457 -75.779724121094 -79.180007934570 1.402035236359
88.902038574219 -79.770172119141 -81.925559997559 3.531034946442
67.403259277344 -76.112617492676 -83.183418273926 4.033478260040
72.139129638672 -75.506996154785 -88.455345153809 1.992583870888
-50.338989257813 -75.479698181152 -86.014579772949 2.196386575699
-92.394828796387 -75.461181640625 -88.104232788086 3.636544227600
58.127613067627 -77.834770202637 -93.535606384277 3.709366798401
49.509845733643 -77.236030578613 -98.700752258301 1.270885586739
93.224105834961 -74.223350524902 -98.890121459961 0.782651126385
-92.700897216797 -69.540107727051 -101.461914062500 4.799910068512
81.396644592285 -73.360984802246 -98.899459838867 2.087180137634
72.505767822266 -76.564559936523 -99.747558593750 3.631871461868
91.083045959473 -78.109626770020 -98.021598815918 3.861217498779
82.635704040527 -76.009719848633 -97.719192504883 0.662858247757
82.386711120605 -78.922805786133 -98.277618408203 3.584704637527
-85.943397521973 -75.117271423340 -102.165000915527 5.742014884949
41.918502807617 -74.342773437500 -106.509956359863 2.057603120804
104.859214782715 -77.541351318359 -110.522682189941 3.556712150574
107.486335754395 -77.205780029297 -110.536315917969 2.760926246643
47.501277923584 -77.979278564453 -118.515937805176 1.245455741882
110.519920349121 -78.885284423828 -120.862663269043 3.251829385757
115.985267639160 -79.368385314941 -134.725158691406 3.543135404587
-52.004074096680 -72.011589050293 -131.038162231445 1.717348933220
26.745718002319 -74.867515563965 -134.270401000977 2.308646440506
39.958148956299 -77.889915466309 -133.351196289063 1.959253072739
24.517147064209 -72.750045776367 -142.518188476563 1.273004770279
112.305404663086 -79.213462829590 -138.209075927734 2.932830095291
111.143470764160 -77.477294921875 -131.630859375000 2.388746976852
-74.234863281250 -73.429954528809 -148.052551269531 1.844942331314
-44.566093444824 -73.367591857910 -142.667083740234 1.502803921700
-71.831733703613 -71.739257812500 -151.129013061523 1.274995923042
19.087156295776 -73.774696350098 -149.478820800781 3.613798141479
111.919563293457 -74.767082214355 -149.296844482422 2.215066909790
-54.288967132568 -74.893295288086 -150.753524780273 1.186948180199
-71.868934631348 -72.192726135254 -150.836044311523 1.179769992828
-39.606369018555 -77.001655578613 -152.286804199219 2.533167839050
31.790956497192 -70.786437988281 -153.031143188477 1.408729195595
109.416679382324 -73.958580017090 -151.080352783203 0.822511553764
114.731658935547 -75.733123779297 -160.474395751953 1.644955277443
-68.836341857910 -70.579925537109 -154.894668579102 1.040267705917
-73.327842712402 -74.873062133789 -160.981048583984 3.094129323959
21.032356262207 -78.169647216797 -163.144439697266 1.910673022270
-60.715816497803 -71.551803588867 -166.685043334961 1.615042448044
-33.428092956543 -72.736648559570 -162.315582275391 1.380178928375
7.198888778687 -75.852523803711 -163.278366088867 1.362367272377
108.124961853027 -74.714630126953 -161.604324340820 2.068233489990
7.146448135376 -77.389465332031 -166.798629760742 3.537578344345
-33.491161346436 -74.318801879883 -165.505950927734 0.902892887592
-2.522329092026 -70.834991455078 -165.602661132813 2.618872880936
106.986801147461 -73.744834899902 -168.008728027344 0.516608476639
-42.005821228027 -71.451499938965 -165.426193237305 2.370621919632
28.582403182983 -72.498474121094 -172.059707641602 1.518935561180
112.291336059570 -79.296760559082 -172.367370605469 3.266770124435
-57.850334167480 -70.753135681152 -176.045028686523 2.835642099380
-28.892145156860 -76.346801757813 -174.497726440430 1.248399496078
102.316436767578 -76.412780761719 -174.065872192383 4.277394771576
28.493700027466 -73.322250366211 -169.560211181641 1.335450172424
106.916770935059 -78.098419189453 -175.120712280273 3.685963153839
-37.512207031250 -70.907974243164 -178.014831542969 1.933594465256
107.670463562012 -78.755508422852 -180.641159057617 2.763773441315
-62.499561309814 -71.145179748535 -177.459228515625 4.232555866241
-26.232116699219 -77.604965209961 -178.713424682617 2.131605625153
-146.981201171875 -67.445838928223 -183.413925170898 1.846367835999
-54.791313171387 -72.652137756348 -180.576461791992 1.732608318329
-147.761062622070 -72.143241882324 -186.102569580078 1.992995977402
-34.690811157227 -71.899169921875 -184.889373779297 1.361713051796
26.173547744751 -78.389991760254 -181.645645141602 1.397858500481
105.811836242676 -76.882743835449 -183.248413085938 0.900605797768
-34.678554534912 -74.014015197754 -183.749420166016 1.578764677048
10.335360527039 -75.186714172363 -190.675674438477 1.476522684097
16.669364929199 -74.278556823730 -203.441802978516 2.768358230591
-148.803329467773 -72.333084106445 -189.576171875000 2.234271764755
104.379241943359 -78.194602966309 -195.511123657227 1.010947942734
-21.930849075317 -71.784515380859 -193.052307128906 2.400246381760
100.682846069336 -77.040954589844 -188.211608886719 2.634376287460
12.284067153931 -72.383216857910 -189.337463378906 0.521100580692
-137.514755249023 -71.568756103516 -203.547668457031 2.664928436279
-139.419021606445 -71.562812805176 -199.728317260742 2.306983947754
99.592353820801 -78.527641296387 -201.296951293945 2.686972141266
-12.590159416199 -77.662651062012 -200.302734375000 2.397019147873
-16.992687225342 -74.918670654297 -202.843872070313 2.533385276794
9.900086402893 -76.395256042480 -207.255355834961 1.229961156845
-150.600845336914 -70.058486938477 -205.737014770508 2.394280433655
-146.873748779297 -72.975761413574 -207.910415649414 2.090433835983
99.520355224609 -72.134925842285 -204.567260742188 1.068162202835
-82.789993286133 -72.402824401855 -208.023849487305 3.654199361801
-36.668529510498 -74.260177612305 -201.522247314453 2.563980102539
18.155538558960 -77.108985900879 -213.239913940430 1.713191151619
-25.817066192627 -74.306343078613 -210.994125366211 0.817320346832
-77.113952636719 -71.360778808594 -207.718154907227 2.999416112900
90.381370544434 -75.956314086914 -209.641967773438 2.376276731491
-80.983924865723 -70.560607910156 -212.220092773438 2.228109836578
-147.953826904297 -71.969406127930 -218.462738037109 1.661876916885
-80.546882629395 -71.623603820801 -213.097305297852 2.442655324936
-13.776719093323 -69.625968933105 -209.747756958008 1.603180646896
-21.227416992188 -71.529914855957 -218.775085449219 1.330891609192
17.891040802002 -74.503601074219 -213.184524536133 0.803235411644
-6.117698192596 -75.498718261719 -219.401306152344 1.634695172310
-88.918334960938 -75.734222412109 -218.698638916016 2.437807321548
92.016136169434 -75.165260314941 -213.559432983398 0.869268834591
-98.970588684082 -71.571624755859 -215.500305175781 1.841362714767
-152.813690185547 -70.763961791992 -223.909790039063 1.038666963577
-25.772663116455 -72.801300048828 -223.529968261719 2.498050689697
17.146711349487 -75.042205810547 -215.926269531250 1.537379026413
-102.626396179199 -72.508934020996 -219.843109130859 1.626677751541
6.841194152832 -71.431526184082 -218.734680175781 2.884042978287
-26.273157119751 -73.851478576660 -215.478652954102 2.064043045044
82.276321411133 -74.124076843262 -224.130218505859 1.644246101379
-145.892196655273 -70.905601501465 -218.989639282227 1.275895833969
9.742173194885 -73.099494934082 -225.666763305664 2.174629688263
-10.140260696411 -76.912170410156 -225.587921142578 1.163092255592
16.986740112305 -68.892814636230 -222.377944946289 1.053193688393
82.993988037109 -76.503959655762 -222.220733642578 0.826705515385
-14.243536949158 -76.101341247559 -228.406097412109 1.422110915184
-131.167190551758 -72.930885314941 -226.384048461914 2.181130647659
-14.453473091125 -74.117736816406 -224.335906982422 1.113652348518
16.129364013672 -74.863265991211 -231.016021728516 2.125986576080
-127.345771789551 -73.877555847168 -227.070068359375 1.268392086029
-152.147277832031 -68.390457153320 -229.378845214844 1.351789474487
-142.975265502930 -70.592330932617 -228.725952148438 3.379071712494
-131.461227416992 -69.999794006348 -227.726364135742 2.654660463333
-13.721968650818 -71.970199584961 -225.093032836914 1.799158096313
71.231460571289 -75.097915649414 -228.103485107422 2.817205190659
-143.836715698242 -68.167182922363 -236.102508544922 1.228973031044
70.145637512207 -76.461730957031 -228.680145263672 3.478170394897
-21.121175765991 -76.874107360840 -229.512054443359 1.854434132576
-142.921081542969 -74.725746154785 -229.161849975586 1.524123430252
76.617347717285 -80.141624450684 -228.784713745117 4.497293472290
9.018707275391 -77.984466552734 -233.357833862305 1.237106800079
-142.287445068359 -75.569404602051 -235.105194091797 2.179224729538
-150.652099609375 -70.447929382324 -233.705825805664 2.799446582794
16.277420043945 -71.292076110840 -231.348541259766 1.549437999725
-3.366394042969 -76.327522277832 -237.562133789063 1.721172571182
-28.307388305664 -73.035766601563 -237.061019897461 1.978383183479
-2.205276012421 -70.216033935547 -237.473846435547 1.602794289589
-161.433563232422 -73.139602661133 -237.537658691406 1.057806968689
7.330035209656 -73.115242004395 -243.415740966797 0.734863579273
-165.343826293945 -71.560188293457 -238.576568603516 1.265104770660
-13.451045989990 -74.946014404297 -237.551818847656 1.677446007729
60.875869750977 -75.924613952637 -239.100738525391 2.922549009323
-13.703315734863 -72.918388366699 -237.982116699219 1.663487672806
-25.515075683594 -72.807090759277 -244.232574462891 2.717541694641
-25.638586044312 -73.070343017578 -241.633544921875 1.483276963234
-13.523760795593 -75.936080932617 -240.739425659180 2.186958551407
-146.942321777344 -71.703277587891 -230.836227416992 1.879424691200
7.455886840820 -73.491416931152 -242.203186035156 0.666113018990
63.606689453125 -74.703117370605 -243.578323364258 2.119935274124
14.096319198608 -72.202606201172 -245.007034301758 1.671635031700
-166.571670532227 -69.391571044922 -241.403335571289 2.090422868729
-51.107681274414 -72.051673889160 -240.652175903320 3.005025386810
3.196551084518 -80.645324707031 -248.012222290039 1.130782723427
16.356271743774 -74.340858459473 -244.120712280273 2.687122106552
-54.831340789795 -72.248756408691 -247.058975219727 0.740707993507
-3.407305955887 -70.110153198242 -248.152648925781 3.711670637131
20.209087371826 -79.031517028809 -247.827743530273 1.271083474159
-169.726699829102 -69.071319580078 -248.602142333984 3.301954746246
-68.257759094238 -75.805953979492 -248.017684936523 1.367809772491
-52.187057495117 -71.858665466309 -247.268737792969 3.030258893967
-81.723937988281 -71.469215393066 -251.191085815430 2.034806251526
-161.648178100586 -71.803031921387 -246.808853149414 1.618064641953
-151.280334472656 -65.423988342285 -249.399765014648 2.809434890747
-60.768806457520 -74.499824523926 -249.534744262695 1.336794734001
-69.392463684082 -72.438011169434 -249.825805664063 2.209854841232
-154.214096069336 -69.155876159668 -252.565292358398 1.320265650749
-152.662231445313 -71.754859924316 -252.169235229492 1.328475356102
-76.441635131836 -69.403762817383 -254.287658691406 2.684954643250
-94.029563903809 -69.707595825195 -255.123886108398 2.233475685120
-164.938674926758 -66.332244873047 -252.114547729492 2.425264596939
-157.457763671875 -71.083625793457 -259.611358642578 1.726109504700
-135.461791992188 -72.709434509277 -258.158081054688 1.888802647591
-83.771240234375 -72.245483398438 -251.256820678711 1.015236496925
-162.747024536133 -68.088111877441 -252.830398559570 2.723676919937
-142.449676513672 -69.433372497559 -256.782379150391 1.988545775414
-85.942665100098 -71.360275268555 -251.170135498047 1.419069766998
-97.300903320313 -69.818504333496 -260.262878417969 1.789291977882
-145.710342407227 -71.914848327637 -255.890747070313 2.335655212402
-94.122863769531 -71.708045959473 -256.031250000000 2.340206384659
-153.198242187500 -69.385101318359 -255.930084228516 1.900553703308
-102.950706481934 -71.376174926758 -255.509933471680 0.692175090313
-169.297149658203 -69.931442260742 -258.763610839844 2.039778232574
-162.141891479492 -72.083435058594 -263.330780029297 2.466736555099
-127.099197387695 -74.124755859375 -256.510406494141 1.469760179520
-152.319946289063 -71.038963317871 -259.359497070313 3.323035001755
-112.442092895508 -68.997779846191 -261.877471923828 2.820880174637
-14.974436759949 -72.315856933594 -261.851867675781 0.858730792999
-142.214599609375 -70.806289672852 -260.952514648438 1.079986333847
-126.473388671875 -70.736442565918 -260.059936523438 2.271335840225
-154.788497924805 -69.309753417969 -262.606109619141 0.852855741978
22.894702911377 -75.026786804199 -270.771270751953 2.356890439987
-149.330245971680 -73.091926574707 -278.593688964844 3.228471994400
-169.043243408203 -70.835350036621 -280.062286376953 3.091283082962
-8.838005065918 -73.735519409180 -279.409973144531 2.558787345886
-146.486526489258 -70.891654968262 -280.460693359375 2.203074216843
-10.156858444214 -72.191078186035 -283.154296875000 1.929545521736
12.175279617310 -74.396247863770 -286.068786621094 2.150431156158
-137.243072509766 -69.700752258301 -285.939300537109 1.678624510765
-68.951965332031 -74.147651672363 -286.916107177734 2.344372510910
-33.997024536133 -75.329933166504 -288.031036376953 1.624971628189
-113.509590148926 -71.448936462402 -284.381805419922 1.830077052116
-95.994728088379 -75.439613342285 -290.206115722656 1.647385835648
-90.247261047363 -72.283020019531 -291.387145996094 1.422863483429
-50.463413238525 -74.102851867676 -291.871246337891 3.013379573822
-116.640701293945 -75.436210632324 -288.560516357422 1.555110692978
-114.348709106445 -72.713264465332 -290.248138427734 1.521974086761
-33.665161132813 -70.830535888672 -289.187835693359 2.563882112503
-115.951828002930 -71.960929870605 -292.998779296875 1.644481778145
-127.622589111328 -67.339179992676 -290.204864501953 0.839753210545
-145.047409057617 -72.863525390625 -293.556365966797 2.056849479675
6.518016815186 -73.730316162109 -291.511322021484 1.682095408440
15.963919639587 -75.829666137695 -293.304229736328 0.426739871502
-160.513458251953 -70.613220214844 -292.813690185547 0.779622912407
-158.983978271484 -74.166633605957 -300.646209716797 3.468106746674
-147.613403320313 -72.215972900391 -310.469512939453 2.297186851501
-152.562225341797 -69.661460876465 -310.825744628906 2.707030296326
-153.199966430664 -72.307708740234 -313.535430908203 2.351793527603
28.505489349365 -77.085273742676 -14.895487785339 4.694563865662
30.522926330566 -72.446449279785 -18.259611129761 0.861642599106
21.127500534058 -74.281684875488 -24.260164260864 1.747976183891
28.668725967407 -72.179557800293 -39.255405426025 1.557368755341
-58.404376983643 -71.539054870605 -49.705028533936 2.612273693085
-65.509201049805 -71.905845642090 -50.137126922607 2.828254461288
-39.213794708252 -75.639274597168 -50.267147064209 3.745204448700
-84.680778503418 -68.275642395020 -62.898574829102 4.876810073853
80.802444458008 -78.231346130371 -74.223388671875 3.201424598694
-15.752581596375 -71.637092590332 -71.043098449707 1.597553968430
88.741020202637 -76.459617614746 -66.416328430176 3.715234756470
98.987892150879 -75.535255432129 -77.020500183105 2.144177913666
-92.882423400879 -70.032402038574 -76.300178527832 3.151000738144
67.277359008789 -75.080986022949 -80.458236694336 4.320097923279
-41.472675323486 -76.648422241211 -85.601448059082 0.958868622780
100.555961608887 -74.894668579102 -82.137680053711 2.997427463531
-55.952148437500 -71.378028869629 -88.616180419922 1.623676419258
50.652141571045 -75.241088867188 -90.595611572266 2.485363245010
70.469413757324 -80.346855163574 -90.793289184570 5.303374290466
55.125385284424 -74.169235229492 -96.340812683105 1.320527672768
52.404579162598 -76.621826171875 -98.604148864746 0.663598835468
73.971153259277 -78.412414550781 -95.715568542480 3.296769142151
46.099807739258 -74.599098205566 -105.257522583008 2.460162878036
100.010040283203 -76.551086425781 -100.844680786133 3.448167562485
105.426704406738 -79.879798889160 -106.499122619629 4.784369468689
79.642745971680 -72.852920532227 -103.492256164551 2.265444755554
91.393737792969 -76.958923339844 -103.521888732910 4.040393829346
100.471092224121 -76.154182434082 -95.206756591797 3.594067096710
109.098785400391 -76.666450500488 -103.781318664551 1.573177933693
39.185333251953 -74.700988769531 -106.161239624023 1.401800274849
112.165267944336 -73.632583618164 -118.703201293945 2.028359651566
113.345222473145 -77.502052307129 -118.935874938965 3.366580009460
30.949508666992 -73.144386291504 -123.556007385254 2.010983943939
44.322235107422 -76.039924621582 -118.900627136230 1.154232740402
114.846847534180 -76.695755004883 -130.250900268555 1.276540756226
35.846813201904 -74.229728698730 -126.674049377441 2.945668697357
114.587860107422 -79.761512756348 -127.782646179199 4.471973419189
108.337051391602 -77.106300354004 -122.488990783691 3.424315452576
26.020063400269 -75.267601013184 -135.574554443359 1.308798551559
-48.328987121582 -73.355133056641 -134.085006713867 1.179343223572
-52.456932067871 -71.296028137207 -135.099121093750 1.773745059967
110.967056274414 -75.591499328613 -135.027359008789 0.428113907576
-69.639175415039 -76.143699645996 -140.457916259766 3.527737617493
-73.186668395996 -73.149230957031 -140.329208374023 0.833804965019
-59.305950164795 -73.303932189941 -141.176834106445 1.305059313774
31.560825347900 -74.620979309082 -143.626602172852 3.283378362656
115.778167724609 -78.052803039551 -145.943313598633 3.969603300095
-69.688346862793 -69.494506835938 -147.092880249023 0.431041449308
-48.317771911621 -72.713920593262 -142.576019287109 3.518387079239
33.039188385010 -75.254730224609 -151.231826782227 1.703634381294
-68.468833923340 -73.715644836426 -147.808609008789 1.252700448036
113.660369873047 -75.319259643555 -141.346313476563 1.800634860992
111.543563842773 -74.464347839355 -157.581176757813 1.415460944176
115.949455261230 -77.448318481445 -152.986221313477 1.137979388237
-38.753246307373 -75.635871887207 -153.046630859375 2.044466018677
-65.042320251465 -72.722412109375 -164.300537109375 1.904138684273
-69.434265136719 -69.532600402832 -157.146270751953 2.695024490356
29.813766479492 -75.626373291016 -146.374343872070 2.916234493256
-2.437537908554 -75.844474792480 -162.064407348633 1.473782658577
108.833900451660 -75.774635314941 -161.633087158203 2.323952436447
111.519813537598 -74.568855285645 -153.039077758789 1.188434362411
111.892608642578 -78.439773559570 -158.398025512695 1.708117246628
-63.978191375732 -70.032928466797 -160.041183471680 2.136509180069
-45.666965484619 -74.953086853027 -165.195190429688 1.193065643311
-2.601006984711 -73.148002624512 -165.027786254883 2.507931709290
-29.536258697510 -73.568260192871 -174.869430541992 2.703212499619
105.683082580566 -75.255424499512 -167.238693237305 1.946112751961
-34.700931549072 -76.194801330566 -160.015274047852 0.771785795689
109.137557983398 -74.669914245605 -168.369476318359 1.122853279114
-42.060832977295 -73.631797790527 -173.583343505859 1.012432217598
108.384826660156 -74.029228210449 -168.638351440430 1.648144245148
-151.752441406250 -71.829048156738 -179.947341918945 1.721939802170
-27.134372711182 -69.716552734375 -176.732604980469 1.179505109787
-20.579736709595 -73.587669372559 -183.301559448242 1.537742495537
24.546472549438 -77.408737182617 -177.088012695313 0.858022689819
14.785183906555 -73.872955322266 -183.121215820313 1.813031435013
27.350193023682 -74.850242614746 -183.010986328125 1.727329015732
103.902572631836 -79.763710021973 -183.710906982422 3.017472028732
-152.016799926758 -68.027153015137 -184.785354614258 3.152833938599
-20.040754318237 -75.715499877930 -184.796554565430 1.601759552956
101.884277343750 -76.834701538086 -178.577972412109 3.641334533691
102.941337585449 -72.901390075684 -189.670593261719 1.651669740677
107.877967834473 -77.200363159180 -177.788360595703 2.257969379425
98.728996276855 -77.551078796387 -193.717803955078 3.573344945908
-151.600173950195 -71.292427062988 -196.422439575195 2.233129501343
99.693168640137 -76.670501708984 -205.474746704102 0.624036312103
-28.485727310181 -71.180999755859 -197.098052978516 2.368534564972
97.227737426758 -75.585235595703 -195.758193969727 1.978590488434
-121.731781005859 -74.456199645996 -200.017654418945 2.271804094315
-30.144756317139 -77.658020019531 -190.058425903320 2.046087741852
-142.139312744141 -66.997474670410 -198.199432373047 1.677089691162
95.012069702148 -75.891716003418 -198.585754394531 2.711164951324
8.314456939697 -74.757202148438 -199.014541625977 3.114423274994
23.581216812134 -73.076057434082 -192.519485473633 1.878465771675
-148.402587890625 -71.183425903320 -202.813125610352 1.927734136581
-139.229171752930 -70.213142395020 -201.959045410156 0.702281594276
-10.366298675537 -73.229377746582 -206.645462036133 1.880539298058
-124.689323425293 -71.062835693359 -203.670074462891 1.333433032036
-144.241790771484 -73.213249206543 -199.615142822266 1.497194170952
3.620270013809 -74.177383422852 -199.523056030273 5.428359985352
-24.604759216309 -75.463981628418 -201.017318725586 1.068718314171
20.291561126709 -77.009330749512 -202.247680664063 0.699748396873
6.266766071320 -75.226188659668 -211.756744384766 2.100297689438
85.133575439453 -73.147254943848 -208.517150878906 4.044757366180
-18.689828872681 -70.922554016113 -211.850479125977 1.788991570473
91.014724731445 -73.520370483398 -208.919738769531 1.702417254448
96.673843383789 -77.598518371582 -206.970718383789 1.223497629166
-149.296829223633 -71.704040527344 -214.444625854492 1.466130733490
95.108276367188 -77.410728454590 -211.535766601563 1.758284687996
4.674940109253 -73.013298034668 -207.231674194336 2.294144392014
3.196749925613 -75.962394714355 -214.339828491211 3.687201499939
-33.299209594727 -72.739448547363 -206.897064208984 1.762305498123
-89.747367858887 -71.347160339355 -213.033828735352 2.449625015259
-26.599739074707 -74.639854431152 -210.764541625977 1.428046345711
84.778717041016 -74.769500732422 -216.847000122070 1.164861679077
88.940361022949 -74.684135437012 -216.958862304688 1.412102580070
-32.172721862793 -72.350616455078 -212.147140502930 2.038998842239
-84.681526184082 -69.086639404297 -218.308288574219 3.955149412155
-1.443109035492 -75.728706359863 -218.626602172852 2.036664962769
81.740646362305 -72.009864807129 -213.098907470703 4.751341819763
-152.331817626953 -74.268630981445 -221.805587768555 1.416882991791
-166.109405517578 -68.741645812988 -214.254150390625 2.118937730789
-162.362350463867 -72.779899597168 -222.213500976563 1.853036165237
-21.780513763428 -74.178977966309 -226.778915405273 1.998374462128
-154.289138793945 -73.371810913086 -222.708786010742 1.118681669235
-6.116396903992 -74.760429382324 -224.382934570313 2.264518737793
6.184063911438 -74.909507751465 -218.302703857422 2.251267194748
-167.491683959961 -70.091728210449 -225.514343261719 2.553755521774
-159.152282714844 -70.745292663574 -227.357177734375 2.184410810471
78.835304260254 -78.421180725098 -231.334579467773 2.010356664658
-0.075212001801 -72.602676391602 -226.556045532227 1.042779207230
-157.791687011719 -65.846450805664 -226.138732910156 2.058753252029
-142.864151000977 -72.300765991211 -224.353195190430 1.059039473534
-19.533136367798 -72.390365600586 -223.833618164063 2.268233060837
-0.831591010094 -77.866165161133 -222.364990234375 2.135727882385
79.738212585449 -72.962326049805 -225.517196655273 1.706210851669
-161.569992065430 -68.702621459961 -227.869537353516 3.241605997086
-144.291625976563 -68.422012329102 -230.858322143555 2.843825817108
-125.423439025879 -69.493316650391 -230.893981933594 3.459248781204
78.402198791504 -76.701217651367 -226.566146850586 0.911196649075
-115.969261169434 -71.172126770020 -229.155349731445 0.953564286232
-146.739349365234 -70.559585571289 -229.289764404297 2.053534984589
-150.819564819336 -69.219268798828 -231.428695678711 3.642030715942
-149.367401123047 -71.295516967773 -231.344192504883 2.907183647156
-156.168640136719 -70.943283081055 -229.112945556641 0.966473817825
-165.417800903320 -70.680480957031 -229.040390014648 0.907012701035
-134.040786743164 -71.026115417480 -235.348541259766 1.270742177963
-133.629211425781 -72.016845703125 -233.146118164063 1.525518894196
-153.582199096680 -74.084251403809 -232.912429809570 2.195434570313
-145.646835327148 -67.183807373047 -236.854064941406 2.000119686127
-151.949737548828 -70.972846984863 -235.340698242188 1.365182757378
74.551849365234 -77.175384521484 -232.316467285156 2.549613714218
67.110069274902 -70.300704956055 -235.871200561523 0.988624691963
-157.297164916992 -68.986114501953 -235.409729003906 1.606736063957
71.499183654785 -70.807144165039 -233.160964965820 0.999152600765
-20.060567855835 -71.859283447266 -236.586410522461 2.576045989990
11.085085868835 -75.088470458984 -237.005538940430 1.075362563133
6.609766960144 -74.574691772461 -235.940093994141 2.478708028793
-154.804351806641 -70.541419982910 -242.693557739258 2.734521389008
14.297295570374 -73.372848510742 -241.019836425781 1.698257088661
60.673851013184 -73.689842224121 -237.878204345703 2.620415687561
13.159813880920 -71.504486083984 -237.866653442383 1.328672289848
5.053908824921 -74.196296691895 -241.497863769531 1.500623703003
-6.764173984528 -71.455368041992 -240.289825439453 0.687443673611
-21.411111831665 -71.785980224609 -242.792724609375 2.024125337601
-2.014868974686 -73.509307861328 -241.905609130859 1.297873616219
3.482763051987 -76.324333190918 -244.928756713867 1.894116401672
57.104438781738 -75.775566101074 -241.482421875000 1.996739268303
-55.795421600342 -75.794212341309 -244.739166259766 1.803365826607
19.320867538452 -72.964225769043 -247.277740478516 0.509063184261
-59.866348266602 -73.345283508301 -241.795837402344 3.181010723114
-10.175116539001 -73.567062377930 -247.846328735352 0.996481955051
-66.324272155762 -68.939338684082 -250.285934448242 3.334758758545
-86.324134826660 -70.278678894043 -253.157867431641 1.259755730629
-82.939956665039 -72.841674804688 -252.149597167969 2.140982151031
-10.147003173828 -72.740921020508 -254.754165649414 2.107488870621
-124.187538146973 -70.886260986328 -259.104309082031 2.828899383545
-14.442259788513 -74.172363281250 -252.952743530273 2.043557405472
-117.306175231934 -71.239387512207 -255.759704589844 2.151740789413
-116.791709899902 -69.923011779785 -258.692443847656 2.534966945648
-103.873809814453 -71.307174682617 -256.585662841797 1.128367662430
-144.188247680664 -69.723106384277 -261.916168212891 2.229087352753
-145.343338012695 -70.103469848633 -267.319396972656 1.823042154312
-168.990783691406 -70.208023071289 -263.706146240234 2.213024139404
18.955947875977 -77.302345275879 -280.230590820313 2.696315050125
-58.363571166992 -70.455825805664 -285.408874511719 1.583559274673
-67.569297790527 -71.137733459473 -283.729461669922 2.701608896255
-42.537105560303 -74.331634521484 -283.887481689453 3.090701580048
-28.432935714722 -73.845779418945 -286.475280761719 0.636373877525
-96.725494384766 -73.405509948730 -289.280517578125 2.417442321777
-31.173379898071 -70.953025817871 -285.720458984375 2.531011581421
-4.486551761627 -73.415359497070 -286.161560058594 0.813146770000
-167.748245239258 -70.160560607910 -289.418182373047 2.986234664917
-16.289815902710 -75.212059020996 -285.878509521484 2.356694698334
5.950466156006 -74.756546020508 -287.919006347656 0.510009825230
13.661441802979 -78.064590454102 -283.579528808594 2.146433353424
-57.391258239746 -74.612655639648 -287.643859863281 2.367409467697
-33.627136230469 -73.220985412598 -291.484344482422 1.734977364540
13.834443092346 -71.869750976563 -293.044769287109 1.122393846512
-71.288337707520 -70.674896240234 -292.957733154297 2.753263235092
-40.609146118164 -70.161903381348 -289.159881591797 2.027565479279
-18.229080200195 -71.120719909668 -289.985412597656 1.873175382614
14.599397659302 -75.952415466309 -290.989898681641 1.341930389404
-12.006880760193 -74.853935241699 -294.205963134766 2.302437305450
3.553692102432 -72.362510681152 -293.781127929688 1.042786121368
13.808401107788 -75.676071166992 -290.562438964844 1.642262458801
-135.277816772461 -69.781280517578 -294.416168212891 0.727989137173
-145.410598754883 -72.861991882324 -299.223999023438 0.442832857370
-151.430023193359 -70.814765930176 -313.288665771484 0.655338048935
42.979980468750 -73.722640991211 -13.668755531311 2.109827995300
30.075813293457 -73.900199890137 -11.777318000793 2.797897577286
39.219387054443 -74.345100402832 -15.370282173157 2.721882820129
21.976245880127 -70.753273010254 -18.684055328369 1.696152329445
44.919433593750 -72.311721801758 -22.331190109253 2.212038040161
25.507900238037 -72.148307800293 -23.933626174927 1.977155804634
23.676937103271 -74.172500610352 -27.458396911621 2.609503030777
24.695976257324 -74.726783752441 -38.239364624023 3.708226919174
39.423854827881 -76.242790222168 -30.752569198608 5.486111640930
26.138927459717 -77.377403259277 -36.283863067627 5.836229324341
42.998229980469 -72.990150451660 -37.620914459229 2.206840276718
31.755088806152 -74.561721801758 -39.373001098633 2.335585832596
38.658279418945 -75.518066406250 -35.886123657227 4.156646251678
30.868101119995 -73.170234680176 -39.906406402588 1.025767922401
43.499023437500 -74.234580993652 -41.126457214355 3.108247041702
33.629043579102 -73.580856323242 -38.946887969971 1.966150522232
-41.043117523193 -70.855186462402 -48.220359802246 2.422489881516
-30.116964340210 -67.898498535156 -50.619071960449 1.096185564995
-89.482391357422 -70.058219909668 -54.729522705078 4.597661972046
-89.215660095215 -72.394905090332 -65.495018005371 2.764126777649
77.705093383789 -77.243988037109 -66.524497985840 6.195806026459
84.153686523438 -74.684471130371 -72.338630676270 1.569038867950
-19.778091430664 -70.938682556152 -73.479034423828 1.351229786873
-88.394447326660 -71.625694274902 -71.654090881348 2.575087785721
-25.333730697632 -72.070816040039 -76.656455993652 1.228332638741
-49.865188598633 -73.274208068848 -84.860031127930 1.100992918015
65.801277160645 -70.820991516113 -86.049209594727 2.110553026199
52.537471771240 -73.235214233398 -93.039802551270 1.841991305351
99.340339660645 -73.351875305176 -91.195396423340 2.276505708694
69.226112365723 -76.024078369141 -96.367546081543 2.477926254272
-68.430152893066 -73.219261169434 -90.935333251953 4.242434501648
-62.347793579102 -70.094673156738 -97.775215148926 3.934981584549
44.619468688965 -74.488479614258 -97.196472167969 1.125827431679
77.245117187500 -73.243904113770 -99.622413635254 1.907559752464
54.158908843994 -81.148391723633 -104.775566101074 3.212314128876
101.086929321289 -74.724975585938 -96.342315673828 2.181433677673
-95.431076049805 -72.835685729980 -107.141510009766 1.828733921051
39.646839141846 -74.153915405273 -110.435874938965 2.018531560898
106.821067810059 -75.991569519043 -108.415077209473 1.792578577995
48.294033050537 -73.927413940430 -111.003044128418 1.498863101006
101.260688781738 -75.989654541016 -109.415687561035 4.030966281891
-85.655937194824 -71.445510864258 -115.178253173828 3.124910354614
35.562389373779 -76.945846557617 -111.622200012207 3.212050199509
106.427215576172 -74.011451721191 -116.462539672852 2.310284137726
104.545783996582 -72.513221740723 -115.457649230957 1.677438974380
105.300346374512 -75.442840576172 -114.768562316895 1.609424352646
110.321441650391 -74.201011657715 -114.224235534668 2.822133302689
39.675975799561 -75.556495666504 -109.913368225098 2.133534431458
31.879516601563 -71.338859558105 -117.043006896973 2.454636335373
40.720619201660 -73.513885498047 -113.863372802734 2.624450683594
106.544075012207 -76.371566772461 -121.424919128418 2.782094717026
39.923847198486 -72.252799987793 -122.959800720215 1.002232789993
108.849044799805 -74.262306213379 -131.796524047852 1.873823165894
110.730476379395 -73.881347656250 -130.684036254883 1.517876029015
33.390991210938 -71.570030212402 -120.342475891113 2.758928537369
