-69.234931945801 -70.264228820801 -156.263336181641 1.998001694679
-46.930995941162 -68.655082702637 -153.066833496094 2.127732276917
-68.508491516113 -70.440628051758 -152.622634887695 0.756238877773
17.774971008301 -71.638015747070 -157.781265258789 2.258286714554
23.912948608398 -72.148002624512 -149.432617187500 1.547124266624
2.091917991638 -72.403884887695 -163.753021240234 1.309045195580
20.975278854370 -72.681678771973 -152.906326293945 1.525001883507
30.289226531982 -72.673538208008 -166.546859741211 3.120426893234
-47.780067443848 -72.587539672852 -162.200866699219 1.114253759384
-37.369377136230 -77.491744995117 -162.287658691406 1.609127044678
-41.293601989746 -72.206207275391 -159.842971801758 2.197924852371
27.401340484619 -73.254447937012 -158.057876586914 3.134196043015
-44.727916717529 -69.727531433105 -165.767745971680 3.033201932907
-40.235633850098 -70.013603210449 -165.386871337891 2.480329275131
20.892997741699 -71.476844787598 -165.088867187500 1.097500443459
-40.428829193115 -71.888725280762 -174.212478637695 1.920122742653
27.459606170654 -69.490562438965 -169.450546264648 1.786832213402
111.236991882324 -71.659965515137 -164.717864990234 1.835494518280
-34.070957183838 -71.431282043457 -171.052917480469 2.447433471680
102.227874755859 -72.158927917480 -173.013092041016 3.557429313660
-35.159526824951 -71.075050354004 -176.441757202148 1.059499502182
-38.095630645752 -74.196479797363 -180.442138671875 2.649243831635
20.498790740967 -75.351699829102 -176.359344482422 1.986787676811
105.165023803711 -74.748161315918 -181.803924560547 1.944310903549
-32.100212097168 -69.958007812500 -181.937271118164 0.827627122402
-35.773967742920 -70.897041320801 -176.523193359375 0.421892851591
-23.940347671509 -74.970626831055 -185.934463500977 1.420253992081
-149.714492797852 -69.551467895508 -187.307800292969 0.293956279755
12.292772293091 -72.149795532227 -182.646804809570 2.737696886063
104.294120788574 -72.944664001465 -190.893753051758 0.923332631588
-159.642791748047 -68.356575012207 -191.398818969727 3.103442430496
-23.609445571899 -68.668861389160 -188.596160888672 1.900473833084
-116.392349243164 -71.212989807129 -195.934921264648 1.343619227409
-131.539505004883 -70.683525085449 -194.083847045898 1.186548471451
-108.634712219238 -70.260749816895 -198.425567626953 2.142911911011
-114.378234863281 -68.846229553223 -198.814666748047 2.180661201477
-13.076372146606 -72.551063537598 -195.513076782227 2.276589870453
19.394140243530 -71.288276672363 -195.432357788086 1.581491708755
-16.499975204468 -68.075965881348 -200.990386962891 1.992815613747
-127.490982055664 -69.341484069824 -204.081954956055 0.999688029289
-21.540708541870 -67.960731506348 -202.088378906250 2.644318819046
-130.087158203125 -68.172882080078 -201.429168701172 2.697109699249
-16.166696548462 -71.776397705078 -199.392211914063 1.782180070877
-146.801559448242 -67.789695739746 -201.227493286133 2.789397478104
91.097213745117 -70.170211791992 -206.165893554688 2.788141489029
-165.163909912109 -63.890186309814 -199.776016235352 3.221744060516
-3.625063896179 -73.390747070313 -217.067977905273 1.380546212196
10.651332855225 -73.258247375488 -209.176483154297 1.649526357651
9.456009864807 -74.127532958984 -216.305938720703 2.131578922272
81.822715759277 -73.497123718262 -216.375976562500 2.742327690125
7.698184013367 -73.004745483398 -212.335678100586 1.241971969604
11.835042953491 -71.224815368652 -214.044448852539 0.651538968086
-16.705516815186 -74.686401367188 -215.057449340820 1.076485037804
-91.258232116699 -70.329704284668 -213.191726684570 2.081363201141
-98.791778564453 -69.888862609863 -215.284805297852 2.817190170288
-0.790813982487 -70.770103454590 -218.355056762695 1.241016507149
-167.308563232422 -70.139259338379 -220.305709838867 2.753377676010
14.362524986267 -70.113533020020 -218.919799804688 1.261061549187
-145.419464111328 -68.129409790039 -219.696258544922 1.485452651978
12.115728378296 -72.330169677734 -224.250885009766 2.606343984604
-135.489746093750 -70.288352966309 -223.372985839844 2.029779195786
-116.774330139160 -70.278465270996 -225.798171997070 1.298087716103
15.963389396667 -71.369384765625 -220.199996948242 1.678686976433
77.569976806641 -73.418258666992 -221.013916015625 2.927690505981
5.917090892792 -71.884544372559 -222.738845825195 2.121439218521
-110.712677001953 -68.725250244141 -229.541046142578 2.359737157822
71.487831115723 -74.126251220703 -227.426635742188 2.781673431396
83.124847412109 -74.515853881836 -229.173324584961 1.893702507019
-126.068000793457 -68.860603332520 -233.641082763672 2.501907348633
-117.878639221191 -69.290733337402 -229.051040649414 2.297254085541
-10.816317558289 -68.397651672363 -226.979553222656 0.942926108837
71.101821899414 -73.896469116211 -231.018035888672 0.613888025284
63.759815216064 -73.622520446777 -232.786621093750 4.054392814636
72.435226440430 -72.744552612305 -229.121246337891 1.609995365143
-136.052627563477 -65.611442565918 -232.578506469727 1.584218502045
69.276130676270 -74.240455627441 -231.979965209961 0.946870625019
65.326362609863 -70.906578063965 -234.912734985352 1.790523767471
-166.942840576172 -66.863197326660 -228.869003295898 2.772256851196
0.396243989468 -77.964775085449 -240.244155883789 2.164708852768
18.431438446045 -73.280273437500 -238.855148315430 1.852823495865
-6.881608009338 -68.979164123535 -239.891326904297 2.571630716324
14.954136848450 -67.149223327637 -238.605712890625 3.017966508865
65.303306579590 -73.985534667969 -237.753204345703 1.309912562370
8.027576446533 -70.030174255371 -242.685501098633 1.236656785011
-11.726354598999 -65.538589477539 -239.967193603516 1.104582786560
-1.370442032814 -68.548011779785 -236.706985473633 1.085317015648
64.006423950195 -73.619522094727 -242.050704956055 1.349943161011
2.124536037445 -72.205665588379 -241.853103637695 2.039032220840
-7.933475971222 -72.217086791992 -242.374786376953 2.114121198654
13.302907943726 -74.270912170410 -242.255630493164 1.669578552246
-168.404922485352 -69.727798461914 -239.480712890625 1.153894305229
55.060348510742 -73.080810546875 -246.826217651367 2.444540023804
49.082977294922 -67.142715454102 -250.345581054688 1.612134933472
57.248470306396 -73.554267883301 -242.395294189453 1.140224575996
-13.084934234619 -69.645896911621 -247.107437133789 1.064584732056
56.240314483643 -72.614089965820 -245.261642456055 0.962950050831
-74.842864990234 -69.529075622559 -248.724639892578 1.352962851524
49.798622131348 -73.034065246582 -248.200302124023 0.627171695232
-89.720733642578 -69.475227355957 -251.269424438477 2.181182146072
-124.232742309570 -69.982833862305 -255.258407592773 1.974737167358
-133.376708984375 -68.696884155273 -251.466156005859 3.816511869431
45.095764160156 -74.052787780762 -251.391342163086 2.681185007095
-133.595581054688 -71.214637756348 -251.728057861328 2.328834056854
-110.157943725586 -67.448822021484 -253.737579345703 3.191160202026
-117.040985107422 -66.817825317383 -256.060119628906 1.964269161224
-84.756500244141 -70.143119812012 -253.480529785156 1.122804284096
-111.984390258789 -67.435653686523 -257.777282714844 1.021394848824
-125.184165954590 -72.016273498535 -261.016632080078 1.634426355362
-147.526962280273 -65.824157714844 -266.040588378906 1.337102413177
-16.357395172119 -69.749900817871 -264.799041748047 2.043744325638
-172.424392700195 -69.763404846191 -262.783905029297 4.559329032898
-15.711342811584 -70.456382751465 -272.966400146484 1.655002474785
-160.007156372070 -64.844299316406 -265.634704589844 3.505356550217
-153.816543579102 -68.322837829590 -271.840972900391 4.220081329346
-171.069915771484 -67.638053894043 -275.836303710938 4.382149219513
-15.415239334106 -71.013534545898 -278.531677246094 3.918417930603
-131.430465698242 -70.766578674316 -281.707122802734 3.046005487442
-159.244049072266 -67.582603454590 -284.594726562500 2.897536039352
-145.124633789063 -67.251632690430 -279.410156250000 1.842543840408
-136.121734619141 -71.159675598145 -279.026580810547 5.104986190796
-9.313673973083 -65.387145996094 -283.650970458984 3.047166347504
-127.144157409668 -71.962806701660 -282.001007080078 2.867593526840
-142.212875366211 -66.202110290527 -284.060638427734 1.924773812294
-117.018295288086 -71.577667236328 -284.357025146484 2.378313779831
-80.208091735840 -67.611709594727 -286.849304199219 2.649724483490
-61.970859527588 -70.506294250488 -285.985961914063 2.298309326172
-8.293058395386 -71.938331604004 -287.072875976563 2.631029605865
-55.148265838623 -68.844314575195 -284.666229248047 3.272035121918
-58.432533264160 -67.636642456055 -287.550292968750 2.878712892532
-71.647956848145 -67.900894165039 -289.172790527344 3.482408523560
-89.336471557617 -68.297676086426 -292.538360595703 1.649690151215
-96.262985229492 -66.882453918457 -287.694091796875 2.819719314575
-161.592864990234 -66.833755493164 -289.812011718750 2.631453514099
-162.402374267578 -68.593437194824 -292.067504882813 2.665213346481
-125.983673095703 -71.180229187012 -292.459197998047 2.004532337189
-145.969131469727 -68.196655273438 -293.425659179688 2.438106298447
-154.472885131836 -69.999168395996 -302.137359619141 2.532083749771
-151.952911376953 -70.055984497070 -310.562164306641 2.486534357071
48.396686553955 -72.632110595703 -14.159534454346 3.882212638855
17.067867279053 -74.948600769043 -29.141716003418 4.665053367615
42.331260681152 -70.447692871094 -34.132343292236 2.185201406479
-15.422333717346 -75.415733337402 -65.546951293945 3.755830526352
81.952949523926 -72.492156982422 -64.837257385254 2.164525747299
88.862281799316 -70.494384765625 -65.702774047852 2.656828880310
77.961280822754 -77.216171264648 -65.194061279297 6.767504215240
72.804862976074 -75.240371704102 -68.905563354492 3.472359180450
91.211494445801 -76.668991088867 -74.731147766113 2.794879674911
-95.956367492676 -67.587455749512 -68.919868469238 3.238071680069
67.862197875977 -74.473495483398 -75.042823791504 3.916128873825
-36.512310028076 -72.809890747070 -76.407806396484 2.299981594086
98.904479980469 -74.252235412598 -85.689346313477 1.493214249611
61.480880737305 -70.969535827637 -89.973800659180 2.682178497314
106.956924438477 -78.748466491699 -93.544181823730 7.329088687897
101.373023986816 -77.639762878418 -98.267211914063 3.581437349319
72.192703247070 -73.452499389648 -100.302520751953 2.186514616013
-80.274528503418 -69.482406616211 -100.279403686523 1.533720731735
54.200969696045 -73.125785827637 -103.787178039551 2.079338550568
106.986343383789 -71.611656188965 -105.872795104980 0.941206097603
46.840507507324 -73.598335266113 -111.911705017090 0.760815560818
79.751060485840 -72.555320739746 -105.108711242676 2.795688152313
41.453296661377 -72.506095886230 -106.921218872070 1.758465170860
104.088050842285 -73.741706848145 -103.075004577637 1.484728574753
47.371116638184 -72.408149719238 -107.293197631836 3.067531108856
106.939262390137 -78.760848999023 -109.801658630371 4.470929622650
109.855697631836 -76.939002990723 -111.226066589355 2.387757301331
-79.626762390137 -68.513053894043 -112.914398193359 1.384202361107
-83.201889038086 -68.585350036621 -118.088455200195 1.819225668907
43.576950073242 -75.658538818359 -119.553718566895 1.611412882805
113.461616516113 -75.565780639648 -121.205276489258 1.919948577881
113.361297607422 -73.682304382324 -123.477157592773 1.748795032501
-87.571823120117 -69.237625122070 -125.677932739258 2.475707054138
105.597427368164 -75.582839965820 -125.632736206055 3.928606748581
-59.805873870850 -74.736801147461 -130.700057983398 3.595181465149
-86.526809692383 -70.438667297363 -126.008972167969 1.746479868889
-72.897743225098 -70.549827575684 -125.939971923828 2.950116634369
-59.477901458740 -66.920257568359 -125.607856750488 1.686956524849
31.258159637451 -71.985763549805 -129.570663452148 2.004739522934
42.003276824951 -70.932098388672 -134.156372070313 3.267227888107
-73.539314270020 -69.919258117676 -135.390167236328 1.549986481667
28.390796661377 -70.361015319824 -130.310531616211 1.364455342293
111.228118896484 -73.665733337402 -142.779403686523 1.097533822060
-40.646942138672 -70.793830871582 -147.251831054688 2.090491056442
29.891057968140 -72.886886596680 -148.236145019531 2.761726856232
113.444328308105 -72.061225891113 -147.563705444336 1.625547409058
35.101207733154 -72.777030944824 -142.159606933594 1.315510749817
109.959945678711 -72.458030700684 -140.657760620117 1.734514951706
-52.809589385986 -70.731567382813 -148.288558959961 2.085199117661
-71.703521728516 -67.621360778809 -149.742263793945 1.435337662697
-55.611862182617 -70.878532409668 -151.432830810547 3.151255130768
-42.703315734863 -73.877777099609 -163.937911987305 2.135712385178
4.168189048767 -72.760993957520 -155.094390869141 2.898251295090
109.324043273926 -73.693611145020 -153.350326538086 2.602832555771
108.433540344238 -73.281791687012 -159.450347900391 1.841551542282
9.537821769714 -70.964454650879 -156.687606811523 2.608558416367
2.765827894211 -71.438545227051 -160.515121459961 1.606754302979
18.736190795898 -71.026969909668 -154.545974731445 2.685525178909
25.170389175415 -70.571578979492 -154.985702514648 0.995731890202
108.168983459473 -72.903305053711 -165.445602416992 2.350185394287
108.926696777344 -76.346351623535 -167.568222045898 1.080315113068
23.372257232666 -69.051170349121 -173.689086914063 1.822665095329
24.397380828857 -73.781822204590 -163.164993286133 3.220976829529
111.708923339844 -71.526184082031 -161.813598632813 0.713909149170
-29.707761764526 -69.463867187500 -176.184585571289 1.195133447647
109.623390197754 -73.535552978516 -167.587432861328 1.496374487877
16.953273773193 -72.061782836914 -166.885726928711 1.928139805794
21.058183670044 -71.531280517578 -167.029022216797 2.288333892822
107.927200317383 -73.410133361816 -172.670989990234 0.903908669949
26.174766540527 -70.868385314941 -169.704391479492 1.625308275223
111.638694763184 -72.510681152344 -183.534851074219 1.633878827095
-38.883480072021 -69.757530212402 -176.656723022461 2.905665874481
24.537145614624 -71.274551391602 -170.424423217773 1.166209578514
106.828971862793 -72.939132690430 -183.661956787109 1.008181214333
22.464067459106 -72.519851684570 -177.881668090820 1.574650406837
-152.473083496094 -66.689216613770 -184.762252807617 2.885624885559
-28.835504531860 -67.522262573242 -188.317871093750 1.986156105995
23.975116729736 -69.457099914551 -184.199066162109 1.394680023193
-114.459236145020 -70.163780212402 -190.395660400391 2.001669883728
-111.481773376465 -66.446655273438 -189.833786010742 1.969340443611
23.095487594604 -71.963874816895 -187.846908569336 1.477150440216
11.053388595581 -69.382560729980 -184.253219604492 3.936898231506
-27.520513534546 -67.903045654297 -189.215942382813 1.168976426125
-30.379737854004 -74.143348693848 -188.242111206055 1.433654546738
-28.672660827637 -70.774009704590 -186.200103759766 1.117975831032
14.218557357788 -69.363655090332 -179.225799560547 1.860029101372
-151.532821655273 -67.945205688477 -193.379013061523 1.563660383224
-146.016418457031 -67.760871887207 -191.179794311523 3.113085269928
-145.143859863281 -70.916252136230 -196.688949584961 1.502252936363
-23.582294464111 -69.543846130371 -190.421386718750 1.231313467026
12.955348014832 -68.945426940918 -198.804412841797 1.093852043152
98.161689758301 -71.960235595703 -193.103057861328 1.678875327110
-114.409164428711 -67.530998229980 -196.857910156250 0.582913219929
20.480285644531 -74.450248718262 -197.687896728516 1.046556115150
-16.004322052002 -69.521301269531 -194.635086059570 1.298995614052
-18.429159164429 -69.850334167480 -197.797485351563 1.193127751350
100.240966796875 -71.605392456055 -199.308319091797 1.106344342232
7.168729782104 -72.808517456055 -198.526290893555 2.861198186874
-22.645011901855 -68.723266601563 -195.529602050781 1.205305099487
-122.130645751953 -71.328643798828 -201.592422485352 1.011951446533
-134.912246704102 -68.313529968262 -201.702529907227 1.762872338295
-114.742530822754 -64.199867248535 -203.428039550781 1.435410976410
-142.953033447266 -70.750610351563 -201.769851684570 1.352197527885
16.797098159790 -70.781433105469 -197.042770385742 2.013482570648
93.034194946289 -73.802871704102 -201.616516113281 1.973174810410
-166.558517456055 -63.158874511719 -199.650070190430 3.631960630417
99.246406555176 -72.342041015625 -201.974182128906 1.457581639290
-22.466768264771 -73.874374389648 -205.159820556641 2.762557029724
93.834060668945 -70.489295959473 -210.303359985352 2.380358934402
87.231079101563 -73.764137268066 -211.274337768555 1.819727659225
11.336307525635 -72.616157531738 -205.271133422852 2.948319673538
18.977499008179 -70.471214294434 -211.325988769531 1.206600785255
12.110431671143 -68.164230346680 -207.124664306641 1.562218308449
-11.732490539551 -70.684577941895 -221.566101074219 1.692245721817
-95.285430908203 -70.670707702637 -217.280380249023 1.683080434799
-11.276552200317 -72.474716186523 -211.466781616211 2.356212854385
88.213569641113 -72.566116333008 -216.078262329102 1.309367656708
-94.404769897461 -70.900245666504 -216.365036010742 1.332689762115
-101.939628601074 -66.387832641602 -219.821609497070 2.181498289108
-95.290229797363 -69.385513305664 -218.171752929688 1.700102806091
87.329345703125 -73.856910705566 -221.754333496094 1.969967603683
-136.159149169922 -68.325950622559 -223.590774536133 2.212782382965
-133.387435913086 -71.789413452148 -225.196929931641 0.478152662516
-117.513801574707 -68.171417236328 -223.362747192383 2.410346269608
-113.915328979492 -65.773658752441 -221.732238769531 4.424771308899
-134.191925048828 -66.530281066895 -225.637817382813 1.267306447029
-112.703910827637 -74.882789611816 -226.132888793945 2.934301614761
-113.085998535156 -68.202445983887 -226.628387451172 0.394768774509
-7.801270961761 -73.609657287598 -223.873611450195 2.112148046494
-16.849615097046 -72.493637084961 -222.341491699219 1.828817248344
-1.847110033035 -68.584289550781 -229.681564331055 1.759452581406
-10.996836662292 -67.585411071777 -226.173599243164 1.826051831245
14.448178291321 -71.555328369141 -232.877609252930 0.702592015266
-19.723997116089 -68.537071228027 -228.264709472656 3.405889034271
-167.652481079102 -65.767463684082 -220.514862060547 3.214386224747
-5.032295227051 -70.422080993652 -232.707336425781 1.521644592285
79.938400268555 -69.367797851563 -230.932388305664 1.683764338493
10.006557464600 -72.490707397461 -233.001739501953 2.412165164948
-6.813611030579 -69.694549560547 -234.005004882813 1.344484210014
-157.743270874023 -65.219604492188 -234.795318603516 1.814050197601
-143.146133422852 -66.344184875488 -228.794876098633 1.340416908264
61.668819427490 -70.500389099121 -235.538299560547 1.539517879486
-6.601275920868 -71.337982177734 -233.360290527344 1.316928267479
8.362560272217 -72.751350402832 -230.066482543945 1.386749386787
68.475959777832 -74.082054138184 -229.991302490234 2.180829763412
76.012931823730 -72.448463439941 -234.052017211914 2.357250213623
70.039703369141 -72.992675781250 -241.087936401367 1.635551571846
-2.560401916504 -73.248916625977 -234.977645874023 1.046458721161
57.118049621582 -70.020347595215 -237.573196411133 3.396703481674
-20.019563674927 -72.628540039063 -238.898803710938 1.384002447128
-16.192182540894 -67.914939880371 -239.542510986328 2.444676876068
7.271506786346 -70.557800292969 -238.674011230469 2.886636257172
63.767826080322 -74.917762756348 -237.593017578125 2.019580602646
64.494590759277 -70.326858520508 -240.323211669922 1.958560109138
48.610366821289 -71.638114929199 -245.703521728516 2.404137134552
60.092769622803 -74.738945007324 -242.406982421875 1.696596026421
-16.623964309692 -74.481330871582 -248.862792968750 3.425523042679
-84.584808349609 -66.175178527832 -252.895584106445 2.992014408112
-77.841369628906 -66.885910034180 -251.703094482422 3.879199028015
43.200862884521 -74.054962158203 -247.346084594727 3.813750982285
-150.150756835938 -68.577514648438 -249.000595092773 2.198705196381
34.949241638184 -71.075424194336 -255.718750000000 2.563173294067
-93.123237609863 -72.013679504395 -250.613113403320 1.999688386917
-157.208755493164 -63.640739440918 -252.944854736328 3.023559331894
-141.236114501953 -61.583534240723 -251.644439697266 4.419303417206
44.127101898193 -71.116737365723 -253.061004638672 0.827414333820
-125.965843200684 -64.094886779785 -256.312896728516 1.229372382164
-117.919342041016 -68.299713134766 -253.874649047852 2.630546569824
-93.344985961914 -64.623641967773 -255.726821899414 1.973614096642
-14.660141944885 -67.000488281250 -249.536621093750 1.928434252739
30.815795898438 -70.679664611816 -256.664184570313 1.024918794632
23.916395187378 -68.306549072266 -258.859863281250 0.651923418045
-159.943344116211 -62.841758728027 -258.530639648438 4.562639713287
-115.878196716309 -70.614524841309 -261.227661132813 2.305034399033
-15.008480072021 -69.700691223145 -261.115905761719 1.390330553055
-133.885223388672 -67.405410766602 -263.797241210938 1.218728303909
-15.260704040527 -68.708061218262 -269.464111328125 2.178882837296
-166.021301269531 -66.138687133789 -270.724426269531 3.712924957275
-8.545537948608 -70.907920837402 -278.694976806641 2.282357215881
-162.142929077148 -67.135391235352 -286.036346435547 1.802094340324
-165.090576171875 -68.658607482910 -276.118743896484 1.398734211922
-143.863845825195 -67.420082092285 -283.559814453125 2.218327522278
-171.458816528320 -68.586799621582 -282.847625732422 4.969919204712
12.693157196045 -72.488342285156 -287.342956542969 1.958127975464
-104.461448669434 -68.976646423340 -285.157928466797 2.777025699615
-88.394271850586 -64.277191162109 -284.674194335938 5.837889671326
-168.984619140625 -63.974315643311 -282.745574951172 6.890057563782
-93.369705200195 -72.020927429199 -282.709930419922 5.533079147339
-155.013305664063 -67.403312683105 -286.761047363281 2.786119222641
-76.835723876953 -69.367568969727 -292.410491943359 2.237923860550
-71.938117980957 -67.935585021973 -287.529479980469 3.315176248550
-83.886642456055 -69.348564147949 -290.065063476563 1.867230415344
-4.990457057953 -67.388076782227 -288.161651611328 2.118537664413
-89.344406127930 -68.218315124512 -287.346191406250 2.613899946213
-100.363487243652 -69.401107788086 -289.578948974609 1.430553317070
-118.020919799805 -67.979293823242 -291.192291259766 1.041615962982
-117.887046813965 -65.024108886719 -291.306060791016 2.314985752106
-135.513168334961 -66.699340820313 -290.611419677734 0.898346424103
-144.224121093750 -67.299835205078 -299.160156250000 3.096147537231
-145.745178222656 -68.402038574219 -310.106140136719 1.464052438736
24.442583084106 -70.636207580566 -14.499515533447 2.665294170380
32.851444244385 -71.996925354004 -15.815641403198 1.744953036308
29.823675155640 -74.554840087891 -17.670829772949 2.051831960678
44.686164855957 -70.924438476563 -20.045289993286 1.556369543076
25.337318420410 -72.270370483398 -31.020242691040 2.312584638596
-74.512092590332 -68.394927978516 -45.775688171387 2.102917194366
89.998596191406 -69.084869384766 -65.208984375000 1.757194876671
-17.354341506958 -69.257041931152 -66.611297607422 2.037897825241
102.839424133301 -72.367446899414 -72.685104370117 3.702803611755
95.190979003906 -77.000228881836 -75.391105651855 3.366055011749
68.648590087891 -74.075828552246 -78.092697143555 2.895123004913
70.332801818848 -75.914451599121 -82.239555358887 1.813961386681
-44.582645416260 -73.587272644043 -81.374061584473 2.493963718414
61.238430023193 -75.796600341797 -81.964324951172 6.138234615326
-94.307823181152 -69.681015014648 -86.926536560059 2.579770803452
-49.037467956543 -68.037574768066 -84.112472534180 1.033545374870
-55.899658203125 -76.696899414063 -86.454246520996 4.542326450348
100.930465698242 -78.520004272461 -97.379104614258 4.402923583984
59.229034423828 -75.480316162109 -91.807929992676 1.569817781448
65.977210998535 -71.836608886719 -90.566986083984 3.060878515244
-95.548507690430 -63.920288085938 -95.470161437988 2.600031375885
107.893165588379 -74.775260925293 -92.894432067871 5.873413085938
44.159420013428 -70.752174377441 -98.360580444336 1.426904797554
101.454078674316 -72.925300598145 -97.867042541504 0.730168998241
106.779342651367 -71.177917480469 -105.760498046875 0.881322622299
101.268592834473 -73.455383300781 -104.294128417969 2.514552593231
73.851013183594 -74.807952880859 -100.319099426270 2.583740949631
87.252029418945 -74.869270324707 -106.228401184082 4.946496009827
49.983444213867 -71.829620361328 -110.646743774414 1.754554986954
110.683418273926 -71.193130493164 -103.382049560547 1.690481185913
46.158142089844 -74.558746337891 -104.873580932617 2.487222194672
40.622325897217 -70.097473144531 -100.948913574219 1.760311484337
112.710792541504 -73.693572998047 -110.169532775879 1.673734188080
-78.486686706543 -66.664527893066 -108.304542541504 1.442501544952
46.076358795166 -71.118865966797 -112.284202575684 2.147916555405
34.669097900391 -73.587356567383 -114.423927307129 2.277795314789
105.477867126465 -70.899192810059 -109.843620300293 2.543238401413
39.432991027832 -69.013763427734 -110.860961914063 0.984491586685
-88.070266723633 -68.612197875977 -111.463119506836 1.143179535866
-95.532752990723 -65.962776184082 -113.331497192383 3.301089525223
103.910118103027 -76.155830383301 -118.908821105957 4.581034660339
-94.844329833984 -70.102073669434 -117.188011169434 1.318639874458
38.847930908203 -73.675598144531 -120.651916503906 3.428565979004
36.893840789795 -71.323333740234 -120.115180969238 1.794477105141
-83.484535217285 -68.590644836426 -122.815322875977 3.043143510818
32.279880523682 -69.631378173828 -133.994277954102 1.687725305557
110.689857482910 -74.395187377930 -131.020568847656 1.888054013252
-52.766624450684 -69.202018737793 -134.830551147461 2.596206188202
-88.327934265137 -67.600463867188 -130.197280883789 1.780330896378
37.745494842529 -74.719512939453 -131.023986816406 1.687577247620
-89.139045715332 -64.504150390625 -134.404968261719 2.240435600281
-89.090667724609 -70.689956665039 -138.183258056641 3.006689310074
-49.824424743652 -70.688903808594 -135.604309082031 0.721189022064
-70.962127685547 -67.209777832031 -138.168151855469 2.011834859848
-50.797286987305 -68.570457458496 -132.240463256836 1.336231589317
115.301078796387 -70.505859375000 -137.352752685547 2.688878774643
-73.385421752930 -70.384910583496 -135.456222534180 1.698242783546
36.391513824463 -71.792877197266 -130.633224487305 0.913969933987
-78.814300537109 -67.749809265137 -138.740264892578 1.477513670921
-73.445121765137 -68.659812927246 -134.397399902344 1.195317029953
-91.485183715820 -66.534957885742 -138.654220581055 1.024309754372
-54.013099670410 -67.199768066406 -145.790664672852 1.567678570747
31.321807861328 -67.392387390137 -145.065673828125 1.563637137413
27.346023559570 -69.353912353516 -148.792541503906 1.138280510902
19.055253982544 -66.374610900879 -143.539047241211 1.770926356316
112.621826171875 -72.315711975098 -146.100936889648 1.311900377274
-93.677642822266 -66.834770202637 -150.986511230469 0.981119275093
12.746075630188 -72.161102294922 -151.598785400391 1.482093214989
-72.127853393555 -68.207397460938 -151.962799072266 0.797686338425
23.279489517212 -69.980438232422 -149.021362304688 1.860718011856
-49.364528656006 -68.207931518555 -154.208496093750 2.301657915115
9.370527267456 -69.221687316895 -152.412399291992 2.018951177597
14.804489135742 -72.934761047363 -157.620925903320 0.661217272282
17.425451278687 -74.762992858887 -163.144424438477 1.984785199165
-49.211315155029 -71.052352905273 -161.363342285156 2.552107095718
-39.384628295898 -68.471000671387 -153.697418212891 1.927936315536
-46.636302947998 -69.544105529785 -159.851928710938 2.236022233963
-103.998359680176 -68.335144042969 -170.388992309570 0.912185788155
21.375761032104 -71.596870422363 -173.305541992188 2.427388668060
-35.104770660400 -69.057411193848 -174.852310180664 1.013365864754
15.001161575317 -73.984489440918 -177.544021606445 1.871412992477
-143.957626342773 -66.934226989746 -173.933593750000 1.362456560135
-32.507827758789 -66.481254577637 -171.707519531250 1.443854093552
-155.442199707031 -71.084495544434 -175.968154907227 3.109356641769
23.115791320801 -66.400337219238 -181.055221557617 2.664217948914
-33.268520355225 -70.346664428711 -170.391860961914 2.847973346710
-107.988906860352 -66.061042785645 -176.102584838867 2.393012046814
-107.584342956543 -71.646011352539 -181.986206054688 2.174885272980
-30.323015213013 -65.039352416992 -184.118560791016 3.499406337738
-24.087285995483 -73.312232971191 -180.765457153320 1.729748845100
13.551880836487 -69.268417358398 -188.489349365234 2.969675302505
16.525638580322 -67.846366882324 -196.440948486328 1.260912418365
13.432899475098 -70.107170104980 -186.175613403320 2.284967184067
-143.246841430664 -65.830101013184 -185.667114257813 1.771973490715
21.187238693237 -67.019607543945 -189.188385009766 3.196738004684
7.063138008118 -69.829551696777 -195.923004150391 2.589228391647
-137.515579223633 -65.441787719727 -192.665145874023 4.035881996155
-114.791160583496 -67.027107238770 -193.803970336914 1.392657518387
14.406269073486 -68.510864257813 -200.408996582031 1.432049632072
-116.805648803711 -66.241249084473 -195.163116455078 2.677258491516
-108.120223999023 -62.936546325684 -190.575073242188 2.986000061035
-165.831649780273 -67.512298583984 -198.177062988281 2.742324829102
-24.794931411743 -68.239288330078 -198.991653442383 0.904478967190
12.420568466187 -68.578498840332 -199.459030151367 0.964599609375
-143.496704101563 -66.921592712402 -202.175674438477 1.990962147713
-136.347198486328 -68.626647949219 -204.639144897461 3.464839220047
-20.625684738159 -67.626625061035 -206.296966552734 1.493054986000
-12.464209556580 -70.507904052734 -203.621551513672 1.184826493263
-15.335335731506 -69.974815368652 -205.001052856445 1.150670289993
-141.389465332031 -69.889228820801 -202.702392578125 1.654875993729
-17.125263214111 -69.594009399414 -211.952194213867 1.716464042664
-11.139016151428 -72.962066650391 -213.396286010742 2.555752038956
17.023597717285 -67.559402465820 -210.249542236328 1.174967646599
-15.500783920288 -72.590667724609 -210.574340820313 1.793406128883
9.915998458862 -70.132415771484 -209.275268554688 0.494707643986
-11.000877380371 -70.266265869141 -214.695953369141 3.041333436966
-21.519964218140 -66.702957153320 -210.984680175781 3.770001173019
11.958806037903 -74.137191772461 -220.272003173828 3.601129770279
-2.286338090897 -74.277534484863 -218.970779418945 1.898935914040
10.646636009216 -66.496841430664 -220.403808593750 2.377073049545
-6.733260154724 -71.354492187500 -226.032928466797 1.410339355469
-159.417129516602 -66.806961059570 -223.492645263672 0.751118540764
80.158546447754 -73.502365112305 -219.811782836914 3.076549768448
-135.828491210938 -64.882545471191 -222.685638427734 4.055265903473
-135.660537719727 -68.346031188965 -221.500732421875 2.905103683472
-9.060040473938 -70.099922180176 -224.367050170898 1.105094671249
7.869788169861 -69.505905151367 -233.068389892578 0.915175735950
-157.524200439453 -65.884513854980 -227.760086059570 2.350108385086
87.442413330078 -70.153617858887 -219.738037109375 1.786808848381
-2.769942045212 -68.367919921875 -224.910324096680 1.508946418762
-0.007251999807 -70.269615173340 -222.176452636719 2.099447250366
73.293884277344 -73.640724182129 -229.035400390625 0.550784528255
-0.020634999499 -67.363929748535 -234.044906616211 1.024940013885
-15.398524284363 -71.093170166016 -226.262496948242 2.227619647980
-127.131019592285 -65.291702270508 -232.721832275391 1.182975649834
-4.957345008850 -69.123474121094 -236.058486938477 1.985256433487
1.838358998299 -67.448364257813 -231.168518066406 1.428148746490
65.352363586426 -69.026695251465 -237.880966186523 1.531655907631
-158.936904907227 -67.325538635254 -236.497085571289 2.166403770447
-13.221926689148 -68.622795104980 -243.822845458984 1.890981674194
-169.806793212891 -68.101661682129 -237.018035888672 2.494603872299
9.184516906738 -67.005508422852 -241.323577880859 0.904397785664
-165.265350341797 -66.706497192383 -237.208236694336 1.375624656677
-161.509368896484 -67.330749511719 -244.353713989258 2.115301370621
56.274116516113 -70.525627136230 -244.816574096680 1.225651860237
61.500495910645 -72.036865234375 -242.283111572266 0.884116113186
55.389141082764 -71.106338500977 -244.064559936523 1.743905067444
50.962642669678 -70.379180908203 -248.485412597656 1.433974623680
-156.166610717773 -66.864425659180 -242.329391479492 2.822715282440
-157.204589843750 -63.783203125000 -246.730148315430 5.041714191437
-14.179742813110 -71.863159179688 -248.581008911133 0.878631770611
-152.110321044922 -65.793571472168 -245.057647705078 2.471439599991
18.827001571655 -71.161201477051 -250.572357177734 1.538604021072
-170.580825805664 -70.266395568848 -249.336929321289 4.240344047546
-168.325897216797 -64.226341247559 -246.564071655273 4.267796993256
-82.930633544922 -69.033996582031 -247.662368774414 2.681763648987
-170.260879516602 -65.327560424805 -258.057373046875 5.528125286102
-86.207221984863 -67.114463806152 -255.463424682617 2.012123584747
41.724388122559 -69.403732299805 -252.729171752930 1.275908470154
21.353586196899 -73.029106140137 -255.691085815430 1.573988556862
-159.539962768555 -66.693443298340 -260.190917968750 2.219501733780
-101.567115783691 -61.810909271240 -258.244415283203 2.703223466873
38.402915954590 -70.362655639648 -255.259857177734 0.800665199757
-105.808746337891 -73.183677673340 -257.750183105469 1.219561815262
-154.891891479492 -61.843765258789 -263.255187988281 0.781090259552
-106.022575378418 -66.050254821777 -257.138153076172 1.291893124580
-168.726821899414 -67.636894226074 -257.938751220703 2.847971439362
-114.008384704590 -67.905563354492 -261.949829101563 2.094929456711
-154.214080810547 -68.068275451660 -264.141571044922 2.695003986359
-159.411529541016 -64.399696350098 -261.890747070313 3.894159555435
-166.912460327148 -65.151153564453 -262.058898925781 3.261750698090
-164.903656005859 -64.174133300781 -260.611633300781 4.301233768463
-166.602600097656 -65.785881042480 -264.026733398438 2.744455575943
-166.594696044922 -66.403129577637 -261.012725830078 2.683489084244
24.844507217407 -71.030502319336 -264.712219238281 1.033342719078
-150.779769897461 -69.332153320313 -262.098388671875 1.019202470779
-150.791717529297 -65.552673339844 -282.608734130859 0.968906939030
23.720788955688 -70.552894592285 -275.868103027344 2.503029108047
-12.672555923462 -70.596237182617 -273.697570800781 0.394023239613
-126.805885314941 -65.250595092773 -282.946228027344 3.838536262512
-137.404083251953 -67.218269348145 -284.586029052734 2.992709875107
-135.493957519531 -65.311759948730 -287.015228271484 2.478066682816
-127.902786254883 -67.039443969727 -284.463470458984 2.757930994034
-115.405456542969 -65.563964843750 -288.519439697266 2.266915798187
-106.302223205566 -63.616474151611 -284.215057373047 5.636721134186
8.135306358337 -72.038444519043 -291.822631835938 2.180990695953
-86.093894958496 -68.016975402832 -288.754119873047 1.592146992683
-150.185928344727 -66.628845214844 -286.768737792969 0.816184103489
-102.803459167480 -67.146720886230 -289.439178466797 2.088249921799
-130.298995971680 -63.969211578369 -290.412872314453 3.201072931290
8.464421272278 -71.778968811035 -287.542541503906 2.433403968811
-113.013236999512 -61.792827606201 -287.700042724609 5.810683727264
1.776613950729 -69.394660949707 -292.486877441406 1.586879372597
-144.263046264648 -65.675140380859 -287.253356933594 2.603046417236
-154.098419189453 -66.387115478516 -294.356750488281 1.273542881012
-159.247650146484 -65.220588684082 -312.506927490234 5.448998928070
-156.434783935547 -64.900093078613 -310.208862304688 5.009577274323
48.419048309326 -74.347488403320 -24.144399642944 3.430868625641
23.845964431763 -71.823860168457 -34.814380645752 1.400065541267
31.325143814087 -72.861320495605 -35.992794036865 2.633109331131
-44.466842651367 -72.028541564941 -46.394969940186 3.503353595734
-12.312050819397 -68.733688354492 -61.308368682861 1.957833170891
94.570335388184 -73.822448730469 -68.179870605469 3.056541442871
69.022415161133 -68.126129150391 -69.174316406250 1.777570366859
-23.943344116211 -70.080284118652 -73.429321289063 1.512472152710
-97.917999267578 -72.267997741699 -84.965789794922 2.521407604218
-42.306808471680 -69.721740722656 -81.462760925293 2.215065240860
61.736656188965 -71.119682312012 -80.999633789063 3.110411882401
62.318737030029 -74.143119812012 -85.541473388672 3.126607418060
53.654724121094 -69.395111083984 -87.063278198242 1.343792676926
-58.746543884277 -68.097290039063 -89.087066650391 1.285426378250
67.001777648926 -68.153236389160 -88.856315612793 0.280432730913
43.676208496094 -74.389625549316 -97.352729797363 1.519410610199
68.523956298828 -73.378486633301 -94.289550781250 3.437734603882
-62.134403228760 -67.250411987305 -94.768501281738 2.692454576492
50.201366424561 -73.240699768066 -92.677207946777 2.348932266235
45.713253021240 -72.868263244629 -97.852279663086 1.135105729103
103.417808532715 -69.745643615723 -100.326431274414 2.098925113678
-66.417083740234 -68.795677185059 -97.597724914551 1.181756496429
110.636093139648 -71.994285583496 -100.201370239258 1.872338294983
-78.998748779297 -70.583396911621 -99.765625000000 1.391746997833
54.463432312012 -73.889633178711 -104.493583679199 1.980909705162
48.076793670654 -69.537727355957 -100.141998291016 2.296939373016
91.878318786621 -70.387306213379 -103.517700195313 0.608232259750
84.520240783691 -70.457244873047 -106.296363830566 2.614436149597
54.821407318115 -71.236389160156 -104.033203125000 1.298400282860
-76.309455871582 -69.096389770508 -109.717651367188 0.790856063366
-76.824478149414 -67.677673339844 -113.557418823242 1.694703817368
-80.445823669434 -69.516281127930 -116.956184387207 2.184305191040
-93.312721252441 -72.660369873047 -117.021881103516 1.932173252106
104.922126770020 -67.304893493652 -116.243171691895 2.138079166412
-88.476364135742 -70.423919677734 -117.575668334961 2.116870880127
-76.670265197754 -64.853309631348 -119.841148376465 1.869837284088
109.505065917969 -71.093421936035 -115.830589294434 1.155433297157
-61.491813659668 -61.482994079590 -116.698669433594 1.592103004456
113.500480651855 -75.475486755371 -131.280670166016 1.186267852783
109.884712219238 -73.498199462891 -129.224609375000 1.647076487541
107.149559020996 -73.120010375977 -125.585517883301 2.879021883011
-93.602050781250 -68.282051086426 -136.273025512695 2.483137130737
-47.209426879883 -68.682006835938 -140.582672119141 1.871801376343
-79.293586730957 -66.077735900879 -143.049392700195 4.070967197418
-69.540756225586 -68.206771850586 -147.620285034180 1.206838369370
-70.443405151367 -66.837356567383 -146.561233520508 0.768978416920
-55.335094451904 -67.892265319824 -142.348648071289 2.478593826294
-47.213752746582 -72.304557800293 -144.806854248047 1.442083001137
16.174913406372 -70.059898376465 -145.573333740234 2.612634897232
-94.259239196777 -64.809867858887 -141.337951660156 1.748323202133
-45.890205383301 -67.319496154785 -146.045532226563 2.210669755936
-52.249511718750 -62.812412261963 -146.357803344727 4.466694831848
-42.314998626709 -66.944686889648 -153.639160156250 1.884928345680
27.181592941284 -72.141693115234 -161.143707275391 2.012500047684
-50.269012451172 -68.876350402832 -149.733612060547 1.535804390907
-100.560737609863 -63.616043090820 -147.868148803711 1.660029530525
-45.539188385010 -65.824417114258 -155.569442749023 2.454365730286
25.454467773438 -72.028961181641 -147.412460327148 0.819178819656
-98.918113708496 -72.150985717773 -161.514404296875 3.404310464859
22.401214599609 -71.962471008301 -156.887176513672 2.780021905899
-107.931961059570 -64.586456298828 -168.219635009766 2.133920669556
-101.368095397949 -67.648612976074 -162.110824584961 2.042567729950
21.882226943970 -69.735992431641 -164.143936157227 1.323971509933
25.885852813721 -68.306121826172 -167.068954467773 1.863492250443
-108.700508117676 -69.196701049805 -172.061492919922 1.101678848267
-142.395553588867 -64.449821472168 -172.783172607422 2.781229496002
-20.275947570801 -69.192718505859 -188.345306396484 2.366342067719
-27.799558639526 -67.932792663574 -180.585327148438 1.904583811760
-115.760887145996 -68.029075622559 -185.367767333984 2.744442224503
-144.102981567383 -62.013339996338 -185.199798583984 1.870867252350
-103.729621887207 -64.557434082031 -180.053741455078 2.522335529327
-158.433166503906 -66.095008850098 -188.660827636719 5.203251838684
-131.759704589844 -70.456748962402 -193.578414916992 1.691745996475
-133.699127197266 -68.252090454102 -194.501281738281 1.498684525490
-20.232006072998 -67.132987976074 -188.374923706055 2.912439346313
-120.793426513672 -67.190032958984 -196.380416870117 2.029927968979
-117.401214599609 -63.502605438232 -197.356704711914 2.430655479431
-27.415506362915 -70.486503601074 -193.516265869141 2.333436727524
-154.729415893555 -63.633613586426 -196.048156738281 1.472072601318
-132.751785278320 -68.100112915039 -203.180480957031 1.199661612511
-125.378608703613 -64.414169311523 -202.865631103516 1.636136770248
17.579704284668 -71.395774841309 -201.059692382813 2.334224462509
-162.456039428711 -65.159561157227 -201.327880859375 0.520455241203
10.660369873047 -68.265068054199 -214.446517944336 1.995031714439
13.333690643311 -70.285156250000 -213.890884399414 1.636847496033
-17.480579376221 -65.287170410156 -208.004577636719 2.901501417160
-5.624362945557 -69.006538391113 -215.467346191406 2.276204586029
-170.489715576172 -62.938850402832 -208.419418334961 5.961597919464
-159.554672241211 -62.386829376221 -211.102798461914 5.376989364624
-95.281723022461 -66.750183105469 -217.041931152344 1.415580630302
-99.255371093750 -68.326141357422 -221.350936889648 1.663847923279
-161.570053100586 -65.949142456055 -223.362365722656 1.803203582764
-107.038040161133 -64.932601928711 -217.810745239258 4.872353076935
-12.613103866577 -67.185050964355 -213.242736816406 1.085321068764
-128.072906494141 -67.801040649414 -220.741226196289 4.169824600220
-142.738555908203 -66.548271179199 -222.392761230469 2.342130899429
-3.768789052963 -70.264595031738 -220.441680908203 1.256192564964
-134.887176513672 -64.517005920410 -223.143020629883 3.981905221939
-124.432456970215 -70.101654052734 -221.680450439453 3.588126897812
-115.002243041992 -68.454490661621 -223.269409179688 2.251345396042
-0.233520001173 -64.296310424805 -227.245025634766 3.893411874771
-107.889610290527 -65.126983642578 -229.218719482422 1.639081120491
-160.945388793945 -60.502716064453 -221.129135131836 6.149723529816
-147.275085449219 -64.885627746582 -225.090301513672 2.542184114456
-166.015426635742 -64.823585510254 -223.356948852539 3.050125122070
-8.584634780884 -68.196853637695 -225.793807983398 2.837611198425
-9.104245185852 -68.791442871094 -231.680221557617 1.610048294067
77.740837097168 -72.661499023438 -225.125457763672 0.659174621105
-0.831483006477 -70.704620361328 -228.670715332031 1.289117574692
-143.663345336914 -65.570190429688 -234.540924072266 2.555069446564
-14.879118919373 -67.020126342773 -228.241333007813 2.587210893631
73.389640808105 -70.723724365234 -227.648315429688 0.911501109600
73.956459045410 -70.799148559570 -232.704055786133 2.006320953369
-135.218292236328 -64.593284606934 -230.856689453125 0.535492002964
-158.077102661133 -67.924049377441 -226.716598510742 1.966811656952
-114.843383789063 -65.086708068848 -231.453308105469 1.199550747871
-125.324516296387 -62.083278656006 -234.084091186523 3.092208623886
-164.347793579102 -64.056121826172 -233.104217529297 4.159098625183
-160.786911010742 -65.733123779297 -233.974517822266 3.167462825775
-147.334548950195 -62.160152435303 -232.482406616211 0.716396450996
-13.444617271423 -67.548927307129 -234.417434692383 2.882852554321
-5.930253982544 -68.004974365234 -239.596847534180 2.203762292862
-161.408142089844 -63.846008300781 -238.935348510742 2.767484903336
4.720385074615 -69.724021911621 -237.385772705078 2.310368776321
2.110189914703 -69.547134399414 -235.830169677734 1.228095293045
-160.788543701172 -65.034042358398 -237.103210449219 2.376780986786
15.949885368347 -72.782096862793 -241.532699584961 2.065043449402
49.945842742920 -72.069625854492 -244.832672119141 1.433469057083
49.752838134766 -72.021835327148 -243.865890502930 1.036607980728
-16.797447204590 -69.395561218262 -246.018707275391 3.635356187820
47.401641845703 -68.591667175293 -248.595764160156 0.918949007988
-162.253662109375 -62.165863037109 -248.358825683594 6.154536247253
-159.941101074219 -65.483222961426 -245.753417968750 2.956315755844
-161.405731201172 -68.588943481445 -247.847412109375 2.089142799377
53.870918273926 -69.653343200684 -248.196746826172 1.004386305809
-93.084793090820 -65.549530029297 -251.430541992188 4.459284782410
-125.772720336914 -65.150459289551 -252.839096069336 2.050423145294
-106.856788635254 -70.263740539551 -252.258514404297 3.053733587265
25.531538009644 -72.805427551270 -256.785430908203 2.835500955582
40.412544250488 -67.664970397949 -250.553924560547 0.988245725632
-101.693298339844 -63.988208770752 -253.493087768555 4.664092063904
-94.501625061035 -62.710540771484 -250.226745605469 4.890158176422
44.384967803955 -73.287078857422 -253.949005126953 1.998100280762
41.255401611328 -68.008682250977 -256.099182128906 1.897680640221
-155.983261108398 -69.807968139648 -256.262878417969 1.078042864799
29.421585083008 -69.253715515137 -258.578308105469 1.568450450897
-144.005798339844 -68.290512084961 -262.668670654297 1.819532871246
-114.520729064941 -65.661628723145 -260.908050537109 1.553589820862
-138.068313598633 -64.549552917480 -260.889678955078 3.128379821777
30.166631698608 -68.948837280273 -262.093475341797 1.562939167023
-127.250221252441 -64.639877319336 -261.922180175781 1.293458461761
-12.302370071411 -67.187400817871 -257.188873291016 0.828417122364
20.320003509521 -72.022766113281 -270.322998046875 3.344282627106
-6.923072814941 -72.460105895996 -264.460266113281 5.754993438721
18.457624435425 -70.841094970703 -279.152954101563 1.676044106483
-154.572204589844 -66.906105041504 -280.706909179688 3.275502443314
-12.200950622559 -67.001693725586 -279.685516357422 2.256451368332
-154.458877563477 -68.505424499512 -280.784088134766 2.441816091537
-125.127906799316 -67.399139404297 -283.412445068359 2.730475902557
-161.907043457031 -70.606407165527 -284.501434326172 3.065062999725
-116.066314697266 -65.837692260742 -285.505401611328 4.243692398071
-105.803619384766 -66.416244506836 -288.041381835938 1.775116324425
-8.269352912903 -66.828117370605 -284.328125000000 2.713112115860
-109.689788818359 -67.329521179199 -287.677093505859 1.782709717751
-117.768775939941 -63.755893707275 -283.584808349609 6.066853046417
-121.578857421875 -62.878684997559 -289.968353271484 3.616217374802
-139.402313232422 -65.173973083496 -288.093231201172 2.571943521500
-127.553482055664 -63.387763977051 -289.829223632813 2.024899721146
-159.137985229492 -69.329803466797 -288.106201171875 2.624476671219
-148.185760498047 -63.406135559082 -290.992340087891 2.379469156265
-157.892150878906 -62.670532226563 -299.910034179688 6.457189559937
-155.633392333984 -63.307273864746 -309.197204589844 5.225237846375
-159.726104736328 -63.460643768311 -299.201110839844 7.421633720398
-143.274749755859 -66.133071899414 -308.843475341797 3.538519382477
-151.104415893555 -66.218269348145 -312.020294189453 1.851944088936
36.238269805908 -72.372581481934 -8.078307151794 3.587101697922
47.506011962891 -75.598182678223 -15.634797096252 4.819686412811
24.916067123413 -68.227210998535 -22.524259567261 2.652724981308
51.128845214844 -72.457344055176 -26.576129913330 1.599252223969
28.785800933838 -73.602760314941 -33.402427673340 1.303143262863
33.504833221436 -72.576362609863 -33.666488647461 3.744760513306
-57.015197753906 -65.309364318848 -45.899600982666 2.344496726990
80.448547363281 -68.386947631836 -60.511253356934 2.824367284775
