# This PCD file was generated using the MATLAB® pcwrite function
# from Computer Vision Toolbox®.
# .PCD v.7 - Point Cloud Data file format
VERSION .7
FIELDS x y z
SIZE 8 8 8
TYPE F F F
COUNT 1 1 1
WIDTH 810
HEIGHT 1
VIEWPOINT 0 0 0 1 0 0 0
POINTS 810
DATA ascii
-96.453975139372872 16.647353829255866 -98.583117864034833
-60.775918976097977 16.874785871959091 -100.303229152978645
-61.752676741284972 16.801107971389751 -98.836378910587612
-64.956323547236750 17.545567271218559 -100.237544614116061
-62.675854788654298 16.871500516448762 -102.233357601113880
-96.129091225535049 18.962969712928217 -100.199796969006243
-67.011064908862849 19.328494886219740 -101.630990516779221
-95.892034411374595 20.056410992287155 -101.781634279242184
-69.607734358913092 23.657346437625026 -106.193458839312029
-93.490438272041956 23.652687329039633 -109.344158383904755
-91.193988520467812 24.659036587899536 -108.282420487834784
-82.486758302545368 20.851005245749587 -108.957539406011122
-91.712768867962438 21.692303921702475 -111.376705944169302
-84.850846593187228 23.714939330647752 -110.523109177392925
-74.717947700355097 -2.830335121006436 -58.520325193322847
-80.372626239701617 -2.134563434630698 -60.585250609125914
-76.811224405653306 -3.316694758062941 -60.500150192852566
-68.699733454790390 -4.398613479445032 -60.654092341011619
-84.489004587045997 -2.976881179641229 -62.837918846415100
-63.388490557713276 -2.739049369572265 -64.225592370366371
-88.589916612190379 -3.812290821252343 -63.683399420318878
-90.802690481783898 -3.406547275243417 -64.145477314151947
-91.940103166711040 -0.167293846753880 -66.053845434998252
-58.041796641846545 1.993967134908152 -68.020908963109022
-93.767300741897216 0.036430527979027 -69.269275551006331
-56.993160915541139 -0.840775913917979 -69.633210425590391
-97.258987316844539 1.092590540935391 -68.509033361541285
-95.762406673264223 1.890068868298566 -70.714161697411029
-57.629754637864934 2.378313455734885 -70.463024581979937
-96.003740412563914 1.570349396330970 -70.651040820410884
-95.520971255913011 1.555120445511037 -73.019540071173438
-58.709501676096359 2.660717496874203 -71.607358407861156
-98.824051049834225 1.810075855382015 -74.097000264147027
-59.491676245197070 3.468419761409846 -73.911096570753159
-96.454882799951562 7.345243407544531 -75.322955877851854
-96.150729739914539 7.440404576769697 -79.796032566185332
-96.958922625279470 6.111807594081835 -80.437782756876004
-57.878240187729787 7.560357464670180 -78.406876141451079
-55.974298210724214 8.501504928536681 -80.137674956311471
-99.025629919702752 8.156536161476183 -82.801712828709213
-57.019403059938909 10.020793132149388 -82.728386521760797
-98.549166496224004 10.257437830622543 -84.880084006029733
-56.595252205815832 10.166274432245155 -85.602002718137939
-99.711229769365744 11.619990793503714 -85.806030560812530
-58.358768352833899 9.648761893325544 -84.508217486730857
-97.770027544020365 10.590393653691040 -88.041285051379319
-57.912058846211735 13.367949334398226 -88.689860693339213
-58.912738180907596 12.538235966514767 -92.690265791480641
-56.855399092661578 15.096805498760416 -93.166853215861579
-98.490017901984658 15.027517129204805 -93.988667863026294
-62.329232106558024 14.811817845704203 -94.584717723673592
-61.101608164750999 18.587917972743913 -96.688985560188712
-63.499613343738865 16.593789367189100 -97.049802794067034
-97.587151736202983 17.904123349462900 -97.691266529417533
-63.150279971042686 17.969904451297673 -101.610575601318416
-95.897686504118070 21.857201106954040 -104.370255063860071
-65.740665294507082 20.642501760378664 -103.773179952519087
-95.433191015946690 22.207734522585145 -105.634372028912395
-67.134001259706594 20.581955171828426 -102.942973144631296
-67.055508905719094 21.763101926867552 -102.539041889099423
-69.444680244847163 21.488383028847839 -104.665453186458905
-94.590119340878601 24.065551305312006 -103.551581583844936
-93.821858248765508 20.392262042915252 -106.287499104353216
-94.790046649280626 22.396338179468337 -107.004729852918729
-77.401490039703347 25.101594423596708 -106.506554977560327
-79.682114112749659 24.091016569283017 -108.009070388532777
-89.096552183731035 25.252594679468814 -108.843486308726895
-89.203993554273580 26.304924745949130 -109.173492774036191
-82.028016771299008 23.140342424110891 -107.208052270963506
-90.467749781409381 24.917321843168505 -110.413712646393606
-82.653427773052940 24.685003790114408 -110.480321010916853
-85.720360929262782 24.960968032024038 -108.741249892800141
-86.553412301234204 26.927383870226542 -112.550666539756477
-74.397315413603962 -2.240308446101583 -59.027028121316945
-70.730300067213548 -3.951735321422472 -59.754768034118733
-81.360719923280755 -3.380404871161938 -61.223339189064596
-82.358149114550059 -0.608744892905037 -63.313659582869548
-65.758111701197706 -3.929685619298065 -62.624053259616382
-90.171736668010396 -1.872673283521415 -65.395488357803217
-59.410053163079326 -0.301301499607197 -66.277247398822169
-93.747817838578257 2.685039231546747 -69.205670609263279
-59.910127161603562 0.146361731406464 -68.277283825419175
-96.027785042539918 2.060881847318070 -69.658381251393934
-95.638686547247872 4.178079766229491 -72.440265877258952
-95.449264217304332 7.125709173291298 -73.158371450220670
-58.317187871582313 6.251811515627213 -75.651790904979464
-97.874904477405451 4.549074258602011 -75.199711792557977
-55.994348522664737 8.271884102168210 -75.376104331748067
-97.531878223484583 8.536595196186990 -76.421227350698544
-57.765196701608239 7.549523446338148 -76.434978859358139
-98.636914660027230 8.927995054062199 -82.660795624823422
-57.702556081472736 10.442092339278608 -83.724574648286847
-55.978901871059598 9.428664242496536 -85.357521971055391
-58.650683969678937 12.387525227233386 -84.477601978233878
-58.434867252747225 15.872933886431424 -90.557575105598062
-97.119140475710509 15.517175291147385 -87.908194084447331
-96.704419805218734 15.868347734124095 -90.779804695600788
-98.586036034469799 15.360431192682039 -91.729846510860057
-58.218940169149427 13.864470640550589 -95.701630407431693
-96.958144373690487 15.745037232151395 -93.629107240232770
-59.531307762144017 17.417761617713285 -98.334676505804268
-61.075925912815727 18.416811518459955 -96.609576632040515
-94.873305378831759 16.250295457492157 -97.832909236708005
-65.435729758471552 18.346411542595160 -100.318833691957920
-63.622252819299973 19.966706402856978 -99.779135910546785
-94.702997954311698 21.553888395604126 -101.629257594852817
-64.649408837458395 20.902002876592658 -101.490499858311367
-63.368177245348136 20.094925278858174 -102.239140166799714
-65.127055362769568 20.246865957451174 -101.895177264842516
-94.612366913734576 22.021909563962101 -103.107325593480638
-94.384761663802934 22.005105286341824 -105.478019822814232
-68.673610331991227 20.855932307116930 -103.654638885950973
-91.730717318988610 23.178756068518080 -104.657249498131222
-72.837993119622809 24.033972790874227 -106.968767001207766
-91.550054532783790 24.345441336538922 -105.131570689234422
-76.735230262429582 25.739515253101029 -108.719961157619551
-89.824248129823246 27.120426733812412 -108.241518081488422
-81.900954010283172 24.839795658495330 -108.665006878027270
-83.382827533428994 25.174533134464269 -108.051764012789548
-88.996793926833988 26.333805317358202 -112.475485017796757
-85.855057805913347 26.013531227515315 -109.580047789555550
-87.160245090594117 24.815925641073569 -108.466560744090927
-77.287912896865407 -0.249415479109828 -61.823688865308952
-70.455415772899372 -1.199057020717387 -60.290277327810870
-80.654377302137632 -1.478593784903342 -60.905727689935162
-66.229067709299642 -1.759067777509401 -61.514574721847744
-86.061436408903887 -0.554666177406790 -61.747651531029526
-82.405597913194470 1.553439569879141 -60.799056260150266
-64.608966131835658 -0.621004383776638 -61.046024265783288
-86.178389016881184 -1.246911774777358 -65.133580115687252
-62.570193842225152 -0.859020637215202 -64.030664951983127
-84.916753547069433 1.192294902287935 -61.756688386027420
-89.890566560462645 0.059993044766110 -67.163737445012956
-59.928045032722061 0.386402630178736 -66.146515660693240
-90.197994411577127 0.292849875891500 -64.769823503991304
-93.161493776257771 1.032756216969733 -66.199348654357550
-57.905214324079388 1.302815737052309 -66.696071399809512
-61.024563175314157 1.989885355957917 -65.300075099990835
-59.898265448716174 3.332959278011058 -67.533069554807952
-94.680076870287976 1.584937762588063 -69.794017408926692
-58.460490610246957 4.022896839952539 -67.626145824518645
-95.348700753654910 4.414388924727360 -69.088999162324626
-59.330699875103704 1.147661833332148 -72.132593037157278
-56.087873181779159 5.829642274068388 -72.370301391982295
-96.584619392032678 6.228701208068080 -73.443529607734519
-95.125761581215897 7.496913791956785 -71.909100210680549
-57.676149502558729 7.241768252713650 -71.903229172386062
-56.825820731207280 5.947998801607040 -73.537601800594160
-57.460147214745739 5.631958255008699 -74.759287654550889
-97.856045011569392 6.591199463344826 -79.002359287004452
-96.196457242436864 13.468216252232338 -82.071184328208815
-97.113647489147453 10.273109312727746 -83.349413851827208
-97.796024422476279 13.498676405586073 -85.470748823733501
-96.649562968302405 13.511016215292114 -88.890038607067567
-57.420517100099566 12.100527148086838 -85.624626669042925
-57.796648774599497 13.557776200157294 -87.051147525542248
-59.587093123417255 14.360951645856749 -87.829536910555774
-59.455925152602020 17.720462653385628 -91.306533736104797
-58.660460952017402 17.014026978034625 -93.581855462931912
-96.059541867477179 17.415804586204487 -91.234925137074654
-95.473668168761151 18.273542789054932 -95.531720117853581
-60.869930721828133 18.520063254306262 -96.288212036313752
-94.792710804028516 21.238512659025449 -100.018537860182420
-95.313427076804103 22.295120675439520 -97.463892504470920
-64.391264549551508 22.372943968402115 -102.751201718354082
-68.928294046339232 23.950865243656434 -105.147040481007068
-92.630318650922959 26.729820656854258 -103.764402341757560
-92.348201869671925 23.299937632623077 -103.271467991491718
-74.349946977057300 25.123249006544189 -105.652195426329712
-89.781592242771765 24.759158862007222 -106.976665806459437
-75.595316182807991 25.145025287873160 -107.029161205212063
-90.404973902258860 25.586394161529434 -107.234499768660982
-77.838578486885567 23.667933400821532 -106.129568230151023
-88.885918558761361 25.920426158210343 -107.197625683319799
-88.054804620394862 26.543715457320015 -108.495202900270499
-79.971909643139725 25.885095057345779 -108.570324529229893
-83.712419842672233 26.001164677907127 -108.556665479281406
-75.685240948453838 1.222972531723920 -59.770584046143355
-77.299652052666133 -0.546148687005429 -60.728709941498032
-74.416830544074685 -2.048215960277408 -58.963431079547284
-78.910084231937674 -0.035722029719112 -60.315076113925315
-66.496301735379220 -0.695624929230259 -62.419522578433586
-83.416820380833286 0.435447976006028 -63.342931680113622
-87.029450669825763 -2.138818426481623 -62.458238885888811
-63.067664268292063 0.036050255517684 -62.184940453509860
-86.758962817306241 2.825592081167844 -64.673854962255277
-60.744391936697475 1.391058117925126 -65.771849901787149
-90.588852049538914 -0.483830541998308 -62.863974083129975
-91.640517971538785 1.598017856338876 -65.395504845711500
-62.093340881044270 3.936550442665523 -64.050428589497685
-60.937194222527921 2.916805451146200 -63.747881655533021
-92.657259935594780 2.328572906334704 -66.294522263773061
-59.270625991560593 2.752541940107859 -65.762808323523316
-93.499946763237261 1.878589841507040 -71.188723861549988
-93.971584162185508 3.801377222552837 -67.471753593306360
-94.576256247167706 3.214895199025007 -68.720180242496724
-96.068639785648884 7.444420611411529 -70.406229890411268
-59.110227069550476 3.366445708593384 -71.848151101873171
-59.279574275489793 4.610147549061351 -71.851247439206361
-96.994934904648773 6.670199948268578 -71.386512590362386
-57.624428793628908 8.949157135121819 -74.159236560606018
-96.122625108270412 10.669020108244597 -75.524535728575160
-98.505962861712888 7.599535742806461 -75.345715755849312
-57.617215685218135 6.862102434877992 -77.158896263170718
-97.634340601102394 10.546732058797248 -80.387224239583347
-57.773973451128001 13.405816155629408 -82.869187869649579
-55.980769102583700 12.666987295362530 -83.363613800685599
-97.510806569038209 14.833745829470299 -85.440496959328499
-57.915356198894251 14.959669647448406 -86.453765891017099
-56.963207991418287 15.658704989578403 -88.758670841540365
-59.505731203823387 15.831980195356389 -90.135455004856979
-60.133677401788873 17.062145873861652 -90.199266384577584
-61.462608853927641 18.487252025819362 -94.005183124440535
-61.679896198648542 19.088562067870196 -93.161160006078021
-94.263585378462864 20.547986616744122 -92.897259414503097
-62.346878616599653 19.297461429354591 -96.446736233014519
-62.835864776077770 20.133885774611048 -97.152939336374999
-63.814373410617186 18.816044602817449 -99.757521966822509
-95.653759628125457 20.706427961196766 -97.730291635690250
-61.303667272609047 21.083908751046202 -98.611815491826590
-94.997863714577235 22.524411471556796 -97.380147840737422
-94.127260775945757 23.820122225657315 -96.668156134857284
-62.339638056131783 22.040416951116836 -96.138310390936169
-66.998546651960382 22.325753461800872 -101.712083302683411
-65.794003477262095 22.109209790596051 -101.426098180812133
-92.715190602632489 24.263347940128849 -103.422410775466872
-91.862362210491710 24.582003211964565 -103.433397334598354
-68.012793331809888 23.651571336882480 -104.178427818036127
-89.730670037165993 24.462723750332778 -104.382287022345693
-73.250101683574769 24.321686648474227 -103.685645021626328
-90.340795079922032 28.307818573712073 -105.800127969481110
-75.143379381498335 26.884267068685268 -106.219144508709860
-79.516929783167456 26.326267293690943 -105.975064313207099
-86.098558858588234 25.720023159047610 -105.976593020020701
-81.916823079429562 25.689391376200049 -105.477504938879250
-84.850790986082231 28.400292909823889 -105.193921936308826
-82.482412662369612 28.570707299424054 -106.085194257755489
-77.043365489338356 0.431575722304350 -61.325428515720517
-74.282166910993780 -0.959093484154292 -61.834011598002057
-72.585320048662282 -0.894725863190510 -60.785317902131055
-78.638453488872798 0.552315258418420 -60.711303251169049
-67.783456217918541 2.864733104813247 -61.455042590779044
-84.485249527306607 1.752217542920845 -63.169772286940443
-82.280022052101714 2.195395753746534 -61.546173722391458
-84.412472468041898 1.207498295536759 -63.704479997733912
-87.138570793774178 2.586387895153243 -62.885148703840770
-62.710323453665346 1.744119706511478 -61.407927908474548
-60.592137408128352 3.723162656285069 -65.284541371084757
-61.035475317023490 3.733068402779752 -67.053890849236424
-61.237787186900569 5.121416541260202 -67.904233975107999
-93.782732829635137 6.921372294729043 -65.149379560862499
-58.937058694150693 4.564090733626517 -69.134025230599065
-59.562157779393019 7.835798677356955 -67.760465030513828
-59.801203357011083 5.922008014099863 -70.203396296526932
-95.387032725566115 6.218935917344144 -70.219060331861570
-59.638374056109491 5.574796446084568 -72.173214065918629
-58.067660724974829 5.851708266362361 -72.883336484595276
-96.641789956547470 8.254434712552632 -74.103314607084116
-95.496121785506745 10.242351896735432 -74.843665823299474
-97.142279884521258 10.962828904664036 -78.945337011643815
-58.129489160544331 8.952652420148423 -76.736602791060875
-98.534869083442317 11.891449144053976 -77.922972946674221
-56.978519261789899 9.680593562419190 -78.801969262706123
-98.180951141581971 12.618455525583631 -80.121656861555763
-57.446105850496899 13.566014307396165 -82.428535223570194
-58.399602019467757 13.815605246221896 -83.847653926527897
-57.672667188808603 16.927197879164495 -86.195661828748072
-60.220927389182741 16.734489464499195 -88.846995426766952
-95.736225856574151 15.976386792619838 -87.468146075641542
-96.018243412557936 18.060866028387945 -89.887356559429904
-95.511811767807842 18.686888787437510 -91.475298491707903
-60.746865376023159 17.956208815770733 -93.776840127448253
-95.304523681782428 20.139146515368616 -93.947635373157539
-63.345754877494151 23.280125200459608 -98.977019965342407
-94.500164124947148 22.301142778884316 -98.410104122359613
-64.692436338769326 21.497166455728383 -98.528449902749983
-89.049505891572068 26.123402189465960 -100.856609200675081
-67.545162516669350 24.466019778942009 -102.708791489306094
-67.848036374226481 24.287770663042615 -102.770074319085126
-93.396426591477422 24.939260060744672 -104.154529856741377
-70.733208611546516 26.625655650095688 -105.130343119030300
-87.689937646414961 24.732988476371350 -102.130457892985689
-89.469183080777128 25.208766984878554 -102.650896801195742
-73.973445146661277 25.946778801135700 -104.265632750058302
-89.045296053063169 24.808570704433674 -105.131506657209357
-87.679974214566315 25.990325590383662 -104.945046211140763
-75.313331432985493 24.744167303748934 -106.963646737773360
-86.001256644530699 26.993410238166582 -105.751477321212917
-79.129895113369102 26.178178821598774 -106.369760579500777
-84.976600950240694 27.274041536329477 -105.785007700174930
-79.077795003600414 2.231911800949603 -59.963633981579058
-81.430270023686319 2.587238864720526 -61.948101905597724
-74.154926083121296 0.809576694617372 -58.433364638793620
-71.208474876163791 1.089296924410069 -59.761677564045428
-84.985041965565813 1.939878988051873 -61.333135306760447
-67.039638055130069 3.223239873914879 -60.326606224462154
-86.648503624621313 3.321920064118257 -61.123456905674715
-84.301016936128036 3.109571595843514 -63.045655877361270
-86.169422622570877 6.443688189643022 -63.992349524461304
-61.312785727677827 2.522368720422183 -61.831992486681138
-88.057341828729804 4.579321133107673 -62.635227417486547
-90.200890217233862 1.989409450239341 -64.378098490347782
-90.706316199809322 3.383427309729635 -64.951882652774145
-90.050843982356682 3.228838473895749 -66.813857467793454
-92.461310684180958 6.531318533239665 -66.090345579529682
-92.177901079396008 3.915097516247892 -67.629722517985115
-59.953499364659550 4.773940412326474 -67.866174992420127
-91.689242963853332 6.432932281586885 -67.625366854379735
-58.401910618242283 5.537897296526241 -67.401374640148589
-57.147510169472660 7.035160226319030 -69.397044789974103
-95.012797937125285 8.003013911998865 -71.750827948392995
-57.752445416368310 7.824486843242945 -75.213963107817008
-56.943218779157363 9.960085984114199 -75.087674774456744
-56.578062383409723 11.732746111458214 -75.420804900255519
-58.418907439759529 10.071773460244081 -78.688807528784452
-56.857999716603821 12.491386587791254 -77.617569604599822
-57.121929953040933 13.022638971957914 -81.234408677827943
-56.545637245138856 13.156525572634845 -81.989955021220567
-95.621516479025729 14.649537625007778 -84.683621689159523
-97.198022267191490 16.785876764620451 -85.522091127629864
-57.062388728113206 16.643913796781970 -83.200975785196647
-94.998391724185453 17.284358347035873 -84.666643363025457
-97.973439104729337 17.428457047141741 -89.007275276309969
-59.580228779061038 18.701975888135546 -88.377612064002577
-59.309525790082347 18.906017428444020 -90.661257794077272
-62.778179407268823 18.635563259029443 -91.425251525446313
-95.482847284251548 18.604200599963818 -92.880430536626776
-61.956149632463749 20.643549275690908 -94.086770592054918
-62.477952863249058 21.226905480050661 -96.843136501820354
-93.627149052509665 21.025033519337057 -94.782744511496404
-63.882177267038713 25.118095492128202 -97.035286068311294
-67.028949953136262 25.775562434932471 -96.350167960837197
-92.465894264058150 25.968571317627330 -99.368682516461291
-94.399606984620704 23.676492233191588 -100.335793439449603
-66.136010095420616 23.084481856214087 -100.545293380594302
-89.429667417365422 24.568801243285368 -101.679363957141490
-65.859052810668189 24.187246913186872 -102.311682863248649
-92.107819507673483 25.549037006815436 -102.235442197653256
-67.186602204554148 26.064390539984359 -100.568341159949142
-89.874450153472608 24.477277041259168 -102.087715893801615
-87.045224813058155 25.704746184786639 -102.200287156244997
-75.160431213785401 26.676179764451923 -105.165259544869841
-85.986357863431152 26.399996644251242 -104.579946785443340
-85.774988091205373 27.439476583262167 -105.066690886798270
-76.287693230836325 26.803695920013322 -105.149467233560159
-84.069274497166063 28.108959990376025 -105.616237143570416
-80.860504588431624 28.368461264944983 -105.059070519536064
-77.876002855973667 28.760766860108010 -104.534274282073611
-83.778543574460059 27.708207910679562 -104.451367179577645
-78.197856808145474 3.001932008355086 -61.387042973172996
-73.642979518495139 4.312288873528479 -60.155745674573765
-72.738769629294268 3.699476329799413 -62.099321382164817
-79.094806105972339 4.123817957602505 -61.858470545532271
-80.365354307012836 4.120517892249866 -60.243753685324329
-85.633930873689422 3.639079406010637 -60.677010277318260
-61.410671625847414 4.402084639947562 -65.985036815169380
-88.412817689411852 4.844989861744391 -64.305619266102141
-89.384977657845411 5.457355791758016 -64.438062794523375
-60.718800304314712 7.547522293082765 -65.614600950598145
-60.235043561795642 6.786094814403993 -65.905945316879126
-59.341783194126485 6.290451304840392 -66.391502650137809
-93.647453640944704 5.740181374475826 -69.841419613823930
-93.015833896439716 7.525433593155618 -67.282121062523899
-91.427972157804447 9.113087121776836 -68.117584532119494
-59.486197349704632 8.303036279326292 -68.144990238974657
-58.919882233871370 8.248161701176601 -70.338172960929882
-95.528963046367465 9.540416829825467 -71.151543839794655
-59.689604658836217 9.111814808682436 -74.127415511713110
-93.744380024747457 9.283780135602532 -73.813426223661381
-96.704815321616678 9.487896928161174 -76.040322815444341
-57.298443323232810 9.904860361563138 -72.612549823685185
-96.500583173510563 12.712386170518954 -76.482369678197799
-57.909242958098346 12.832420712826597 -78.035331736056420
-57.270084661239679 12.669168931749295 -79.181834920751214
-57.873711156945632 13.993253630283261 -79.834983145759523
-96.310312567963265 16.036064109682002 -81.880891090335467
-97.438965412665254 14.173648813543306 -82.899531005427434
-95.062495067652435 15.827960376382849 -82.839143347680164
-58.777571271817934 16.020220441679662 -83.731968788360774
-61.415922144690356 16.357594257621951 -86.615958418978536
-58.524797159694621 15.865696895640131 -86.021580023837501
-96.591331522984817 16.792117078773160 -86.979793062763022
-58.279637332667861 17.740816666068934 -86.991358515214429
-60.631924067651028 18.799796651879795 -86.813155280759986
-96.898258561296203 18.788038329717612 -89.016543032930969
-60.650214320317012 20.941918445458953 -91.563750495375899
-93.798545699697144 19.905485359982258 -90.350844439301980
-63.188227192475324 20.960619023829111 -92.786333606343831
-92.860265900309443 22.749767196368243 -91.942479008727460
-93.775107162034942 22.327672759854689 -96.488704390532746
-63.307372896880445 22.446111061462599 -94.683152084645315
-92.945571908268633 23.498754020607667 -96.608091963202625
-63.278812622031943 22.997240598756971 -95.279126627886257
-92.919455623660326 25.716014980609366 -96.945758610828420
-66.475622849723422 24.735712297761619 -98.733816057971424
-92.238903689789495 25.888216210546400 -99.265424642848188
-90.460450216069447 26.484582864581640 -99.341211916717384
-67.356093196794603 26.898224816841864 -99.529445526613102
-86.388343597896693 27.613122117457767 -99.995820850302565
-68.965463134488502 26.254674070929969 -101.763002339748141
-87.846593748308138 27.213145543702424 -101.245027120054502
-73.027994073870758 25.205298910426482 -102.332186826261392
-86.648914458780496 28.759204070491499 -105.514189927980652
-71.614279417412703 27.865132567826187 -103.632891791615492
-72.673641324971754 29.445086142479354 -103.228787395313688
-84.062699905601420 25.887751880715861 -103.012176371641871
-78.663884136268081 28.392273020277560 -103.333098501336607
-80.301880554463921 27.946175206734875 -102.819502957705353
-82.712266882512310 27.407261851879049 -103.901813998365938
-79.307183067857679 30.020928533373599 -103.361300458743486
-70.402581583667029 4.048659793940105 -61.446822215471343
-78.816847745912852 4.410818735516305 -60.484156678785297
-76.388384206563458 4.418119887133825 -60.442340433522432
-84.300688602950814 6.248581084421005 -61.756329222513223
-62.658313934634783 5.668827692044404 -60.846884938615439
-84.691119480539896 7.771504378372418 -61.955048470748807
-60.819474707201117 4.496855685833274 -64.426296107180562
-59.635279575626633 8.925689193195288 -67.943039459066085
-59.232340030027594 7.793600023421090 -67.749059922266838
-91.699366786025607 7.509774267964286 -69.821853084937047
-90.875663042529084 6.975413102041132 -65.625140488531670
-92.796362949796503 11.002026531049985 -69.671093088384666
-61.798870807431051 10.932459222452577 -70.152097044941428
-57.933664629748513 10.329014673176886 -71.277804189073393
-94.809207243874951 9.602007631571531 -71.818129230740013
-95.572316260136091 12.483271481423058 -73.612546953667774
-57.126791609166304 12.363206768788411 -73.675156904259126
-95.412335971535626 13.726162271247590 -76.268762902584896
-60.366495454565744 13.876833128497177 -78.654793500531866
-58.144955407580980 15.229216769605294 -79.561248446552497
-60.354976722459703 15.223470642805516 -83.044718117949159
-59.818502848283359 18.142965945065601 -82.801737737014278
-94.438864778716621 18.629837286221239 -86.592868081887104
-61.690011259557906 20.345798685277256 -86.401028665106352
-96.941986674333705 17.936673289798602 -86.627593515114356
-93.473441336131188 20.896459438868238 -88.825883079232597
-60.394204559617101 19.359303873834932 -90.496014753256091
-93.577763403342473 21.648743304594273 -88.224628467433263
-61.968000544292366 21.475677514589314 -91.167390999681515
-94.808321210210906 20.785259229221822 -92.956072427356347
-62.055704193332225 22.428663119760362 -91.154928697214345
-63.603671131747937 23.064275108070891 -95.026759168021158
-65.009489551451594 22.601067905501438 -92.498720932723231
-91.687035925780592 25.513577801280928 -94.885595290537594
-93.607376952386588 23.503811290244421 -96.125242381638515
-89.873928741648200 26.640906911550903 -100.697199957342306
-88.860669386408745 29.186854564563752 -97.742112194488413
-67.985554931540833 25.777472874430106 -99.102965248043020
-71.071388485880789 27.714719211142643 -100.200572319723435
-72.598463775365474 27.684793623774127 -100.405154961509751
-69.858360798354013 29.762823772086939 -100.834273095270959
-82.079209106780837 29.279593396905369 -101.366283391641986
-83.618927535251004 28.137471321176633 -101.066213182675611
-83.347517387401197 28.795461562435907 -101.050722038728267
-75.299770818967033 28.085534272434501 -100.876751808556250
-77.991048063441326 27.414333204645448 -102.593064154122160
-71.400513859214470 5.606203348159811 -60.065070647047207
-80.042348030722152 4.860955676188403 -60.058966665373880
-78.663683142499622 4.714112646173837 -60.901652785009702
-74.937445836434520 4.521744789121907 -61.937623851920272
-80.254035003597210 4.994702008855307 -62.256142894060190
-67.121549709597389 5.355532932584866 -60.711831826395418
-67.182637272825602 7.367168544131079 -60.995876152433702
-83.246914241127556 5.602328675808942 -62.043406178232694
-83.817935614765787 5.142951123391878 -65.365644545151738
-63.773112553141047 8.438946108678985 -61.645112666064847
-86.590483105092417 7.951909306887917 -63.596839349341209
-62.713197404751483 3.933244974358688 -62.378012209340930
-85.069311375787592 5.886330049222040 -63.720922635619104
-89.239091862115018 5.322313434533511 -63.302046308298557
-62.489969383436410 7.248178400068959 -65.260851722462391
-86.920789788983058 8.644135593103176 -64.876575879938727
-91.755305430572690 5.661955665978776 -66.302306498608033
-87.443704687161926 9.232351475278845 -66.187140431385572
-59.656459571600607 7.880793970141227 -66.759994372757703
-61.360716212892129 7.758241654236428 -66.473632883378770
-89.994915093359566 8.167176817961550 -66.695476633359505
-92.901364184558986 10.027880361712048 -66.619132854283578
-58.154426228093918 9.653006109400419 -65.266464046194699
-92.761476781190552 9.144039695115334 -68.641286553338034
-57.595045294169950 10.806819693349750 -71.472935980911714
-94.540996417126976 10.909395821976931 -71.086500849602089
-58.170146893682116 13.442150334708844 -72.039921512887148
-94.870014438736234 14.396605800445819 -73.464813689632095
-95.782037374582544 13.018044517505087 -76.632719482176867
-58.048731073199342 14.251352180341343 -78.090683781631668
-97.589722071675467 15.368833643365992 -78.127567901572164
-96.388955594894355 15.730657899696528 -79.241359943293361
-94.027308412934445 17.514389102653432 -78.037627597675112
-94.706090205258334 16.833616285339254 -78.252122517146006
-95.685097763250482 19.530600544457190 -81.030967513082999
-58.210738931635333 17.897761125078450 -81.713181608338587
-60.147529843917070 19.049231335809512 -83.532631134345877
-95.150879798014458 16.857465773281334 -82.886604095511629
-94.086608969176581 19.865938934288760 -83.102387828364755
-59.371520614839042 18.890470070645410 -85.056523444975753
-94.548015715452919 19.657329490520628 -87.040409379935369
-92.909758998550942 21.561188549101939 -86.387264198690502
-60.896917508717372 20.574821901433673 -88.136559454816194
-92.735256850961434 20.880483816267279 -89.477388394014042
-61.086132605579500 20.350464782613184 -91.506714152794686
-94.544814601744505 22.049858532830523 -92.337140761210392
-66.367320654410918 25.138844875220972 -91.962908172044607
-91.852300644801929 24.179533502626917 -91.413842567772193
-64.300162734479301 24.369075414004552 -94.326623931085351
-92.506250663354677 22.512373776181867 -93.756893631202942
-64.429135675262643 24.869724816837618 -93.249318039744225
-65.335002862427629 25.675601033311001 -94.795490961417698
-90.760083753067221 25.516778395601278 -91.869524917294740
-89.659426038121097 24.719227881910037 -95.388803145860393
-64.755472006240126 25.213647109627846 -97.346484645666294
-89.275620206938513 24.552967536292062 -97.266356163439795
-89.603772596364820 26.308652653060395 -94.357693157045063
-68.362780205210299 26.725545120462371 -98.442641602582142
-86.849214144747350 27.810526452435486 -98.904119611600152
-89.121940096664687 27.445230116166204 -100.035469026976017
-68.364146687366514 26.857431428286947 -98.405484031319943
-86.690937135032925 28.176744318795340 -100.204412095086127
-85.819996064724350 29.645537130224287 -99.875842256018529
-81.237108648225231 28.744691245893609 -100.209747066182672
-71.607860316155652 30.363288825188913 -102.341172338219550
-84.512518640621991 29.384313706256659 -100.415016065658406
-77.369641454927333 30.421757175730871 -98.836199940632952
-80.921381909045834 31.686212277401069 -103.077067466886902
-77.616115109119221 27.718702338678472 -101.851003992228229
-76.035937560331192 28.508277040120841 -100.535667925372934
-80.371485644052356 5.698801656452130 -61.137511235214106
-76.220568687956714 6.642547141988739 -61.070357532155562
-73.983446552724089 5.939009164444230 -61.402495203821346
-71.294796948106793 4.125363367218047 -61.468385572616292
-77.876241083293976 9.194135020082530 -61.659965968556200
-74.384363911104600 7.369168128079740 -60.875385561385762
-69.623462339829032 7.330215277167512 -61.483331094882239
-77.877617763366032 8.877023712734861 -61.272903508342644
-69.488284057549180 7.082090925208097 -60.028398884905165
-80.873539100266200 8.590985430683656 -62.511660755196893
-83.084443905253579 6.683641238023879 -62.641858410689451
-61.628249015456568 10.101820030174823 -63.832405769574095
-85.857722621855004 9.376116597171384 -63.910612113569627
-83.968910122182251 9.692700995393579 -64.478664988818934
-87.192660303021597 9.474865198543283 -65.985579165509449
-61.102006751565170 10.573662922256219 -65.909490247569593
-87.424684325719909 8.271948007859635 -65.095897465130946
-61.459764550339706 9.306543708027361 -64.421773910395459
-91.236511598938861 12.211095574467796 -67.075199121953517
-59.736022733908463 10.971689938905433 -68.576333357011961
-91.023738662799502 11.495718576743680 -69.399092530420134
-91.735391315972194 11.606906348012080 -69.389696409377777
-93.432979353689319 12.881579365874629 -70.063029446795468
-58.992581849255700 11.824685808123030 -71.164994948036153
-92.060721653895456 14.821690672967854 -72.698325793315107
-93.866054482218658 14.414604614512804 -73.475588174584345
-59.324900417220903 13.237569843605622 -73.933868894669260
-59.220168292617359 12.047101985691036 -76.343308666703862
-94.190625944909328 13.846692422753396 -74.689583999433552
-93.566564467713022 14.836885980586274 -75.462684799156591
-61.112176212941812 16.847890229278882 -76.837355809242510
-59.712438249595131 15.705528069088986 -78.963923184621450
-60.054775367011814 19.668343972758411 -80.745582438233711
-61.035617402116699 18.318649626036557 -81.505613721668581
-92.602253144578711 19.234750268785927 -82.150939610153998
-62.002024392829533 19.800904865165347 -84.550624848262842
-94.237077309079510 19.178668355849656 -86.728026844034730
-61.566825805939487 20.564080513071737 -87.611787738748703
-63.017269572964643 20.839836351530536 -87.232754986462353
-92.251955155860330 23.915985060891060 -90.155925620277841
-64.290167540253108 22.579708241061507 -88.409018413911269
-64.495789962631918 22.561827720766900 -87.429670312621468
-65.650940855509049 24.559537685738675 -90.230740078100169
-64.631597037059777 21.927623491915856 -93.327592785431008
-90.017587140908503 24.245582247826814 -91.535144174264801
-90.039632603839479 23.832284378324704 -92.550234862271296
-63.923447528701878 25.659091868826341 -90.582426634174865
-66.898689082505072 25.285188761603333 -94.708390127233727
-67.932840619467299 27.951912841803455 -96.616607264683594
-86.367594214489628 27.291342928435462 -94.425786321875194
-87.450952083606225 28.714413223145467 -97.401095357097788
-85.747097306172236 27.711796571878043 -95.050938454047667
-68.053777266457743 27.114131359174632 -96.155465255608831
-85.447402502184886 27.975360532504485 -97.044622385411841
-71.505116398925566 28.579167640373459 -95.751623803033311
-85.826021507392298 29.679804544108464 -98.537605433941323
-72.940988057035995 28.053236296018223 -98.572948694376393
-82.160217462569861 29.262164941968127 -97.962005695801508
-77.250258958432838 29.605420676045703 -98.550079640021067
-71.216957406631295 28.124905021238810 -98.722322757066053
-75.351657750716313 30.209543213779714 -97.852216273161531
-82.058545443721940 29.593868150772504 -97.539173026164690
-78.313965021457960 30.463690300803840 -99.193382850149433
-77.652003545783884 27.783440411080917 -100.073651429980288
-77.160844653560076 29.357087231815893 -101.533139741746652
-74.477313448987246 6.754649567772729 -60.718868186772170
-75.895432780678533 7.075947375669901 -61.044200980241790
-78.057592915132119 9.867388938153228 -62.028536431240660
-67.806210164099966 6.692951086994776 -61.892738735136057
-73.261980601229155 8.672434234901827 -62.994666392600820
-80.329077105771816 8.537732568229142 -62.311508265132339
-68.110448020255348 7.404000904866234 -62.262790775530121
-82.104225254359818 9.350616809856016 -63.174852322748393
-81.345471678263337 9.107050573038581 -61.864725982419579
-65.650695613410832 10.609139414892056 -61.873103469171845
-82.167486922874303 10.724605904628451 -64.927477127275466
-86.520570861720188 9.917279239820097 -63.725547393536544
-61.086250539747837 9.340707716615444 -64.481681185703522
-61.252796623173154 8.999551845242472 -63.832217611233446
-87.926284904476404 10.380015155601793 -66.063563395728480
-61.038581183402819 10.311840739352643 -65.884111783796456
-89.656432296044215 11.667365558884967 -66.646128851184216
-59.420105930954684 10.546928091033319 -68.114377615805338
-89.739131120025831 12.338769443799311 -69.229508286483949
-59.706777419770525 10.339854323643946 -71.223456127246962
-90.648585275602954 12.564317975785974 -69.583490684389446
-59.841893878630309 13.783376341273881 -70.711828704325143
-92.628750808604195 13.969162502640085 -73.326458625952199
-57.887986970334865 15.390254948828677 -73.361999892327759
-60.656823384809861 14.634527345242653 -73.564676279385139
-59.203138574177778 16.260949291688128 -74.733941251954192
-94.490838575381872 15.917290972664885 -77.136066795968631
-62.416338111744665 18.921381408658466 -80.525467093637545
-63.037117723025027 20.468155356140958 -84.734653433339716
-90.212710281592635 22.712501463744108 -85.194214857547252
-91.273951091131281 24.678299531049973 -85.997719388221526
-63.981572534949663 21.712557684939362 -86.162335064117642
-91.546333552429431 22.806276088831080 -87.963531347174893
-64.994523246614733 23.519945850569687 -86.907869968640824
-91.254493667869568 24.377920311915346 -88.414992590471655
-90.085196760243136 25.691050938694822 -91.037973331046516
-64.797472424874911 24.900428346040272 -89.623465944151107
-88.303093325420974 26.399306835837887 -91.932776369691396
-91.626409173413876 24.302311013449668 -90.975323213223575
-67.073213643564245 24.817863342072854 -92.854336477644267
-87.958194805139229 25.221320436373645 -90.969220486890833
-68.545073419058667 27.448348852511824 -91.130963134304778
-88.586331137728649 26.911993562709153 -95.123144111200389
-71.778654597950251 27.229987581459035 -95.415836147041986
-87.662948803936189 27.303324559563155 -93.911304802993868
-68.852857041315218 25.469274102451219 -95.741271754522259
-87.085495001352214 27.678244380864264 -97.356795063095817
-86.698566962299481 27.093502076491600 -94.360243180802541
-70.598945031175205 27.141012227830146 -95.711521891518615
-71.443893735060470 28.466137890252998 -94.782160604823858
-82.824774653663937 28.869699855185811 -95.836670492821511
-84.238728607734970 29.152325265674040 -95.336870174247238
-76.543756852520488 30.181706646303507 -96.098241277390201
-83.637137836354782 28.790999011481059 -97.407612810120639
-72.891998322795530 27.142318081570167 -97.963769616403013
-73.586422301042191 29.109468557068556 -98.469065735636960
-81.096427959260737 27.252913287578174 -100.348703622408422
-78.682954459492294 29.154226832623145 -98.993284676966354
-74.220814119303967 28.287970894927486 -99.500167337775196
-74.941725820134977 31.089459893057171 -96.944406202006064
-74.593647466285660 30.047687441166847 -97.529452750503268
-76.771491331106887 8.087276125337199 -61.555338773286472
-73.121696637736918 10.476690807560747 -61.809860961746239
-80.004485245851285 10.477195050667522 -61.918270612786444
-69.182097176441161 10.338385122717328 -60.598248361878625
-66.199659762035239 9.290699956663889 -60.578095462577735
-66.607986867037269 11.071203860689964 -62.241224031336984
-83.247451986046471 10.268168758604215 -63.027564693295602
-77.698838987372980 10.676862745890823 -61.437179872628136
-80.753312313646248 10.240159026205927 -63.125331929613282
-81.708568848453083 9.471824043741849 -63.033197128175686
-82.715007808311285 10.915305906702223 -64.726275839150361
-65.453945612263212 10.248911987144592 -62.545344243647378
-86.179619845379719 12.269249344278769 -64.813298984028364
-63.388035899176927 10.935342860244003 -64.156856652650717
-85.495611894280884 10.826552221279455 -67.334573874653756
-63.575275715078114 11.374464329764802 -64.936191013992016
-89.057962965498064 10.719826388075084 -66.414679081335436
-88.008456567543931 13.470204608300179 -65.263631143654834
-88.341138067267195 10.754329944725828 -66.432570952429813
-61.664726379968513 13.872027909658318 -67.637735509729509
-91.948553690870511 14.595155923463205 -70.097536531636734
-90.534486497732189 15.739849704472238 -72.110559492482537
-60.975695335967480 16.527602012895649 -74.777282168611222
-92.446465849049673 16.415645029677933 -74.690858711765387
-93.165757849683644 16.878532680123623 -73.995263637925149
-62.159600745386335 18.684288990411588 -74.567981277610230
-61.684985402559043 15.783043335979745 -77.120069391079454
-94.363732742073125 16.932879056954107 -80.421934850185153
-91.973571631997501 21.433238107201920 -79.879408300287920
-61.312412696785913 19.679147333575894 -78.553711342210605
-61.470988081355785 19.963541725197032 -79.598076093131837
-62.879285320499292 19.930982619894476 -81.159140799713811
-63.626252727212730 21.940642035726420 -82.059665575003677
-91.400472049798509 20.466996133430204 -83.714041123161124
-92.447545284161137 21.957889389586750 -83.855225309508867
-88.602871994105655 25.502108840118016 -89.581590829615948
-68.485209965776406 24.208929902654695 -89.010944148718295
-67.127834282479881 24.908472256091965 -90.666592366027530
-68.609232347124347 26.679299004352334 -89.528735640313485
-89.488253835887491 25.495147132440415 -87.725324638516682
-85.069139857839730 27.019946224056721 -87.809669659877827
-66.650987892922359 25.213991378324330 -91.236159219209426
-87.381847776209113 26.126045138390186 -89.572838611564364
-71.338725713591089 26.443811679222502 -91.510489547964823
-69.854204773687087 27.409306712069043 -89.914709591284804
-88.942200542776376 25.925238276007384 -91.837123580736304
-85.449286015608138 24.844269527606755 -93.674869294334343
-69.033548310419789 25.862667960522547 -92.073009885083906
-83.998089596701774 26.331238655114660 -92.854009586959975
-69.471856469321935 26.665773970021188 -95.323681522387801
-75.029325568124676 27.949155861587577 -94.173792976257204
-71.140082832113862 28.390854323823369 -94.541019909907277
-81.544694520924480 27.477899632046313 -95.940749570791155
-86.133153143648400 27.091719999303098 -95.825002472889480
-79.447782529798332 28.993289638811415 -94.528510684590614
-77.329020749082815 27.585069658367605 -94.809718412590044
-70.174959493657326 27.341493438317066 -95.207372465578189
-82.211761929059961 27.323550130460681 -95.552476602194943
-75.460243242301303 28.307782946033324 -94.476166516430638
-73.929997955087060 28.697088451764586 -95.314097494563001
-78.975181466680937 29.612904673213301 -97.648757489758040
-70.139834958387638 10.046140674000405 -62.283842842913053
-74.909518771319782 11.224200852160379 -63.192586819593160
-75.155170444989437 12.577702709475849 -59.680373054162040
-78.915930762548570 10.611478002845743 -63.999826616331433
-66.700890733040566 9.758881795179381 -62.265087799583718
-69.253221662221762 12.206473546095353 -62.579293396313759
-68.414077036590044 13.345452226027749 -64.144712824864484
-77.794125943570918 11.724783939454595 -62.705562902217103
-73.934008454142685 12.798312927229414 -63.631558472179151
-80.804174805339571 14.092983329561841 -62.641442972800782
-82.114674678169266 11.112813043240019 -63.686523914451001
-64.906199552542375 13.232534008744326 -61.572373722331918
-65.741819151267066 12.898026486378450 -63.839542419260425
-85.096033747726054 13.865006667158495 -65.492992078213703
-80.983585271056000 13.881051123374592 -64.577237483979332
-62.272397072075570 11.555362508628566 -64.726821251443994
-86.135371754815026 14.026247439813243 -67.814173483709766
-63.237155093441132 13.036267451750792 -65.282772823056519
-87.728688788352642 16.266142142719502 -66.339166197184298
-61.841202413464600 14.789443055758635 -68.954325471660269
-59.072777541135515 14.380320282872866 -67.293824009835959
-87.389494461238371 13.050302223399031 -68.521648225662730
-87.938888920390809 14.986248126829651 -69.286539691506533
-63.755540864006619 15.869182157424607 -68.252230549097575
-89.423501742378249 14.109646767213231 -68.668941713255151
-61.786989947866040 12.761107757757955 -73.466115486470457
-89.888271534958022 18.725998831343627 -69.949016377336548
-61.571593560583892 15.542265087815089 -71.814708458508903
-89.824458930307031 14.537274415092059 -71.990172370170967
-63.164356948074328 15.257788991248919 -72.109467524315150
-90.299322732856979 17.292240399318214 -72.594887100898035
-61.521300497912343 17.557068775353116 -73.558281165894201
-91.445209560362798 19.335011828030961 -73.490007277866226
-63.798674960283691 17.894254801360077 -73.852972714394241
-92.829147806962368 18.818190945293527 -79.645980150257685
-62.181013383065391 16.861457242881272 -78.326590162697983
-63.169961506577089 20.083361559221345 -78.154582420600164
-91.957568759985080 21.837613114326302 -77.420594973174758
-91.593246565502056 20.202319786880004 -82.231355644655054
-65.608780591910445 22.540798725943162 -81.812900045793825
-91.182662403004727 22.396876793077848 -80.208731574884098
-62.696058488116485 21.917341406096082 -83.303116514271110
-64.674031021735487 22.992650082702998 -85.243976263104614
-88.784450748954484 22.720364143162495 -83.179260861129706
-64.939208235539368 23.454679876915687 -83.469438801543461
-90.538424016544738 22.767066895699237 -85.308379593289430
-66.180470819988443 24.644959590620957 -83.947591882957141
-89.736220013833574 25.091577096480123 -85.194494158014521
-87.505733801792871 25.503139950640588 -84.444110406477691
-66.581175614927076 23.168363108219403 -85.863579242045247
-67.505723070324194 24.729971555029238 -87.844893949557814
-66.956750412292919 23.879295266473683 -86.563663828915352
-87.673687925617202 25.049490868911462 -87.868023043738120
-66.681333021006083 23.379637595420910 -88.343888448506149
-69.470789946186329 24.577851874716650 -88.202267827853646
-68.904282191894580 25.331087561977434 -87.402382648389718
-86.788708572873503 26.311288109046806 -88.606609106549229
-87.855158849687513 26.655640677050837 -87.175169458525744
-70.915663575685656 27.384381274430751 -88.035925320743459
-70.925000600732432 26.218963391994819 -88.349505857386589
-85.292040981732200 27.116688898400788 -89.678965550804278
-78.916356669079576 28.166016645342683 -91.499917645342919
-73.985564190876659 28.946015410329046 -90.085029591580991
-83.847062070228162 28.133227591533636 -91.084807526239828
-84.532769087337698 28.488301399246627 -92.453394430138772
-73.085905136896983 29.514168485551597 -91.901269389089208
-71.238928596961543 27.693827340510889 -91.189128711203722
-75.728136394270052 28.011741137314939 -94.408845620362300
-85.244648330318682 26.131335794998730 -92.971105724449600
-82.499455885936555 29.571608025652360 -93.304363391140527
-80.474340503031542 29.260102101072398 -94.471114133029943
-78.765691488577374 28.546630038964423 -92.223005182342064
-76.199344408647391 28.601493008099411 -92.722649336857913
-79.358639843600542 30.047661612893066 -96.766240544680628
-75.954776153739957 29.425529184995568 -94.405138043667961
-70.759951837864222 14.325594876565447 -63.466464023820933
-66.923135494936858 10.797379801781762 -64.146183272315724
-78.975344935444809 12.554734464174063 -65.344904298231299
-76.647528442139929 12.476267970771662 -63.723520226393035
-68.317216018995182 11.816722028830569 -63.587607953818406
-78.061116558191074 13.420789951235005 -61.140464849101285
-70.289195409427137 13.802803829717124 -62.355827680783825
-74.967231126661943 13.947628446381424 -63.847106190515845
-82.930484604238899 13.649096682626345 -64.783096262614123
-65.831156021118090 12.812414075174207 -65.890771575638311
-80.676333041993772 16.163722171250829 -64.271604499911547
-68.524091279129209 13.496634285528478 -65.840501141131625
-81.283688659627813 13.337543757345477 -64.191507717227395
-65.907892974588520 13.714630085505847 -64.787892387154827
-85.559594944267218 12.912832078197113 -66.629973983401783
-85.007864073542009 12.261225307051451 -65.984874183658249
-86.291881830850414 15.027321546562932 -65.978990901109441
-64.251545751028104 14.195323900955147 -63.512585999016039
-86.762167856265165 17.067559860153867 -66.687131531498935
-64.932285800607104 15.373669911223333 -67.902147028939169
-62.109692759165085 17.187539121036270 -71.687860434382259
-87.553010547498971 18.089485954112725 -68.507108261889101
