# This PCD file was generated using the MATLAB® pcwrite function
# from Computer Vision Toolbox®.
# .PCD v.7 - Point Cloud Data file format
VERSION .7
FIELDS x y z
SIZE 8 8 8
TYPE F F F
COUNT 1 1 1
WIDTH 796
HEIGHT 1
VIEWPOINT 0 0 0 1 0 0 0
POINTS 796
DATA ascii
-54.778250967867088 -14.781083600198347 -102.157259581966954
64.212725555630726 -12.160731949259954 -105.307013888267107
-56.851062772272670 -12.606869345815442 -102.061968826132485
104.268790748984415 -13.186401709834785 -100.924935263983471
-60.226325545808827 -16.007406857735653 -102.834089913081925
61.770940767482195 -11.778252331547865 -103.021557654613787
62.560457655731057 -13.913567900415833 -102.909893877973445
-95.278722739664360 -14.430835840166388 -103.579562854867035
61.403590180153302 -10.468466607520162 -104.399036653706972
63.949787793080468 -9.798476162148919 -104.678917216778999
-60.560821053953354 -11.642542781352146 -104.234810355730232
55.837796842891308 -13.252726796428741 -106.345891072418368
57.891237689649031 -13.378711434387103 -103.868971382039334
105.095712840369487 -12.286178846262604 -102.969302734331379
58.810940609417443 -10.325284603992609 -106.342664056006953
66.257592847996136 -9.271176105357426 -105.601349332359987
65.661962944090618 -12.888955681099501 -105.126976803920698
-62.346562998295227 -11.273420433762347 -107.221016542896834
-64.347104543946074 -11.934208325949260 -105.329937036124505
54.006973607112073 -13.658683385385666 -109.140226011281072
-99.353947162091814 -12.367419658613912 -103.338603558078944
-61.589160918883366 -11.095633547979466 -108.750494080818882
49.995943606590387 -12.714834696277240 -107.814995370678204
-65.644671565482426 -9.879429632310815 -108.182323831888368
51.272279280554521 -7.031976315123150 -107.025941946722369
56.059175287968444 -8.854050841831512 -108.790644528897062
-61.998881532050788 -9.028918647101200 -107.504260168849669
50.657192662890495 -9.945894795782126 -110.114726722401485
63.026535345101799 -8.083231465124912 -111.008093890965881
68.665606751627479 -6.589701801307694 -110.803435801161484
57.055210784891862 -7.960997557965420 -109.989080614164763
64.073819538498398 -8.734614385471842 -112.706694878226543
-65.067794629130120 -9.155627363533201 -112.765122669999045
59.240510916650145 -7.766410713175231 -110.222940067885190
-67.721467544243964 -6.054327154435928 -111.468510281941789
50.820847508040941 -8.067691671876858 -112.122618409130297
53.998152318730000 -6.096998136422679 -111.189432167575504
54.369443920385606 -7.893918266345823 -114.570892804807684
-67.155816863439213 -9.185634203004543 -110.916891360130919
67.653292761189363 -10.502724873918684 -112.259546349489668
-65.585652795093381 -8.021901236780902 -111.301713157907741
50.011009432444311 -8.200876345527787 -113.725414403797970
107.616368699094650 -6.973874731065914 -111.952494151109150
-64.901458280015532 -6.334037561133886 -114.155741599812629
60.475161403371175 -10.312279212732371 -113.813377054254104
59.036205471888884 -3.312566659670805 -113.058056742826906
56.496653507970244 -5.239317542061126 -112.984103207753037
52.154006047352304 -4.582380105795033 -112.331135426950425
-98.966837650810703 -6.311604064062604 -116.047861281045797
55.444789553827121 -6.105705358410436 -112.393606849327142
67.412047188135332 -5.402112505182784 -113.817241521744336
-66.763117539805393 -5.251865894010137 -116.480272865338691
51.427769728269986 -4.702394562524097 -115.271217667584537
52.624253992111107 -4.678587252918797 -114.375780968897956
53.145194256126338 -3.059549020607080 -116.157102634420085
100.878561840936300 -6.004175349215415 -113.652236565853300
52.955192782575494 -5.428561657592320 -117.877447602264397
69.481314937431875 -8.165951304369683 -115.072718503955286
64.322616731312351 -5.633723666275629 -116.560468212165958
104.807423407272239 -6.558749935118343 -114.944303254543584
67.904106611287247 -4.084563194719710 -115.883091833775268
-67.381709984248914 -6.200951233600526 -115.275899502305577
101.405715138006883 -6.514996811536130 -118.747491881854273
67.197216922268382 -5.902204495516846 -116.583332374742639
-67.429218869113868 -4.092202245042669 -119.519388049285936
67.093490403555421 -1.758206371569804 -118.087082966422571
99.933544323700190 -2.117705448147873 -120.951357273163680
-99.289151727891991 -4.270201872671398 -118.775306947061907
-99.663297367959956 -2.096344282194493 -120.727055338670041
-71.685317161403191 -5.253183908204154 -119.316823217414054
67.969257683419116 -3.155666573305951 -119.503313845191954
-80.298755929658100 -1.956490830802357 -122.694059814046938
-80.051592176439598 -4.919700453662251 -121.072833030095978
-76.200375347317376 -3.233371952951460 -119.871115694147790
-71.814535369228579 -1.061872707079405 -122.811894774149152
73.198799463857455 -2.212057053551364 -122.130026176673738
99.447457214306070 -3.189222670499143 -120.591742187800335
-79.134275801538678 -0.575141192180145 -119.157368607870410
-82.491822463887502 0.647738786176316 -119.512238125692122
-76.373797212027355 -2.648718310596264 -117.978697269842030
98.766221468693971 -2.414608726684036 -124.344415656276098
-74.667572455101720 -2.105423258251041 -122.923059897070857
-69.293021956774993 -0.976654461607955 -123.022912389071834
-78.895885930618689 -0.434417179861608 -125.364477893283791
82.505287614171507 -2.564181288375062 -122.663315639515616
-75.814765171994907 -3.544846066479754 -121.359079710242838
75.422978159701145 -1.817052567246538 -122.755801584169362
81.691505430621959 0.958676277372502 -124.240186889067715
85.518654356670822 1.644942652443008 -123.599162436076966
96.964995229794397 -5.839067127084737 -124.124931260832071
-84.171392152488266 -0.240629778995249 -122.960692971080121
-73.334852235466713 -1.749968986570574 -120.705978522993789
-72.999311209014593 -5.052727002399989 -125.106007660658221
82.194014526384805 -2.234969046042063 -121.599564446921960
92.531901504351922 0.980576504978934 -121.042465613843959
93.371548808525503 0.088154204468090 -123.628161029840541
-75.752191239121814 -2.899301879137185 -121.731958320678800
-79.120696934874132 -0.991331460128117 -124.528404912710954
73.540274655964609 -2.322710885647296 -128.061413389796030
92.376792196285706 -2.296829792862025 -125.329167920103018
-85.058425585844532 1.123682757047439 -122.746662105083757
-72.571766744165842 -0.377711326916610 -125.515027829513073
76.179101225675524 -2.608452651089152 -125.196379616941883
75.382213716203296 -1.345797263685406 -126.507927936594129
81.128308883548897 -3.354311238418101 -126.293818621210889
91.210521256547807 1.411542487702394 -124.602917313084035
92.283662188722019 -0.451114568168626 -125.300794281383759
-75.755992644508851 0.508136808306310 -126.108398571144676
-76.008806134274920 -1.416828394784231 -126.868760179932906
-71.857153737820312 -1.017726541969154 -123.544112419023747
-83.125612310730617 2.636799859625425 -129.360264540737887
-65.961548489580423 0.466920273077774 -127.563347395231432
-97.613894088462089 1.854133239252181 -128.765660757025330
-78.402175841389806 -0.018735118513438 -124.397446225840184
-85.009717021195499 3.041459352593231 -129.304945059792743
-81.817046406554596 2.123672488424081 -126.425824358398472
-64.019899409950924 1.165981347700752 -128.135054497684393
-77.131451179307604 4.593623084959621 -130.892826563650971
-82.132159592326815 0.033964626544753 -128.702396323446266
-63.951237915046619 2.654210298561644 -128.911985642462525
-62.188016894620915 0.157165126813142 -127.670655403657747
-67.192110665093224 0.807221779520745 -128.621235486742506
-78.206944480843177 0.637006116584743 -129.964315592608813
-59.691967924927667 3.658417231578423 -130.582551394884717
-77.503043401683470 0.705293660694308 -131.602258558494611
-67.330568622758960 2.649888253131489 -129.001711240161029
-84.970661065381904 -0.290966448717137 -128.202202739667172
-68.433423518893548 1.903109725646684 -130.422937553630163
-83.503438702951712 3.117042378677707 -128.597917208426139
-76.261082513846191 4.975127522616456 -129.491001874141176
-89.306229459076334 -0.093263926455021 -129.586223651557162
-68.104650508124621 1.079762856153116 -131.602559088299415
-61.969052804030682 2.771123898932274 -129.641308394048707
-77.721040262128625 3.861439708375582 -132.730168404528882
-74.156519584418660 4.869502083302349 -131.188894508259210
-60.577691596095612 3.467363101353841 -132.354510275586136
-90.884258108003507 5.182021423992477 -130.396443605275181
-61.309548722018192 5.619575407755593 -129.298682342931102
-62.939531368107666 5.084273931985127 -133.069387362230685
-96.036385496228831 2.009235498488793 -135.679876403273823
-89.330871446720366 1.400609089399054 -133.149532830235898
-58.744735753729984 1.772426273804092 -132.603927748906870
-81.130709791768894 4.744441497578526 -134.286153361469275
-63.167549926582602 5.260716183400264 -134.836328649814931
-60.085175287176313 4.238642131398760 -130.784819283899878
-57.969413803315049 2.720156203404160 -133.176893960387133
-64.911149783109678 5.446753152946146 -133.277663149715693
-57.495604615190118 3.581987332522990 -133.962029756888597
-90.609337610124925 4.770649145393276 -132.229175286233868
-80.241636867401070 4.296213413779811 -133.502974614908965
-55.368569897383395 3.504024142667683 -134.525601036748583
-90.167752152261784 2.400554811025677 -134.007444998379555
-65.861154367800637 1.924904729436336 -131.829663943289034
-80.558323824612387 4.824138581216365 -136.698157571891926
-77.043196028877617 7.038723228434822 -134.335949363659267
-65.850837712622138 5.345628309199124 -134.693379322771193
-59.331347629698399 2.844163454194385 -133.565030430832252
-93.527871233293141 6.691079569073152 -135.650467718870942
-64.978329470868587 6.226322133020910 -135.453452397451827
-57.908559884471195 7.464382836543324 -131.728240648355495
-81.488594189445038 6.505932405856953 -135.487238727407004
-80.337274997363124 2.919277103849186 -136.182550579293832
-79.900358669783031 4.152724735638738 -137.349808678096451
-62.106560852357113 6.549778308769192 -137.964803296328682
-92.953231386502864 3.451252950067922 -137.383753952736299
-79.230926879942487 5.226935506656222 -133.641440122744086
-81.103283416652559 6.482202113521253 -134.958150002140286
-58.921089283218492 6.164780413305462 -135.890664244153214
-56.844716218194925 7.459568650532175 -136.683349876110583
-58.603469397454248 4.508760930477948 -135.719661280577014
-91.983444626832153 10.221689711277365 -139.003208548123865
-63.749295925481483 7.452911345766285 -138.357505748584515
-75.347233025190192 6.102221165687020 -137.374487842052474
-64.820120696711115 10.025218829021659 -138.472388706036497
-51.844549706781095 7.598497003563721 -141.093007691869786
-66.084187761796741 7.628792944146377 -140.438132163189664
-80.485731922558955 9.092755917562894 -138.127028362281010
-75.995721363355230 8.121276182626817 -141.918784441145647
-54.427037898499108 6.480190445778944 -139.327411662965886
-62.486495551796587 7.956056933616930 -139.806538963660444
-65.932680606993429 7.655179344259363 -139.609575883567317
-75.243916618326523 9.292937354782893 -139.453220059819529
-52.507958205441419 8.732650268964697 -143.312236774491709
-79.240701743939937 12.247249628324742 -142.999068723613760
-76.941291010768893 9.304781804881998 -141.685718065813660
33.568396423251109 11.117921813703003 -139.164371329970862
-81.510374007141593 10.953977949280484 -139.628100795530059
-53.857752828898604 12.554946800349221 -141.653766788843399
28.291559319923010 10.025014141081822 -143.137766443703924
-65.363595821241859 9.906525163247421 -141.023709567574372
31.747384577427830 9.772401641433648 -141.298247629736011
-62.526683244769096 9.730512100626827 -143.697478379493674
32.757019689457572 8.731556023070306 -142.034281753851900
-78.257116216393754 9.206352836868536 -143.782514639792424
-76.363011153408948 10.818304997512408 -142.112395663403333
-76.865823656057373 9.805210667155990 -144.878934043270220
-50.674533964603739 9.070117471895333 -145.056599524418345
26.532201996795056 9.241643696009849 -143.335153870302634
34.165973973525126 11.595505127937527 -145.821309087928626
31.108504544105799 12.760933846475670 -145.510406749539953
-60.973781871499057 12.248475277347165 -146.021538336814899
-51.941991929227108 10.916365139699051 -146.205018071980561
31.131131444559450 7.895072958795553 -146.660771746234076
31.964880600583815 14.152985358753705 -145.088535264321052
-61.050987425221848 10.908634502396470 -146.142403588661608
-50.506625518510056 10.269160908584825 -145.816276616577113
-57.780528152149380 11.413165685571654 -147.985495090237833
-56.085271545441032 15.148800375785649 -150.259381152883094
-58.614513184217202 13.650862792121414 -148.120413885754687
25.334304734143327 13.228603036214125 -147.363781288425514
-49.145639826646367 10.959323184630694 -147.966664305002212
-51.847381384474154 14.921206253411412 -149.631136692770554
25.017091368101880 15.254072945111229 -146.568190385586206
29.029074538492551 11.632395447593627 -147.298910208256785
-92.928060985246319 14.338064041665103 -149.927626129613913
-89.975112285726155 13.434162017289356 -151.475579732074038
-57.142682929327428 15.020008485975927 -149.564680187879901
-53.046639718160080 15.721808074750868 -149.043696245117502
-91.301675340366700 14.355490657121004 -149.765151064182646
-57.913404510237044 14.479919307586247 -152.505129175066259
-52.704746872704874 14.284990323406783 -150.730908728345526
-55.735171687007245 14.679509763475684 -151.193086252958750
-55.230914489119648 13.092218263838546 -150.758787329690534
-91.108007192811996 12.660482484893587 -151.362412571742084
-56.343520009760766 13.735681999372982 -152.821921688490960
29.143013785216400 17.040419507853528 -152.310425742125290
-93.407097550776641 11.333057035326812 -149.950371240779361
-91.722792203521024 14.663168530958895 -153.036976197570965
21.093749220949078 14.313823925844449 -151.115199216528026
21.166664117962586 17.450289612855563 -151.748047380076400
-92.755275486329339 13.306433882785868 -152.271464359389654
-93.300464924588837 14.792202398925346 -153.368826736886234
17.754144690442107 15.596762659658937 -150.866235387063938
26.400652788842535 14.019710866214570 -150.478876509641680
-91.993526824321535 15.549239741596065 -151.851015581393426
-91.495470986639702 16.184260359524920 -151.016672731084213
-91.295812735533033 17.371943325025505 -152.657516588923869
19.406713628139439 18.859640172552687 -156.465044846454845
24.626818448955270 18.035897470578504 -155.020140735732639
-94.225180063096090 15.707945477842754 -151.762736756528170
-95.628359843060750 16.682450231379928 -154.561333219531406
-91.434804204640429 16.142470630024896 -153.565642977131802
-95.203418163805921 16.634700828198628 -156.784310373540706
-92.187377137000752 19.093012760517027 -155.853513950408285
17.629927947874990 20.408498639798374 -154.815290201554319
-96.984711637541110 18.535993241388322 -154.749452244583296
-95.168680012025561 18.434779972032775 -156.555164416352966
-97.946038390472665 17.455535447369513 -155.349997180954290
-94.515282949308840 18.520602323049740 -155.778589091204736
-94.368958812001409 18.316327221363718 -157.708221013448565
18.646665584349101 18.048392827735434 -153.608791768643584
20.793981207644080 16.076106798896028 -156.219492842212048
17.800481653490174 16.724254792486896 -158.426705723508462
20.018493984395224 19.018646798980843 -157.221764319691914
19.163384115590922 19.950783794829789 -158.418402630928313
17.084125644297284 18.170528632121130 -160.247666114625673
18.885744928213814 17.645094740730070 -156.641535474911507
-95.169796694357572 19.861699505918466 -159.945255752946082
-93.809824984017325 18.232916436133429 -158.654251722918104
-95.366210768289676 21.330127867929580 -157.654078962465462
-89.463846869436708 16.591441991818357 -160.714482030354986
-90.283832054420728 17.980537920474696 -159.932056396192706
-97.110142298968341 19.786164618249057 -155.828546630279220
-91.407290704247870 19.275455292043816 -157.983442267025453
-98.061914361492853 17.916574509134200 -161.189652144533994
-95.364544644548204 20.577325649865923 -158.846312576334157
-98.391413625896334 21.459620624091102 -161.002713589583408
-98.552731445977798 21.699215647009023 -160.617472072466057
20.482048242962357 21.323681769457526 -161.760020770330783
-99.263112718423201 20.162700552860301 -160.735262333480819
17.741971701308213 21.156334609601089 -161.980322922818601
-93.376549343080342 22.598422499787233 -162.194277869540457
-96.325691820743529 19.488802498267109 -161.144378044700630
-96.106359957091726 20.625695641604882 -159.220413403609030
19.774931396435914 22.845767183872383 -159.812182778114845
19.070953406365838 19.415920238432605 -163.368664677879934
20.611689175602283 22.754015387624573 -162.659898538428621
-98.628213367278818 21.177713897147015 -163.425546267979286
-97.327472372360432 21.277148328308268 -163.392628973738510
-96.788621985640972 22.486182296576477 -163.835842364321707
-96.142457109799466 22.126474382415072 -165.212932235927980
-98.264005934438174 23.995567465867119 -164.686288699005985
-99.713735227313421 21.840010044761620 -164.095806954632565
-99.362535443226108 24.372124449207430 -168.143629641773799
-97.031080914317357 21.385768166838751 -165.344348175316242
-96.717947251618924 22.099876736864108 -164.385667519589219
-100.839190119183428 21.123752894917640 -168.331686431884094
-97.011184647709726 23.892264063879210 -167.621444127686232
-101.213427236101424 25.580452432821705 -166.127197814329406
-96.907220026402214 22.054098501823400 -166.648319038353236
-99.497735692277061 27.283795386404151 -169.378954842223180
-100.580785611275573 24.857874563346211 -164.742380570399149
-94.797582983895182 23.322750952486373 -168.633387130275906
-104.512719939214733 23.657100703518744 -167.894268168052264
-98.477382460905588 22.519875109294333 -167.409664410287775
-95.989507370560574 26.062448283146409 -167.890187397320631
-103.669410969349371 26.979765001036942 -165.673895930846186
-94.402930138714254 23.755492958091008 -169.840507077181030
-99.344825625412227 26.854704592267446 -170.466096014505126
-100.207512323955143 26.140445592991430 -167.853214414999655
-102.160551726842868 27.059871051664988 -172.543650136053941
-100.491319666643491 24.809106713813154 -169.487037446023038
-101.123092424507377 25.530518174436061 -168.311747784844499
-99.772939453329954 28.475423015401194 -171.879771997395125
-104.413704508119281 26.039662919806499 -169.003886666297518
-102.183670814749874 25.782328300360152 -171.950527680143580
-99.318131476229368 28.865415256768440 -171.899834146425832
-105.062325072672195 25.251557654623117 -171.663198410578246
-98.558236418140666 28.179246668842950 -173.245065710359341
-100.855664273028893 26.848627595310894 -173.900037248834138
-104.712229592769134 28.739614651588628 -172.243738687777920
-105.259238088704052 27.984828198853293 -171.484746651703517
-104.724380301581547 25.905162922909696 -173.787374419317189
-101.374259737498704 30.094791895104834 -176.594432441455126
-99.818206315922609 26.214943562873081 -173.547903168719500
-103.281882185733082 28.961790379827754 -174.990656499993520
-101.053500735684381 29.814212888218716 -175.482687737238678
-109.761200478449837 27.315971522295236 -175.964290109689443
-103.286430269421302 30.272821825083444 -178.516501362481051
-101.057924388765002 29.102300229730989 -180.034468485024718
-107.469849862634575 30.141655049693199 -175.334905290612397
-108.754809472007594 29.097782623159500 -176.704631230767774
-102.847190862443512 30.874106717131298 -178.996480789436077
-105.092542311098512 30.147619720813026 -178.139709877711567
-103.366826360151819 27.715504803537453 -181.074103204451461
-100.270447417552376 27.593532755826939 -176.159842894378016
-106.599616087293796 30.658904965108839 -176.374384431949096
-103.553714084907639 33.439532279205281 -179.418611388852497
-102.394312398097526 33.663904561597064 -178.565435370807904
-107.864926985688044 28.867618742180145 -180.356680761481130
-106.160758649530905 32.696799290996218 -180.741116357651833
-107.035249265452237 32.908398030645650 -176.039173816129534
-106.581618486096573 33.133213035140400 -181.619609623954631
-107.056890885079881 30.063539741067910 -179.233846342377433
-104.988045272540745 31.717405737550390 -180.944836493951186
-105.870298483911114 34.161094767718282 -183.334400705778307
-151.497872815925035 31.617290033937909 -181.892787691916737
-148.458857114701942 33.132838312059611 -181.160446159238830
-108.436730760181646 32.217053129837382 -179.907337903851158
-145.359449555004517 29.792742801430741 -182.778375387493469
-146.754680124735785 34.617760167541483 -185.218382342764471
-104.922352167910319 35.189603918881225 -182.816328473214782
-142.614264410322676 38.453230724784746 -185.281472755775354
-106.924671595531038 37.879007705744726 -185.614852462915849
-106.844418660386694 30.404162333316698 -185.656136944680469
-154.969221426106344 32.886633474491866 -184.223708227596575
-150.818728786382280 35.185177573760896 -187.472966838221566
-105.667592271242086 36.655699845496493 -189.957849255205758
-152.528331184180047 36.122581577024292 -187.870851148478238
-144.010746335947601 37.127269881935071 -185.730538242857961
-108.516184691229057 34.738814616417180 -188.288749678040062
-142.535733940138897 38.918287642343905 -187.522881154925727
-149.689261365182034 38.335126505243913 -185.353748493747190
-146.685559337142905 35.870772323844839 -187.883856875153526
-150.805898953972047 38.257043726297852 -189.261224363041237
-148.532044179763261 39.615034984337768 -190.788129399333684
-145.725861142974765 34.649701905427570 -193.587859519108775
-144.203865489743237 34.806681867151873 -189.886359487951097
-145.001099150125413 40.165289543177913 -193.444946211163341
-144.842161661750964 39.618789816703959 -192.894220035525507
-146.402646989822273 37.964016773212322 -194.509145758622850
-147.755156558594678 39.862963970835573 -193.308006988503593
-142.800691779805618 37.939138077336679 -193.750583403557869
-145.214586870388246 38.954051459039327 -189.180453008384859
-148.016413500732398 37.971073011884350 -199.149483037841378
-149.540775851064581 43.208895041095133 -198.314563076089257
-150.932742385177846 40.401035908334535 -199.419702599440427
-154.423561900569013 44.190779547507432 -200.743999470899382
-125.276716212802725 43.941132364072658 -202.661701275803239
-129.716914099618293 42.834694548777001 -201.506323230067892
-147.062975187919420 46.037930535381214 -201.891618233174512
-128.520677234968304 41.205576973719495 -202.341457727225162
-131.552417672883621 43.532712932909867 -201.984170708422738
-134.465643959684456 43.690446454665576 -202.655784239258281
-125.988070639255682 43.944990923068865 -202.164323628235366
-123.314140570135592 44.277964179231603 -205.442972653472850
-146.897308543466977 41.847820587791666 -202.008830333055727
-132.458167025919181 44.601581096640111 -201.055686112394227
-122.914986706012115 46.133026590184151 -202.642416652861499
-130.396686777533574 44.257972740253450 -203.618286972087759
-124.548711511617228 46.483022104695287 -204.101966592230411
-145.309533914272379 45.906840993070212 -201.265569653440878
-129.219052836828297 43.513821108451829 -204.952489126707547
-124.607970759081283 45.530014329088637 -201.201344921030000
-135.496538283927265 42.062501620423731 -204.933498077490498
-139.598543395980670 43.443760694538277 -205.297402769960001
-144.595868440786887 45.651507682667912 -205.054764899095147
-131.123134370396599 47.225068275772898 -205.939562378221950
-130.936949011619532 47.371498424128831 -206.848352902823706
-124.015506735806326 46.266306961745812 -205.295624147740909
-142.102452422851883 45.286409966317898 -206.906427743840169
-128.848546857323385 44.681916640962172 -204.347566751207751
-124.596996367715903 50.011795101433584 -205.457874366905088
-125.083560220026399 45.275435040718314 -207.131709862330837
-152.348454838650127 47.500810797938556 -205.491070760468745
-131.857909392163208 46.211839625313260 -205.579183634835630
-130.616469316132935 45.500193080578207 -205.289154106097072
-140.069186100371212 44.121886120787629 -206.617814530341008
-127.031768142767604 46.527270429476864 -206.027247555027174
-141.118824562855082 46.164246082382832 -205.685163219265661
-129.759283763584961 47.987554487213686 -206.362630832300994
-124.992493761040450 49.397624111161107 -206.587890851688286
-126.085836307828686 46.619753371576635 -207.384576446361677
-140.699757267907984 48.448381473320438 -205.032916709156268
-147.947063020314090 46.725540100407720 -208.858662702880935
-142.879771440013315 44.790614763567525 -211.361415977281155
-148.896617473560099 48.483045940700471 -208.772436500481462
-147.933415363238709 47.098905585856791 -206.722022730686149
-145.968208659589322 49.008817070383756 -210.927686653194314
-146.080214965089198 50.433799423429925 -212.383929872815941
-149.257966780738087 52.359935310484552 -217.577930972917841
-150.075849201550739 47.276468344439230 -219.678512008242166
-148.418279177330817 56.764847185253231 -219.116454747179375
-151.123125197565088 57.390124293286398 -222.048011923061637
-151.642458916316230 56.390849588897851 -222.406463201456660
-146.397579951725419 55.677515039090359 -225.938204540607757
-153.865037539952596 56.819766772085963 -223.729915881661043
-144.928397100119696 58.768145183470104 -225.149688246753755
-154.187247102556000 56.142643736382212 -225.368331605686933
-139.398383220263611 53.144575224047493 -230.113062466278905
-152.297704156019307 58.238409366937248 -227.865265269021705
-154.262414950196558 58.724963572219657 -224.824466679072600
-140.192187081248079 59.697617762788880 -226.604637428850481
-146.575451132245973 58.863702766289649 -227.266405046698935
-142.159463035084173 58.617727586684936 -224.867596853802439
-152.778967978726570 56.286096127362896 -227.720212379746727
-128.959232799766198 61.198318740572518 -227.201730298166638
-125.320006352855970 61.646634889086940 -226.451243101418243
-125.628016992764103 60.430870819963310 -228.033951190609088
-154.971923705071163 60.747839100345637 -228.467020690557831
-148.120737624563674 61.279155866073985 -229.598448674449969
-140.874929546038004 57.392137843436551 -230.835113036786453
-148.164109499914389 59.911781268116684 -230.648563379223788
-125.507922345741761 59.592846077882001 -231.865303067337123
-125.501625910378451 59.436266615287266 -229.395955228917160
-147.616674081530675 61.590000704146505 -230.913893439044983
-153.039178788197489 60.525494844970495 -228.353323237814180
-150.532869968600608 60.775691293093999 -229.119146032905320
-141.747704651711871 60.076414213061319 -231.280394430105304
-140.238082271085318 59.869460075336583 -233.923032701777629
-154.576150072993499 60.425493422434769 -229.204759705622052
-151.854859341940283 61.013130532989699 -237.499760386461077
-151.904336648266707 65.289612932166875 -231.221709834514343
-142.826562486258268 62.313777456347538 -232.884280849298364
-144.786689068023662 61.489061073019208 -234.492858329198413
-147.209353597488956 64.210428981707111 -234.070977677664956
-153.992149956474577 65.937863754711145 -233.674942313900630
0.942740200332770 64.681931808011655 -238.711859859402551
-1.269543701488558 63.418160896627583 -237.010932801948172
-0.879263964475805 62.721931288472454 -237.009407723511089
-149.804637840278730 65.247653893277814 -236.287084605313225
4.118654910617756 60.887163081972233 -239.824452169494805
5.335376048316668 64.186893836297060 -238.669249331726974
-151.263353520117050 65.463722268977065 -238.093296240279471
-7.898091711518744 65.658851524635253 -239.107633569635084
-143.587514272889848 61.884198673344798 -239.245269636706439
-146.289309210401740 65.786799366301679 -241.065912359446941
-7.624301993372734 65.854458317156286 -238.065602992442592
7.518825759786083 64.450899733536829 -239.932586465385810
7.872990062863506 62.776315470246743 -241.203890403689172
15.605324864237344 66.589066234742461 -236.339935165911925
17.625025494110385 66.725456219851722 -241.853460774942675
15.393203452511523 65.150597401146328 -240.132696009097373
-6.940497093614981 64.224119024605571 -239.306769139806704
16.151168533406164 63.881188555055132 -241.324193348540604
-3.281244592845308 63.885818992179800 -241.500376002052150
12.870018761219544 66.410769243192064 -241.205094675291406
-147.564561435678741 67.077504644867233 -240.160012181509643
5.243819764594440 67.290029061423169 -241.430405932824527
-4.811930397307140 63.600849031984886 -244.199397295281415
17.853660134513746 66.807894377009802 -240.281102845575276
8.387446786952955 68.763398285011917 -243.020715634094415
-6.563715859884066 67.869549398744795 -244.269254599976733
-148.300166092008737 68.956181511071946 -245.910334550972948
-150.958209376992926 68.921693777597483 -243.114374397985358
-5.126153400428053 66.486874463953271 -244.848499843405875
17.861594466777337 70.392211376907667 -246.034743209252639
-7.345312516345725 70.882574926127333 -244.877856084690990
17.011607562961174 67.289616125275472 -246.315988586313580
-5.527414465991735 69.400892422437096 -245.013337471350297
-0.395639699868718 70.065272756126120 -247.317954954894049
-148.762371662280145 70.573505678177526 -246.797365975194651
-4.774372449151031 70.077673152546339 -245.609021761958189
-151.025893288578033 70.590563172938673 -247.163652432545206
-3.298128849139056 72.403338744025064 -248.560263085268872
-149.446134400045310 72.839215149837173 -251.110180035243502
-1.481373571475749 72.175312505840651 -251.164284692184992
-149.703766757259501 72.136932984215406 -250.126864401182132
-1.703176870499428 72.582265528371607 -248.334241299255581
25.024642386363563 70.740741678001797 -252.212639131921151
-150.766954927568293 72.075443377985692 -249.634346383712568
-142.491531370877738 71.612575343351395 -249.657649573298499
25.543610309518545 71.017983765798320 -252.322883036495000
-151.514737016829770 72.080370377320378 -250.369943790651149
-0.646989148547898 73.368365372365346 -249.637011892653902
-154.488831366733507 75.827383290090950 -251.266349275135241
-150.186304027343823 73.622809130741402 -251.745091777766419
-149.237664386014046 73.886697848061758 -249.659062865290934
-145.746602682022370 75.680321274460781 -251.815106704973090
-147.845344794628829 71.844667449028393 -247.740108339378537
-0.889216810188939 73.363456079844127 -252.620337275943569
-153.616937198798240 72.331648020950553 -250.707209460368404
-153.917767586040725 74.378703247424795 -247.296258818871024
-142.186050117719873 72.907598124925727 -252.235730424566469
-141.730024534919181 72.947123205745839 -252.219014304520641
-150.234694583338523 74.023037083406521 -254.897864919994475
-153.726871518427117 74.049079507579734 -251.399489147298084
-144.218924751946957 75.259734407159485 -253.253498468470298
1.187586913678262 74.431471514706814 -253.429146686499735
33.496443513562340 73.568984122405027 -251.237194417794683
-156.296017393470834 76.682859537399395 -253.099887138964704
-154.927359885556513 73.998044197867429 -252.908088120504289
-153.111946720759533 73.499339451113485 -251.586715374976507
-153.782144545008833 72.773595095798356 -254.941115701502383
-149.407919485552469 73.863564657832285 -251.175267384397245
-147.429326642074159 71.283445161613486 -252.562804476891756
-147.514329065023475 72.369150403653876 -249.829333420772173
-144.248961287334225 73.877435521013510 -253.658090230231096
32.655621620044620 75.507719580590972 -250.243932300911126
-149.348629688501433 71.108917714835428 -251.680838308889946
-147.948582303348928 74.242034767206022 -252.880840640257844
30.247465920536897 75.015382408966360 -256.206219444497719
-151.164029512363157 73.345073595810092 -251.963965977601447
-150.263555633072428 75.993475172960700 -252.755790455144023
32.155076481968784 76.878315832348193 -253.603841994393662
33.980770415935623 71.992380985401510 -254.694891223694668
-154.706073132515542 72.102155582579130 -252.711164935106495
-154.498695059468616 73.730703062450090 -253.555360146557831
-154.176420432220766 72.668166532423584 -252.051088210490718
-145.863562287290478 72.459929914878998 -254.060561824261129
-144.611407991376495 72.635417111386630 -257.523885611617118
32.541018612445562 71.040796359623570 -250.581552584509041
35.290355672239663 75.224235157144946 -256.300169800502317
-153.709129676309942 74.262221912284161 -255.735550601595207
-152.469094992223518 75.383959968357146 -253.605645918495270
-152.337180066747010 72.882514802160685 -251.267986538672886
3.854525289823413 72.938943535240938 -251.620978167517563
-149.785656664457292 75.115939576813958 -254.980342075618097
-143.067351049344495 73.892464665229653 -256.748372381088529
35.303990777801872 73.705407943989229 -252.160127088406483
-155.009347466227979 74.327393913166716 -255.051435431596360
-151.415725049727541 74.435715079785552 -252.786975150371745
25.762492889077045 72.375190050696006 -256.668375094622320
26.677311466796390 75.005233053188604 -252.307645135846400
34.018028546558533 73.988432483786838 -257.941368650194420
-153.848119647704493 74.275121510148196 -254.018551260697308
-153.312984691077247 74.202626238167838 -257.621529895709159
29.955457195228956 75.372472342265738 -255.122852314591569
26.894726983252323 74.329047681396958 -254.837894471265571
-147.463712646041245 76.372770218319360 -253.912355093899777
-144.587106101776016 76.985075665083485 -254.078343551502314
-144.259281977276174 74.450603018433469 -255.618401342429024
-153.859101631199422 76.260790434073314 -258.633696486272584
-151.142463304021589 75.534123317480265 -256.020364351408602
-145.938041729212841 76.795590390103357 -256.441011363105986
-142.083229879316406 75.821499724740860 -256.816886616259751
4.768707734552208 77.891682416424175 -254.471941035177082
32.814033865779251 76.631233776089701 -258.461570667459284
-154.899633804885354 77.221210150263829 -258.387188349220878
-151.629489983993608 74.840962141525367 -256.950666297447128
-149.521630745450892 76.562814223945253 -257.046236396442339
-146.864882525901123 73.818822977313530 -259.091060264696125
-144.175369593662737 75.131724663923706 -256.703632900866523
27.627021541554921 75.640566818494776 -254.531578790687803
-153.221014921339872 74.572050048281227 -257.836877788838819
-150.303285051276731 75.746656047204496 -256.449648047616392
-148.286567441165488 76.255377198906899 -254.766349026612062
-143.184252117132445 74.193586781000050 -257.673017003733491
26.158118893245415 81.630205244423379 -258.839625529798298
-155.792833495244452 75.224740246023018 -256.999949629256548
-153.283739600126921 74.517941737844623 -257.861684586622800
-151.462261437761043 76.314487791298390 -255.814494413836258
-149.096777569832227 75.484686817765493 -257.096522019726820
-145.491358114524871 75.859608276157545 -257.361617366153610
-155.114273559398782 79.346190507309743 -260.222639817043444
-148.634468215862768 76.294902066830034 -259.716320748266412
-146.367938273815469 75.414198845470992 -253.541782007491236
-147.255578573186085 76.279248468879771 -258.024481559059268
29.200789945148138 78.072501342137500 -256.499333258530442
-151.950438994872428 76.958753177650820 -258.296645522465838
-150.332167203163664 75.508078837848913 -258.563262099457347
-147.044052202601648 74.255389389346504 -256.729020722009125
-143.038818066204016 76.392123279669590 -258.819446965920861
2.223843126184093 77.698858739337425 -256.382764097543202
26.311887701658108 75.296157670948489 -258.714119787447999
27.198356832031827 75.162663162732443 -260.091185749812951
28.663426281092264 78.725220949723223 -258.594064766125030
-147.261997579086199 75.918370732554180 -260.117318957853854
-149.171661211775245 74.535052228984497 -259.233178908076809
-143.997578348659829 76.881126619886786 -257.481235204766165
-152.236468661501362 79.975158928765850 -256.573213128052544
-152.638549479058611 76.815410197669138 -257.599726578919615
-144.040756994293304 73.974760680273107 -258.706008320024068
-145.884902821700848 75.835161279311748 -258.350035892606343
2.308699804833887 76.801800205898545 -259.017392965487886
25.822068277177269 76.629639838613997 -259.759548368725632
-159.259659161441505 79.153780948103702 -259.560220279111149
-146.846910549659356 77.164322998111714 -259.183970090070147
-146.028250142591844 76.939585100645331 -259.175958436890085
-154.103843493322330 79.264693060596557 -257.654400246347791
-150.557911921928394 75.047311677502222 -259.727794506522116
-149.518390027056626 77.333719488735369 -258.844166779043007
-147.242758792742393 79.635028255812330 -258.588440777891378
-143.685356506452905 76.483279829822962 -259.177463363244215
3.274340335600851 79.362462857405831 -258.095556057659223
-151.613593048247139 77.101294069446709 -259.429120125811380
-150.193520538997774 76.512437354756941 -260.462916429978350
-148.461172790745252 72.958226419132089 -259.361570110428943
-146.704395561939037 79.124585688335131 -260.117833329542975
24.281449971657210 78.713654727501819 -262.216720971076654
-148.928017728254105 75.745425531148840 -256.102332805391541
-150.661189078151551 78.506782467299587 -261.527830091009491
-151.677630965318286 76.361398687045693 -258.836087825276365
-146.098122674896899 78.878704908952088 -261.500905676901766
24.440618581012714 76.097599931683845 -258.945997173277760
-150.998529689483405 79.421941470890317 -260.198169385432266
-148.717997887694054 76.655789682598211 -259.389353201889094
4.517690185270531 80.819746168581474 -261.628047142249784
23.241110886966467 77.874112609513588 -264.243130494194531
-146.879578692162426 81.434114309208667 -260.653547376142910
-147.694576143937240 82.350189469447358 -265.720115029064289
7.497564862538468 83.108731189899203 -263.982705042363705
-151.899631540404698 82.235399736334699 -261.931461108328620
3.834118509246159 78.787480374200669 -264.688309042389847
-150.755401168659830 79.552411766784914 -265.084340894418403
6.157607916723860 80.791089328665635 -264.856692295463688
6.276609408661320 81.360052564574985 -262.382053804133477
-149.501932038137483 83.699586689885678 -263.667043446465243
-150.317397531559237 79.175028879931617 -265.603855320274135
-149.010421136463691 81.966520998191115 -268.419989674073577
-151.783330843663094 82.091014749404820 -267.433196223225082
-150.345324396007840 81.817644479657261 -265.679024087898199
2.937199872220158 81.240805130628772 -265.755903450255232
25.586725428232786 79.633985232321365 -269.566534700834211
22.706143474897633 84.645368037643649 -268.581687072897580
7.089348172894377 81.563596937465604 -268.873862774617407
-146.672793676359760 83.892899234578891 -269.521092605283059
-148.064943789538461 81.890859478184282 -268.241321279096780
-148.040175061818132 85.173133085628095 -268.923303063227706
-148.010589393831850 86.853683168583146 -272.592052882266387
20.687642426915460 83.891736932180592 -270.645150713793782
-148.503912045321385 84.631897180307021 -270.447688232611938
3.981218275860233 83.724440146708062 -269.234887216235734
16.056072385559816 81.760107909124415 -271.634389578290552
-152.712954101984423 85.769730042374348 -274.394082083426326
-150.633778644805062 87.376435259379207 -271.706720099205938
20.683970685837870 85.493257983816250 -271.002259472739809
-147.556218723647447 83.580371524222798 -274.233197544869142
2.853234065559998 88.226767327276690 -271.607626970651097
-150.110715471521701 88.944525869631491 -275.979062140222140
-150.590829356550216 86.415304725870499 -276.570367071647127
-147.525045178092228 86.912406103384811 -275.939874005393790
2.623599306082668 86.714330637485645 -274.696875442433054
-150.691205585361246 84.159825152876337 -276.246003812076594
20.412092376004040 86.731593472008186 -277.300275695962398
-149.744223403905067 88.425700372449086 -277.223061032247131
-149.112946732308302 88.938202082810065 -276.985178510869162
-153.069139957977029 86.720252973452958 -275.776940112621503
-149.353262141777151 87.488629070756900 -277.075697358289062
-150.197033653873660 85.729346811162330 -277.530439805602441
-147.530782183196294 87.627041258186367 -277.565100862876307
3.087895939677294 87.910417993077800 -277.509010092637993
-151.618505052996937 87.813519509868044 -281.939364487489513
-1.020795726304323 87.895335454426117 -279.317049734191130
16.222296520283908 86.704026506421741 -277.995906937237294
-145.482129956733530 86.705772830741950 -278.285327183668130
-141.655652969239839 88.706084480621556 -280.013713811743060
2.624715236461584 88.167519857522635 -277.755007851156563
-144.610170112551657 91.649855881549939 -279.870698349373129
-1.832590821294431 90.382385221210669 -279.621149646734352
17.265577379328725 92.293102635891927 -280.201367617589995
15.309767672446487 86.834059495856323 -282.270667575820767
11.946961389515414 91.867910866156436 -282.156095191171062
1.796716054562091 89.668507982068519 -280.026270517237265
-1.022114576609581 88.500138507744140 -285.536027553912106
2.476436328675124 91.305423237102502 -281.509269298057518
3.511279761943904 88.779596058898036 -281.698273275165263
5.642084561417999 90.128809862336581 -284.743457149577466
7.803224427636192 91.877159989101628 -284.273152652667875
-152.301224778477490 94.058301477835656 -285.472886126676428
-151.739433166117777 91.714685467168394 -285.563252162438516
-152.707656744895871 90.654481075350517 -286.325562718068738
25.184961604847540 -47.194909106759468 -42.060452178679483
28.588110006242843 -50.821901080281847 -43.445543274243228
24.509623361757999 -46.887791833930898 -43.709559512694838
23.601517333748859 -47.033358305786400 -46.859943793462797
24.603867559320836 -44.520068925919794 -46.351617184206681
35.964918326667942 -44.731257421068868 -45.465005622546549
33.039582016887238 -46.403847626276338 -47.289045466421079
47.212418691048939 -47.762816751563832 -47.544317826119610
23.346278751318856 -45.209464416758998 -48.714900429047859
38.145035331122962 -45.232499266012304 -47.142442926037482
39.391311819136398 -44.093606864448859 -47.061440615266015
28.663963404791794 -43.889557841796638 -47.384750115954624
21.804612077112289 -46.591541347810320 -49.103378142091152
48.151850947907121 -46.130491825933177 -49.216130739412883
25.074653610700267 -46.082047983954887 -51.063831754661265
40.529565647166827 -44.079441378793554 -48.133525151010161
43.889733701473268 -43.689351668897977 -50.717260689379223
47.589239398342201 -39.431741700312337 -50.376211832738626
49.837508501302970 -40.352871948924026 -53.334512926981745
42.629033423681875 -34.863979121088498 -55.051633404126136
43.189331216547480 -39.733815206516077 -57.814756838322687
18.454385008270762 -38.425803553289562 -56.713290966478183
48.729084817317997 -39.878100831286872 -59.306863890373982
39.347034817745026 -36.556422619428211 -58.526567427583636
20.561626506560380 -39.188529313334243 -59.655271234100098
47.143385070603316 -39.796253504156688 -61.430447811476917
39.500916558380347 -37.128544832471306 -58.446371868690576
21.987563166005465 -34.307697583459870 -58.909708376106430
46.007771975830032 -35.111628439189971 -59.800820119408755
35.008030575082273 -33.126000696493435 -61.731833098229693
34.938555386696812 -32.546861530212922 -61.783004824272744
23.279038945057046 -36.226072283138876 -63.959646321928375
43.163112121978749 -35.922611343857916 -64.073337012623085
25.648016800893444 -32.355428874163451 -66.161450186068521
34.329394632781359 -35.892464327303145 -65.902381114882573
-67.335300822812854 -33.370920295656305 -67.932182906240200
-64.017972304454062 -35.185641571383456 -67.490042781730892
-59.537953404010594 -31.456280770589135 -67.802842604902153
-50.045164909136339 -31.705129513516042 -65.930767037791554
-47.253944402347052 -31.527938856620111 -67.366887935287295
-76.774766254964746 -30.679876337517864 -68.467939558266309
-48.710259382750493 -33.657709198643055 -71.260106327551370
-78.101019828518687 -33.700383355039023 -71.416174868501969
-43.350743909188360 -31.645561118984332 -72.063123322606984
-45.436373051623349 -28.939497479890470 -68.627143738469002
-39.857874027112913 -30.481987633282777 -72.514353560113946
-81.242044897982865 -29.618576962198151 -70.416272211236802
-34.368912842033417 -28.840701299756443 -69.778723791557695
-33.790102653070782 -30.695731253988011 -70.481441379642604
-82.139241570757989 -30.839427204228876 -72.200788921415665
-84.238505039496189 -31.565421830640844 -73.238491982869675
-24.131895041317225 -28.471261482588719 -71.333543073358797
-87.574979444711502 -29.060990110450362 -75.128591134918366
-19.483864300415057 -28.293467249870670 -78.131836006343192
-89.248327197085118 -29.351652627294026 -77.792242419145353
-87.546168045887654 -26.157132716063806 -78.333178609179470
-89.883362762856649 -27.224426298395908 -77.526613835674510
-92.065502000624463 -26.370289740341004 -78.556680322725583
-93.061498374298665 -24.048033194259478 -80.402781926419877
-91.825736038405040 -26.346264650434591 -81.111196640694004
-10.606525651939359 -25.868319173687944 -80.723659374595840
75.964468668786679 -24.273338183880092 -82.694444154547298
75.977605535786509 -24.475065780498902 -83.882437982226065
85.364427456877223 -25.476858693238455 -80.521778908052582
91.556855906894185 -25.515057104301636 -82.205201001984221
94.391858641159146 -21.740860222528902 -79.740074545603946
73.661890796740039 -22.806226124672520 -82.050462123099152
-9.006143266932542 -25.150339223622098 -81.906340355240786
73.109770912356637 -22.105332462215536 -87.486660210806406
93.206690828016789 -23.526018908930226 -84.796918519141741
68.640166441483558 -23.311544247909822 -88.359706510391035
-96.879837647014369 -23.607826807478965 -84.824295088466201
97.769530269710074 -23.371177693672433 -87.793664173192269
-9.927992717533790 -23.768489782074866 -89.214213338565472
-18.274097583123694 -22.064493929436839 -87.272208577896095
-19.464273419491658 -19.808601658125522 -88.928589605425998
-26.031431361265437 -21.876565511675061 -89.595873639322704
-99.775849312838318 -19.273918021353040 -86.696181172651279
67.808114483901505 -20.633854497512829 -89.487666806200636
-22.314057795902485 -22.400142224076337 -90.850078590093645
-29.227789040457736 -21.567328694393396 -91.444164046577285
-31.289947060125794 -18.077232295542963 -92.106349370077908
67.312064491277326 -18.139358303540664 -90.625993900897001
66.620446521408923 -17.973485428631303 -91.613700147594130
102.242120952921837 -17.137946005242945 -88.578890993289278
64.710077174446781 -16.258639555256316 -92.197023183691201
-97.512045620866303 -17.759148459698949 -92.231186066073761
-31.906048900235426 -15.658265335085316 -92.184901343546045
-31.011236590343952 -20.070774176218958 -94.650744351521510
65.103490219697164 -16.381003611912934 -97.120935898075217
64.777868632074600 -14.471842472457277 -94.402133622171974
105.194675682303142 -16.753783671321049 -97.871441584192382
102.025193297131963 -17.630506898469140 -95.144406560330538
-34.983518640983995 -17.270608378931488 -100.121101457345219
-53.533391390686390 -16.651244210902920 -97.106849377108816
-35.686379140332718 -15.342493230759606 -100.275294069353990
-53.158161158196215 -14.803489362452879 -98.791450364987341
-52.611313533790010 -15.466257609653185 -101.540203297663311
-52.856890778184884 -15.213855577737693 -98.638510402532773
-54.571278183794902 -15.006705682193818 -97.927798460542306
-54.683861671721210 -16.013833719688840 -102.007559982405098
63.340633750898405 -13.835283781553761 -100.744681611961781
-57.047430250611427 -11.500924754360758 -99.877785820178843
-51.545163704211170 -13.997009593670644 -99.176544072146527
-50.187067105681301 -12.628312822233600 -101.146464402222250
-45.145094808071875 -15.560768710717182 -102.119312943627250
-48.376084566388201 -12.889918941691198 -101.744740879070008
-48.323918643187028 -13.055565946463938 -103.918351878788002
-48.314083141610361 -13.961353179788073 -103.683067398415048
104.860517572740690 -15.088267204675127 -102.831127156980273
63.046533928248749 -14.741489042947507 -104.668403123942966
64.953500574079953 -14.450021020337630 -103.486956188874998
-59.558280807042223 -13.620954068569956 -100.943432285452417
67.356855381448312 -14.050132222066505 -104.803261197198893
