# This PCD file was generated using the MATLAB® pcwrite function
# from Computer Vision Toolbox®.
# .PCD v.7 - Point Cloud Data file format
VERSION .7
FIELDS x y z
SIZE 8 8 8
TYPE F F F
COUNT 1 1 1
WIDTH 796
HEIGHT 1
VIEWPOINT 0 0 0 1 0 0 0
POINTS 796
DATA ascii
-28.285293904986116 38.069381660114274 -217.098589403708189
-145.527185325380231 39.179207711174293 -217.365366593604705
9.643097957715076 39.114531101938496 -218.134167844371433
98.005013594671325 38.448633118100823 -217.691714560487469
-16.730759577177444 38.694042951303807 -217.880309746642382
-7.479262896439367 38.388207558878953 -218.098276760443184
7.667876543000593 39.492035335715819 -217.741964795428828
-77.511277337360895 39.604564677837473 -217.435122354239638
-32.222919084891799 38.839067300807308 -217.060397488391033
-75.682876830373516 39.028028950455827 -218.292160286671901
-37.180738322259728 38.815845633541457 -218.893760477460205
-36.274445276358691 38.312858032591585 -218.856100562795348
96.643067166747358 38.558141059237897 -218.844726595272249
-145.972125975491963 39.481377704058978 -219.497850745965053
-75.030693578801490 40.551004868184073 -218.950009925507089
90.766225519966710 39.301370727815069 -219.518647080768858
92.293257824678648 39.284943586591595 -218.225692897861819
96.691752221923096 39.536368753150576 -219.696754846902337
-148.671804089648219 39.126010002069471 -219.309112929293974
-79.125386888341637 39.567824654382157 -220.036439529753636
-77.104448745377880 40.989804846223294 -218.230579489032209
-75.123913653313807 40.659955903365613 -219.295014783476660
-73.993215462896046 39.234455367641218 -218.705347190959657
-30.932483232974580 38.976536481902059 -218.947923351834277
-26.468662657162273 40.073326510706877 -218.709981924645518
-20.048285980874184 38.282953444097643 -218.883843025806470
10.582445793466800 39.274496342717306 -218.017677761040062
-81.203149928881174 39.563632280087973 -219.035059702300941
-78.520063910286041 40.883602938624904 -219.946158399640836
-74.130856810220479 39.939408222981797 -219.111460213651867
-28.512992166484526 39.864810724671848 -219.742038960300277
-25.047137062567629 39.887533878963318 -219.958907620978096
-19.354738927837005 40.380811419417199 -218.813692491547101
7.650764297443736 39.878570593055429 -218.386055296844347
-145.781407524112836 41.209960919785992 -219.636598454942714
-74.679536990676453 41.143955892725636 -220.165681890727541
-15.464485851233384 39.648507513029642 -220.072569810783762
-8.767553066333749 39.881742399917670 -218.918561424505015
6.147004499484996 40.713527255990790 -219.236496302728881
96.419926653950128 40.738099329869677 -220.293251703291531
-146.304607454100307 40.256905784521443 -220.173777291424869
-83.585566013438324 39.591660955843139 -219.703350599737945
-86.190240752680481 40.980838095736360 -220.330460015579149
-74.269370580717677 39.411510535760954 -219.683928821701357
-31.685045360368580 38.582599593566997 -218.314068014516465
-34.696777118471161 40.263540612934335 -220.443609594709301
-30.546295550108862 40.933401039565311 -221.391300848452204
-24.699020937200423 39.878532571602719 -220.043660958008331
-7.864864643857718 41.781670412121628 -220.343808653902840
-29.445572621842278 41.277755903004270 -221.230037905792273
-15.366800452781520 42.106726579964537 -220.709207645703572
-4.700269637894802 40.740879007000402 -220.965071369088065
8.344545453388410 40.254936131682420 -221.354556053415934
-86.558654553620926 40.891352881228386 -220.671613360484798
-27.048495797220824 42.013205112755422 -222.139823658353606
-24.403458739701403 40.939206558449030 -222.078652062201314
-90.323735923954587 40.289525855439486 -222.287976434568861
-88.409973832547095 40.788546288327694 -221.952743434122993
-74.341512698560564 40.712926586826029 -221.860859037395443
-75.037269481179038 41.557726499627414 -220.190455643414651
-28.225844164298678 41.704707918686218 -222.069641927445844
-145.486218737013502 40.082581017827216 -220.848466897014106
-75.500292205887177 41.562074658634245 -222.114391074297231
-33.629678188966452 41.215799027150986 -220.330423484781392
-26.480161182512518 41.059139711184180 -221.074627110463041
17.397372562485977 39.922400264741100 -218.778438273489144
5.689149257595865 41.447792854984890 -222.723194661116594
18.697592514787527 39.565390088675500 -223.008773230265149
-149.073601317980064 40.610351513391414 -221.103332888204449
-90.701062555378513 41.062895234704733 -223.605380394303495
-79.379136821116617 42.761827912000257 -222.298578049011923
-28.763707846583049 41.651943437825828 -222.578387867695341
-14.655646104521209 41.658594885856438 -222.892791700828496
-27.014869003133807 41.875608505568451 -222.610897840907427
-24.965923645603166 41.320145924367459 -223.043339624872743
93.107996262296410 41.040797136774280 -222.589430061527707
-91.255031746118064 40.957127089333689 -224.173255909322847
-32.601153359429674 41.445589099490483 -223.596950352823967
-6.147460269567364 42.114713721192125 -223.411540406903583
-2.725458933684171 42.808773293665915 -224.058693597704803
-27.527346364772288 42.186443704666161 -223.170193169908288
-13.137177461983226 41.590180947888889 -223.098460433083432
86.109123552108983 43.355522537564326 -224.090159928973833
-146.103920286478854 41.782984994638767 -225.269398812580931
-93.464268717257653 41.928614625569864 -224.347929199376637
-80.239361154877997 42.662274175769596 -224.019385174651148
18.534272541151307 43.361632978911096 -225.597081544320559
-23.954962819447015 42.350969766882152 -224.205370408926001
-12.967960377682591 42.464514837002739 -224.073460390174546
-149.437765056387093 43.400592135642789 -224.134102385903589
-146.614085650854577 41.584628048914091 -226.106662808715924
-84.955490834695524 43.629155008779293 -225.195076246596159
-29.237824277347940 44.459922209420476 -224.534200908044397
-14.159058539451241 42.500753849087069 -225.537903083936357
-85.356030960277508 43.314856069177310 -225.561977427134934
-22.455189611278215 43.585804120238748 -226.097565525450051
-18.815499759750583 42.544394986035357 -225.389707972859924
-4.021796812210289 43.621585770508069 -226.738246847421721
16.281975049780382 41.986908574237169 -224.960251694789235
90.801864318022083 42.535207347650207 -225.528016878915878
-93.985649864728131 43.394575089439229 -225.889829887792217
-26.119869055306044 42.749163667240310 -226.139156775788223
8.730981257099534 41.900341940631421 -223.201163392220082
84.873593901691422 42.381130248265137 -226.915494287715205
-87.861470983537941 43.538009478027647 -225.764297657346759
-11.826543062132210 43.535470485715841 -226.487221212703304
-4.289397904589994 44.074905814705971 -226.465780349442156
-93.087935984836633 43.615717884478720 -225.761850961741345
-89.960078880532791 44.910655536396504 -225.426400282881730
-13.750915099490646 43.146447404484384 -225.639511654842806
4.630725528426643 44.244735450348330 -225.884827474627912
18.186961408725463 43.507416009754692 -226.959320370599016
-96.036841037503180 44.438714976627502 -225.898931973143050
-92.859964912268936 44.191646596349344 -226.960414339290026
-29.057284642365520 43.106308487534086 -225.220717901653131
-24.826468574761243 44.720937461107802 -226.058977143292481
16.660582726270665 44.974535802768365 -227.281711275587753
-144.653025970414120 43.916531338138846 -227.374323327207094
-93.985167826058557 44.733577410285505 -226.879802698049360
-10.427916355543910 44.207219841837031 -227.261809505060683
-2.934394048092988 44.137283565722271 -227.945106827912724
-148.780792033463769 43.541726740929825 -227.104253813962373
-27.537817358248059 44.381569687461450 -227.641823503778937
-20.508019602073965 44.321923518454035 -227.564077241806160
-16.089562362235725 44.903316618970045 -228.399115338076598
-0.531315246891513 44.190110757189082 -228.643908826525660
-12.143650293726004 44.876076081852240 -227.759313479406501
-0.880734673956719 44.884078749485809 -228.213602127477031
6.850805578778763 44.579332805553996 -229.227560430579672
7.487090720518932 44.023685178931053 -227.187068045807621
88.760802074199120 45.892851203524671 -228.158492383080187
0.576992909474335 45.056931555770682 -229.372221374105635
17.488119630062478 45.661357987684973 -229.154196866883410
-25.515866840345065 45.595252452965177 -230.307273001554620
-13.736972874829537 45.401095066743409 -229.721931985105073
-11.750472961480833 44.433648012862122 -229.012352241288795
-9.423426664008559 43.804048104076969 -228.875914470050304
80.505955219964918 45.938757123565090 -228.869143766946621
87.628527684299726 43.953402114740427 -228.437359708287175
-149.710370667598255 44.640367767748366 -228.924169010867445
-20.914595557443413 44.967878436292317 -229.235543815711281
-19.020527808818414 44.740847049629380 -228.455296199537230
-11.300474124593137 46.254344595278468 -230.126736703030900
-8.150419364342834 46.524669251649129 -229.746955273137502
1.340384205586837 44.488751636793673 -228.602579576663857
1.418412125589841 44.584368552425566 -230.595591313862457
86.919374080693402 46.108212104409816 -229.421040203181917
-19.827778410968154 46.714361400372262 -229.881661814474796
-19.136045308669523 46.149412499683287 -229.163054405787335
2.090518414036148 45.876512468016948 -232.035873766876904
-150.459379266252228 44.467057526395116 -231.169867497104832
-143.695872374449522 44.516401229878468 -232.309076240111779
-11.820554770569395 46.644319881311517 -230.552273338665373
-0.408393834921229 44.648895741069644 -230.953756835081634
15.357476562874707 46.256614689152229 -230.386713714882205
17.921008093067247 45.429617237774416 -229.847123782132741
2.564100117041301 46.662094729357456 -230.496982676295602
80.323310924302589 47.299556960470738 -231.740416201066495
-152.220555127237816 44.893566269764825 -231.930684063359507
-21.976670988168138 46.892685014241160 -231.437379071254213
8.264721032936086 46.506568508555603 -229.275048780888767
-17.340171658358244 47.604076630084137 -230.292388069322698
-7.207695464981457 46.547303596666403 -231.271516117161099
2.992401733701412 48.257793157198336 -230.592790344096841
84.668730212842974 46.833023216587868 -230.332609141803289
78.962747161311043 47.289791881413812 -231.559226989580594
-19.939558641768613 46.968015151310411 -231.838711855111654
-9.060193394573597 46.132319139394440 -231.573079536583464
7.360709689704422 47.906220555816041 -231.758622191094958
17.971415055142334 46.472830462001241 -231.719021383107929
76.691080490263616 47.774828491010197 -231.346046633667015
-142.173633448087969 45.221007359488077 -234.186976980940130
-12.292593615326377 46.120206952006519 -231.911790815172424
3.046392277378269 46.618293032634476 -232.554056007090679
-5.898178583255278 47.441437062481889 -233.518250613892064
17.782972405864957 46.535804597892593 -233.110621162210151
-9.048076805256212 48.708393176353098 -232.295896266060254
1.192477212691521 47.900271314088215 -232.536627293638048
4.245240831879395 47.591335160759989 -232.560963996776962
5.535604390841441 46.432643350558621 -232.626569503229575
-11.031368628271339 47.560920634381695 -233.208392966919575
18.598512987515910 47.712240169966449 -234.037633046081993
82.509573129415827 46.985770665905818 -232.426366498494900
-8.615887828467317 48.983006026359092 -233.249445261961796
5.147440000336727 48.300375566823753 -234.331107570127898
-148.551810538672356 47.600183744333123 -235.100840110866670
-18.953099026714380 47.833329973576454 -233.769264847644649
79.084650452941247 48.355717432785148 -234.641841281368414
76.409956857564652 48.770991141882043 -232.554769515940222
79.162099089896657 48.054289001111506 -234.547551978657509
-146.215123833870109 47.676055071872483 -235.005085784808415
-7.455307557230567 48.214546537175416 -233.845263123611176
2.540622929380501 48.173472814280423 -234.021023508807588
7.609573210765270 49.812783601223266 -236.001910213458444
75.411950298374023 49.413849137748848 -234.198716689904046
-17.285317283345950 47.166452888919807 -235.490529104218183
-7.859528441042501 49.524769919386820 -234.288694144778844
82.150547773558202 47.780712040889838 -233.835218829887509
-146.994911437531016 48.302115749011904 -236.102677595665085
-141.086554660869353 48.452050864080498 -234.450736401590973
-128.327589276013015 49.772027028982450 -235.501060729175776
4.912519628546419 48.308246828655584 -236.042812508679162
15.583838819339029 47.882932169940261 -232.465088503867861
76.192019071766168 49.068005297189686 -235.123151387051223
79.518838769068140 49.599342762077860 -235.865073899670762
-14.121154155103628 48.742477604974638 -235.426962364059307
-6.276070433512141 48.458551276684020 -236.098345306608167
6.049194314259300 49.241536645859341 -236.809160197643365
6.496591552189274 48.673047425839336 -235.766125472744051
-142.192913435376738 48.830497011803189 -235.847355284316336
-15.400854518791164 49.501315506035709 -236.331172711423619
-13.741843368518639 50.125654393663723 -236.937947789654288
73.985981476826936 50.178404501992745 -236.260318771818902
-10.523541743566851 49.367353760003716 -236.542486869325955
-5.727275943727485 48.888460393605662 -236.297782618340193
3.178890125382287 49.575578794879434 -235.976498567156398
3.017324969838685 49.470313058132284 -235.429047374318571
-7.774880596620489 49.399533949397757 -236.669977754240676
-3.543525655075663 49.777791196491599 -237.310150975584804
73.693991899460656 49.674223866065688 -235.953766325489141
76.188767642680133 49.349071111544816 -236.402415564763658
77.857593071689763 49.621368318816103 -235.563973196240823
8.815055396602498 49.446516300291684 -238.217642558468697
77.050251636468133 50.590325595125556 -237.710340394267149
-9.033358174936232 50.360688487638271 -237.710585065627328
-4.262158474057465 50.006100443607835 -239.036247410907947
72.336864841269204 49.878884670377744 -237.750447179515078
-152.892132725168636 48.045718857305630 -238.998158164605599
74.814639245131346 51.002507490275555 -238.257538923111639
-153.070139258402179 50.217398325193486 -239.607774386268034
17.896768703331325 50.713895634364725 -238.969422364565759
75.250095677820283 51.001095527805653 -238.020619192292514
-3.266426927326437 50.839121072959770 -239.533646277355217
3.077844139060598 51.311796258225066 -239.850606390760078
16.341014469348330 50.936917194767787 -239.901406788374459
-3.110949701863527 50.781840104157823 -239.925099252900168
9.318867335676373 51.863418847204848 -241.054957666721407
72.006968901867864 51.545914413223990 -238.563086559080745
71.011313697579325 52.669867579911447 -239.942572287934894
70.315004027655334 53.142521811132106 -240.364250853128794
-0.170388461932799 52.533042369988948 -240.355111508436323
-2.480690512065563 50.672307474708013 -241.316676932547580
-149.274729370211418 52.111671553961145 -242.971763935854028
-2.991373236040773 53.802316114485727 -241.128124188490546
5.812835423186467 54.008432530463026 -241.433701893936444
17.611163291729934 53.298176763050570 -240.781163307493955
19.247592230243765 51.657130480871125 -240.205123112278216
-145.948679724499272 51.823721859873025 -242.784518512167381
-23.519669409257286 53.341677772902514 -242.599721607010935
-20.283708634040376 52.605942920613565 -242.263920229338851
-25.506152990397492 52.676466585558451 -243.091830648181514
-18.226188198379401 52.850123168060080 -243.929864084601462
-31.336409429100446 53.953319165076351 -243.934083039368460
-15.584091678043844 53.149268655755591 -242.519987773350749
-146.634928135742655 52.866055340294388 -244.559784962787063
-13.183969860121687 54.308294044505224 -243.094611689494116
10.097138837974484 53.985701254304949 -243.728516256144786
2.698592047460584 53.767473098638952 -245.181955396662602
-33.591652325549155 54.055570569568125 -244.572087880564283
-14.835208411869589 54.102182847064007 -243.881269406212112
1.678229481231048 53.822637784298230 -244.084637429215206
-37.313688769692632 54.497093129625071 -243.858183581158357
-13.450750777783854 54.844646327955999 -243.510895552805664
-149.329713023418634 55.040254492650419 -244.823645466516609
-40.191863527940271 54.803576303003155 -245.522295529721845
-34.041807432872865 55.095041190826727 -244.962920879780427
-14.300368712658916 54.835775987784679 -245.133509144208034
0.400396364412247 54.486741018237502 -244.277382559096594
4.445013051667407 54.481362542132075 -244.481116955757130
-42.511128921249686 54.403704251757304 -245.367514149648201
-38.771720566750801 55.808340793324064 -244.403706248690469
-14.563550930067610 55.628112215895420 -244.599110987155342
-43.920762181573444 55.615520496777108 -245.748187932349538
-17.201115209208968 53.585477086187836 -246.148021451610731
1.071818803427045 54.596386083870975 -245.765508309315521
-47.846134842818294 54.967518003619311 -246.215307818764359
-46.085135940175036 55.139390451545495 -246.121894689722524
-17.266931946943270 55.511071048237987 -245.294500763926294
4.358416976460957 55.503434382379979 -244.312896844371068
10.695144508532071 55.670075646953606 -245.999928467912412
-146.135051326007215 55.936077311322464 -247.987336090930540
-50.022984009399245 54.602838146359872 -246.585350911095929
19.026373376121661 55.466310683893170 -245.174320705991562
-149.975795976441333 56.829958917949583 -246.909023319348421
-23.068262012956097 54.864828752672373 -247.069306805213785
-29.899898719178641 56.001489348011106 -247.806229600423961
-26.352788682757136 55.658971434392512 -248.029586832076234
2.503200116611240 54.678752412251249 -246.948575794140368
6.010583221802418 56.498754173976579 -246.319778812869913
7.449741464163336 56.066668798111046 -247.606782370944728
20.022052630752992 56.365809041997800 -247.211464066089746
22.193615456702759 55.447159412382128 -247.340498578388434
-54.518714038869092 56.777413609856538 -247.668160357997124
-32.948391743131786 57.243980671712997 -247.577649023370157
-27.499959597861288 55.485111497818856 -247.143209157703069
10.640048753052282 55.864822781460425 -247.318724226635879
-59.264965117098868 56.308096166262864 -248.347335524735030
-35.214623123794787 56.595539771475508 -247.681828311860443
-33.735456178524792 56.003400194728769 -247.753418561450360
3.508414235202821 55.917804100958364 -248.315737238191872
6.496775604218210 55.870901030311899 -248.247893078578670
9.063882529653414 55.777620676102764 -249.222739971960124
21.054693422652953 54.591260827734530 -247.948689036887572
-37.215851638983430 56.561466884219023 -247.800113258875342
-35.328971318366882 55.581133293164662 -248.356239257328923
3.971982709546824 56.013669148343510 -248.192320607327275
-39.486134807359363 56.591434825370307 -247.532599893237403
-37.128787140926008 57.292728558072653 -248.738547039293309
10.736314583700795 56.223569842813859 -249.099352160269035
-63.847001098600117 57.660283144494421 -249.544105808957312
-39.803413179530665 57.390546957001924 -248.986093359213356
19.218792227129700 56.684433432470790 -248.655711494688290
-0.182245696559608 57.000361826669213 -249.946759125489962
-44.475812056076215 58.188801403170693 -249.463163878292590
11.426159806851400 55.773842051093617 -250.340094843011457
-67.551890756440045 57.193167076026697 -249.592023512419416
-2.863672109716952 57.420270916688324 -251.478692959547658
-66.914675369451871 57.039982060450782 -251.337203018627065
-69.943418866885338 57.779012651170767 -249.880709300271633
-45.562790106070310 58.029140252733882 -251.086433744137679
-149.385847032609092 57.595484167085459 -249.708466451459913
-69.890162012878122 57.325274503424986 -252.433777920453110
-48.478112015811590 58.269244666629099 -251.195352823487241
20.062163190189299 59.377082486167566 -250.898904473382316
-146.009336940114537 57.443321572257176 -251.867503122601306
-50.449863564537388 58.408715065404579 -250.376209799079106
-6.256975882064588 59.289192345915822 -250.354115271527405
13.225697290764225 56.590728795702326 -252.386374463789394
22.360641844174889 59.306062676593363 -250.377330045382791
-73.047368859318922 58.441988921384215 -252.200691758327793
-52.764663446135863 58.686394562699206 -251.648099957017251
15.541048600787507 57.653849110357385 -251.112712349911419
-146.582082297184172 58.409820120827554 -252.693408683305847
-56.976639631543655 58.330515977164985 -251.995124861215544
-71.941945778362992 59.297850357366549 -253.619820654037511
-58.556107999166180 59.643733557357741 -252.861982877231071
-150.659634938344709 57.761788565594095 -253.142069736561922
-76.647814085717712 59.083746598161852 -252.206168395309021
-77.627535020441897 60.170157138234323 -254.136935828498480
-62.815130932374259 58.711237273489402 -253.975829852212144
-65.373301636273695 59.390753960610958 -253.532989655459261
-63.421058301791078 58.831626928128507 -253.565196771936115
-9.142064011900571 59.603431760889094 -253.791363467282281
17.278775933316187 59.761681222284139 -253.593851610642531
-77.672533772346171 59.366727349688837 -253.789678828380659
-66.832771201125240 58.884507054499771 -255.023415758235103
17.691448793015429 59.095047539936090 -254.342141323727191
-149.673870051309848 59.461668490909574 -253.844846805865643
-146.044681093433468 60.072036872199547 -255.415330747490373
-80.818605294420962 60.870468098462396 -254.263712837820350
-72.280391591631144 60.356837021716096 -254.707161224893525
-80.809887164752482 59.889480759262831 -254.974338916384966
-80.270859045299844 59.098929978365732 -253.158837404196049
-76.924615391920810 60.321841637897997 -254.636973920025270
-11.501968109345759 58.754568275332872 -255.094343000788285
-151.236510010676426 59.439699115141138 -257.113178057074379
-145.634385541641308 59.581597035395127 -256.383800457220161
19.441279860557266 60.302674909153701 -253.711372373947796
-85.316646685093559 61.766666808434380 -254.531455128650407
-81.798241593941697 60.908888717092132 -255.562334459334920
-78.816955832853949 60.723589605647469 -255.126821656254265
-78.794154228662336 60.291103900997534 -254.958682427314869
-79.475163242307815 60.109964397580519 -256.503602665205108
20.200194667462871 61.187963268504127 -256.833925154171482
-153.581204292209321 61.511245885505282 -256.059997711687686
-12.616771608761569 61.445828552610365 -257.122989107396904
20.579455437365173 61.653648446085512 -257.743783918222391
-153.984113863809739 61.795991038089227 -258.083209617628427
-128.246661660969721 62.548008810094728 -259.066036070763289
-12.071554018222729 61.941604999088298 -259.194740116030061
-142.188664631460597 61.441249049882892 -261.357579587362636
-149.127875811884991 62.951536129820589 -259.790201806877121
-141.288302313001481 63.124460402164800 -259.625799437280364
-132.911857372405478 63.501811935302854 -260.333196716679367
-130.380768404841973 63.317475767060202 -258.738747276555102
-124.985382452956600 63.371749622156692 -261.544769907523005
-127.803487120802842 63.521472417117273 -261.019646332663115
-12.626428423279751 63.400794491880312 -259.152602004056178
-147.355502845457380 61.365411326954217 -260.884913614063009
-141.277787154768987 63.964597572100757 -260.826799517349627
-150.453031575335729 62.818381104573611 -261.336057067415254
-141.297521419350971 64.077033979970281 -260.677378297806740
-133.907105582416705 62.920942308254581 -261.819459747654378
-12.659573524400297 63.360771108570134 -262.453933720672467
-141.872244390701155 64.065864990945386 -261.701943504742530
-155.387299215941937 63.093254845521734 -263.754314725849554
-149.712868249957722 65.348675460766472 -261.787885163909891
-141.483096679035583 64.451640763417203 -262.474303065424806
-130.593593306349874 65.158433111241251 -262.714983559818677
-124.875216978275631 64.513264222471506 -262.154432566702155
21.101814891444231 63.886799034433679 -262.586875730846657
-133.671084172704411 65.026512483440968 -262.482456189373238
-125.810144033763109 64.962865871470484 -263.735444061496764
-14.268764367812743 64.747049474970083 -262.468190201909522
-142.569744981557108 65.445525605892954 -264.180218496366138
-132.353943965232361 65.336515595680865 -262.742431472719034
-126.530004211783293 66.433646911764825 -264.261138248885061
21.750887977014020 64.203630546213134 -264.133326793982292
-154.582968557289234 64.980409428217911 -263.399250016999190
-154.014951886593281 65.455597648674001 -264.732284673954553
-13.140249638549754 65.032700191649297 -264.731104328124616
-151.074408507294976 66.889588829743445 -265.520429943800082
-149.421284336316546 67.135047869632530 -269.330072486711686
21.960841658695866 66.103321632161666 -265.577506781005923
-12.311962460955582 65.879242975669044 -267.548565265105140
-12.027794650526154 66.971895879372624 -268.883061074980560
22.307338360364316 69.013425423505609 -267.822370248827838
-146.792091347672994 69.174979243759452 -268.852889448317740
21.857178793477921 66.739716007973882 -268.596690198191027
-146.424280122987454 68.602313604930245 -269.921277273047906
-10.580773055592729 69.062019530746966 -271.490088226359035
-149.551602527617717 68.861401163010939 -271.490380954294778
-11.709706921536887 71.177157968219419 -271.457747046909731
20.013353246217594 68.862382562669524 -271.437359702870481
-147.057367765850387 69.694538526772689 -272.444055025968510
-152.039813802872828 72.981133308285237 -274.712606130810002
18.649176163070326 72.277128759653380 -275.768022004788122
-147.795245340262255 72.798094180721691 -277.005663324105910
-150.509560529024185 72.232879113956983 -277.312515873844291
16.361821558196457 72.247776448429633 -276.908429372139835
-7.898931218247230 74.842225084272968 -277.742755841956580
16.272863308197497 73.965832369138042 -279.697296318599342
-152.516123137152249 74.075586324412029 -279.839653100846192
-146.826925427410487 73.943678895074754 -279.036485716084940
14.886758145648839 75.135476815186507 -280.655135167171238
-147.056645185039230 75.094635077926256 -280.995859154347897
-5.883765880713142 74.425938739079669 -279.772459605296149
-4.986934083453398 74.910767306634739 -280.544722432280878
-164.819151779885601 75.436874026313319 -280.764221990035992
-151.615736932263417 75.189279386550808 -280.463953805280482
-146.893997336000126 75.475553878955893 -280.901044064062773
-5.031909546579808 76.773942526781553 -281.379679239643963
-164.320869736223415 77.300677248226890 -282.217764002182435
-144.775528715989509 74.927728638978266 -283.441068186896928
12.304002235863384 77.037295085205344 -281.921008732486712
-154.730908044864151 76.732122448005001 -283.336765877090215
11.113595768699101 78.091940589266997 -283.761275825764926
-163.750205742306065 76.725374969465307 -282.144602509818242
-144.339689389721570 76.615331457897923 -282.560910841770863
-165.498075743529967 77.808832633857719 -283.582539344599468
-155.598437077305221 77.532877551072730 -282.843680436063323
-132.852249327446430 78.295380649649587 -283.566069635687825
-128.360280403263431 77.834961625817513 -283.933189403508607
-28.600488770947301 76.363071294574723 -285.005645638843362
-143.387326738329961 78.317716244041137 -283.533636052540601
-127.906260180802889 76.814536552126583 -285.033293483539978
-1.310530598190194 77.218293349768331 -284.313182997955892
-162.193247907659014 78.928671957396134 -284.684809275925261
-155.017170538917014 77.367366512906173 -284.216656523156018
-134.160961469532566 77.044534083846159 -284.808730539341866
-125.485593988327892 76.678301751013294 -284.711146578737214
-58.371123198157299 77.220040675380361 -284.206888541167132
-50.782705840009292 76.906264170529312 -285.039049467921814
-39.242042206242523 77.647638902237134 -284.590609375726956
-34.055707995147976 78.454756109909013 -285.656167942629736
-1.681772892864058 77.245394013831898 -285.448696468668231
-156.176611922792461 77.870354237798225 -284.865734403328588
-63.750803850224486 77.367152099402503 -285.243547371947443
-61.096978448484528 77.340821245393883 -285.645246119633157
-26.674571052897466 77.901339475438249 -285.308007152611140
-14.287441676602214 78.050264526981636 -285.350660134913824
-10.117961758127862 77.119166657027350 -284.924942775042723
4.242123893596990 77.413073316935794 -285.049663939412085
7.015995583366966 77.374328873737852 -284.866755132628498
-161.588261226148745 78.478612769957181 -284.277285719837550
-148.061129924766220 77.541866371599752 -285.635653083259342
-141.774077879817241 77.773849532482345 -284.446106037756579
-135.031364497504370 77.226925027309449 -285.158634290995451
-77.542380381224476 78.650233701756619 -285.046079160350757
-72.728137141045849 77.617098659546542 -285.266970254199293
-66.973801620619469 78.735173288337464 -285.489299535581551
-9.766542445713094 78.010720342422076 -285.051387633356569
3.977769653447134 76.664299020114711 -284.863766309700225
5.969387476542485 78.243650624147023 -285.871067856714433
-165.714498085841967 78.329193956145232 -285.244635311434251
-136.130820235390388 78.735943478707867 -285.793739584207799
-77.184703906769059 77.425521349423633 -285.654823087348632
-5.248482199901003 77.742861209455285 -285.563305432907043
-0.598248480018359 78.084047784899582 -286.159867220800663
-0.399858345194263 78.093761462873331 -286.251042006983369
1.598403267211801 78.392452552666413 -286.479137765150142
2.453853313009541 77.348551181102039 -285.712570659166374
5.430576228652502 78.866942696420708 -285.045802414112870
-164.078082342612646 78.733835819153654 -285.956349037612483
-141.556198317441584 78.174299177899471 -285.338649979041008
-137.861205483272727 78.639825906739475 -286.445949756998573
-82.899556378789953 78.779280229928901 -285.281478686931621
-76.879106456277739 78.141082415851571 -285.352791346676668
-71.801605247365401 78.603301009245271 -286.040505513723417
3.659830818742447 77.738924066990592 -288.265094290981096
3.755967570853739 78.260875381693026 -286.324488447177771
8.318911630444052 78.851897850672955 -286.413132249121247
9.379909007098123 78.297866205387905 -286.563323823277926
-147.931136513924258 78.788186027277348 -285.950039081976627
-135.481326641138878 78.135094689775286 -285.971972235963449
-124.447407035857481 78.489111050448571 -285.780229542468533
-123.934675235351435 78.017887635253487 -287.024690620559738
-119.362261479270288 79.856190162308039 -287.672441299326806
-97.027149479804010 79.761262839484331 -285.967544338139078
-90.257329233181324 79.411283545198472 -286.301835659961625
-87.279111535489477 78.155902954276968 -286.128389350050213
-77.137965118631413 78.472786162263802 -286.205566894615515
11.657983182878885 78.341757353307443 -287.143280501330196
-163.073934535726124 79.118006498571802 -286.387431179142595
-160.015398141133034 79.483391929294825 -286.354874073818849
-84.416818997056893 78.727589804336702 -286.732393349614995
-78.567820297152394 78.052789386623488 -286.582459960776646
-162.929258951513987 78.347934346473636 -286.278729142252075
-156.767935377390160 78.664888386325103 -286.583564424226836
-147.826164163559014 78.972459996651196 -287.045559515351329
-117.540882601209489 78.220125498623531 -287.224839192362424
-83.972874420925592 78.987465432560114 -286.308862889525187
-160.418063206584009 79.675557108394258 -285.810176023432120
-155.748063421144451 79.901947029075757 -287.279283130729198
-95.751052025008164 80.098976966647371 -286.648521295992111
-93.656021424668793 79.061858742436399 -287.310920271174552
-87.894693335243218 78.922941005816526 -286.812434391435943
-79.344974226404958 78.532773691834052 -286.258969175702532
16.241051065267733 80.010229175252718 -286.474369246907429
-161.307117815382298 79.897616860584534 -287.897590914070690
-160.335504654833272 79.595855416308126 -286.513984930664947
-95.135668161099062 79.735577479176740 -287.451836564338123
-90.715712484105381 79.681894517677378 -287.325479483573929
-74.533345814004747 78.822003419082392 -288.453286609384634
-160.135727753081568 79.969625160170040 -288.688807677246302
-148.465146135559166 79.500058029383851 -288.657582894098198
-139.478559858697793 78.516323242548637 -287.424094953719873
-91.880602532408346 80.116875573654170 -288.036655957879532
-87.722510588615137 79.833120705153348 -288.537915307391359
-83.232820373685726 80.019041668912422 -288.322707542745604
-136.847049891135157 79.954096733731063 -289.335014434663378
-135.754499551345276 79.649825870748430 -288.588246205652354
-118.867557720070707 79.866744342839752 -289.107734199832976
-86.397957495209297 80.987073485790802 -288.266019579747763
-81.881666136106674 79.770387341757555 -288.162500135343691
-77.035423426784618 80.108786612339287 -287.998426748035683
-66.862418639996378 80.339677964525450 -287.421419397277134
-59.972871672993691 81.284619536062721 -288.474851159134118
-58.601799125523257 80.179120433654589 -288.627858592934842
-55.136977416486189 80.392380943818935 -288.238204954640025
-49.593624778293723 79.981905199793104 -287.755481690423665
-45.173522508713070 79.714785030542885 -290.163385172804681
-41.991241940307823 79.477134422035860 -289.172069510314543
-37.392932611435974 80.415761983685940 -289.200846674825641
-156.143599705806707 79.893638841620970 -288.086299380098751
-143.305520981356153 79.703635523619326 -289.286489744643632
-142.431393541467287 79.893545359892101 -288.970734644624088
-140.875897917932150 79.140268738863810 -289.190438057195820
-125.793080570474956 79.372235487870270 -288.792866199067078
-31.302905299913867 80.098821747583429 -289.379469184943332
-29.676947192992408 79.807316530479156 -289.994005646904384
-26.460039510209782 79.653828292356593 -290.274772317410111
-18.705232289528229 79.953750166096953 -290.293955570992864
15.581728899339243 79.819467342764497 -288.616514121184821
-135.069550842146867 80.422524142680814 -290.002753496093874
-15.453338487499559 79.779464221362645 -290.377539122922940
-6.857443956754617 80.374090043180317 -290.301177473135681
-155.724945552896060 80.546977007481559 -289.246285197375357
-143.183620180095687 80.345768559716504 -289.346527663276333
-0.110354678363817 80.751791523043508 -290.212670609903341
-154.749913582863059 79.869690473909898 -290.039822526507294
-154.690305072618486 81.447689187575065 -289.219543965818957
-143.114186623655371 79.465875947118718 -291.710485789936456
-131.295346676202257 80.737258877397906 -290.220861633040215
3.049845344246408 81.003273169584403 -289.538498643020091
-133.196696652295998 80.758480390111288 -291.123657279904478
-129.315375483913613 80.787660788030635 -290.476374506997672
7.127220518304425 80.892212086184628 -290.753644990625276
15.918269404263006 79.709875954269208 -291.409418556129367
-153.936012309027859 81.679370789581881 -290.547010867937445
-133.728589560580502 81.703474270673794 -289.894329299878962
9.905932480053494 80.794085942974959 -291.224971136802139
13.972935743694197 81.298764518868751 -291.601330365802824
-155.915378476544788 82.489121429099058 -290.565504917422118
-152.891618098557331 81.647111506017950 -291.957778214165216
-145.273124829186486 82.091861978571657 -292.099489968688147
-151.857274636106155 81.827965371848833 -293.434723881900368
-152.531971421945656 83.584743903361925 -294.585669886255062
-146.755770819781247 82.606057677246199 -293.072476639790011
-152.491675657492664 84.021658454938418 -294.961238843417902
-152.626295932053040 85.119962569292028 -296.813156372054607
-147.512321360553841 84.797933413919708 -295.757315511154957
-153.666298002809782 84.111496616458609 -297.263147025544015
-153.905847668566281 84.141219650057764 -296.550169266822252
-144.843719473858556 84.790717864438321 -296.622931199150173
-154.509636558202430 85.605148823562374 -298.734852006733263
-155.356738087182777 85.448209508258060 -300.004037034597104
-146.005923737056662 85.153315532609042 -301.183106966875982
-143.989212853932827 87.670755144394818 -300.479987923140186
-155.116343540789302 87.246440890146303 -300.658048246259511
-154.631167084501755 88.363749102762256 -302.262327373601750
-153.800865398636347 88.994854349540034 -303.422383375926586
-153.993342445633971 87.748851382275063 -304.316976980155630
-145.027826542193992 89.054766378849678 -305.027470149344595
-145.093846727936040 89.972670229289690 -306.783349424452922
-145.168486306847086 90.104585096080058 -307.929413696206041
-152.176691922496786 88.769455985129170 -307.991440738359358
-149.227025106469398 89.534307160233595 -307.760478261016715
-145.861868227788648 90.544524851572959 -308.099331330320695
-65.203618117031922 -38.027288114454272 -81.726501883560587
-63.328648894251842 -37.732507811429130 -80.827003523493431
-57.748107299580433 -38.505407284965990 -81.267738828972739
-50.255951259253365 -37.832649465551548 -82.446436841662603
-66.619772896224333 -37.914815506770118 -81.912226079037595
-55.448675007284919 -37.950721588538734 -82.874322841942998
-51.833437804856793 -38.104405884907372 -83.423620092637378
-63.103899669542493 -39.083342138104136 -82.169263028133770
-58.026495740415562 -37.999055361788081 -82.769148596971633
-62.403281121808440 -38.232744293223192 -82.206946021702265
-64.158005753432192 -37.513427561612787 -83.000811854242855
-46.793622227107548 -37.063300290381157 -83.048094041872375
-43.304732345774198 -37.523418999538116 -82.749113721117752
-69.118581996011912 -37.481652127426472 -82.755148297469631
-44.949294386197948 -37.676862369375030 -82.769365926140381
-42.961502569292918 -37.022998306614603 -82.996401134903323
-41.318437262883279 -37.547473763243097 -83.866425270236505
-68.313262321120632 -37.037095030697323 -83.771879838520860
-37.869693612766959 -36.693640455834505 -83.703834426790308
-71.774810106546184 -36.556481655500406 -84.333291727252430
-37.492715134722204 -36.457815006288584 -85.503768174068753
-37.581207012089131 -36.753505035784819 -84.029497707265378
-74.184111045147858 -36.007982073494752 -84.810881307350385
-34.593283544609704 -35.459274645081237 -85.577720194719717
-36.258834379671050 -35.602072056704046 -86.328795718460754
-74.878633373074507 -36.415502746568926 -85.794853232597561
-34.743164261978428 -35.930625781003307 -85.198513112122811
-30.957430444036909 -35.456598052595069 -85.134048938391061
-77.020180901319748 -35.276891553554357 -85.251105911231122
-31.938186599197458 -35.912315816906158 -86.290395898530022
-75.814268523943412 -35.487139444761901 -87.141303007727828
-78.687482433049965 -33.986135333130527 -87.989259756955690
-33.858582524626890 -35.149110915054379 -86.514481798049260
-30.432266631374073 -35.209333151479839 -86.742724219013638
-31.571362696881597 -34.739755726997942 -87.785838017945849
-28.568905779733409 -34.473670553232040 -87.681795595308785
-29.772811557778308 -34.587496330144674 -88.157286555555274
-27.954443689426828 -34.212382713033179 -89.512098650945688
-80.227796698122688 -33.723095634818783 -89.212766290311805
-82.709376953252828 -33.597076727735825 -88.752957094850686
-26.033862122332689 -34.395286170537155 -88.882580001361717
-22.178846132018936 -32.226397080799792 -91.956921382019814
-80.849484472226166 -32.810686329815020 -91.353460964353829
-83.908465732148784 -32.595410897690904 -90.463404594139718
-22.662466020061014 -32.479101196009431 -92.108488748869377
-20.326025416973454 -31.844100797973251 -93.628717723961714
-21.076744148126856 -31.248689652593939 -92.815434942617230
-85.758627319365019 -31.559938512174686 -94.623151876839216
-18.815542875685022 -30.952568838146711 -96.313859001701303
-17.735353546134636 -29.561287587893545 -96.592006267270079
-18.646253787989515 -28.557808658182431 -97.517480902773755
-19.984603109945862 -29.928384140610667 -97.786084318014531
-19.357076918499523 -28.871847867804579 -98.549933798158250
80.832045755738548 -27.112599460045420 -98.552865004829783
81.373526879562888 -28.912496532957320 -98.902087706030116
83.807370065601532 -28.850315152431982 -98.857752616650700
-87.179444565287568 -28.358053670343203 -99.534505007404221
-20.053180647009562 -27.553535038103707 -99.631759807685384
78.572763503353343 -27.890419309403338 -99.483064375798932
89.470990930456239 -29.192053405418186 -99.150809699632063
76.877105798925697 -26.847094120086574 -99.594421641364548
79.493136957744355 -29.001665115672751 -100.578550544581816
87.456327952228847 -27.518527825712937 -99.793366752705637
-21.579101967941615 -28.527533691894611 -100.655046930680115
78.342343930339524 -28.090581971712670 -102.630735591658990
84.082423003988225 -28.023876558930372 -100.795166290075869
85.403559024373138 -28.554963162629527 -99.829620498850844
90.148019016466918 -27.747145151848915 -100.122016989650533
91.541352718136125 -27.819418275650470 -101.067330226707440
-22.968337096968543 -27.362985283114877 -100.914732256273226
-23.762204104370621 -27.615984856358782 -101.917227547372747
82.042542659779414 -27.872900730175104 -99.918767196306561
75.144318001599387 -26.156108815826610 -102.148229674625583
76.970341885903593 -27.423222389682561 -101.668767624501214
85.050948356620509 -26.190271575412986 -102.303292524384943
92.300260121680509 -27.354762706536786 -101.991370588995224
-24.659711463514864 -25.810987677207734 -102.510916624627455
84.762630198459291 -26.854913015490869 -101.706107754045874
94.536212432128949 -25.735246400174585 -102.562443078578369
93.313631325570768 -25.797521236138877 -104.031298274143140
74.864062466083922 -26.123002390355797 -103.949685679968823
-88.858785679855259 -26.288461004949248 -105.536560858711397
-35.989083708293570 -24.420570649243551 -104.093045495529893
-36.371567076248347 -25.855132917135478 -104.321816818200176
-31.851250665438069 -24.538623311507180 -103.046402480400573
74.350137597491880 -24.810611059889293 -105.957979055145714
-38.121339415044609 -25.643061256856459 -104.821537123008724
92.641730154579847 -24.443768421735658 -105.565647254061858
73.340627204131451 -24.821427300828205 -105.118786772679258
94.734515825431629 -24.698691761328348 -106.873701964054732
96.189946488510031 -23.488846196395158 -105.596323927510625
-39.874174005516508 -24.635404098754904 -106.183293072403572
73.459967339350214 -25.228134570193966 -107.285050567510325
71.126527718617922 -22.850659888158663 -106.038852784846014
-44.405887106060895 -22.169134056485571 -107.860265130424537
95.666754619086277 -23.849581088400438 -108.322667680483079
-44.443200586242838 -22.324785144784826 -108.955803082562340
72.887317958974108 -22.876009996886477 -109.717347691862599
-42.714411379884780 -23.909533588659308 -109.351541966130426
-44.245919845411564 -23.853235838748095 -111.161107421223988
-47.983381235850509 -21.855396385282560 -109.615385412506342
-48.730122519486521 -21.070133216056085 -110.082652319162762
-48.835033695732776 -21.438911106891798 -111.976906840390527
97.905752943755786 -21.340875802615017 -109.784287279531327
-92.095751287917878 -21.049015490917654 -113.289418342770432
70.290559122204257 -18.238746285952303 -112.371347225757958
71.468528448708170 -20.847255465070841 -112.852284738673319
-52.015843549206672 -21.042818106995483 -115.607570060685291
97.365218555150406 -19.559262590436983 -114.627737304678803
-91.790245252156893 -20.595108800192548 -114.908323698778844
55.513113397925743 -19.176365240699806 -115.251749600658044
55.435295910708085 -18.688598064896645 -116.543348388408617
58.800166756861877 -17.729679652616014 -116.413966783876390
50.618729285345559 -17.509980873216939 -116.754123174076142
95.802494962295427 -18.141690910133807 -116.742466726771141
-64.915774392561943 -18.419414170886068 -118.029682980920285
56.953947634227688 -18.499748269282325 -116.946921958758807
-65.040993126583984 -18.734838687420527 -118.222093783917344
49.489406895451481 -16.933813928695550 -117.968419058265994
94.805833671711113 -17.875908473596283 -118.344346761856855
50.261944697557723 -17.930408207609695 -118.334956312783845
49.556252460159229 -16.898802933715860 -118.225037171068635
-93.104393760100592 -18.261780942176099 -119.322502718377521
58.476454323743248 -17.508209131745918 -118.066870336160576
73.743257320440591 -16.442843714787408 -118.777806379279184
96.123781335419650 -17.470162421511500 -118.460195973825890
-93.938137446180264 -17.261406458156792 -118.983785556945847
46.780280829024470 -16.112406520037815 -117.877441866522133
56.059681877866495 -17.554232850133367 -119.839884394320094
75.243582666988956 -17.488598143748568 -119.396675669377714
48.423111813926162 -17.580449855203792 -120.078606761767688
53.378169670825265 -16.413347252715685 -119.869346435917365
54.423887560190039 -16.804256788273978 -118.610833628474680
47.107998844251725 -16.355095189215774 -120.823974785420276
51.970661218339075 -16.823074132029451 -120.268927917733578
74.635986899129946 -15.986780764296958 -119.955388253454004
50.639885167322205 -17.517398350592956 -121.467371801717789
58.240054857931398 -17.153846964193665 -119.319712534382560
76.275873600860649 -15.745592357723952 -120.549730183286840
84.111326608161278 -16.552891104743512 -120.429119487559973
92.500961951579015 -15.916235973280555 -121.533984384839442
93.898029228251033 -15.916235653689697 -120.568862037243079
-93.355573533112633 -15.306444032495731 -122.286172819232149
48.073657638900478 -14.525298476607306 -120.238171620286067
81.717164859098759 -15.997426562842023 -121.412363691149224
86.307386584975049 -16.462645759207465 -120.740330652124001
-65.486787224775071 -17.422183432894087 -122.677801682363821
-67.361919055481721 -15.060620547743058 -122.081633379243911
54.787330358039732 -15.735773075425623 -121.004783470296729
80.417765931127988 -15.470982102437656 -120.904858101068541
81.575113554940060 -14.979712518548924 -121.396362138550955
86.058157046581556 -15.581434903030699 -122.624439125860917
90.581451211217654 -15.460128120732813 -121.921010690011244
-68.000370539372540 -15.368161294060380 -122.816042299168586
53.121243969285878 -15.589644446064847 -121.729560850703876
88.158517395396402 -14.961123843650158 -122.094210185233223
90.741012425255221 -14.994002852617493 -121.550238471709733
-77.316954082665362 -14.103642749226486 -122.807150836769466
44.170548341453895 -15.883783230716656 -123.726648243636660
89.595147890962878 -13.694949301895981 -123.733372899399100
-78.434607447472359 -15.230166775295629 -122.846314762819716
47.515421512248778 -14.695989939320635 -123.461220396502668
88.190722144321740 -13.644804140981918 -123.727907258076158
89.308911182501319 -13.681502669092751 -123.254278347291176
-76.406853920385629 -13.631421661317994 -123.732490954389888
-72.121369743834038 -15.142536658145964 -124.201183665671309
45.990743192034053 -13.968896704385022 -124.124183027732656
-80.266673825314925 -15.292073592330073 -125.786768667839439
55.412349144804082 -14.151200492602197 -122.716722177922847
41.620401175440200 -13.644390452713729 -124.640586408072096
-93.164332373196586 -11.733970962368069 -126.479265872693247
51.834660219596017 -13.405008133976377 -126.195233631584756
40.966007595108259 -12.832972524362036 -125.379059641356307
43.324729109180964 -11.912797600687146 -126.691446336106580
106.661739130186589 -12.194416201587886 -125.939987837933970
108.062612953874648 -11.723385131217096 -128.497791263241226
51.228439842809472 -13.213396065168256 -127.865068068546975
-81.860562865087374 -12.504495362166686 -127.902333462219104
-83.403169268795722 -11.195328741849197 -128.995085233063918
50.908539018211343 -11.566663283042928 -128.675218771769295
-92.931808586924163 -10.248968692505567 -129.437205589243661
-83.143747339221378 -11.254250040186445 -130.049469005303706
108.333133004916419 -10.470166197056942 -129.512826548623110
106.689612039499210 -10.873197836510746 -129.023430489916535
52.095062566172622 -10.078347254464992 -131.245260101527236
-83.863427863063777 -9.675086347642965 -128.007455197168184
37.282344406373781 -9.741857965923325 -130.537454468992024
48.639748518946455 -11.279962184057252 -131.409466922183697
50.963621257533966 -11.006086854380570 -131.318741966172439
108.517377868339580 -10.373556619456423 -130.851143821540830
-84.020136723295622 -10.079946299329293 -131.824915988607358
39.645096863751959 -9.641331372628738 -132.522194015307406
108.204028651778145 -10.895052068091751 -129.320950164989029
109.126041605605991 -11.170072216273166 -130.341896066681670
-84.937152597499946 -9.747108840752670 -132.382041639542450
37.064223228611091 -10.061769208803611 -132.105072863740276
50.541235887818338 -9.912417399424561 -132.817898677922443
