# This PCD file was generated using the MATLAB® pcwrite function
# from Computer Vision Toolbox®.
# .PCD v.7 - Point Cloud Data file format
VERSION .7
FIELDS x y z
SIZE 8 8 8
TYPE F F F
COUNT 1 1 1
WIDTH 795
HEIGHT 1
VIEWPOINT 0 0 0 1 0 0 0
POINTS 795
DATA ascii
20.370449957775925 59.092863963054008 -249.381177222627372
19.662074542013801 59.826040358079766 -247.530762368237561
-159.493389642798832 60.590970460478047 -247.678765765379410
-158.783518181752157 58.642900779235795 -247.242838214629529
-152.026120386908786 57.504090769218685 -247.837242092840512
-69.595815886505790 62.353131257583065 -248.683552836189648
14.888757407796778 61.407519321987856 -247.076345757931250
-156.224705524839550 58.879935070306246 -251.097361173480948
-151.476445869228371 59.814377339326725 -251.438641001079901
-53.779857754960148 59.083055921491955 -248.732951382712571
-163.131033962366701 57.370822326227717 -249.387211971341003
-166.351978507775527 57.811787681855733 -250.978149449401400
-160.257085309693679 61.363935351917227 -250.412976749098306
-151.802028200810355 60.709880238377664 -248.707837535374892
-74.396524908004793 60.000471523795007 -249.555568747661823
-53.435901327928612 61.944995176959871 -247.697195232560460
-4.724448794115389 61.483883966631829 -250.056319231248807
17.788491932342943 59.620209197692667 -250.047327422413616
-147.802231733332462 57.884382411341065 -248.242432231766401
-74.982321319621860 59.162446942843815 -247.091506275580599
-57.836096890955830 61.118381466821447 -251.835696558519430
-55.972906416138493 59.638913523251183 -251.248845324713528
-58.977923830653680 59.574194902324450 -253.119542786744347
-152.291595384788621 59.832099038280916 -248.885394410998686
-54.991542389453421 61.050926991810925 -252.100800869300997
-7.845448753650317 58.788324230184131 -250.092792095460652
20.785387563653288 61.872409518719621 -252.039807796185187
-79.592454323158336 58.981101081577670 -252.985861154679753
-63.571967798229522 58.813298184381267 -252.380484371841703
-61.370083506101992 58.494326164179405 -252.418365949094152
-61.385856712841722 61.962895711710914 -252.021418521172222
-160.538106680243544 60.893053240322153 -253.310745344889455
-6.887174168263694 59.702043542400034 -252.673799850646105
-65.070813239570725 61.989526953807250 -255.209430038838889
-157.826225130098379 62.428341266626788 -249.892039069977415
-158.444570463738046 61.009254992155725 -253.239893652516400
-150.736326409960611 64.851240019758890 -254.347314663139599
-67.164861963440956 61.302761787475426 -255.689488022580235
-165.566271591755054 59.746443328704473 -251.948335915963611
-163.146377140902530 64.767019682874164 -252.758943080007271
-65.169784344165961 60.596366416830840 -256.497365663239009
-166.717751602162963 61.542107783273401 -253.419040380530589
-150.270247774216955 61.135502384620210 -252.736537897918680
-147.019712263901937 64.208133553390084 -252.651597134039974
-86.741495772936659 61.468001674069193 -255.524106330229642
-68.309941175558578 59.487251720372655 -253.515335106032751
-11.714951724739080 60.596566940184303 -251.651326496096573
20.063958866174257 62.607297314559823 -252.478515466754317
-153.963348834682108 62.999232439610580 -254.720730751574422
-89.676681745371511 61.658409281021314 -253.938149019904756
-67.270177831222071 62.085487228851278 -252.879617633180857
-159.997103782030905 60.296814063550357 -255.434254278943229
-158.155686214044295 62.353781302371395 -254.919960108744760
-151.281944407980490 60.784877058695614 -255.754898230497815
-160.061097634507405 61.988770396323602 -256.343407240531747
-160.478043528175391 65.554508655442547 -255.334112747821791
-152.965937809814221 60.642576960303110 -254.115654353785942
-71.853574631666575 61.995913365314678 -253.749110664833779
-76.681336354377734 60.271144360847998 -255.336925568549532
19.479288120239300 64.174660158154907 -253.293564107060917
-166.038399971317148 61.727481623629060 -255.933914117840914
-161.853042694348517 63.390637970060304 -254.956856988468076
-159.266615143378971 62.391523123039349 -257.992690433590610
-152.723972230321635 62.929893386376733 -255.291073647656333
-144.486675781268701 62.654292293680598 -253.515433569156102
-94.080505031580188 62.713925712359377 -254.699066934993738
-94.692848434326663 64.067329995703417 -252.964470800194135
-154.304676100185418 63.378554046601245 -255.668905003222960
-145.647298072271781 64.216621237894628 -257.317327554620590
-92.800505152642828 65.031080557114734 -253.757424562277237
-76.484383624442941 65.530271533468792 -252.698595064802362
-11.030577310741091 60.351823052877378 -255.521429171567206
19.821810945790190 62.025607776473798 -256.578614150043109
-162.012103620576823 61.952387025475261 -257.395785818172669
-163.046264224116783 64.633709823979416 -258.443995615304402
-156.213166164999564 66.610814952065425 -255.567776024278373
-95.330424873361849 64.360030599281941 -254.348115631246031
-90.935085968549018 65.936682168137622 -256.100297803360831
-83.230230438562174 59.946895993547116 -258.401099257293083
-169.051811788426107 65.550840379270568 -258.236625153395551
-165.517617393750982 61.111304057263645 -254.496886046787807
-152.484461256332906 63.813941247102264 -255.879009028000951
-94.079481652477511 65.782338812998887 -256.339569520911482
-159.762753390580059 63.529185126205483 -257.114298336882996
-158.505703063458469 63.950355705830844 -255.105833766002775
-130.133176125750367 61.950945836116382 -257.970261827647789
-129.612241296343768 62.700731475591873 -257.088986934616685
-128.637515778324342 63.478315547043572 -256.905562814178268
-85.384139071628312 64.848076467717704 -256.030420918142568
-86.394615797711452 62.548154115328387 -258.214623860860684
-82.562739619435845 61.548445404291222 -255.432281042657394
-162.183669823759459 63.602953656453387 -256.601141487612324
-141.571489017084843 63.210204087204964 -256.144782044208739
-129.330441056456038 62.671291882223329 -258.335600262479829
-124.431067012590304 62.551208306083979 -255.113574795706313
-124.235186731058107 61.553046652251730 -256.873836252851447
-115.633693452978804 64.549286658414019 -258.321046380490884
-95.648558053823180 63.370131699579190 -257.060046399708767
-95.604411269971536 64.249053781331313 -256.902172515751715
-86.621745209446559 61.546090324681224 -258.185824181131636
-101.582661713437474 64.673628667705842 -257.926395844356648
-95.313839796487869 63.998952248190562 -257.874875211245126
-93.347025359344343 63.637113776506645 -255.388966113164884
-87.521145676576950 64.942487104161884 -256.975867474949837
-85.650310158027466 66.456020175982559 -257.792141672194646
-156.468145965887317 64.318739566685551 -255.288979195262186
-144.216712822743062 61.383183142488434 -258.954557127185012
-135.796655647937087 65.826533867103038 -259.437600721236549
-116.720322211502378 64.848810611026266 -259.346280081225871
-94.557033670946652 64.759122634946962 -254.850881175452599
-87.413504315465843 61.637202474267212 -256.031037271304115
-163.565376334148624 65.768953318005984 -260.703002242544756
-160.546920593793715 64.819253106181904 -257.121552398514154
-157.059883935833341 63.713680693121191 -258.098125007296346
-155.720285484961607 62.651599358263809 -256.495650253902909
-141.156477627356821 61.573513323823157 -255.053637226741671
-134.607755732409743 65.736287050524581 -257.435930233664351
-133.769806187728136 66.633061541927844 -256.297875975993975
-98.483121392437184 63.490118879374236 -256.379514248518433
-93.789060112137150 63.772853264024825 -256.464422864441815
-12.315901685589330 65.349404915107186 -259.408428327770480
-155.354058795117425 66.198448930749564 -259.808924081059274
-146.360093951188190 64.460220004138662 -258.225434019306874
-134.724091483417311 63.767659173658657 -259.754255145562809
-103.394341202590937 64.032130066763656 -258.947135439243198
-91.524888014716993 61.994108305930808 -257.363239268313635
21.793741656533143 62.528856406498065 -257.618313674751334
-167.137547725144145 64.272635809836970 -257.747448549999774
-147.341477408456342 66.632993956270553 -260.601413203701952
-122.476015156574249 65.453751194386143 -256.527667133884734
-115.176645628836397 65.978704159919090 -260.018637851412393
-98.339643597554286 64.816671825635709 -257.335986329600871
-96.601020451507736 63.780897145467470 -261.157936134067484
-148.335333804451750 63.526601786598732 -259.065930294413192
-116.523890044934177 63.674465198382023 -256.852672047852536
-102.160679657702573 63.374648015380544 -259.945738664701935
-101.381640201796330 67.616965260860454 -256.737335118551186
-124.994069572162900 66.773077783989621 -260.715998667947076
-121.671436597054765 64.781139970708963 -259.300685735173431
-118.391634536647899 66.399543652903972 -260.205951273905498
-104.614367686141264 63.771232142316741 -258.870242971893163
20.411232552815004 65.891330586018768 -261.532137205934987
-164.145664683558238 64.256832937749337 -260.558281768535551
-161.398677900212590 64.961010887312469 -260.370847951917654
-157.521159204977238 63.785539319672779 -259.328115537922145
-148.451923207789548 64.700873166138692 -259.593578018274513
-110.179490137985667 65.107621602392527 -262.127784403841986
-112.266503310172070 66.863547520718242 -257.360808044399846
-12.988810039957448 66.162291329861816 -257.039712126108498
-147.596880188974040 67.084813519046108 -256.218174304479930
-118.392502182163042 65.919658439704435 -258.863463193439941
-117.057396936925116 64.999975419500586 -260.871525391715068
-114.820571502251909 65.352523152623917 -261.981054484026345
-150.139317735168362 66.488968921278598 -259.105064106341047
-124.363781812546534 67.231332851843405 -259.176149492357695
-109.249276752203585 68.099195143489709 -260.771435213577490
-107.104897242582339 66.727106981989294 -259.308699994492883
-164.574169411694413 66.201599556931086 -260.992120600981366
-166.199051390735576 65.426452467615036 -261.408048385744507
-157.640781561374439 65.853715045514363 -258.117103332693546
-149.775366397802003 66.641905997975428 -261.520983262784057
-147.701720284294396 66.680585155411293 -261.415210463319454
-116.994434495623921 67.063373726120730 -261.324122856690792
-113.182676309101225 65.026324584822504 -261.661947380075560
-15.132643633533354 67.016851493953197 -260.908173055384054
-122.190759369877227 65.937292510133858 -261.739715410149302
-119.684110273506150 68.372431075569878 -261.803624026080684
-115.447523551300037 64.719786515007002 -260.334527809149051
-166.884222390834054 67.357111862868024 -261.696552013370535
-148.409943218804585 67.666939249761128 -260.491336831183901
-148.195547159831790 65.096720611236591 -260.274124592373767
-121.379646617987518 67.343136753078213 -264.289774171684030
-114.011196964978893 66.356689988662737 -261.115595033618490
-122.871566090889758 66.981057572681834 -262.081484944968508
-157.506345381760241 65.392483755052723 -260.761922490840334
-140.552146627858832 65.132873500096920 -262.194456537642793
-136.121739616403772 68.774526384752065 -260.705581930672281
-124.000885055617644 65.722253986302078 -263.194327134592299
-123.513299487878598 66.015198307074300 -260.520928595019939
-117.567802752287150 66.034752838408295 -261.479361489368614
-16.035749203094682 66.515826200480404 -260.400259856114758
-156.829724336317469 65.332219359077214 -263.592934291848053
-137.738901637935101 66.297326042925391 -261.638642516357322
-134.156736700430514 65.675096867394345 -265.378358894268217
-141.108378064343839 68.503270585174960 -263.809405368819057
-133.438749895551183 66.743196585376509 -261.319161498471260
-124.619218344255785 68.921286365958892 -264.178620039957593
-168.712849961083293 65.299334139354144 -262.656213875715594
-164.050910854164385 67.455462418077516 -265.394260592667365
-154.761782966514772 67.859904562533103 -261.953215953879578
-142.213003046401781 67.421579507996938 -263.774371115981353
-156.940902103378647 67.985881867310184 -265.578865052694823
-153.581043253486399 65.119565486409940 -266.084160435659953
-133.515343670790401 68.704578675458350 -261.532110806227593
-131.921180934000859 66.176448604656485 -264.574226965216667
-158.138220964762098 67.842717471706820 -266.269445339555318
-154.625842341532888 66.915997043739537 -266.327507165698705
-157.868087879412400 67.923845084530896 -265.580409770499045
-154.163458597412927 66.505756413678270 -266.074036038617407
-146.072025910733942 68.592248694693396 -264.893383422077193
22.429004227836728 65.257813848236722 -264.897268011941037
-152.483208920691965 69.344741228049159 -265.258579772842552
-13.675200771887596 70.174559218136025 -264.971759629816745
-166.649783693949331 69.096790494686402 -265.463188194019835
22.983649361343982 67.375059299343334 -268.271441869401883
-14.238358122854841 68.271476878383822 -269.479492309805607
-143.545173915581813 68.353700810000120 -267.940770703668875
23.352303565525574 70.638372546301895 -269.358377481315188
-12.469882413765234 67.751500205170316 -267.138437030440059
-166.656324534337045 73.737777664840820 -269.280898990347168
-15.310597791567677 72.552293093260829 -270.158776568541441
23.246575324204603 72.183715157544398 -269.420499085864890
-144.279577755472360 67.973861640232343 -272.810534152392961
-13.890251966100234 74.659770467239355 -271.430532987408526
-165.320470457386620 69.917909462105030 -272.710757115720128
-166.495494060898693 74.202465359509674 -270.248163780396510
-12.212230260527667 74.550351032378131 -273.686314628632090
20.889485506078373 72.408214452045783 -274.558392157163098
-144.132994226287735 73.859548459077118 -273.189769267353427
-9.887358287391685 71.912499179778877 -276.766180499986092
-147.115331678061267 77.029305426348728 -278.759183820391797
20.245176958313774 74.450928129010009 -277.164907480500119
-6.815906852189589 76.565031369616577 -277.325708196782500
14.796332743151224 73.696862156019492 -276.598911744467387
17.812277029192735 73.040805944770256 -277.602067767027449
-6.675451792523138 78.505662684773441 -280.493704158241769
16.862513413289001 77.768583650839474 -278.471244185888054
-169.393364489109388 75.240001539687640 -278.792891194398692
-142.909658554312642 77.928760569326741 -280.563683842727585
-168.090661693248620 77.890530783783547 -281.684070440696246
-145.894641745454152 77.206817439748150 -282.145416857921646
-8.399992055156945 78.839230152320269 -281.692881213186979
-145.212927148952730 79.428608617495655 -282.069008690609110
11.039807769977006 76.717350549676567 -283.757802120524218
-170.481686489915148 82.211574561368650 -283.919305487756048
-130.859762150491747 78.349786222388772 -281.574702102796721
-129.837328684852139 79.177114252328280 -283.239861518281373
-141.595398149855498 79.362847936879334 -283.043205635750553
14.492356452498175 78.032081797794774 -285.466101892175629
-138.627220079274366 80.970122392380460 -283.656848083286263
-133.990653108582364 78.327600314894610 -282.670433897145017
-4.654040970475250 79.808098124621779 -282.688195109042340
-167.000052499496661 79.277720791436408 -284.091852677229440
-141.872725579261953 78.264805562944360 -284.181255121437630
-135.029302794032702 80.216946665453122 -283.114486415851673
-65.915272524495236 79.407498753187156 -284.472415759003184
-59.712771552370391 78.914708031677648 -282.769429521188499
-53.046287790296944 80.513783794746288 -285.136494487296602
-49.671212032501259 80.057973061209452 -283.705758318538642
-29.644338303172503 81.298124265874463 -281.312447443197414
-5.560558931096822 80.750162298939046 -283.265845840584575
10.525476618810714 78.715615568819899 -281.183993194822051
-124.323178389678205 77.189609483716836 -283.395246838062292
-74.916396296086546 78.439247000292625 -284.640345611167334
-70.131663845027390 77.466848608739582 -281.148608574633442
-38.459415850863472 78.980140142815287 -282.854855103093769
-24.766967971804771 77.543321720104231 -283.075494675504615
-26.615072124818422 81.766355714841296 -284.154983072538528
-166.810559935287728 78.813145906908701 -286.258067358150242
-122.805542785366555 77.834303599283331 -282.183970044823866
-92.349548608788936 76.140622005328979 -285.087907150130491
-86.165570258522493 77.922117098779509 -280.330396761014015
-80.063427932506315 79.872463360345989 -283.356348284242642
-38.076010904206967 80.376573017839235 -285.679856790145664
-33.671773073255018 76.975165946643969 -284.018339564011512
-31.908028663567251 79.538314818268432 -283.989117191736682
-30.852179553535173 80.549301939364710 -285.976860400288899
-27.975463652899226 80.244246939024521 -281.739682109701960
-20.028623686265981 79.682521257264398 -281.826462372889637
-14.352281612792348 78.864999927321492 -283.425734347063212
-4.900218855619753 80.788566915031296 -283.688507106684597
-124.304424799180964 80.520856858225173 -283.607723753901951
-126.262867563906227 77.891166965905640 -285.459286039943720
-119.883712404291529 79.251512312014157 -281.129736355922603
-116.787915999042809 78.190262918849740 -280.540876060470907
-96.766466505039901 78.530439690445561 -282.981396073245207
-94.819788467539695 78.644104847163803 -287.255794004666484
-20.208882525082451 82.108679055361492 -282.474894967893306
-12.583426383732196 82.826883085754915 -282.994044340892913
-8.589004495123723 79.761536670428598 -281.665160576973676
-104.361460152098331 77.384689509023886 -284.959063447321114
-103.873005318833776 78.819395545762063 -283.731743187672180
-103.138298935797607 81.508044245174560 -284.999518724818813
9.436623160239971 78.848775510565517 -288.897730162148093
-165.837051139882647 79.381834915789682 -286.328585751194055
-115.844555946078458 78.885473690360541 -284.078479234755548
-114.107822925925092 78.726653056746088 -283.776294600043911
10.170911705272978 79.302258764613526 -285.463826563963494
-166.342523741596949 77.644855049295160 -287.091022669101164
10.403777389204524 79.080687512431879 -285.146833741111152
11.635568142288326 82.664866053179964 -286.726675536782011
-164.381026439523907 83.385850423875837 -284.840862608384555
16.563082548547388 79.605799483625120 -284.963900347220942
-50.810552790652025 79.270902890297478 -288.447737448486521
-163.872680443000291 81.423374654876852 -287.739419272295493
-100.647183946261151 82.329025353251325 -287.226676322487378
-97.330513789442023 82.631004182968240 -288.039557926663065
-83.254799394315128 80.984759319181677 -287.444756659299401
-78.977638313150791 83.472780722000508 -288.398537547331046
-63.942008725660742 82.893211265270693 -288.773801349005225
-41.651780069266756 78.493778538822767 -285.559135731816241
-35.637227177460744 80.967519800813434 -287.248418469737487
17.067099628075894 81.367283250425928 -284.889762549182990
-121.829272827133735 80.005131540374890 -287.335829051936003
-116.688510865129587 84.013334768131060 -288.916435356518491
-112.053082811556436 79.624870560823041 -287.132935268004644
-108.545034104420623 81.095484818305778 -286.833003945289363
-102.506178671515826 83.193523258659908 -291.004969642828655
-94.549926578699043 80.668512604705654 -289.806970051843223
-88.812234751084148 84.191859304419154 -289.639640554795960
-90.266951254153327 80.880813187017040 -287.374503864619726
-30.430661839861695 81.409003434574856 -289.148076800783201
-23.644596778206289 82.079667633213589 -288.128671358635529
-19.135182750986051 80.537172880145761 -288.775687866518354
-124.204068021651452 80.241457650613398 -291.863765501679893
-119.449348623029067 83.129406414618543 -288.707449455725509
-114.115229540338291 81.096885130614766 -289.867758259606035
-103.417415058286849 83.119637256505669 -289.081837782653395
-101.897545602565714 83.980723721492652 -287.642774599539109
-20.236921564118632 81.821237462095098 -287.584002939528261
-13.421331116973072 83.854223172361543 -288.258202034053738
-16.178488998943653 79.864158768862708 -288.232975102720161
-11.301431210678508 82.403109489235433 -290.525072067562860
-7.608372688166000 82.537815295392306 -291.964862267733395
-161.063172026964708 80.259001061171716 -288.865743736346076
-141.163217980702910 80.811957226419537 -290.406447734005667
-135.778004454716495 83.221762795727003 -289.667312802210233
-124.800004222098053 82.300600880769451 -289.068816532888832
-116.175045144314225 81.943931997760558 -288.753510536933959
-3.982898195472429 83.550513304062534 -288.900047588408199
-160.207313348907093 83.329270136086521 -289.763189431740500
-123.138267201653846 83.553232839360447 -292.821827418500675
-0.336112455143591 79.522266402908343 -288.517012089686659
10.033847998513199 82.945165189314821 -291.066397979701321
8.109485180493769 81.448045792886603 -290.692366182161777
11.327669169357396 84.942073933691731 -287.512089262453742
-159.543738601838612 82.666579057554102 -291.235864613460819
-140.924661915318097 80.458582650251827 -291.713556799641481
-133.575495423849674 83.207709219664309 -288.744707065891930
10.777727932810802 85.580719736513785 -288.682945216605958
13.067105372621436 83.613111231453203 -290.555367782914857
-159.722207263909809 81.269155698471948 -290.526131240454220
-143.930255527900215 83.815667785436347 -289.396231616996772
-131.231088673392719 80.819959443909667 -289.199565830154143
-124.274600636930401 82.965838212655086 -290.116145444851611
-124.389583407855085 81.671131958408026 -289.323073376505306
-133.648094728076643 83.084455992038286 -286.737034868472904
-125.287055263269991 80.260469093962001 -289.018066493274887
-157.355911195553489 83.794790700735291 -292.542524053731029
-143.426255718602192 85.017669326429925 -291.678945732095599
-127.272089287359137 83.514136883071430 -291.332711488538621
-158.174477655428433 81.409765512916763 -291.483100342870841
-157.050928052420886 83.195330390968508 -293.395272778860772
-154.204150153391396 81.886094437358906 -293.210061267484491
-153.834073333416256 86.322870663663878 -294.856463439720017
-154.817509167047547 86.372172794716150 -292.908774210013519
-147.037633941462730 85.009614711943101 -297.537187927377659
-144.076956816529929 86.605999532777318 -296.519247648399130
-142.387299796240313 87.834151439259259 -297.485760085080472
-152.016898466849256 88.749946574196386 -297.327836772158321
-158.053776634042322 87.122374328822943 -300.860636000562351
-142.989143298462778 88.322754430659842 -301.661805716824404
-143.219731013288680 88.977170526377520 -302.220876505108038
-143.336839789388392 86.412405676711330 -299.856217951345968
-157.322398185115560 89.801818097375133 -302.055896602786675
-155.729381433043898 91.314891664917980 -302.564430339945147
-145.758283952755249 91.925614902716291 -303.341218471847526
-145.746597442020487 89.909134205798040 -306.258085361752876
-157.278310465549026 90.706873496415128 -303.896795149883644
-155.950783371069889 92.618643564038877 -304.371402019758136
-147.796301290901823 89.865544579687423 -306.993514787555341
-142.690649307127018 91.808990546029875 -305.076270604630281
-155.730083191482521 92.528893232267833 -307.799326908764215
-152.051288700766236 93.689760790453022 -305.209255463074385
-143.791344297785145 90.539611710148066 -307.339277056548610
29.723750645795608 -56.143400783346394 -48.822209599594416
27.942547514010034 -55.238508974533424 -47.081756599681952
29.796733811065266 -60.165811724175796 -49.120572690420069
31.849005177852998 -54.798515015328142 -51.094753693096195
26.273024225346465 -55.096248785391325 -49.144222409366080
26.625506030067104 -54.518316087030520 -50.180764998288794
25.539377944517515 -56.398002475756222 -48.295374694835189
30.688913992954408 -52.689406204035556 -52.323885506936954
28.324139503524805 -53.232429417297496 -51.681701265348501
23.361303144511901 -52.252669265464128 -50.683714642178245
26.249431674961198 -52.619728415535548 -50.921204555474183
23.147320397944000 -52.533287359524387 -53.628553109398091
23.125424035747404 -53.459975776834568 -53.219906306002322
23.486380045952707 -52.887524717646905 -53.804589197895211
29.412768417124934 -53.499956398482844 -51.085734473943447
22.526384383394642 -49.678910598712186 -51.846734416195716
25.428362249481530 -54.412748433350124 -52.005680421334162
24.177382277760515 -55.425138038034781 -55.650860958247556
22.102174757810584 -53.054552310422565 -56.862152268889467
24.902597790413587 -51.963883751666785 -54.209368068680035
26.572754526539828 -51.456464819783172 -54.468628295057805
19.805368886219703 -52.048497693073280 -52.956486790363819
22.369899776540127 -53.029877088437402 -57.059125019422076
20.477466624115010 -47.926859854391992 -56.800024368342562
25.876565502864565 -49.683635974048904 -59.599160784321995
26.333126491527057 -47.741261762684829 -60.612950835887034
22.445163338877368 -47.584180967983521 -60.359519507642595
22.845887334161485 -48.925769418917376 -65.354400165283636
24.990527284906726 -49.788751641107559 -60.643125343759685
20.479097931407043 -44.351584052218683 -62.877804855888741
28.545702174690398 -47.160740299778062 -63.211282776467030
23.496644711186981 -47.726022290238603 -63.801587399997089
28.365293461748347 -47.498999770166506 -64.708964609140381
25.244342352548326 -41.891862679939059 -62.922409384486386
26.518056861777211 -44.743593565823737 -66.511769099602475
30.091436804988358 -44.650534991934386 -66.761489553755155
27.046183229643283 -45.927643638935059 -65.871380566223124
26.296826575880541 -46.714470055335596 -66.388710432503672
30.360907687044108 -45.325237432484514 -67.053950799098388
29.392537253557403 -43.932815821697872 -68.989090369887123
38.254236432572419 -44.253855520247711 -65.613958122385554
26.449380763381370 -44.115308105572133 -69.388126853126707
41.375061211263834 -39.772981419618262 -64.375467107997139
27.600299188225662 -44.668209887830585 -70.355595780143801
26.117893332925867 -43.431110494625734 -68.387784358942127
33.399191285437716 -41.962067383081383 -69.535660876636939
29.288698123674990 -44.463281772170781 -68.507621411626445
36.964639442631452 -42.618948979733943 -66.411264962818123
28.224025107190030 -43.445105806528495 -66.549123930757446
27.239314241954002 -44.680687014898673 -67.884466146910270
29.575986500675381 -43.722961514079479 -69.577189472963823
37.529261005721239 -46.305110264501536 -69.902336211545716
37.267243905589204 -44.475475575892361 -70.191689583286475
30.362954344053772 -41.712051787088221 -71.175381207866820
31.079165638533446 -42.168068336235301 -68.557996353044587
33.092444513619022 -43.720842045953560 -70.520583538219455
35.387611312812041 -41.008331587872036 -71.608252312333292
-57.366967923710590 -36.928817823509817 -78.910791741958462
-63.161961467222973 -39.434510001383842 -76.333329400042686
-61.923503799689364 -35.878303705027236 -82.331728517032900
-57.980256135920143 -34.669962644224462 -79.952871256538458
-53.088720109568840 -38.963482704987939 -79.983988981401893
-48.423895476202226 -36.339944639553885 -78.125474944802932
-68.938847481146595 -37.865725542489507 -81.182509935629568
-65.950544143296639 -36.150236939893738 -78.563171548397079
-45.236583848415272 -40.324303648581008 -79.524908120409123
-71.375380288146715 -35.316918756547935 -80.434865577432390
-69.364548897239857 -38.039992735444287 -79.680428446332257
-45.288572481145600 -38.177132810633232 -78.294943166914763
-69.490399083417472 -38.668961785629556 -80.457289539383837
-41.814851217026899 -39.829896200635119 -80.921397018111563
-41.316022829198872 -37.522330379225650 -78.324114898202026
-74.893102865345753 -37.216293749188459 -77.794432065138380
-71.252219748122286 -34.442487845479420 -81.632669868529675
-41.155167070550377 -35.273834673171727 -81.732600466400328
-69.352515372570664 -36.356067893967996 -81.638352733545801
-38.477623831328806 -35.945750448485647 -80.618386045236264
-75.757639829615130 -37.043739981726802 -79.776834628164494
-74.489798017016255 -34.138538005798942 -80.356746878625358
-33.539677812919905 -33.594145354041686 -82.248495438724532
-76.681492154985023 -33.787840793820401 -81.367897900456512
-30.628583920585573 -35.906814768666656 -84.180230545310735
-32.506549825576585 -36.297964164302890 -86.057014535546685
-29.881503998827966 -34.683633031485080 -85.594420243911358
-79.734585920101551 -35.927779895716569 -81.410880285088282
-79.903179225518855 -32.574252524772852 -84.325587959039112
-80.772774313846497 -32.951333688571843 -85.450492205020765
-26.241434674865349 -35.791609164850129 -83.925834880254641
-27.387315034409369 -34.750404274741882 -86.215874727283861
-80.977092191287838 -33.231039628625133 -87.880863497025231
-25.012019731846337 -34.443266308156090 -84.485784573379618
-25.943968798476746 -35.691772150966180 -86.997106443598639
-21.308644505327884 -32.773812947241503 -87.362968645958119
-83.543835138572064 -31.408039041295442 -87.862801335896023
-20.858106924777644 -33.971456128264549 -89.812444580166698
-21.405978156948891 -32.447091487008620 -93.868585673398087
-88.255631541328299 -27.299917391384387 -91.554187151830078
-15.305963807963250 -30.615354719090213 -89.757647075863915
-87.585348951951886 -30.732430404427944 -93.193750437726052
-17.813756339491274 -28.588569733242654 -93.028038226689162
-89.189042707994815 -29.923985084133939 -95.350762219936612
-17.207586865058076 -29.644200627577803 -91.428346773001962
-13.985955605405827 -29.627147830332518 -96.182862752034652
-88.469549970424424 -30.956269778101181 -93.721910125288701
80.365286526218483 -27.056664781507230 -96.163150619340868
-14.974881233734386 -28.143556993594508 -94.049339113106640
82.972458551127033 -24.778595716269983 -95.257572497135413
-87.232984924953413 -30.513767696838073 -94.995549485783727
78.019042585682925 -27.653048102275179 -96.199024236246203
80.014331362040451 -29.031440679541948 -95.134967943571937
91.060501042710499 -25.433748323389679 -96.403824562085561
85.423640291341428 -28.055291944820766 -91.961709687667906
88.589241145891052 -29.443408057399946 -97.217439027712700
85.470539584704483 -30.777850817171050 -96.990490933594302
-20.252700046464682 -30.617522372574435 -97.996107921347019
76.875755297005085 -26.599701307639585 -98.533387886318650
85.516860100654881 -29.606270718836708 -97.735529544765583
85.181463682594867 -26.673516641899003 -96.186553084024894
75.831113587505513 -28.302891016638018 -97.588269088540841
91.623198538824553 -26.548013645695701 -95.012828456564463
91.516809845181257 -27.417605854592438 -94.548613331112037
-16.127271304982266 -24.898592630189096 -99.650981202714206
92.534507350777645 -28.230712018962564 -98.747107915043088
73.356528316519103 -26.835224938567098 -96.567955225909358
93.591820187992298 -26.746019939356938 -97.335250098046259
70.437090983327181 -25.854762129118395 -98.278527733774624
73.254600855951210 -25.691746756279016 -97.334413859786522
72.994703216381126 -25.659700457752397 -100.816328586145133
-92.340566623850108 -21.673196067337347 -100.763518782400453
71.780452798592762 -25.370105463785531 -103.141803872715656
72.847666174511133 -24.511904209448222 -99.296558374616879
-26.646067281386301 -24.579570520179953 -100.814260549235300
96.541126261160315 -24.623222071797350 -98.877231073406733
96.869384711923288 -20.879326343475903 -102.131284648858326
-35.222111422568133 -22.632250535436789 -101.900460814722365
-37.309068495438879 -24.956944579844837 -101.162336127712109
-34.833303120689877 -26.412856185542122 -104.213457404404480
72.062868673730080 -26.170873083609074 -103.092468811374374
-38.647819502528037 -24.135765449526463 -102.724497114020863
-31.412260614094627 -26.103143717559572 -103.423120470047209
96.684999062468989 -24.421374033484515 -104.164080967782155
98.332805759426662 -27.132391982971953 -101.768942105502219
-39.703681798877973 -25.124181453172294 -103.914346522555249
-92.878799754523897 -24.006709304979299 -101.484868078127434
-93.983856505978750 -23.525666199077595 -105.142888404583701
100.879308108086946 -20.268155385917293 -103.902668017667864
72.517413948941709 -25.458475278904608 -106.858384321747067
-42.476773252372681 -21.482858160997548 -107.091643718474884
70.243046829443529 -22.348131119754477 -105.112136889267745
-41.146832557981227 -25.791033641857791 -107.817860430097227
-45.940414281229380 -19.862334151063134 -108.699874212541033
-93.313084935582907 -21.699304786077818 -108.034019477881330
99.884083887582449 -21.210871050735904 -108.827735621835771
97.914098933384011 -22.431608269379151 -109.039642393346497
-45.810689672083129 -22.222643867738668 -110.215105481196460
96.568448562666333 -18.731694106304836 -109.434311289256357
-94.225250497206261 -24.059634095924192 -111.431705197553569
-48.783911321707201 -20.002696906767696 -109.491035186347332
-97.462571297549133 -16.151323345451413 -110.958343464797593
72.169485925368107 -20.370321973419465 -110.572168221812859
-53.898658384697072 -17.759610584395016 -110.949412025933540
98.206408968262835 -18.139426634727698 -108.393047325804034
99.298217409900403 -21.035228172630880 -110.817835789190895
55.478655297351168 -19.722073783914187 -112.064767831599681
58.333643381393429 -16.213789161762787 -109.386288318266509
57.596477705156197 -20.179861561457276 -113.748711968499180
57.455157121439946 -18.777650592452918 -113.035106344469014
71.371793985737824 -14.823351996883760 -114.372589393979951
-54.053504480698820 -20.067652808256561 -115.061127040022555
55.163972370499948 -21.513121677190089 -113.470491676785585
-93.781206240542829 -16.161941662461125 -116.293371310186359
-54.586126328624360 -18.447369708389520 -115.875342916004911
60.228780001156679 -18.232101791527878 -113.987414488751440
98.454120321678886 -17.916559347088139 -113.047953011272824
52.334487478785967 -18.107705628101058 -114.109037580421187
60.697921247992241 -18.706782970238390 -113.108368605760063
72.503849668222770 -18.702316749517955 -113.276305183397611
-61.110692488237881 -14.454634689607172 -113.945530741352030
-55.771877011591528 -20.619894234823700 -113.708473705573198
48.924355071509204 -15.978616332911560 -115.141069774006326
60.512708905268390 -16.211030923117253 -115.439806198568220
-60.255617443596620 -17.616788427221024 -115.200145927466224
54.431313000548926 -16.763755532815541 -115.315214277799313
-64.329026648118372 -17.107178079795961 -114.181721783365219
53.871995011678202 -18.373668866488767 -117.549812944594876
57.254373862438875 -16.035926314524129 -115.275235067251202
68.666198192252921 -16.686062425073125 -116.137973770876854
-65.549244801014396 -16.138453126445988 -116.522664442466521
47.117743102701610 -15.244575949733857 -115.374683202999591
55.121229094262162 -13.544091904394929 -115.180021567697537
55.127127107926746 -15.475483968108396 -118.008152661103580
59.092805348425173 -15.569082580873157 -116.635081048993172
52.970932271527872 -14.349286681385259 -119.444151647218931
94.914268052300642 -18.857274997192700 -118.032699967023021
-97.587407529041016 -14.071070176666368 -114.407247246372748
56.138793717897578 -16.355535700548245 -116.035971014516917
61.110592126909353 -15.359133078044479 -120.557294239167675
48.412515118200204 -18.023737987200384 -118.471583791913787
57.157262379235256 -15.380631615307575 -117.758948069421550
72.085897915640103 -16.282767626079821 -119.370503595377073
47.084411534085326 -16.186882030248857 -115.988213422674662
99.569751185921064 -14.072248750992770 -117.601375363688177
-93.618571195064689 -17.495764286356515 -120.522307814076512
104.635725054099595 -14.946948904089052 -121.366836198439131
49.752126805266535 -15.457551216669886 -118.787604077114636
54.900833676509407 -15.073931050512233 -119.164073311752858
57.890062626447737 -14.312840498550301 -119.008132824940162
105.602420727520098 -12.683304412266372 -117.997560053347655
94.114725861152152 -12.397297863574398 -119.234748617186938
57.278249708999112 -13.008002703755437 -121.342260864527290
98.904428500287494 -15.014920456454384 -120.164520211292555
96.051595380477281 -15.398547129572927 -120.033434911879439
-68.812039452746603 -11.892165462873731 -116.561044142036252
-68.370117007459228 -13.728820822063692 -120.985491322658220
58.390758036315830 -12.275681215451771 -120.776373664095473
56.422014581461092 -12.984847578981757 -122.191045326185559
96.153170813300036 -18.936677042525975 -119.898868059543659
-76.275864453471357 -14.859771896361247 -122.634225895647162
-79.944201547272954 -14.406307222604067 -121.665078326797101
44.146334508816516 -11.768447784264909 -118.800077690946608
-76.906534317308100 -15.797405522528237 -120.950587531048470
77.230466141941761 -13.966829163597776 -121.635375065411708
87.604647351982692 -13.336814404737058 -121.809203191377648
104.973363509922535 -15.021388344797142 -121.991762679461274
-82.545193665372466 -13.968889600458077 -122.100619563656295
-67.962872208460738 -12.147207052446884 -120.530713592875529
44.881089500715369 -15.986384870319354 -125.418499031656964
56.684362449919774 -13.937904613710471 -123.519035455903534
82.768200602598611 -11.932136841988250 -121.760671596774657
110.188866177298777 -12.592049924719088 -125.713478606861386
-69.515499911382975 -13.379198480027490 -124.233306100426987
41.870016900450445 -11.761585334954956 -122.430480040111590
83.757311666899056 -11.518217564797400 -120.875911601123391
92.247244337991219 -14.507962485883450 -124.151700690877036
95.525199721414722 -11.309823225808936 -123.975293137388974
57.658568259067778 -12.278477282011691 -122.143968054014607
85.236106460710971 -10.693742051369730 -123.108685449751974
80.865903063940323 -13.480685227705345 -123.185096855144081
91.232079436135095 -13.154765553672599 -120.615944340997615
40.286583882668893 -14.122576140395008 -125.876169461036980
78.429628325394859 -15.109716151444196 -122.200402374956298
90.498649668564227 -11.904719061281085 -126.041098584933536
87.914761368628106 -9.474721075903203 -127.002864743894889
104.577336779219678 -11.619984802278744 -123.093560575891374
109.516522698687140 -13.724248779640343 -124.744662637479834
-83.543948219192487 -8.245410425640932 -125.176645987292787
54.726481850980385 -10.018397491391811 -124.368652254929216
-81.838742130028464 -12.119964462215567 -124.840410301010962
39.013238339051902 -13.986504073111423 -126.189174691583460
44.517545717473929 -12.358729278636844 -131.740496572112278
103.520380080029668 -11.571413013309378 -128.308911984633710
-82.266361731797133 -10.945036041731248 -128.931139245346827
41.034653578383157 -10.185964810166951 -125.314655314246679
104.315659621224981 -7.353578876864724 -127.903009503264371
108.796874782656744 -10.043421441754687 -126.185458896992600
53.777433531631829 -9.178682639343908 -124.043182219154076
55.099931494693728 -11.751417213382263 -126.567839260924544
51.658271721476666 -10.848892678068033 -129.654022619903969
36.842530712230442 -9.000372644515503 -129.585890857767566
40.910795676773866 -10.378031300848692 -128.843042254289173
50.560342811149575 -8.483189436200854 -128.114187958094419
110.306863321866729 -10.364382129069369 -130.592350508987693
-95.106675066817843 -8.527516627905106 -125.771617327948576
-83.819049381487147 -9.852620846497333 -131.259090659642965
37.136631229434890 -7.989049003620629 -128.437721259863054
48.984324351353010 -6.946369608901702 -130.456581982679751
103.335280772023140 -9.494475714933367 -130.235146166490807
40.348548168277958 -12.782643911105495 -130.749342256484709
47.372339952687092 -6.600637267379423 -130.270577670983499
105.894270878138713 -7.402054475952931 -131.356590660183883
38.696893769228339 -9.055845371764519 -129.514037154302571
112.563633757388729 -6.001339177782321 -129.857809549651790
-95.016243382742672 -7.291225869327285 -132.853883353965784
48.249837305322636 -10.569749273185813 -129.491566385741351
102.977728815101074 -7.889243735815903 -130.435161883347945
110.449216149841234 -7.755164247970221 -130.333759786373690
-84.531674364044733 -8.203031380201748 -132.343390776940566
105.818765127001669 -7.087098076998118 -130.059677029643296
110.395997625768487 -5.678876946304229 -132.201092339755292
38.947209421910777 -5.311672464147424 -131.540265980956235
48.419581186009012 -6.354263551886406 -133.436508353442775
108.332173315919988 -8.107688613453639 -133.077706815494594
36.109657586826700 -6.934406785226985 -132.789120589801058
48.742108875275370 -6.520130372007436 -132.732638171256042
49.924726722706673 -6.679523962675272 -136.499767120613910
-87.929461683072105 -7.399458255301959 -136.101037208239177
32.667817889545240 -6.994243189450144 -135.176658604485169
39.417120007753446 -7.406339284735637 -134.643271728172692
115.187589622010236 -9.212579235345995 -132.407093568477023
47.855547168540248 -6.735160533225594 -134.074174813679377
109.889821383149425 -6.400281793822621 -132.398156936649627
-92.991289623977679 -4.962611377317383 -132.791176897364181
106.928653020849936 -5.065718496957691 -136.101264441017349
33.848357817444203 -4.482500395645532 -135.275564410665368
36.863491749096525 -4.575951792868428 -137.484959947920032
105.462006911684966 -6.922143432979825 -131.577020526038183
113.593615058423055 -4.688651235643598 -135.152626194309278
-92.920634582398321 -3.262279493131757 -137.412270364550182
-90.378996370661042 -7.476766661297438 -138.132251198000375
106.279069093240921 -6.149480270952436 -138.586732122997120
109.267913067749049 -3.719996900366279 -137.010438428037844
-92.123394077098823 -5.006220074052677 -139.216727828129990
106.417792459466725 -4.628694670054053 -137.244344304632051
115.099465419043241 -2.134461758374733 -137.345337491462402
-90.493722524540473 -2.038808200857050 -138.329335550966647
-94.505889004606288 -3.322066991041248 -138.954786851356857
36.369008490446603 -2.957607282318559 -137.073041227279305
46.035196675747230 -3.707307957501723 -137.564090977228091
47.751530844691210 -2.035091375598316 -136.646587169506233
34.062068298291670 -6.726617924347604 -138.063578010652890
108.753662653957065 -4.002277025617209 -139.077753530640507
109.204977226290580 -1.458008149880945 -137.637023026212375
108.537680131805431 -2.028335907859131 -140.433851286667590
107.579841778356439 -2.443034927084356 -141.053145566719735
31.483611401913993 -2.747256402426261 -141.616891702467598
107.197096583231556 -2.923100533629132 -140.119806543035708
113.123468868022584 -2.187867828635294 -137.812256498702965
32.068943273743621 -5.845265306867550 -141.187492829719645
33.055022139058394 -3.058095404356475 -143.976924995530538
35.604295163551036 -2.973888462131763 -139.188833918082452
43.766775408294734 -1.916345377136930 -140.605096979426207
109.580026966188612 -2.303135743070060 -141.832350041724055
43.188820425110819 -1.360449518994716 -143.627977205066657
107.622455348411890 0.317284521107879 -140.797647811691576
41.386409686894211 -2.539048579817019 -142.957395415055714
112.956759373965610 -0.443425965503058 -143.217813278516104
29.548283002827212 -0.922413491432065 -145.608139904178472
33.597761127001618 -3.963133537514913 -141.902344071747507
110.582594770331653 -2.567314901339173 -143.110261564578025
113.278628505499810 -4.688673920249793 -141.639885934067252
109.237243336661024 -0.550568557234282 -138.642827243276827
30.441152814428193 -0.504860879738212 -143.343258092873469
37.666108707924394 0.954386848622311 -141.945083728734630
108.833018299984687 -0.202806742375561 -144.457358683026484
113.189742221256964 -2.358254904132829 -146.546437126068895
110.282327823892032 2.533172048673629 -143.748318590252325
30.166862685467699 -2.145554693712123 -143.105121379058318
30.063714543274056 -0.501042842444710 -147.722446698748115
33.626126068090940 0.810312383913265 -143.066482980906812
40.636431112079656 0.879978485311537 -147.565410745802836
41.270279477604937 -0.931678506434690 -146.865969262173252
45.075765112080653 -1.367710247025774 -144.850566895532808
114.098447221240463 -0.533972017953452 -148.037713868440335
116.214402749056504 2.398146859839983 -144.115108974972827
40.781840495759347 5.999079547890928 -147.506932192991655
29.897889541082993 -0.014582273578742 -148.577010982795969
113.391041150237299 2.211539024719413 -147.374288856394372
-57.892654020685733 4.463676707040626 -144.599180522840157
39.045048131587016 1.245813123711329 -147.666083648252453
28.037157015023471 0.739657557998647 -150.376182654332212
109.876832545904762 1.745491788761641 -145.073105108954536
-56.917494195884416 2.306636247573687 -148.148921345924919
113.622990334709456 3.785435573667947 -149.842100928087262
-55.038964046836441 0.259958461779316 -150.152641125441079
32.113528341880397 3.109722881321587 -146.987174352881766
41.539869387623973 2.896138796653929 -149.121570600180092
-56.406649994671874 2.581690610176339 -149.017331673219473
-50.545949085758934 1.387996034377062 -148.594318375881471
37.746205541545464 1.736654395596094 -151.755723849583035
-57.152468574507125 1.847362753532108 -149.210333960860083
111.235499948195724 1.584006856070003 -149.779606448770011
31.418670075504327 3.770758572634876 -153.544451175810963
-51.831833834430313 5.511785932704673 -152.938898035657331
29.341329667195645 2.188053772217569 -150.245156376957226
108.656368686397727 0.242717351782889 -151.373688119489572
-50.192075718703599 1.815199825131348 -151.584447000260980
-57.615877711702829 2.969654323583152 -149.208242632963305
115.595003822430186 2.815231681501980 -152.204040546230999
-72.882196026691531 5.194294741388496 -150.817052657294937
-59.395983240840941 5.544685684638831 -152.180628228570441
-50.160093286949916 2.106610697925495 -154.273635368726644
26.957957887117331 3.887669234359269 -153.795097180734359
39.775476124158139 4.403718197636078 -150.961649457050328
40.378641726549880 2.774783366977033 -152.950154473160239
-76.409869815886267 3.604062726615003 -152.047674803279591
-58.956077134674715 4.195722363676884 -156.145517400487478
30.556544610950876 7.624384542407328 -151.110447970920944
117.371113161508333 5.308408353536600 -155.142807999842717
-61.176647925116022 4.958554661771158 -152.052931079636323
-56.124930012278568 6.385242819225528 -152.225581871409105
-53.979502639275346 5.059822117308772 -152.958452489196787
-54.369524946394883 4.689424760731943 -153.642695958648630
112.536051373302840 1.613785275027698 -149.461417664138253
-76.476593604610201 3.583947053005294 -153.788904853683476
-50.447592127007674 4.288744588990705 -153.893600545437209
26.460220705015043 3.489196754719193 -154.736123963744859
112.739987698370172 5.102250032904247 -150.969662200724287
-77.712805862573290 4.372018687759161 -151.679986615772947
-77.418098613276101 2.452420873672171 -154.407463981389668
25.132650838383835 3.573414139593315 -152.012533884029239
-50.088385770255989 7.287576941191861 -155.689840451086013
-54.820083877480251 6.378939598144417 -155.460149525572206
114.764070162160209 3.349169235955935 -154.249057260065399
37.679805397278059 5.054133975173118 -152.531245926837727
34.574086122861239 4.942361249590278 -157.844602191404903
116.293473685437533 7.009681490112207 -155.513514599161596
-75.700644728438462 4.737409178015473 -154.276202967282785
24.473843752229126 5.244625637693400 -155.938745818434228
109.501199776761965 4.318879255893151 -154.792197354613279
115.040950519521573 6.194357214859481 -157.328519540549877
27.535584152278805 5.507606739663179 -153.016046350740254
-71.076693589221350 8.015234997018128 -155.222945253692473
-56.598298628855723 6.429934673185462 -156.848122934343991
109.775193103928871 6.350813740404694 -155.613615321678793
-59.447186688541294 4.454765332252804 -155.511517534607066
25.199495674905371 4.651635258349460 -156.273269274718814
-70.864087626511576 5.047847632046543 -155.625884410233397
38.667259727405735 5.122852545831270 -155.760716026377906
-71.439057966483418 6.532122144621329 -155.071438320154101
-47.246406722949374 7.949588768674240 -158.081801733649883
-47.181175593929517 4.912735519804166 -157.806287454706649
28.842108642449418 6.315502532932530 -154.300339890335664
37.639271251959372 8.996757888598768 -158.949414563161099
109.318385878642204 9.722565504007486 -155.258094307922448
-76.570344568794610 6.554342267741840 -159.621500666436248
-60.367813103945124 4.321537135943387 -155.975235507257906
-57.723967998112464 7.382603890426934 -162.074922992319017
-47.228852113620192 6.172306532232484 -157.638723144515041
-43.496984463504802 8.782767136397803 -156.355666429527105
25.962846800198783 4.466199103211242 -158.200175492500335
