-53.491012573242 -67.457176208496 -128.826263427734 1.585050106049
-58.301422119141 -68.175048828125 -149.069717407227 4.413397312164
-63.544143676758 -65.742980957031 -163.949172973633 5.883387088776
-61.620315551758 -65.828598022461 -157.135650634766 6.662849903107
-67.702346801758 -66.174644470215 -164.042419433594 6.359696865082
-59.916244506836 -67.594841003418 -141.831512451172 2.150780916214
-92.379653930664 -67.563346862793 -290.182434082031 2.362136840820
-70.774551391602 -65.403175354004 -162.152862548828 7.526978969574
-46.849502563477 -63.397705078125 -63.326919555664 13.060787200928
-68.415908813477 -68.382461547852 -155.324569702148 2.214498519897
-69.809692382813 -64.180816650391 -147.925491333008 3.781378269196
-74.479690551758 -65.367782592773 -166.689468383789 10.176089286804
-104.523529052734 -68.955558776855 -294.547546386719 3.733884334564
-55.397537231445 -63.331542968750 -65.403594970703 10.280299186707
-71.111633300781 -64.017066955566 -153.177215576172 4.066095829010
-101.753601074219 -72.734207153320 -276.963623046875 8.974395751953
-106.378875732422 -70.448509216309 -285.362640380859 2.014989614487
-101.971313476563 -65.723968505859 -277.181213378906 10.518739700317
-74.024948120117 -66.018661499023 -141.705734252930 1.360495686531
-107.163024902344 -69.519660949707 -284.363586425781 3.361749172211
-74.192840576172 -68.077911376953 -137.508071899414 1.416758656502
-77.386169433594 -66.149276733398 -120.656967163086 1.154360651970
-83.452285766602 -68.640319824219 -142.268051147461 5.298900127411
-92.869613647461 -71.975288391113 -185.952941894531 13.591430664063
-91.764450073242 -67.023735046387 -187.358749389648 14.548297882080
-89.385894775391 -65.824851989746 -165.270233154297 8.866546630859
-115.169799804688 -72.442405700684 -282.313049316406 3.841784477234
-92.513061523438 -66.760543823242 -177.308044433594 9.613467216492
-104.822265625000 -65.042022705078 -204.362625122070 6.192843914032
-99.318481445313 -70.522888183594 -188.488204956055 7.738839149475
-104.718811035156 -69.230537414551 -197.154647827148 4.485735416412
-106.597106933594 -67.344329833984 -209.296310424805 7.434890270233
-128.051788330078 -73.198524475098 -275.230346679688 8.927268981934
-96.128723144531 -64.042953491211 -116.887229919434 2.416636705399
-129.911621093750 -69.708709716797 -261.011199951172 3.976064205170
-111.132110595703 -61.794120788574 -143.367599487305 13.274156570435
-113.386840820313 -69.848838806152 -147.293487548828 14.269063949585
-111.297485351563 -66.797691345215 -113.766296386719 13.175546646118
-152.479339599609 -71.597991943359 -275.764892578125 2.038887262344
-123.198944091797 -67.920028686523 -133.671752929688 28.018156051636
-157.291168212891 -69.862892150879 -282.403778076172 2.312700510025
-158.662231445313 -67.927238464355 -258.488708496094 2.309900045395
-132.241790771484 -68.443946838379 -157.053421020508 20.671495437622
-158.271820068359 -67.822959899902 -261.510528564453 2.419412851334
-141.146911621094 -66.667816162109 -194.222610473633 1.605192780495
-157.162200927734 -70.566223144531 -264.965118408203 1.625270247459
-127.541900634766 -66.785293579102 -120.530220031738 29.504322052002
-158.291687011719 -67.923057556152 -246.285827636719 1.423408985138
-142.352233886719 -66.925048828125 -193.932464599609 0.874758541584
-161.982696533203 -69.216064453125 -267.464324951172 1.601464390755
-141.749938964844 -68.508804321289 -184.429107666016 1.771277904510
-134.458648681641 -67.912826538086 -161.237136840820 15.924041748047
-131.416534423828 -66.375198364258 -134.049514770508 35.507186889648
-168.285247802734 -71.151786804199 -267.024719238281 2.177503347397
-168.490844726563 -72.167602539063 -281.670227050781 3.790095567703
-167.476379394531 -69.536430358887 -276.753967285156 1.545459508896
-171.201751708984 -68.699714660645 -269.245361328125 3.190094947815
-173.860839843750 -71.391700744629 -265.910491943359 6.315255641937
88.508232116699 -69.272888183594 -224.425018310547 4.102663993835
85.765777587891 -70.629524230957 -241.012878417969 9.117277145386
84.449150085449 -67.092895507813 -240.424652099609 9.024525642395
85.830795288086 -65.782936096191 -222.479629516602 3.212055921555
86.207702636719 -66.270347595215 -214.903396606445 3.536772251129
88.332481384277 -68.300529479980 -213.207641601563 2.806534767151
85.468437194824 -67.676284790039 -205.242553710938 7.832802772522
83.614532470703 -68.346176147461 -206.049057006836 7.753784656525
76.715919494629 -65.586791992188 -199.833068847656 17.307741165161
98.858856201172 -65.090087890625 -86.765830993652 4.313540935516
95.548271179199 -64.356834411621 -102.777473449707 3.023080825806
97.571075439453 -66.933860778809 -106.350280761719 2.448191165924
66.883979797363 -65.464523315430 -211.548339843750 16.633277893066
61.658706665039 -71.607299804688 -217.783615112305 14.607527732849
56.559097290039 -70.119003295898 -222.070205688477 15.297001838684
56.262115478516 -66.643486022949 -223.127395629883 14.764528274536
40.438842773438 -63.343193054199 -259.791931152344 3.560284137726
74.252235412598 -65.168365478516 -101.892715454102 3.082224130630
80.552970886230 -64.560951232910 -79.260856628418 9.901145935059
76.722045898438 -63.945449829102 -97.117248535156 6.030944347382
33.477432250977 -68.594314575195 -260.203918457031 0.942802190781
77.617248535156 -65.939910888672 -95.024742126465 7.117464065552
68.617202758789 -64.864334106445 -122.507308959961 14.688984870911
67.407127380371 -65.362525939941 -117.905235290527 11.724417686462
60.841217041016 -66.821090698242 -128.554977416992 17.729688644409
66.069358825684 -68.139289855957 -127.617889404297 21.009534835815
62.304344177246 -66.944908142090 -126.310539245605 17.870548248291
30.203750610352 -69.423904418945 -258.428802490234 1.763750910759
53.637596130371 -62.454483032227 -122.870559692383 10.309746742249
47.963211059570 -63.009910583496 -133.427856445313 10.311565399170
36.756996154785 -67.679054260254 -134.547058105469 2.376796245575
56.823944091797 -65.373634338379 -58.454086303711 13.773054122925
56.284210205078 -64.618682861328 -58.376358032227 14.054375648499
55.129943847656 -65.004753112793 -59.958297729492 14.397942543030
51.665100097656 -62.992378234863 -55.267349243164 17.684730529785
31.578674316406 -65.582504272461 -124.914443969727 3.172389030457
26.999664306641 -67.032157897949 -122.878356933594 5.581295013428
26.833770751953 -66.934539794922 -135.020416259766 3.030945301056
18.825119018555 -66.950386047363 -139.087707519531 2.240021467209
37.257141113281 -63.622032165527 -54.210754394531 12.751935005188
32.558883666992 -63.786705017090 -51.769897460938 10.081072807312
-2.687164306641 -71.241958618164 -206.685272216797 5.876831531525
15.477218627930 -67.604209899902 -138.773757934570 5.411373615265
-11.130706787109 -67.965904235840 -225.156890869141 2.467869997025
-10.760025024414 -71.593612670898 -230.133636474609 1.421730041504
25.833114624023 -62.317955017090 -52.457092285156 11.838252067566
26.186248779297 -63.696731567383 -46.559997558594 6.480299472809
7.802871704102 -66.482574462891 -127.942634582520 16.524906158447
-13.538864135742 -68.835456848145 -227.534561157227 0.494400680065
-1.071304321289 -69.027450561523 -154.733184814453 6.370218753815
-0.821411132813 -68.609825134277 -154.911224365234 6.126074314117
-19.365066528320 -71.590705871582 -221.047256469727 1.478885650635
-17.220825195313 -67.530181884766 -199.952194213867 2.404336690903
-5.459609985352 -64.517631530762 -134.312194824219 22.093269348145
21.539489746094 -60.268760681152 -53.029891967773 14.830078125000
1.090133666992 -67.681587219238 -126.314964294434 22.211151123047
-8.731353759766 -67.874984741211 -155.709716796875 12.221350669861
-5.071502685547 -63.315673828125 -138.464569091797 19.538936614990
-23.675857543945 -67.869583129883 -218.153350830078 3.900457859039
-25.311874389648 -68.452461242676 -216.047592163086 3.969489097595
-21.929611206055 -68.520462036133 -197.882278442383 1.307391881943
-8.067153930664 -66.587028503418 -129.501937866211 26.844139099121
-8.999938964844 -64.773048400879 -136.404647827148 23.198385238647
-5.208938598633 -65.452880859375 -128.896728515625 25.122386932373
-10.855346679688 -69.489097595215 -133.979690551758 25.376609802246
-23.227005004883 -69.913040161133 -182.439895629883 1.347988963127
-14.898071289063 -66.412155151367 -138.381042480469 26.779241561890
-17.562286376953 -68.375335693359 -136.867736816406 25.851888656616
-32.097152709961 -67.731445312500 -211.978179931641 5.348165512085
0.250701904297 -64.688110351563 -48.835784912109 12.727121353149
-19.459869384766 -66.808662414551 -139.323272705078 23.386343002319
-14.289459228516 -68.339843750000 -126.891647338867 32.732589721680
-35.797424316406 -68.163383483887 -181.853973388672 3.504401445389
-40.872543334961 -69.373489379883 -197.186767578125 4.744326591492
-27.687606811523 -63.976051330566 -137.021102905273 18.164176940918
-41.281127929688 -67.796386718750 -203.220657348633 5.899883747101
-7.110229492188 -64.122489929199 -51.530273437500 6.235663890839
-45.678421020508 -71.348228454590 -199.670349121094 3.246348142624
-65.114379882813 -71.325347900391 -294.819152832031 4.751422405243
-31.630279541016 -67.902206420898 -136.334655761719 14.384865760803
-50.898513793945 -68.176956176758 -189.450546264648 6.645209312439
-33.911178588867 -66.619262695313 -134.329055786133 13.408764839172
-41.380508422852 -69.153472900391 -165.620086669922 3.166607618332
-35.568862915039 -68.009071350098 -134.759094238281 11.355698585510
-67.466903686523 -71.798110961914 -282.889831542969 3.060612201691
-35.267166137695 -65.569190979004 -132.830444335938 13.191393852234
-72.691619873047 -71.958641052246 -281.130310058594 4.778581619263
-75.355712890625 -69.444885253906 -285.947601318359 1.931543827057
-52.969512939453 -65.732284545898 -182.404495239258 7.082833290100
-23.011215209961 -64.746231079102 -52.684356689453 2.961685895920
-78.379898071289 -71.965370178223 -300.384582519531 9.812330245972
-50.650573730469 -65.015548706055 -160.759490966797 6.146566867828
-52.212646484375 -65.509872436523 -180.301879882813 7.618414402008
-55.996765136719 -63.692909240723 -186.069931030273 10.153102874756
-48.531188964844 -65.859962463379 -138.768371582031 2.026293039322
-28.009628295898 -66.133460998535 -56.532333374023 5.263347625732
-67.847717285156 -67.866287231445 -219.429763793945 11.537172317505
-57.445312500000 -67.213012695313 -180.112838745117 6.233247280121
-58.613433837891 -68.233245849609 -153.932708740234 6.072535514832
-70.000183105469 -67.358924865723 -215.484039306641 9.180315971375
-62.038665771484 -67.549888610840 -181.513717651367 6.960520267487
-60.629989624023 -64.325492858887 -164.197982788086 6.954310417175
-61.276519775391 -69.381881713867 -171.460021972656 3.848473787308
-36.140701293945 -63.161361694336 -53.145462036133 5.954497337341
-70.638824462891 -68.834190368652 -219.807388305664 9.498126029968
-58.213638305664 -65.596824645996 -127.828147888184 2.114386796951
-55.188858032227 -66.862632751465 -140.239898681641 1.120139360428
-62.296356201172 -69.092628479004 -149.753662109375 4.677149772644
-80.779174804688 -66.787673950195 -235.647277832031 13.527904510498
-65.412536621094 -68.957878112793 -139.367401123047 3.106578350067
-65.930480957031 -66.654022216797 -161.739715576172 5.183406352997
-58.141723632813 -66.721275329590 -125.736663818359 1.181631326675
-45.819290161133 -63.577018737793 -65.306198120117 12.772082328796
-99.495086669922 -68.193603515625 -293.102233886719 2.427980184555
-67.024795532227 -66.085250854492 -157.637588500977 4.041061401367
-48.146697998047 -65.291160583496 -62.122909545898 10.701258659363
-100.562377929688 -70.420219421387 -281.551452636719 5.828492641449
-64.042449951172 -71.114364624023 -126.780807495117 4.639939308167
-66.994155883789 -67.124633789063 -149.938201904297 3.361867666245
-64.234054565430 -65.000358581543 -137.141326904297 2.759661912918
-66.389160156250 -65.604553222656 -121.642791748047 1.829758405685
-60.740539550781 -66.456726074219 -73.645942687988 9.310693740845
-58.935836791992 -65.168174743652 -65.359588623047 9.772940635681
-75.657363891602 -65.448509216309 -133.505813598633 0.845614314079
-77.539886474609 -69.853424072266 -138.770538330078 1.946952819824
-79.599365234375 -67.985824584961 -140.661544799805 1.679842472076
-79.080764770508 -65.786003112793 -137.913619995117 0.739422261715
-88.190292358398 -64.762802124023 -184.323364257813 16.805137634277
-78.896591186523 -66.765243530273 -135.466140747070 2.314020872116
-94.825012207031 -70.779708862305 -174.246459960938 8.010610580444
-83.721389770508 -69.643005371094 -131.265182495117 2.969664096832
-86.199935913086 -65.616577148438 -129.769927978516 1.633402585983
-86.720626831055 -66.813766479492 -120.098716735840 1.615796566010
-86.255264282227 -70.454071044922 -119.717483520508 2.184782743454
-107.885070800781 -66.726921081543 -215.627929687500 6.588473796844
-86.421051025391 -66.158012390137 -119.222389221191 1.368209838867
-111.629516601563 -68.620979309082 -209.543365478516 5.658160686493
-130.211090087891 -72.263748168945 -276.014526367188 8.081696510315
-129.239654541016 -71.332099914551 -261.382476806641 3.507535696030
-132.891082763672 -71.607383728027 -268.406829833984 4.297723770142
-131.219848632813 -69.516777038574 -265.340484619141 1.580201983452
-140.856719970703 -66.572639465332 -282.704986572266 3.768399238586
-146.775665283203 -67.583023071289 -275.928466796875 2.859129428864
-140.260772705078 -68.555335998535 -279.049163818359 5.638778686523
-153.940643310547 -71.037399291992 -279.126556396484 1.182761430740
-161.080230712891 -74.374053955078 -289.952819824219 1.031368970871
-153.537078857422 -70.951614379883 -257.225280761719 2.339486837387
-136.417602539063 -66.725097656250 -178.158721923828 5.655440807343
-135.925964355469 -69.150993347168 -191.166915893555 3.848231554031
-143.226837158203 -70.686286926270 -201.137344360352 1.862995743752
-124.313354492188 -65.031410217285 -130.535202026367 28.291606903076
-153.664337158203 -71.341201782227 -252.492187500000 1.652502059937
-126.644134521484 -65.529823303223 -127.319152832031 29.809909820557
-157.394470214844 -69.576911926270 -261.705383300781 0.833658397198
-148.425903320313 -67.669319152832 -220.585067749023 1.818705677986
-148.012176513672 -70.135688781738 -208.227722167969 3.163329601288
-164.929260253906 -70.610542297363 -284.273315429688 2.241226673126
-162.628356933594 -69.527015686035 -264.836364746094 1.176978826523
-155.609741210938 -69.476150512695 -242.361770629883 2.853212833405
-142.732299804688 -66.818603515625 -196.385375976563 2.212734699249
-127.952819824219 -68.222061157227 -112.976638793945 29.599601745605
-138.735534667969 -65.621910095215 -160.551651000977 14.855407714844
-136.059814453125 -67.707206726074 -146.459564208984 29.088102340698
-161.668762207031 -70.675956726074 -258.275939941406 2.040125131607
-163.940887451172 -71.478546142578 -256.383422851563 2.944072008133
-167.551788330078 -72.486663818359 -268.321990966797 0.873113274574
-174.103759765625 -71.055496215820 -269.810302734375 5.733407497406
-181.959594726563 -72.801963806152 -268.157287597656 13.653415679932
86.825248718262 -68.535026550293 -237.672256469727 8.759758949280
81.486228942871 -71.432937622070 -256.017059326172 19.778800964355
81.145881652832 -70.323883056641 -257.368072509766 20.684106826782
88.658508300781 -67.813667297363 -205.451309204102 5.471344470978
89.198654174805 -69.040725708008 -200.079925537109 5.184729099274
69.996726989746 -69.796707153320 -257.673187255859 13.737640380859
66.005477905273 -68.800506591797 -263.064971923828 16.069307327271
100.690414428711 -66.390731811523 -94.254364013672 2.855277776718
100.786071777344 -62.946121215820 -88.080085754395 3.574212312698
58.070327758789 -71.037223815918 -267.039489746094 16.492807388306
73.020202636719 -65.735717773438 -205.564315795898 15.536942481995
96.460617065430 -65.832351684570 -84.007545471191 4.329503059387
89.853416442871 -66.497322082520 -84.033714294434 10.180265426636
57.807609558105 -73.966735839844 -266.918395996094 16.978412628174
59.687026977539 -70.364753723145 -222.492736816406 12.571413040161
88.250480651855 -66.723495483398 -77.208381652832 7.780717849731
53.740844726563 -66.587532043457 -228.486846923828 11.833725929260
73.951759338379 -64.055900573730 -119.524154663086 9.856650352478
52.070808410645 -68.271354675293 -230.946624755859 10.663364410400
73.611511230469 -67.547676086426 -123.875038146973 15.015493392944
67.447540283203 -63.953109741211 -127.300201416016 19.297775268555
72.727355957031 -66.139244079590 -120.127914428711 11.295397758484
68.677650451660 -66.355751037598 -120.131942749023 13.104480743408
59.662384033203 -67.204063415527 -127.860839843750 16.317144393921
75.497749328613 -63.830497741699 -64.414154052734 2.770774126053
28.298858642578 -70.967826843262 -248.269790649414 5.804654121399
28.736480712891 -70.774360656738 -251.927001953125 4.519088745117
68.441925048828 -65.191780090332 -62.099182128906 2.460851430893
51.069099426270 -65.722351074219 -123.099586486816 8.740611076355
46.191818237305 -67.387298583984 -120.724365234375 4.191695213318
21.005874633789 -68.570381164551 -254.122528076172 2.814099311829
66.507369995117 -63.573768615723 -60.595764160156 4.249357223511
63.119453430176 -68.663238525391 -57.239456176758 10.079719543457
42.704498291016 -64.664108276367 -124.098320007324 4.870828151703
55.148094177246 -63.391777038574 -57.330215454102 15.138661384583
49.900100708008 -65.480506896973 -59.185333251953 18.888084411621
28.362258911133 -68.703994750977 -136.444519042969 2.650438070297
44.047897338867 -64.391838073730 -51.402557373047 11.851193428040
48.982612609863 -63.882591247559 -57.767578125000 19.291877746582
7.027648925781 -70.352325439453 -222.781967163086 0.838544905186
6.090866088867 -68.708221435547 -217.283172607422 3.029068470001
20.307815551758 -68.714935302734 -135.813934326172 4.701949596405
10.434661865234 -73.699745178223 -215.937149047852 2.991626501083
0.606658935547 -72.213661193848 -235.218200683594 1.150619268417
-3.149948120117 -70.791641235352 -231.409927368164 0.930556595325
39.597709655762 -63.235984802246 -59.673263549805 18.307886123657
-1.693710327148 -68.700355529785 -215.103775024414 2.173271179199
-4.662353515625 -70.557243347168 -232.819885253906 1.621220469475
2.006820678711 -68.680671691895 -202.487579345703 6.328386783600
28.633590698242 -67.143798828125 -49.722412109375 7.989903926849
8.788543701172 -67.905731201172 -135.430969238281 10.983254432678
-15.666580200195 -68.859573364258 -232.206680297852 1.923007607460
-11.258544921875 -68.218101501465 -209.304290771484 1.743907451630
-5.372207641602 -65.679725646973 -194.573318481445 9.946523666382
-5.933578491211 -64.843612670898 -197.659744262695 8.286542892456
-16.740783691406 -67.541229248047 -227.729675292969 1.881685376167
-0.481277465820 -67.380104064941 -147.809173583984 10.194109916687
-12.437484741211 -69.841072082520 -207.248229980469 2.368671417236
-11.277740478516 -69.113235473633 -203.561691284180 1.939426064491
1.948272705078 -66.817710876465 -128.344070434570 20.033195495605
-16.007873535156 -67.650146484375 -190.003570556641 3.600160598755
-23.213699340820 -67.331329345703 -224.702789306641 4.226250648499
19.929336547852 -65.279479980469 -52.989669799805 15.135794639587
16.350646972656 -68.508949279785 -50.497528076172 14.846192359924
-1.796997070313 -67.339721679688 -127.444526672363 23.468257904053
15.403518676758 -67.513587951660 -46.981002807617 12.045359611511
13.391662597656 -63.850349426270 -51.373123168945 16.632097244263
-14.022598266602 -64.804603576660 -136.945129394531 26.986333847046
-21.603302001953 -71.873809814453 -182.227767944336 1.078132867813
-31.551757812500 -67.435638427734 -205.935867309570 6.337401390076
3.669372558594 -64.798614501953 -46.549987792969 16.620498657227
-28.893127441406 -67.938278198242 -189.987365722656 0.694788217545
-16.960159301758 -68.164718627930 -140.122024536133 24.540605545044
-26.882522583008 -71.091766357422 -187.847961425781 0.867992341518
-37.111511230469 -70.071640014648 -206.268814086914 3.360219717026
-58.439086914063 -72.382720947266 -297.232055664063 6.777937889099
-59.027023315430 -73.633239746094 -298.333526611328 7.874314785004
0.870651245117 -63.663352966309 -49.295516967773 12.642527580261
-21.841262817383 -69.042976379395 -132.798217773438 24.533639907837
-38.606796264648 -70.374938964844 -207.271652221680 3.622021436691
-45.744140625000 -66.909843444824 -199.064163208008 7.322357177734
-43.201583862305 -70.783317565918 -197.730773925781 4.369853496552
-46.563812255859 -67.066757202148 -197.836837768555 7.823902606964
-27.042694091797 -67.434059143066 -136.681243896484 18.492164611816
-26.711090087891 -67.121772766113 -136.964309692383 18.624715805054
-12.219299316406 -66.296920776367 -47.474670410156 7.608787536621
-43.275024414063 -69.559410095215 -173.645004272461 3.746389865875
-48.901168823242 -68.298591613770 -193.258010864258 7.105875492096
-34.169998168945 -68.266265869141 -127.825401306152 15.001832008362
-48.526199340820 -70.077827453613 -191.471420288086 5.697462081909
-19.767700195313 -64.017349243164 -53.188461303711 2.464117288589
-52.499023437500 -70.875694274902 -184.762924194336 3.408978462219
-22.175567626953 -62.530113220215 -57.042953491211 5.480684280396
-40.590972900391 -68.671829223633 -129.564117431641 8.365682601929
-56.143615722656 -70.527404785156 -185.202499389648 4.512874603271
-38.900009155273 -70.099838256836 -132.127578735352 9.198879241943
-54.512939453125 -67.271781921387 -168.721603393555 8.007116317749
-55.352981567383 -68.548469543457 -186.997756958008 6.686561584473
-29.063873291016 -64.409645080566 -56.699630737305 5.855917453766
-46.867446899414 -67.981590270996 -138.720596313477 3.299735307693
-38.563049316406 -69.048828125000 -57.783523559570 5.030902385712
-55.208114624023 -66.619178771973 -153.851898193359 3.977260112762
-56.842285156250 -68.439521789551 -170.841156005859 5.905809402466
-72.182937622070 -69.736190795898 -223.948318481445 10.854349136353
-40.774978637695 -65.522666931152 -62.370941162109 9.546899795532
-63.574829101563 -68.178535461426 -164.274795532227 3.712990283966
-55.067657470703 -69.100593566895 -127.412689208984 1.702578425407
-65.582443237305 -66.206436157227 -170.505340576172 6.889478206635
-64.162109375000 -68.989509582520 -174.754852294922 5.893762111664
-82.979598999023 -69.338111877441 -241.413345336914 7.858838558197
-64.561752319336 -69.778411865234 -153.869094848633 3.329658031464
-67.643218994141 -68.679100036621 -165.009506225586 3.814343452454
-65.696640014648 -68.184524536133 -143.096984863281 3.006500482559
-60.350250244141 -65.346656799316 -130.009414672852 1.320645093918
-67.376159667969 -69.144226074219 -158.127700805664 1.202391982079
-69.603576660156 -63.575729370117 -157.122299194336 6.654272556305
-61.048278808594 -66.562667846680 -126.653312683105 2.327317476273
-61.535217285156 -67.085540771484 -136.243545532227 2.319859027863
-60.871673583984 -65.954727172852 -138.033020019531 0.427075237036
-99.791961669922 -69.944129943848 -268.321990966797 8.158551216125
-71.485916137695 -69.006057739258 -155.388290405273 2.940530538559
-52.568511962891 -65.974723815918 -66.281570434570 12.268753051758
-72.847473144531 -67.335556030273 -158.743270874023 5.489677429199
-104.985870361328 -68.720626831055 -290.838378906250 2.461649894714
-103.201538085938 -70.213562011719 -267.648803710938 6.916664600372
-79.228195190430 -69.672164916992 -151.569412231445 5.564547538757
-52.555465698242 -64.383361816406 -67.938858032227 10.237046241760
-73.204360961914 -67.273086547852 -149.654891967773 2.051149845123
-76.331573486328 -67.569610595703 -143.792236328125 0.704767882824
-63.747238159180 -65.166038513184 -75.642768859863 8.880188941956
-81.877151489258 -67.257186889648 -138.531250000000 2.784953594208
-63.827438354492 -62.490280151367 -75.086158752441 6.837116241455
-120.216918945313 -72.844131469727 -289.110015869141 2.808205842972
-65.707382202148 -68.868301391602 -78.919639587402 8.963062286377
-89.513580322266 -69.390884399414 -174.926116943359 12.504364013672
-91.422607421875 -70.508430480957 -176.645370483398 11.173092842102
-77.291961669922 -66.892730712891 -127.425384521484 1.441767811775
-95.368865966797 -66.489875793457 -183.734298706055 10.468591690063
-89.495300292969 -67.954444885254 -164.587982177734 8.249811172485
-82.312164306641 -69.945053100586 -133.069442749023 3.201859712601
-96.164398193359 -68.072654724121 -184.162658691406 9.617474555969
-119.447601318359 -74.333709716797 -279.842529296875 6.942877292633
-77.463577270508 -68.253845214844 -124.563240051270 1.028903484344
-116.307769775391 -68.435165405273 -286.139984130859 1.957124114037
-104.046142578125 -68.544975280762 -208.079147338867 8.540088653564
-90.026794433594 -65.506385803223 -143.240524291992 1.499289035797
-92.139556884766 -69.509819030762 -146.536071777344 1.887128591537
-107.224914550781 -69.832199096680 -218.207885742188 3.697252035141
-128.109558105469 -72.733009338379 -284.262542724609 2.436937093735
-126.283599853516 -66.627571105957 -281.530517578125 4.650286674500
-118.074554443359 -69.598930358887 -221.426406860352 3.972339868546
-136.379150390625 -71.492156982422 -293.972503662109 1.288882017136
-124.551544189453 -68.283462524414 -259.085693359375 1.565095305443
-93.514709472656 -68.651786804199 -111.615638732910 4.334400177002
-132.682617187500 -72.901298522949 -287.552001953125 2.402272462845
-131.597137451172 -74.262863159180 -277.683258056641 6.097099304199
-137.127044677734 -72.558563232422 -295.444366455078 3.072425842285
-131.751037597656 -75.169570922852 -267.749816894531 4.120814323425
-130.737030029297 -70.189903259277 -254.983963012695 1.629633188248
-142.692291259766 -69.230957031250 -291.416534423828 1.058680176735
-133.954193115234 -71.094444274902 -276.293975830078 7.388552188873
-143.087585449219 -72.432853698730 -296.699401855469 2.323594331741
-136.790618896484 -72.896270751953 -285.508239746094 1.841024994850
-143.377075195313 -73.864624023438 -290.711914062500 1.891463279724
-140.648651123047 -72.963180541992 -298.896606445313 5.179995059967
-109.181640625000 -62.276397705078 -114.896629333496 11.556615829468
-110.154602050781 -66.385948181152 -119.101737976074 12.085774421692
-151.073944091797 -72.913558959961 -287.444946289063 1.948099017143
-148.526702880859 -72.023017883301 -286.842590332031 3.071537494659
-157.295806884766 -75.628761291504 -294.089904785156 2.626780509949
-147.069305419922 -72.194778442383 -284.429107666016 1.590689063072
-146.766082763672 -74.730255126953 -281.230316162109 1.639966726303
-147.743408203125 -72.781814575195 -279.371551513672 2.826202392578
-151.820831298828 -72.353820800781 -268.591766357422 1.952410221100
-154.875701904297 -71.935501098633 -289.359375000000 1.926388859749
-157.802673339844 -73.851699829102 -280.300170898438 4.357702255249
-117.298614501953 -68.149848937988 -112.770324707031 19.078592300415
-156.381713867188 -69.348251342773 -279.949157714844 3.361850023270
-159.262756347656 -70.266204833984 -286.486389160156 2.288356542587
-158.202880859375 -72.552993774414 -288.549743652344 2.539209365845
-155.254608154297 -71.654022216797 -253.906921386719 2.705588340759
-132.601074218750 -67.909210205078 -159.962097167969 18.009672164917
-133.867004394531 -70.022949218750 -172.558364868164 8.395627975464
-144.002197265625 -71.661010742188 -195.249710083008 1.913111329079
-129.993377685547 -70.910636901855 -144.114578247070 30.889989852905
-122.818023681641 -66.545616149902 -118.716629028320 24.699846267700
-129.498931884766 -66.228996276855 -131.322143554688 33.587093353271
-154.442626953125 -69.507812500000 -237.573135375977 2.315019845963
-148.344879150391 -71.354370117188 -223.389526367188 2.007138013840
-156.920928955078 -70.665260314941 -239.127685546875 1.869454383850
-151.595794677734 -70.175933837891 -229.701980590820 2.427781820297
-151.213287353516 -68.383041381836 -219.084686279297 3.299965858459
-138.730163574219 -69.583885192871 -176.348098754883 2.692008256912
-156.032165527344 -70.257522583008 -244.508651733398 1.120102405548
-150.844818115234 -71.200675964355 -212.881607055664 0.736674189568
-158.819671630859 -71.182426452637 -241.405670166016 2.912863254547
-161.324645996094 -70.429016113281 -260.398162841797 2.388025760651
-135.506011962891 -69.938575744629 -138.947082519531 36.640663146973
-130.677856445313 -67.197990417480 -116.808349609375 32.622467041016
-169.125976562500 -71.695648193359 -277.019012451172 1.921461701393
-185.200317382813 -69.421318054199 -278.243652343750 17.580005645752
85.281852722168 -71.966720581055 -245.903869628906 12.681284904480
87.677825927734 -70.591979980469 -240.834045410156 10.470387458801
84.852485656738 -66.395004272461 -234.638595581055 7.794705390930
82.786636352539 -69.988113403320 -253.718353271484 18.746898651123
87.562011718750 -65.673728942871 -222.331390380859 3.939667463303
78.663055419922 -70.002693176270 -257.386688232422 19.254737854004
73.618438720703 -70.437248229980 -259.581329345703 17.647403717041
78.792816162109 -66.653678894043 -196.191513061523 16.314950942993
78.541084289551 -66.803138732910 -195.196838378906 16.854326248169
96.725433349609 -65.838180541992 -104.347671508789 1.838209509850
66.492980957031 -69.578376770020 -212.096099853516 16.002620697021
70.859283447266 -68.041786193848 -211.597808837891 12.483764648438
89.800491333008 -69.539291381836 -109.036979675293 3.921217679977
90.451637268066 -63.135063171387 -79.284500122070 8.565439224243
50.646255493164 -69.985610961914 -227.387298583984 14.015470504761
72.618301391602 -66.113639831543 -114.077293395996 6.448133468628
70.451477050781 -68.700073242188 -125.912773132324 18.008546829224
67.907012939453 -67.416900634766 -123.788253784180 16.750846862793
63.335914611816 -68.786064147949 -132.225921630859 21.198459625244
81.671752929688 -65.020095825195 -65.834030151367 3.595442056656
75.829330444336 -69.441123962402 -115.175315856934 8.761114120483
32.071975708008 -69.492576599121 -264.796508789063 4.188996315002
37.073966979980 -73.205856323242 -244.359466552734 7.589638233185
68.656616210938 -68.254112243652 -116.799041748047 10.783854484558
62.513877868652 -70.978324890137 -128.457672119141 18.073759078979
59.986961364746 -69.091667175293 -128.752838134766 16.484426498413
22.105682373047 -71.393768310547 -260.141052246094 3.002887010574
54.300827026367 -68.450614929199 -133.807571411133 14.159431457520
54.942062377930 -68.645103454590 -118.389442443848 8.396621704102
47.425453186035 -67.085960388184 -125.305587768555 5.812237739563
43.750877380371 -68.846549987793 -121.769241333008 1.333356857300
53.472099304199 -66.847770690918 -53.007003784180 16.449682235718
12.516952514648 -70.788856506348 -219.247772216797 0.978207886219
28.914184570313 -66.249168395996 -126.366394042969 5.154742240906
29.772201538086 -67.508049011230 -127.219474792480 4.280550956726
43.569129943848 -64.392112731934 -51.944915771484 12.068202972412
6.331878662109 -71.838928222656 -236.249145507813 1.501490473747
4.811065673828 -69.943946838379 -216.968276977539 2.833169221878
46.427040100098 -67.119285583496 -46.803955078125 7.921737194061
-0.361282348633 -70.641120910645 -233.997222900391 1.198441147804
0.610717773438 -71.164436340332 -208.830825805664 5.561860084534
-0.968368530273 -73.340553283691 -220.992401123047 1.608004689217
41.287811279297 -66.300498962402 -56.615325927734 14.975855827332
11.670639038086 -65.108520507813 -139.377868652344 5.549638748169
17.461410522461 -68.523269653320 -130.897399902344 8.499472618103
-4.768753051758 -70.525154113770 -202.511444091797 5.612800598145
-10.422637939453 -70.851699829102 -223.960662841797 1.243067741394
11.374206542969 -64.857467651367 -135.992340087891 7.874147415161
-11.415847778320 -71.156219482422 -230.773132324219 1.099231123924
14.355529785156 -67.176681518555 -130.100387573242 10.715955734253
-7.114974975586 -69.518501281738 -194.810653686523 6.944065570831
9.111526489258 -67.954551696777 -136.701812744141 9.927137374878
3.808517456055 -67.300605773926 -149.235931396484 6.225133895874
-20.177642822266 -70.717605590820 -227.120971679688 2.740656137466
-11.793502807617 -66.728286743164 -206.354003906250 2.301245212555
-15.471786499023 -68.331596374512 -217.635711669922 2.094515085220
-12.888305664063 -68.728683471680 -206.858139038086 2.252146005630
-3.068756103516 -68.049324035645 -152.655059814453 9.205388069153
-17.874145507813 -68.381034851074 -189.841476440430 2.227961540222
-18.037734985352 -67.756294250488 -197.895660400391 1.438348174095
-4.993499755859 -68.688774108887 -136.530487060547 19.371887207031
-19.790512084961 -67.379920959473 -197.049285888672 0.547934472561
-3.512100219727 -69.305236816406 -130.969253540039 22.660993576050
17.018875122070 -68.167686462402 -43.609420776367 8.676087379456
-21.500595092773 -68.700462341309 -186.559524536133 1.774527668953
-8.300613403320 -65.399909973145 -128.428131103516 28.008527755737
-28.007522583008 -69.751022338867 -220.522933959961 3.710928678513
-26.625732421875 -71.232582092285 -213.097427368164 2.286602735519
-23.198791503906 -72.595916748047 -197.296310424805 0.679505586624
-31.417816162109 -69.090126037598 -214.309234619141 4.076973438263
6.596298217773 -65.409210205078 -48.987380981445 18.136272430420
-51.388092041016 -73.390213012695 -298.454437255859 7.823273658752
-52.180313110352 -71.228454589844 -294.812988281250 3.997891426086
-32.724716186523 -70.456314086914 -210.011413574219 3.396080255508
4.173339843750 -65.533882141113 -52.322982788086 15.241610527039
4.252487182617 -66.850646972656 -47.786483764648 17.251209259033
0.731887817383 -67.145332336426 -49.123626708984 14.099482536316
-24.237167358398 -66.414695739746 -128.741729736328 24.075557708740
-31.141357421875 -68.138450622559 -188.038742065430 2.941719532013
-58.094985961914 -72.623687744141 -287.263946533203 2.415690898895
-2.101760864258 -67.723182678223 -48.568481445313 12.809218406677
-31.306854248047 -68.630714416504 -129.729278564453 16.985187530518
-11.485549926758 -67.586647033691 -47.573150634766 8.642745971680
-12.152130126953 -70.472663879395 -49.599395751953 8.626111030579
-36.682418823242 -61.676841735840 -140.592468261719 9.775426864624
-68.818389892578 -71.880828857422 -277.585937500000 8.006124496460
-66.961059570313 -74.262443542480 -270.258605957031 15.489527702332
-75.132064819336 -67.791488647461 -290.560668945313 2.157665967941
-71.335693359375 -72.761688232422 -277.377044677734 7.933784008026
-70.540298461914 -71.023574829102 -268.168273925781 14.483731269836
-49.296875000000 -67.760887145996 -169.795440673828 7.951639175415
-49.548660278320 -68.068122863770 -172.840362548828 8.947690963745
-71.688125610352 -71.151420593262 -275.703735351563 9.836166381836
-75.410675048828 -70.991981506348 -286.059020996094 0.972447812557
-54.845870971680 -68.813095092773 -159.554107666016 5.780992507935
-21.134933471680 -66.785545349121 -55.198181152344 2.425245285034
-50.373916625977 -67.336288452148 -167.983459472656 7.334911346436
-31.987060546875 -69.736167907715 -60.016036987305 4.710701942444
-45.591583251953 -68.918945312500 -130.438995361328 3.536742687225
-56.979019165039 -68.987915039063 -151.839035034180 3.755873918533
-47.755233764648 -67.533485412598 -129.269744873047 3.982665061951
-57.727111816406 -71.487136840820 -176.961563110352 2.498461723328
-76.217254638672 -68.437835693359 -228.493103027344 14.457689285278
-78.095886230469 -69.002014160156 -236.075668334961 11.811280250549
-61.797210693359 -66.132919311523 -157.343429565430 6.285525798798
-79.148254394531 -70.888885498047 -237.855941772461 9.900731086731
-80.366317749023 -71.759239196777 -238.919692993164 9.107089042664
-42.246200561523 -68.536735534668 -62.385757446289 7.364513397217
-69.718887329102 -67.649909973145 -167.743499755859 6.092680931091
-71.037155151367 -72.383560180664 -165.583770751953 3.669007301331
-66.539627075195 -69.807975769043 -167.325851440430 3.243690490723
-68.820617675781 -69.938255310059 -162.789123535156 3.524158239365
-67.460510253906 -69.727821350098 -162.560150146484 3.555347204208
-60.300720214844 -67.500457763672 -129.910583496094 1.327376961708
-99.847473144531 -72.483329772949 -278.665313720703 7.523580551147
-49.142456054688 -66.402206420898 -69.121498107910 10.621340751648
-71.194259643555 -67.484245300293 -146.696716308594 0.957392334938
-71.684158325195 -65.994522094727 -132.012542724609 2.758997917175
-52.780822753906 -67.405189514160 -65.184387207031 11.456909179688
-99.769622802734 -70.704086303711 -263.538391113281 3.646804094315
-112.431793212891 -72.939208984375 -297.560058593750 4.225454807281
-103.272460937500 -70.721611022949 -274.598571777344 10.895950317383
-68.586898803711 -65.894828796387 -128.444366455078 4.724420070648
-70.463104248047 -69.037879943848 -134.768310546875 2.498294353485
-102.326904296875 -69.806846618652 -264.037017822266 3.790660858154
-78.213607788086 -66.413986206055 -142.660324096680 2.918896913528
-110.128631591797 -73.703399658203 -284.481811523438 4.189352035522
-76.579055786133 -64.219711303711 -145.167358398438 3.967157602310
-74.812606811523 -69.275581359863 -130.619537353516 0.989353120327
-77.880523681641 -68.967979431152 -144.247314453125 2.515392303467
-84.102355957031 -66.744934082031 -143.160339355469 4.712115764618
-77.413986206055 -65.186157226563 -134.027313232422 1.328295469284
-118.511474609375 -70.011070251465 -298.050354003906 6.381060600281
-114.402252197266 -71.217239379883 -292.718963623047 1.967325925827
-78.586486816406 -69.579643249512 -120.871826171875 0.828137040138
-80.877182006836 -66.847396850586 -142.890472412109 4.327469348907
-68.034805297852 -66.219223022461 -76.139945983887 10.297411918640
-67.032180786133 -68.710716247559 -79.779533386230 8.894283294678
-121.697967529297 -73.871215820313 -300.025024414063 5.237016201019
-122.362213134766 -74.839630126953 -295.361572265625 3.183608770370
-117.071411132813 -72.291992187500 -287.492248535156 1.896980643272
-95.836212158203 -70.706779479980 -195.175476074219 11.710497856140
-86.166152954102 -71.625457763672 -146.598220825195 5.728643417358
-95.875488281250 -68.496406555176 -191.375808715820 11.319227218628
-124.853790283203 -69.718673706055 -288.166595458984 1.602182388306
-99.119262695313 -72.330680847168 -196.007095336914 9.380793571472
-83.944488525391 -72.241668701172 -122.404281616211 2.902590990067
-89.588790893555 -68.295387268066 -148.460510253906 3.998627662659
-93.776733398438 -69.905227661133 -145.334106445313 1.858112812042
-125.912811279297 -73.720138549805 -293.413604736328 0.778783857822
-128.009399414063 -73.177131652832 -298.534088134766 3.726065635681
-106.804656982422 -72.298736572266 -221.227752685547 2.717264890671
-129.791564941406 -71.839515686035 -297.205535888672 4.550429344177
-127.747039794922 -71.569259643555 -279.975280761719 4.975817680359
-110.700927734375 -71.557624816895 -209.193664550781 6.442653179169
-118.890197753906 -71.595741271973 -229.569793701172 2.590835332870
-112.755584716797 -70.457069396973 -221.166641235352 3.786994218826
-128.057708740234 -71.203437805176 -267.404998779297 1.859481692314
-90.431610107422 -68.217147827148 -115.663200378418 2.249818563461
-119.832214355469 -73.842178344727 -231.423645019531 3.080158472061
-123.298278808594 -73.993545532227 -234.129577636719 1.513131618500
-122.683776855469 -75.176559448242 -235.943267822266 3.370056629181
-126.386688232422 -71.148735046387 -247.692077636719 5.323837757111
-126.205444335938 -70.755126953125 -241.847610473633 6.852330684662
-127.779022216797 -71.025917053223 -248.235382080078 4.653087139130
-137.551849365234 -70.139045715332 -275.443664550781 7.105017185211
-132.861083984375 -72.309188842773 -262.349517822266 2.301786899567
-138.489166259766 -74.532455444336 -283.363220214844 3.714357614517
-144.060668945313 -72.079719543457 -276.087768554688 0.639808118343
-153.434326171875 -72.541976928711 -294.265716552734 1.892608523369
-120.698181152344 -67.688552856445 -141.125350952148 22.914649963379
-152.918701171875 -70.332008361816 -255.924499511719 1.533947110176
-157.577423095703 -70.779457092285 -265.084899902344 1.645910620689
-137.637145996094 -70.420410156250 -172.567108154297 5.442384243011
-148.080413818359 -71.675750732422 -214.945999145508 1.201378345490
-135.061981201172 -68.339416503906 -156.291732788086 20.062717437744
-136.848754882813 -70.811393737793 -161.569808959961 14.926904678345
-151.788940429688 -69.122039794922 -244.524261474609 1.323927760124
-132.273345947266 -68.924858093262 -147.213317871094 29.543640136719
-126.702667236328 -69.109519958496 -115.318855285645 28.766826629639
-139.038696289063 -70.437858581543 -181.079330444336 2.599094867706
-159.284362792969 -72.276176452637 -242.626510620117 3.598050117493
-147.475860595703 -73.655532836914 -204.726608276367 2.380653619766
-145.946166992188 -73.429672241211 -196.648742675781 1.011916399002
-136.858978271484 -69.078453063965 -158.625579833984 17.299596786499
-152.699890136719 -71.599548339844 -226.677078247070 1.840285778046
-156.610260009766 -71.912979125977 -238.462707519531 2.804171800613
-137.952514648438 -71.482666015625 -137.969482421875 37.339851379395
-168.009735107422 -75.186035156250 -286.003845214844 1.776147842407
-173.972351074219 -70.491592407227 -274.175750732422 6.313838005066
-187.029357910156 -71.859695434570 -271.973754882813 18.828020095825
143.622741699219 -66.901596069336 -160.620849609375 27.089981079102
141.397399902344 -66.250358581543 -165.191543579102 25.342241287231
138.317413330078 -69.381896972656 -163.110412597656 21.373580932617
132.373886108398 -70.526382446289 -166.587097167969 16.025161743164
126.204483032227 -67.399658203125 -163.097854614258 10.920755386353
122.590812683105 -70.366867065430 -154.143386840820 6.163556575775
118.221519470215 -66.597434997559 -161.949264526367 5.781311988831
90.194274902344 -70.392288208008 -237.147720336914 10.918811798096
94.663658142090 -74.636047363281 -212.373107910156 1.664146065712
104.846374511719 -70.005493164063 -94.771461486816 2.065461874008
61.320739746094 -71.171539306641 -265.790161132813 16.766912460327
95.717689514160 -67.401031494141 -107.174530029297 2.137525081635
65.578994750977 -66.817512512207 -213.834793090820 15.405217170715
51.233001708984 -72.445861816406 -266.670349121094 13.794600486755
61.875892639160 -67.115890502930 -222.775207519531 11.684291839600
89.100097656250 -65.712562561035 -75.481803894043 8.667686462402
42.273910522461 -71.290527343750 -264.494049072266 7.011726856232
78.124320983887 -67.842826843262 -107.458435058594 3.026237487793
41.655250549316 -73.639862060547 -267.524414062500 10.435705184937
73.473594665527 -63.533157348633 -117.199829101563 7.677122592926
83.681587219238 -69.107215881348 -70.146018981934 2.984316349030
38.642974853516 -70.257415771484 -240.024658203125 10.036880493164
67.137939453125 -70.829101562500 -129.716217041016 22.724327087402
69.764518737793 -68.217918395996 -94.828216552734 2.099712133408
73.934387207031 -67.657371520996 -88.595802307129 6.590972900391
63.680839538574 -69.607261657715 -129.021057128906 19.555559158325
76.516891479492 -63.203926086426 -65.804550170898 4.302103519440
21.508911132813 -70.674461364746 -260.870025634766 3.043552160263
74.842941284180 -68.783912658691 -66.632217407227 1.868800878525
69.334518432617 -67.275688171387 -64.721160888672 2.434359550476
46.784675598145 -67.932106018066 -133.310363769531 7.450994491577
52.998092651367 -66.970108032227 -123.432167053223 9.367167472839
46.347572326660 -64.851638793945 -123.637283325195 6.072621822357
44.694328308105 -67.671165466309 -133.350662231445 5.510643005371
47.277793884277 -67.875289916992 -125.444625854492 5.433040618896
44.778320312500 -69.790481567383 -121.636825561523 1.642912983894
56.719802856445 -65.563644409180 -61.609802246094 12.183587074280
55.892219543457 -67.366210937500 -55.253128051758 16.433361053467
33.512390136719 -66.650566101074 -134.270568847656 2.870582580566
28.798675537109 -67.591583251953 -134.366455078125 2.555135488510
4.664855957031 -71.683975219727 -233.611999511719 2.183741092682
15.468261718750 -70.900741577148 -217.715042114258 0.331960201263
42.317276000977 -65.350227355957 -52.751663208008 12.039385795593
28.326980590820 -69.190246582031 -136.229995727539 2.311301231384
28.687988281250 -71.485183715820 -126.621994018555 2.957098484039
-1.394882202148 -71.671470642090 -239.799850463867 0.898864388466
24.843551635742 -67.795700073242 -136.373214721680 2.624485015869
19.961914062500 -66.399757385254 -138.694442749023 1.818187832832
1.761428833008 -71.115837097168 -206.534072875977 4.842614173889
-5.121505737305 -71.876647949219 -232.148254394531 2.521921396255
-2.368530273438 -70.372039794922 -213.725463867188 2.405712842941
16.538909912109 -69.726058959961 -129.775650024414 10.293101310730
-8.604660034180 -69.728698730469 -212.249038696289 0.663804948330
9.251663208008 -69.250511169434 -124.435607910156 18.262601852417
2.249572753906 -72.163513183594 -128.836624145508 20.989847183228
27.562271118164 -68.101951599121 -51.891586303711 10.511793136597
6.574203491211 -67.343063354492 -135.264282226563 12.440186500549
3.426834106445 -68.294906616211 -144.282516479492 8.222654342651
-6.697814941406 -65.452743530273 -198.064514160156 7.264729976654
-15.490097045898 -73.259246826172 -229.694183349609 1.163326740265
-12.448303222656 -71.623481750488 -204.021621704102 1.571955084801
22.643356323242 -68.265403747559 -52.391464233398 13.195866584778
4.040267944336 -67.899467468262 -124.221946716309 21.813917160034
18.704010009766 -65.385818481445 -47.984405517578 11.327097892761
-13.209304809570 -69.741348266602 -192.240203857422 4.567012310028
-8.067337036133 -73.090698242188 -137.753662109375 20.952886581421
-7.168518066406 -70.257461547852 -156.485015869141 9.607530593872
-14.494598388672 -72.400062561035 -188.321517944336 4.758441925049
-23.167419433594 -72.956954956055 -216.517700195313 1.114281892776
-15.998535156250 -69.484222412109 -187.394699096680 4.898535251617
-27.732406616211 -69.172668457031 -212.971343994141 2.898291349411
-24.442184448242 -73.263763427734 -188.704788208008 2.324619770050
-8.684204101563 -67.449035644531 -131.797836303711 25.435214996338
-27.137512207031 -69.102233886719 -192.968887329102 2.075767517090
-54.521057128906 -72.458686828613 -301.038177490234 10.146543502808
7.432312011719 -67.868141174316 -43.852996826172 16.169837951660
-60.082809448242 -74.710838317871 -298.995208740234 8.913159370422
-58.676864624023 -71.503334045410 -294.078094482422 4.452965259552
-22.426223754883 -70.193328857422 -138.420959472656 20.672855377197
-20.257476806641 -69.029617309570 -129.123382568359 27.231857299805
-37.229187011719 -71.986305236816 -188.851394653320 5.060231208801
-64.241561889648 -75.803016662598 -298.671752929688 7.665867328644
-37.373794555664 -70.675483703613 -181.215759277344 1.542895078659
-65.597869873047 -75.782180786133 -292.688354492188 2.393075227737
-41.301193237305 -70.345794677734 -168.546707153320 1.154885172844
-31.871078491211 -66.202247619629 -137.644912719727 13.802085876465
-20.258605957031 -67.075340270996 -52.727859497070 3.608014345169
-36.401336669922 -64.052375793457 -142.874450683594 8.770720481873
-63.703201293945 -71.556564331055 -275.200927734375 10.945078849792
-68.279266357422 -73.174926757813 -278.667175292969 7.013687133789
-74.164260864258 -71.910156250000 -286.449707031250 1.501148700714
-19.759292602539 -69.862777709961 -55.482177734375 1.530948996544
-74.645599365234 -70.879608154297 -278.251007080078 7.280335903168
-45.345764160156 -68.959457397461 -140.972137451172 2.087194919586
-51.336257934570 -72.193283081055 -172.690216064453 4.676081180573
-75.758651733398 -71.962150573730 -281.032531738281 4.452496051788
-80.872009277344 -72.750122070313 -291.350433349609 3.170218229294
-28.426040649414 -64.889190673828 -51.390045166016 2.328160762787
