-60.463756561279 -76.388305664063 -175.035339355469 1.748735070229
-14.762401580811 -74.979240417480 -177.318954467773 2.668191194534
-10.943680763245 -80.395851135254 -180.810729980469 3.237927675247
108.065338134766 -77.787757873535 -169.062316894531 1.808010101318
21.381107330322 -77.359451293945 -171.675292968750 0.585404932499
29.918991088867 -73.727066040039 -169.912322998047 2.247563838959
-56.914134979248 -75.923828125000 -176.915847778320 1.616521835327
18.496364593506 -75.426200866699 -181.923965454102 1.297160506248
-57.437721252441 -76.821067810059 -175.421096801758 0.938165068626
-51.578193664551 -75.598846435547 -190.531066894531 1.205910801888
12.755761146545 -75.009017944336 -183.931457519531 1.696087956429
-56.830642700195 -73.805656433105 -179.994262695313 1.700145959854
107.071151733398 -74.981163024902 -187.070343017578 2.866317987442
24.961473464966 -78.277198791504 -181.376876831055 1.455812692642
-33.497291564941 -74.965766906738 -188.243728637695 2.161651849747
-42.468215942383 -78.037643432617 -190.741577148438 1.302537202835
11.419579505920 -77.690208435059 -192.692199707031 3.000167608261
-18.778011322021 -77.739334106445 -189.338973999023 1.551998138428
-48.533481597900 -77.889335632324 -194.429855346680 1.522639274597
102.914619445801 -79.136985778809 -183.713745117188 2.463535070419
12.581727027893 -78.775352478027 -190.491317749023 2.292589902878
-133.385665893555 -80.586822509766 -198.617904663086 1.120311617851
-45.580734252930 -78.583496093750 -194.282943725586 0.879565298557
95.929878234863 -76.123970031738 -198.973785400391 2.337133646011
-148.541809082031 -82.389328002930 -201.678085327148 1.610687494278
18.537267684937 -76.934181213379 -197.598220825195 1.323952555656
-42.491046905518 -74.635002136230 -205.332366943359 3.435810565948
-30.855037689209 -78.912811279297 -205.563171386719 1.185956954956
-36.956340789795 -77.311103820801 -202.926361083984 1.325347661972
-44.431735992432 -80.487632751465 -197.225677490234 1.801329612732
100.423469543457 -76.657852172852 -203.449356079102 1.825185418129
-20.269752502441 -79.153160095215 -201.184570312500 0.148853421211
-150.041809082031 -77.126419067383 -202.347152709961 1.417833209038
16.208740234375 -78.181549072266 -203.343902587891 0.663858771324
-76.520301818848 -80.621200561523 -206.657943725586 1.604144930840
-146.343429565430 -75.732116699219 -211.804809570313 1.292063236237
95.187393188477 -77.637161254883 -212.050125122070 2.215105056763
-32.633079528809 -75.726509094238 -206.972732543945 1.423804879189
-28.700496673584 -77.095825195313 -212.335876464844 1.987238049507
9.119765281677 -77.547882080078 -210.438415527344 1.028006076813
-71.262222290039 -79.752975463867 -209.468307495117 1.721796154976
-27.921295166016 -81.782997131348 -207.515731811523 3.201528310776
-6.565031051636 -77.608078002930 -215.799057006836 1.680836558342
-71.957649230957 -78.417610168457 -213.938232421875 1.564213156700
-14.118672370911 -77.152122497559 -217.257934570313 1.546692013741
8.107148170471 -71.399734497070 -212.318115234375 2.349701642990
14.658222198486 -78.888984680176 -220.365249633789 2.075542688370
-149.809295654297 -78.265533447266 -216.656051635742 0.693063795567
-8.147508621216 -76.690689086914 -214.353683471680 1.781010866165
-98.638687133789 -73.713516235352 -220.002944946289 1.304952383041
-21.643146514893 -76.319145202637 -219.603500366211 1.333295106888
90.209075927734 -80.314773559570 -211.992050170898 3.604987382889
8.039438247681 -75.793548583984 -225.601272583008 0.985539197922
19.360572814941 -76.156059265137 -216.464981079102 2.168934345245
80.984733581543 -77.423576354980 -217.052322387695 3.090491056442
1.355885148048 -79.188621520996 -228.429931640625 1.356772303581
85.938117980957 -76.988243103027 -217.146652221680 0.816406369209
-19.093835830688 -74.398010253906 -223.284896850586 1.297710180283
16.005191802979 -75.150230407715 -219.032241821289 2.197294712067
-147.111389160156 -78.566841125488 -220.328002929688 2.812858581543
-22.961961746216 -78.213577270508 -225.246200561523 2.534044504166
1.938926100731 -75.932624816895 -229.154510498047 2.090805053711
-155.558609008789 -81.225288391113 -226.097885131836 2.859766483307
-136.778915405273 -78.601921081543 -227.741989135742 1.679696202278
5.277324676514 -76.690788269043 -224.432357788086 2.413215398788
-3.747476816177 -74.895126342773 -227.945297241211 2.765009641647
-136.484329223633 -74.772537231445 -229.745971679688 2.473183631897
-146.361145019531 -77.919944763184 -238.869277954102 2.526290655136
-147.790573120117 -77.477638244629 -235.573547363281 1.830845713615
-32.101242065430 -77.827842712402 -237.341201782227 2.071732282639
-143.779739379883 -79.041656494141 -242.354614257813 2.954623460770
17.739795684814 -77.644172668457 -241.470809936523 1.777367353439
5.454613208771 -76.806350708008 -243.818969726563 1.147374391556
-150.295639038086 -73.633216857910 -236.839187622070 1.880365848541
-149.138549804688 -77.243721008301 -243.617050170898 1.084817528725
-46.220680236816 -78.404609680176 -243.895584106445 1.491544961929
-31.301769256592 -77.878097534180 -245.540115356445 3.097565412521
4.807597637177 -77.790382385254 -244.015823364258 1.236883521080
-37.188758850098 -78.359077453613 -245.163238525391 2.092993974686
22.531436920166 -77.384536743164 -246.765167236328 0.974311470985
-5.376414775848 -79.322273254395 -250.976318359375 1.903371810913
-146.583465576172 -77.952171325684 -252.432220458984 1.313949108124
-8.699685096741 -80.948013305664 -252.042175292969 2.681779146194
-147.662643432617 -76.030151367188 -248.649749755859 2.312852382660
-66.194274902344 -78.513633728027 -249.575103759766 1.956263184547
-147.942047119141 -84.176948547363 -259.065368652344 0.673270523548
-126.685081481934 -77.001724243164 -258.220001220703 1.347179770470
-151.243148803711 -75.922668457031 -258.327453613281 2.290808200836
-11.449148178101 -75.002349853516 -266.429229736328 3.154501676559
-145.842208862305 -81.785491943359 -269.183776855469 2.699891090393
-149.545822143555 -77.840347290039 -267.487884521484 3.219660043716
-10.914426803589 -78.170249938965 -270.273773193359 0.581250011921
-145.293762207031 -77.862503051758 -270.195098876953 1.267946004868
-5.157105922699 -76.666580200195 -277.556182861328 2.060056447983
-45.833015441895 -76.843284606934 -284.922363281250 3.334334373474
-134.329315185547 -75.868461608887 -288.108154296875 2.272195816040
-134.394500732422 -76.640769958496 -285.615814208984 1.786884188652
-124.343917846680 -75.123123168945 -283.442230224609 0.893115460873
-52.326816558838 -76.529518127441 -286.237701416016 1.395969986916
-113.202995300293 -75.535110473633 -285.339080810547 2.582577943802
16.235025405884 -76.777420043945 -291.162658691406 1.499909043312
-58.071140289307 -75.865516662598 -288.469146728516 0.932847738266
-141.116470336914 -76.893386840820 -291.788452148438 0.983224332333
-62.651405334473 -76.174369812012 -290.081695556641 2.345274209976
-143.756835937500 -81.235099792480 -292.227569580078 1.440297126770
-116.786956787109 -75.605857849121 -290.305328369141 1.749158620834
-46.340862274170 -78.624603271484 -290.176269531250 3.085818529129
-34.050727844238 -77.341873168945 -291.050476074219 1.041730880737
-136.060516357422 -74.684875488281 -293.832550048828 1.085011124611
-12.631264686584 -73.887565612793 -285.565246582031 0.427895009518
3.404743671417 -76.917037963867 -288.681060791016 1.009372234344
6.742011070251 -76.124847412109 -290.836059570313 1.953342080116
15.363985061646 -77.863189697266 -294.566986083984 1.322420120239
-149.536209106445 -80.091407775879 -296.856994628906 2.767212867737
-146.034652709961 -75.808959960938 -295.406005859375 1.587106823921
-67.365570068359 -75.149024963379 -61.056198120117 2.012818336487
88.631752014160 -76.265960693359 -73.329124450684 1.752746224403
79.113212585449 -76.287483215332 -76.717536926270 1.582411766052
-26.908441543579 -77.611045837402 -76.434204101563 1.815813064575
84.446617126465 -74.215560913086 -75.331611633301 1.086721897125
-36.560935974121 -77.509056091309 -79.787086486816 1.861039638519
85.136795043945 -73.534362792969 -80.523406982422 1.847238540649
95.218124389648 -73.257286071777 -80.639076232910 2.534844875336
-64.461517333984 -70.125022888184 -94.568847656250 1.383316874504
74.256462097168 -75.921829223633 -93.791992187500 1.420658707619
80.651283264160 -74.301841735840 -97.222869873047 2.457603216171
95.132141113281 -77.379997253418 -94.588287353516 2.615013837814
55.636451721191 -76.767082214355 -97.353454589844 2.021708011627
-70.194076538086 -75.624771118164 -101.166717529297 1.879112839699
-74.061203002930 -71.974205017090 -101.118415832520 1.155686020851
50.307415008545 -77.263816833496 -104.164901733398 1.424902439117
-88.720649719238 -77.478019714355 -103.244590759277 3.939016819000
46.614582061768 -74.073104858398 -117.423583984375 2.157527923584
110.981193542480 -74.909416198730 -119.010688781738 1.688010931015
112.985115051270 -77.056297302246 -130.858749389648 1.589933037758
23.547920227051 -74.456672668457 -137.492675781250 3.011377334595
110.667343139648 -76.600982666016 -126.558631896973 0.163755655289
28.260932922363 -74.444808959961 -133.705123901367 1.903023123741
113.610092163086 -71.843933105469 -130.831665039063 1.479912042618
38.094215393066 -74.596824645996 -134.417953491211 3.205954551697
-53.893135070801 -76.343200683594 -141.624328613281 2.141815900803
36.011997222900 -77.591590881348 -143.663208007813 1.450578451157
109.541847229004 -73.996749877930 -136.010055541992 2.038902044296
-47.490005493164 -74.975303649902 -143.979064941406 1.575461268425
32.459774017334 -75.266494750977 -149.106124877930 1.791304111481
-56.076416015625 -72.252601623535 -140.231674194336 1.539380192757
-56.332012176514 -76.304733276367 -145.634460449219 1.782732605934
-51.328006744385 -78.125869750977 -149.636535644531 2.147505998611
-64.257293701172 -78.139457702637 -155.763763427734 1.323232531548
113.546325683594 -78.290145874023 -147.667312622070 1.887271404266
-49.748081207275 -80.169715881348 -155.092178344727 2.328535318375
22.847255706787 -79.111961364746 -155.517852783203 2.154941320419
109.012092590332 -76.318687438965 -159.953216552734 1.531958341599
-65.643714904785 -75.657020568848 -155.278381347656 1.056990981102
-44.839084625244 -76.984008789063 -156.485946655273 1.480570435524
9.031276702881 -73.804176330566 -154.505340576172 0.405320435762
-67.492782592773 -75.961433410645 -156.708297729492 1.871607899666
-62.512222290039 -77.672256469727 -159.538009643555 2.572650909424
0.046101987362 -76.099708557129 -162.049530029297 1.056968212128
-42.537475585938 -73.943687438965 -167.354949951172 1.563469171524
30.128965377808 -74.130821228027 -165.942321777344 2.726017713547
-62.356018066406 -73.701339721680 -166.950439453125 1.280088186264
-56.207572937012 -77.374336242676 -167.120880126953 1.916093826294
17.217487335205 -77.906570434570 -160.236831665039 4.047545909882
-30.326044082642 -75.528923034668 -168.666427612305 1.063257455826
-29.005567550659 -78.086654663086 -166.666259765625 1.753102660179
16.208480834961 -76.927024841309 -174.427093505859 2.445666313171
-41.872070312500 -78.120651245117 -172.687469482422 2.220539331436
-10.809031486511 -76.796630859375 -172.420837402344 1.355459690094
-63.032066345215 -73.793128967285 -171.770401000977 2.273387908936
-6.179187774658 -73.896469116211 -172.688247680664 0.586219429970
-21.975921630859 -76.431259155273 -179.511550903320 1.709615111351
23.317392349243 -74.107223510742 -182.592758178711 1.963212728500
-38.576469421387 -76.841751098633 -171.995742797852 1.138346314430
20.202072143555 -73.255905151367 -176.606735229492 2.145447492599
-22.528425216675 -72.920867919922 -184.382461547852 1.639806032181
-31.874473571777 -77.843452453613 -179.291748046875 1.828684091568
-147.455917358398 -74.736770629883 -189.493774414063 1.782160878181
-19.239780426025 -78.983032226563 -184.608551025391 2.481852769852
-141.852081298828 -75.294288635254 -188.652679443359 2.534446716309
-151.821533203125 -76.088043212891 -186.948455810547 3.388838768005
-48.369960784912 -74.731628417969 -187.608627319336 1.929288506508
98.675735473633 -75.384727478027 -194.559249877930 2.141416311264
-144.450241088867 -77.146102905273 -191.312835693359 2.675615310669
-148.685791015625 -75.568374633789 -195.829605102539 1.960974216461
22.293443679810 -74.959808349609 -196.811065673828 1.764901161194
-136.996673583984 -76.035499572754 -196.607498168945 0.959012329578
16.092041015625 -73.487007141113 -198.542968750000 2.844097137451
-138.894073486328 -77.525894165039 -198.559280395508 1.832225799561
13.436912536621 -73.501220703125 -196.958221435547 1.627658367157
-133.645538330078 -73.819442749023 -197.786605834961 0.831677675247
6.502544403076 -74.121406555176 -204.039733886719 1.639163017273
-150.503143310547 -76.137611389160 -203.721435546875 0.930242478848
94.807815551758 -75.783630371094 -205.200744628906 1.971940040588
-15.674898147583 -78.017150878906 -205.604400634766 1.534058332443
-30.067508697510 -75.272903442383 -207.738632202148 2.019886016846
-10.830410957336 -73.285163879395 -205.299468994141 1.733507633209
-146.713302612305 -79.057456970215 -210.875991821289 1.339603900909
-35.116722106934 -76.095283508301 -204.176513671875 1.399466156960
-82.659759521484 -78.014022827148 -206.100036621094 5.039628982544
-26.474290847778 -77.260734558105 -208.798294067383 2.642989397049
16.564022064209 -76.267898559570 -211.688827514648 1.862661361694
-146.697479248047 -75.256874084473 -213.874099731445 2.528344631195
-89.638252258301 -77.329040527344 -216.792755126953 0.900690913200
-29.227447509766 -75.030334472656 -216.557205200195 2.099599123001
-26.274387359619 -75.524604797363 -219.420578002930 1.821402907372
-10.521260261536 -77.212638854980 -210.832382202148 0.987531125546
-27.078981399536 -75.384124755859 -209.712936401367 1.958355307579
-82.487899780273 -76.242637634277 -219.234130859375 3.469625234604
-88.025749206543 -79.677528381348 -218.559600830078 2.931278705597
-23.045358657837 -75.733390808105 -220.389892578125 1.420459985733
-1.698474168777 -80.992530822754 -223.230667114258 2.180947542191
-153.084060668945 -77.448730468750 -216.850219726563 3.033925056458
-2.069814920425 -77.519477844238 -219.985000610352 1.192676305771
86.668739318848 -78.692031860352 -225.659790039063 3.304054737091
-140.386367797852 -78.502349853516 -223.547851562500 2.120219230652
-6.004944324493 -76.903869628906 -222.095214843750 0.381846487522
-139.946670532227 -77.640975952148 -225.791885375977 0.980174958706
-146.771850585938 -83.749206542969 -225.607864379883 0.387617468834
-5.906354427338 -74.965232849121 -228.740036010742 2.100200414658
19.607770919800 -76.489860534668 -217.278991699219 2.414069890976
-139.511077880859 -75.145965576172 -229.074905395508 2.034942150116
-16.524154663086 -77.066482543945 -228.195968627930 1.963858842850
74.947868347168 -76.640640258789 -226.101257324219 3.507755756378
76.052040100098 -75.958831787109 -232.609512329102 1.973804950714
9.864482879639 -77.378723144531 -230.325317382813 2.507141590118
-30.684177398682 -77.533988952637 -236.467163085938 2.732345819473
-21.220920562744 -81.457740783691 -241.187683105469 2.259042024612
4.324316501617 -74.704879760742 -242.954284667969 1.841711521149
-46.920936584473 -73.269462585449 -242.617279052734 1.669745326042
-21.591495513916 -75.019790649414 -242.657897949219 2.277740478516
9.648410797119 -74.260246276855 -240.610748291016 2.437082290649
-62.999980926514 -76.608039855957 -245.175765991211 1.296547770500
-33.696514129639 -79.090499877930 -243.511413574219 0.979063689709
-40.057556152344 -74.752609252930 -245.010437011719 1.226397275925
-148.529891967773 -75.150611877441 -245.719375610352 2.531071186066
-45.414894104004 -78.452560424805 -247.539733886719 2.291830062866
-52.701892852783 -71.923881530762 -247.458038330078 2.613085508347
-65.876731872559 -76.333564758301 -249.332855224609 2.037850618362
-10.334460258484 -78.800575256348 -247.775665283203 4.013666152954
-79.527465820313 -77.017044067383 -253.757141113281 0.442939490080
-155.556884765625 -81.397781372070 -254.385772705078 2.500886678696
-140.795150756836 -76.261344909668 -254.531219482422 2.903918981552
-122.753700256348 -77.445503234863 -259.359466552734 3.320226430893
-156.181808471680 -73.442588806152 -260.360839843750 2.098742008209
20.278697967529 -80.584991455078 -264.901000976563 0.941991388798
-13.373693466187 -78.049880981445 -268.277557373047 1.643693208694
-152.786407470703 -78.926757812500 -272.667816162109 2.101296424866
-151.543334960938 -81.531280517578 -277.741271972656 2.071758031845
-144.810028076172 -79.647422790527 -284.838500976563 1.577146291733
-57.911510467529 -73.047950744629 -281.963043212891 3.936496019363
-38.240745544434 -73.218750000000 -285.608734130859 1.404314160347
-21.008901596069 -74.240600585938 -287.998138427734 3.615428924561
-10.266852378845 -73.962547302246 -281.814178466797 2.872547864914
-65.462249755859 -78.426429748535 -285.672576904297 3.214510917664
-79.843254089355 -78.697662353516 -286.152252197266 3.255652427673
-2.395387411118 -77.151557922363 -284.339782714844 2.782532453537
5.570930957794 -77.240409851074 -290.282287597656 1.130994558334
-137.789657592773 -75.551856994629 -287.461334228516 1.828893780708
-79.082321166992 -74.385047912598 -286.937896728516 1.840766072273
-146.869491577148 -75.978416442871 -287.644592285156 1.401160717010
-93.954368591309 -81.452468872070 -286.440246582031 6.520476341248
-78.177146911621 -75.936531066895 -286.896026611328 1.706191420555
-84.639572143555 -74.350234985352 -293.441406250000 2.633074998856
-61.350284576416 -75.972534179688 -291.009613037109 1.381029248238
-28.439117431641 -72.072875976563 -293.588317871094 3.087644100189
-6.111243247986 -75.851974487305 -290.934387207031 2.534586429596
-151.711410522461 -71.899612426758 -296.955352783203 1.641743302345
-149.621017456055 -75.191612243652 -300.067565917969 2.242127180099
-144.358459472656 -76.255966186523 -303.200775146484 1.366459608078
-156.215667724609 -76.386001586914 -305.456268310547 1.993530511856
-56.465503692627 -72.748939514160 -55.338027954102 2.165135383606
-46.664535522461 -73.884719848633 -52.723602294922 1.629639267921
-38.807872772217 -75.429817199707 -54.167091369629 1.678582668304
-76.225524902344 -76.576606750488 -60.620391845703 1.277265429497
-28.579530715942 -73.858337402344 -63.420974731445 2.635124444962
-32.552921295166 -74.589683532715 -79.225631713867 2.633535385132
75.360198974609 -77.359970092773 -81.488952636719 2.220807552338
75.725601196289 -75.564949035645 -80.156509399414 0.489903002977
74.006660461426 -73.646652221680 -83.492370605469 2.315477609634
98.970146179199 -72.441413879395 -89.773933410645 2.018526554108
70.811393737793 -76.557777404785 -89.052040100098 2.209707260132
50.677387237549 -76.502647399902 -90.232292175293 3.265373706818
50.562389373779 -79.042098999023 -100.219200134277 2.477090358734
-66.495628356934 -74.273666381836 -100.816619873047 2.725831508636
-72.813598632813 -69.868614196777 -101.759742736816 1.733876943588
45.380512237549 -75.975875854492 -102.924819946289 1.328479647636
-81.820678710938 -79.530433654785 -109.093933105469 3.250775337219
-92.815460205078 -73.555595397949 -110.975830078125 1.008088111877
51.461921691895 -74.668273925781 -106.999702453613 2.978832244873
107.873222351074 -73.854255676270 -113.089485168457 1.844719409943
33.191463470459 -76.778633117676 -122.900016784668 2.094619512558
44.366157531738 -76.015998840332 -118.423072814941 1.408039093018
41.505130767822 -74.650535583496 -123.848701477051 0.885169625282
30.282419204712 -76.270172119141 -123.186119079590 2.357358932495
109.473190307617 -74.802017211914 -119.874885559082 1.169090628624
39.741077423096 -76.860656738281 -129.911132812500 1.712443709373
33.148250579834 -72.109848022461 -131.356536865234 1.144851326942
-45.098114013672 -74.586593627930 -142.741928100586 0.743690311909
-70.688049316406 -77.089683532715 -144.030548095703 2.138187646866
-53.340034484863 -74.007186889648 -146.606552124023 1.993242740631
-72.646499633789 -77.878578186035 -145.693161010742 2.068636178970
-39.457233428955 -74.317909240723 -147.136917114258 2.915959358215
107.626510620117 -74.522445678711 -153.651657104492 3.431801557541
-71.408630371094 -76.772087097168 -155.480407714844 2.528030872345
24.132637023926 -78.054176330566 -147.362472534180 1.795253157616
30.861278533936 -77.084312438965 -150.770477294922 1.771950960159
113.058029174805 -77.178840637207 -160.776458740234 1.671992182732
9.744021415710 -76.954826354980 -158.958786010742 1.779257893562
32.812679290771 -73.438385009766 -155.104278564453 1.002534151077
-63.517715454102 -76.490798950195 -158.847213745117 2.370565652847
-41.387958526611 -76.747383117676 -171.177978515625 2.194260597229
20.742536544800 -74.454704284668 -162.952743530273 1.161908626556
-64.283317565918 -74.265663146973 -159.314254760742 0.657383859158
-68.931365966797 -75.565292358398 -165.074844360352 2.895557880402
111.807708740234 -76.400642395020 -165.749145507813 2.132212162018
-7.487172603607 -75.965957641602 -166.250930786133 1.083307266235
-63.617763519287 -74.616043090820 -173.504730224609 1.736521959305
-31.744779586792 -76.510139465332 -168.143524169922 0.718795776367
-54.501216888428 -74.209724426270 -172.302185058594 2.045035362244
29.758470535278 -74.821929931641 -172.245315551758 2.108953952789
111.145339965820 -73.313423156738 -172.479385375977 1.712996602058
102.828872680664 -74.316352844238 -183.144302368164 1.024060010910
106.160530090332 -75.081001281738 -188.927963256836 2.516855955124
107.281410217285 -73.303794860840 -176.621826171875 1.930857419968
-51.928890228271 -74.572296142578 -189.920532226563 1.229892015457
-49.001449584961 -72.777244567871 -182.547561645508 3.014616966248
26.988149642944 -75.563179016113 -183.004547119141 1.733711123466
-48.497177124023 -73.982742309570 -186.638442993164 2.088236570358
-20.130910873413 -75.841857910156 -183.878723144531 2.175128936768
-50.591793060303 -77.262039184570 -191.152969360352 0.866923809052
-150.865066528320 -75.098304748535 -192.552780151367 1.741285204887
101.644332885742 -76.404281616211 -192.502456665039 0.557913422585
-44.398223876953 -73.129478454590 -193.567687988281 2.472836732864
-14.091595649719 -76.807197570801 -198.025009155273 2.227477550507
-139.765472412109 -75.929481506348 -194.150253295898 2.596294164658
-42.901550292969 -73.345344543457 -197.324630737305 3.138826847076
102.383293151855 -74.495880126953 -196.692962646484 0.554827272892
107.277999877930 -73.632041931152 -185.280487060547 1.677569746971
-44.143680572510 -75.265945434570 -196.019134521484 1.671783208847
-22.844806671143 -80.417205810547 -197.580627441406 2.554073095322
-147.655792236328 -79.695693969727 -199.471405029297 2.212461948395
-24.741779327393 -75.830299377441 -196.477050781250 0.782001078129
-157.147766113281 -76.619071960449 -197.555831909180 2.736073017120
-152.465576171875 -81.212692260742 -203.648376464844 1.747289180756
-142.933166503906 -77.659828186035 -201.467926025391 2.060839653015
-38.143432617188 -75.956115722656 -199.440170288086 2.104752540588
101.491836547852 -75.708404541016 -201.284332275391 1.833201885223
-40.719097137451 -73.638809204102 -199.328048706055 1.527107477188
-142.992141723633 -79.099388122559 -204.558639526367 1.048712491989
-37.568260192871 -72.382637023926 -205.375213623047 1.911408424377
-20.456016540527 -79.329566955566 -209.511260986328 3.949436903000
97.322120666504 -76.777976989746 -204.812179565430 2.274595499039
91.588470458984 -76.072265625000 -212.868103027344 0.892749488354
-34.157447814941 -74.081092834473 -216.754241943359 3.477560043335
-87.203338623047 -76.582801818848 -210.596664428711 1.604209899902
-75.419097900391 -76.145088195801 -211.323486328125 0.808813452721
-18.398454666138 -75.577804565430 -213.360809326172 1.943125605583
-149.577590942383 -76.708778381348 -205.491744995117 1.395233154297
90.477005004883 -75.160102844238 -213.068206787109 1.638697266579
89.197845458984 -73.445960998535 -217.825912475586 1.200761437416
90.464965820313 -75.190750122070 -219.689773559570 1.274547934532
-102.025253295898 -75.665290832520 -219.856994628906 2.634853124619
-152.791305541992 -78.252464294434 -221.630172729492 3.578032970428
-19.756355285645 -74.318466186523 -222.251022338867 1.883294463158
80.170204162598 -72.981384277344 -225.644897460938 2.118184089661
-149.373840332031 -79.171646118164 -223.603973388672 2.362964153290
-27.776920318604 -76.576271057129 -218.587524414063 1.116041183472
-133.254379272461 -74.428474426270 -230.939041137695 1.276594281197
-11.582202911377 -77.763458251953 -229.597763061523 1.946498274803
17.717813491821 -74.764640808105 -225.655426025391 0.741472244263
19.915689468384 -76.280471801758 -232.324615478516 1.914202451706
-154.578216552734 -78.990486145020 -233.876693725586 2.659658193588
-125.668060302734 -72.766098022461 -232.414077758789 2.029078245163
-7.985441207886 -74.815986633301 -234.837234497070 1.429710865021
0.289491564035 -74.798355102539 -236.841842651367 1.211248636246
69.426788330078 -74.987884521484 -232.520278930664 1.667493462563
70.870216369629 -72.700279235840 -237.587554931641 1.829350829124
-0.166866600513 -74.136642456055 -239.888229370117 1.543156862259
16.602224349976 -72.134696960449 -239.336303710938 1.045771479607
-29.993659973145 -69.950973510742 -240.244155883789 5.092011451721
-33.470588684082 -81.032226562500 -241.080627441406 0.938712477684
-46.667163848877 -75.009696960449 -238.333953857422 1.611504197121
-39.066230773926 -73.674118041992 -240.581298828125 2.389930725098
-17.250455856323 -76.705795288086 -242.350662231445 0.900973498821
-52.241058349609 -73.991104125977 -243.480117797852 2.324468374252
2.065667390823 -75.709327697754 -244.712097167969 0.616384327412
-67.989738464355 -76.259437561035 -243.797821044922 2.999781131744
20.901512145996 -76.148643493652 -246.719390869141 1.483497500420
-143.931610107422 -78.009658813477 -244.723709106445 3.512147665024
-72.471817016602 -77.897354125977 -251.296936035156 1.648224711418
15.521545410156 -76.911636352539 -248.781982421875 1.232564091682
-161.168319702148 -74.866821289063 -249.108367919922 0.636916220188
15.272460937500 -78.581077575684 -252.385009765625 1.399225950241
-79.806396484375 -71.946281433105 -250.417968750000 1.902188181877
-75.006896972656 -76.238685607910 -250.481231689453 1.798189282417
19.819252014160 -76.798347473145 -254.647949218750 1.176740169525
-89.021102905273 -75.008232116699 -251.871795654297 1.705704331398
-125.544113159180 -73.315681457520 -254.800628662109 0.916629791260
-133.386291503906 -78.034431457520 -259.178955078125 2.037318706512
-134.902267456055 -78.061119079590 -254.417358398438 2.845109701157
-146.953201293945 -76.482559204102 -260.572326660156 1.225150823593
-144.200622558594 -73.570755004883 -254.779663085938 1.822815418243
-134.705093383789 -74.282859802246 -261.421569824219 0.959419131279
-161.545806884766 -73.403152465820 -260.459594726563 2.064252138138
-126.898216247559 -74.939224243164 -265.854614257813 3.002306699753
-135.216567993164 -72.427421569824 -262.278503417969 1.436459183693
-163.587829589844 -73.451461791992 -267.073211669922 2.960949182510
-156.604827880859 -73.579620361328 -263.826812744141 2.026063442230
-149.212707519531 -74.296150207520 -265.206024169922 2.515626668930
-147.908370971680 -76.184112548828 -265.309570312500 1.591467499733
16.839689254761 -77.887016296387 -278.142974853516 1.466703534126
-165.998168945313 -75.679748535156 -266.756591796875 2.088261127472
-151.779953002930 -76.574829101563 -273.124908447266 1.847853541374
-5.594596862793 -82.265693664551 -272.634429931641 2.246714830399
-157.160949707031 -73.894355773926 -272.244995117188 3.516391038895
12.330925941467 -79.017440795898 -281.531646728516 1.152220010757
-152.169311523438 -75.446174621582 -281.521026611328 1.414506912231
-164.404586791992 -76.664970397949 -287.418029785156 2.320412635803
-154.767333984375 -77.537384033203 -279.940063476563 4.498865604401
-165.014373779297 -74.324600219727 -287.424072265625 2.599507808685
1.479143023491 -77.905395507813 -287.033294677734 3.126820564270
7.463366508484 -79.622085571289 -282.603698730469 2.390399694443
-101.916244506836 -74.242439270020 -290.493743896484 0.479936808348
-153.834274291992 -79.793113708496 -287.337890625000 2.090834856033
-148.202941894531 -74.041465759277 -285.598205566406 1.841609597206
-107.229339599609 -74.726867675781 -290.329864501953 1.299111485481
-152.123413085938 -77.792373657227 -291.523315429688 3.158325910568
-148.366851806641 -78.465988159180 -289.013244628906 2.325908899307
-72.035331726074 -77.861450195313 -292.139648437500 5.074296474457
-165.691223144531 -77.451255798340 -289.134277343750 3.760809421539
-123.044021606445 -73.095985412598 -291.086151123047 1.385112643242
-43.068778991699 -78.800819396973 -287.506652832031 1.736753463745
-153.296096801758 -75.536224365234 -288.156738281250 2.298711538315
-133.084060668945 -71.754325866699 -293.148620605469 1.456708550453
-18.533555984497 -73.610916137695 -293.441802978516 2.866497039795
-127.940048217773 -73.217002868652 -293.085510253906 1.952611684799
5.930572032928 -76.333122253418 -293.955718994141 1.113122701645
15.452343940735 -73.578201293945 -292.164550781250 1.969670534134
-133.503463745117 -73.195281982422 -291.440429687500 2.279345750809
-145.585205078125 -77.018547058105 -296.826232910156 2.205538988113
-156.095947265625 -77.758277893066 -313.517730712891 4.064701080322
-71.749061584473 -70.103393554688 -52.119781494141 1.644505262375
-21.908718109131 -69.391242980957 -63.591850280762 5.154852390289
-19.894515991211 -75.871246337891 -64.782302856445 1.713634133339
72.942413330078 -72.031906127930 -76.704994201660 2.878095388412
91.350723266602 -73.559310913086 -75.409606933594 2.145625591278
-36.677043914795 -73.721656799316 -78.711547851563 1.704494833946
75.616363525391 -73.343208312988 -79.172340393066 2.087954759598
89.839775085449 -77.083206176758 -81.883132934570 2.072653532028
68.275672912598 -73.846534729004 -83.175544738770 2.661823987961
73.001609802246 -73.190216064453 -88.450325012207 2.159310817719
-49.455783843994 -75.483978271484 -86.050094604492 2.038737297058
-91.503303527832 -76.284469604492 -88.153648376465 3.320386648178
59.039516448975 -75.823318481445 -93.517532348633 1.645499944687
50.414325714111 -75.428146362305 -98.689872741699 1.484603881836
94.063133239746 -71.582557678223 -98.887519836426 2.739323377609
-91.916076660156 -70.470909118652 -101.555610656738 4.331295967102
82.221374511719 -70.946350097656 -98.907241821289 2.097782850266
73.393714904785 -74.325439453125 -99.734138488770 2.456454515457
91.996284484863 -75.502372741699 -97.990493774414 1.852571725845
83.510246276855 -73.561981201172 -97.706672668457 1.860869407654
83.317184448242 -76.483413696289 -98.243240356445 1.268800497055
-85.052970886230 -75.923110961914 -102.214485168457 5.074873447418
42.772811889648 -72.739204406738 -106.523109436035 1.806761264801
105.764991760254 -74.765068054199 -110.490966796875 2.060899972916
108.385223388672 -74.379493713379 -110.506248474121 1.499214887619
48.429691314697 -76.358573913574 -118.499534606934 2.859389543533
111.455215454102 -76.078338623047 -120.818672180176 0.853623569012
116.935348510742 -76.561172485352 -134.675323486328 1.071928977966
-51.165508270264 -72.386894226074 -131.099014282227 1.787578821182
27.625947952271 -73.762359619141 -134.283782958984 2.634253025055
40.893245697021 -76.524848937988 -133.337509155273 2.398281335831
25.361246109009 -71.749908447266 -142.548004150391 2.554919958115
113.254844665527 -76.502761840820 -138.161529541016 2.230856180191
112.056854248047 -74.739685058594 -131.596939086914 1.804992914200
-73.357109069824 -74.357505798340 -148.109542846680 2.137678146362
-43.697494506836 -73.687980651855 -142.714965820313 1.042940974236
-70.985244750977 -72.644393920898 -151.197845458984 2.080057144165
19.955108642578 -72.930389404297 -149.502517700195 2.890144824982
112.789398193359 -72.148048400879 -149.282562255859 2.280133724213
-53.385631561279 -75.459869384766 -150.792877197266 1.666321039200
-71.013916015625 -73.096275329590 -150.901489257813 1.931783437729
-38.664730072021 -77.298858642578 -152.305435180664 1.843273162842
32.601192474365 -69.726821899414 -153.073059082031 2.239475488663
110.272369384766 -71.400932312012 -151.072921752930 1.532646179199
115.624710083008 -73.144210815430 -160.451583862305 2.241027355194
-68.010757446289 -71.456405639648 -154.971145629883 1.495293736458
-72.416572570801 -75.880187988281 -161.026519775391 3.091348171234
21.990348815918 -77.389999389648 -163.134002685547 1.147898793221
-59.867584228516 -72.361610412598 -166.751190185547 1.817037701607
-32.564289093018 -72.992149353027 -162.363983154297 1.394448161125
8.115220069885 -75.338607788086 -163.289932250977 2.262303590775
109.000305175781 -72.260612487793 -161.591339111328 1.502435684204
8.093805313110 -76.902687072754 -166.798538208008 3.790344953537
-32.595623016357 -74.599159240723 -165.542373657227 1.623023986816
-1.698942184448 -70.525291442871 -165.655120849609 2.203715562820
107.846855163574 -71.360916137695 -168.003204345703 0.876247406006
-41.163520812988 -71.894500732422 -165.486984252930 1.833677053452
29.434923171997 -71.642852783203 -172.089233398438 1.141726613045
113.258514404297 -76.843116760254 -172.318191528320 1.561805725098
-57.013454437256 -71.578758239746 -176.115982055664 2.238400459290
-27.954465866089 -76.606491088867 -174.517120361328 0.579871237278
103.231170654297 -74.163047790527 -174.041641235352 2.955371856689
29.360786437988 -72.449348449707 -169.583633422852 1.687729477882
107.863349914551 -75.768386840820 -175.082260131836 2.030999422073
-36.675155639648 -71.359901428223 -178.077865600586 1.635618329048
108.632064819336 -76.452445983887 -180.597351074219 1.215818047523
-61.653671264648 -72.070159912109 -177.528701782227 3.182761907578
-25.268905639648 -77.845275878906 -178.722335815430 1.657294988632
-146.187713623047 -70.030006408691 -183.538848876953 3.182003021240
-53.916580200195 -73.453002929688 -180.631988525391 1.558736920357
-146.876449584961 -74.761528015137 -186.192337036133 0.833984792233
-33.832096099854 -72.348678588867 -184.943832397461 0.898899435997
27.143554687500 -77.651199340820 -181.631332397461 1.258479237556
106.739242553711 -74.635177612305 -183.219238281250 1.009250760078
-33.779994964600 -74.454277038574 -183.788009643555 1.464067935944
11.251358985901 -74.819007873535 -190.690414428711 1.140890598297
17.572896957397 -73.886039733887 -203.460922241211 2.059249401093
-147.913253784180 -74.997360229492 -189.664749145508 2.060291051865
105.337768554688 -76.066322326660 -195.472183227539 2.643871784210
-21.072799682617 -72.051704406738 -193.103210449219 2.494867801666
101.616561889648 -74.928642272949 -188.182785034180 1.961807250977
13.145534515381 -71.968818664551 -189.372711181641 1.080335021019
-136.634735107422 -74.122619628906 -203.637878417969 2.595306634903
-138.540557861328 -74.124336242676 -199.819305419922 1.373268961906
100.560852050781 -76.534225463867 -201.256927490234 2.193498611450
-11.618133544922 -77.804687500000 -200.306121826172 2.929558515549
-16.071058273315 -75.164489746094 -202.869277954102 2.093613386154
10.847083091736 -76.160255432129 -207.260696411133 1.299368739128
-149.746231079102 -72.879074096680 -205.842819213867 1.867587208748
-145.963073730469 -75.740890502930 -207.992980957031 2.460991859436
100.368324279785 -70.168815612793 -204.575256347656 1.732920885086
-81.901931762695 -73.944892883301 -208.089660644531 2.766696929932
-35.756500244141 -74.872009277344 -201.559097290039 2.504098892212
19.117486953735 -76.761154174805 -213.236968994141 1.951632261276
-24.901660919189 -74.782112121582 -211.026809692383 0.614695906639
-76.246971130371 -72.792343139648 -207.789947509766 2.094179630280
91.306388854980 -74.202117919922 -209.624069213867 1.669383287430
-80.129394531250 -72.100112915039 -212.299041748047 1.606082797050
-147.057205200195 -74.834709167480 -218.552932739258 1.147543549538
-79.671707153320 -73.161125183105 -213.168090820313 1.433438777924
-12.953491210938 -69.863380432129 -209.811737060547 1.457511663437
-20.362195968628 -71.977111816406 -218.826919555664 1.561169505119
18.803253173828 -74.160949707031 -213.201293945313 1.618498682976
-5.179150104523 -75.661178588867 -219.418289184570 0.892038881779
-87.960487365723 -77.472892761230 -218.741088867188 1.529885172844
92.927597045898 -73.409446716309 -213.546844482422 1.895665526390
-98.091903686523 -73.479125976563 -215.577468872070 1.539273500443
-151.936614990234 -73.763298034668 -224.010498046875 2.691885471344
-24.880083084106 -73.370788574219 -223.573593139648 1.669903159142
18.070642471313 -74.734260559082 -215.939147949219 1.938221812248
-101.727088928223 -74.518722534180 -219.914306640625 1.782699942589
7.699381828308 -71.342308044434 -218.778030395508 2.888623476028
-25.364234924316 -74.369773864746 -215.514770507813 2.009932041168
83.174682617188 -72.633995056152 -224.128356933594 1.280898451805
-145.016006469727 -73.735710144043 -219.087158203125 1.448842167854
10.634962081909 -73.006629943848 -225.696411132813 2.328178167343
-9.171058654785 -77.197669982910 -225.595428466797 1.992054700851
17.796314239502 -68.637741088867 -222.436965942383 1.245166778564
83.936759948730 -74.985313415527 -222.200759887695 0.932366192341
-13.287737846375 -76.486579895020 -228.420944213867 2.222714662552
-130.251525878906 -75.534904479980 -226.461257934570 2.644150733948
-13.537442207336 -74.476814270020 -224.365890502930 1.631908059120
17.057199478149 -74.688240051270 -231.030120849609 1.487156867981
-126.412384033203 -76.413543701172 -227.138870239258 1.748098134995
-151.313064575195 -71.418678283691 -229.497039794922 2.194283962250
-142.100997924805 -73.439994812012 -228.824569702148 1.538677930832
-130.600830078125 -72.620132446289 -227.825683593750 2.464230060577
-12.846725463867 -72.321434020996 -225.138900756836 1.066403508186
72.152320861816 -73.848464965820 -228.097808837891 1.841632962227
-143.005096435547 -71.087272644043 -236.219451904297 0.747655451298
71.093009948730 -75.237068176270 -228.664550781250 2.409490108490
-20.148836135864 -77.398857116699 -229.523330688477 1.003933072090
-141.967666625977 -77.574775695801 -229.229354858398 1.720138430595
77.633872985840 -78.793357849121 -228.739288330078 3.008306741714
10.008556365967 -77.962219238281 -233.350738525391 1.514143586159
-141.315216064453 -78.450843811035 -235.165954589844 2.817322969437
-149.776824951172 -73.479698181152 -233.807907104492 2.441937923431
17.137184143066 -71.117485046387 -231.389480590820 1.039561629295
-2.403934478760 -76.573791503906 -237.571456909180 0.749791026115
-27.403467178345 -73.755348205566 -237.103332519531 1.467645049095
-1.359786152840 -70.440750122070 -237.528778076172 1.577896237373
-160.503082275391 -76.405548095703 -237.622924804688 3.584125518799
8.231958389282 -73.201889038086 -243.445541381836 0.832286834717
-164.442306518555 -74.908950805664 -238.675003051758 2.525669097900
-12.513131141663 -75.385124206543 -237.574859619141 2.179842948914
61.819610595703 -74.955467224121 -239.091949462891 2.339846372604
-12.803874969482 -73.365974426270 -238.020477294922 1.662644624710
-24.612642288208 -73.527305603027 -244.275466918945 2.398085355759
-24.732332229614 -73.773323059082 -241.674575805664 1.136250376701
-12.565418243408 -76.400337219238 -240.754928588867 2.778473138809
-146.045104980469 -74.642333984375 -230.927719116211 1.807117581367
8.364398002625 -73.566459655762 -242.230163574219 0.933429956436
64.528709411621 -73.715736389160 -243.577682495117 2.012884616852
14.980326652527 -72.172180175781 -245.041442871094 2.047722816467
-165.710006713867 -72.785499572754 -241.518386840820 1.609712481499
-50.216686248779 -73.233963012695 -240.709274291992 2.015434026718
4.245210170746 -80.843894958496 -247.986572265625 1.572181344032
17.280284881592 -74.260139465332 -244.138290405273 2.549694299698
-53.932868957520 -73.550300598145 -247.115600585938 1.964361786842
-2.558568954468 -70.438133239746 -248.208465576172 3.851088762283
21.223728179932 -78.904090881348 -247.808654785156 1.125758528709
-168.867172241211 -72.579704284668 -248.720428466797 2.982271909714
-67.288452148438 -77.370399475098 -248.051971435547 0.605139851570
-51.296424865723 -73.111358642578 -247.327453613281 1.921742081642
-80.833480834961 -73.315650939941 -251.262329101563 1.884202837944
-160.738800048828 -75.143051147461 -246.903991699219 2.534859418869
-150.493469238281 -68.586799621582 -249.539428710938 2.245224952698
-59.825092315674 -75.932914733887 -249.576354980469 0.498601466417
-68.486412048340 -74.038444519043 -249.885742187500 2.083680629730
-153.353927612305 -72.397735595703 -252.677764892578 1.100708127022
-151.752883911133 -74.963554382324 -252.261627197266 1.844468355179
-75.590133666992 -71.173019409180 -254.372650146484 2.583644866943
-93.168640136719 -71.819023132324 -255.212310791016 2.574077606201
-164.130661010742 -69.776161193848 -252.251770019531 1.127043485641
-156.556854248047 -74.440017700195 -259.710174560547 1.932304739952
-134.534530639648 -75.634414672852 -258.237457275391 0.817125618458
-82.865562438965 -74.131355285645 -251.322875976563 2.359576702118
-161.905548095703 -71.495178222656 -252.953674316406 2.033244132996
-141.584350585938 -72.482170104980 -256.888763427734 1.907359480858
-85.053527832031 -73.287155151367 -251.243621826172 1.151587247849
-96.434837341309 -72.031028747559 -260.351409912109 1.717717885971
-144.797454833984 -75.018707275391 -255.979522705078 2.687133789063
-93.223297119141 -73.827651977539 -256.104614257813 1.688034057617
-152.332275390625 -72.632812500000 -256.040374755859 2.546014308929
-102.056114196777 -73.660545349121 -255.588714599609 1.655055522919
-168.416473388672 -73.507835388184 -258.874969482422 3.277313947678
-161.219268798828 -75.557037353516 -263.423522949219 1.308917045593
-126.147216796875 -76.877326965332 -256.576446533203 1.891831755638
-151.420944213867 -74.295333862305 -259.456970214844 1.755973815918
-111.588165283203 -71.511817932129 -261.977111816406 1.679168939590
-14.074982643127 -72.967308044434 -261.894531250000 1.537245631218
-141.321121215820 -73.881660461426 -261.048339843750 1.295975446701
-125.584556579590 -73.504455566406 -260.151153564453 1.947965860367
-153.920532226563 -72.638038635254 -262.717285156250 2.903062820435
23.843217849731 -75.021400451660 -270.780822753906 2.821628570557
-148.383483886719 -76.435363769531 -278.674163818359 1.558941006660
-168.135284423828 -74.566833496094 -280.166198730469 2.808219194412
-7.904259204865 -74.401473999023 -279.439422607422 1.712820172310
-145.581420898438 -74.195281982422 -280.556732177734 1.683086395264
-9.250596046448 -72.910697937012 -283.195648193359 1.882924556732
13.120947837830 -74.710762023926 -286.086151123047 1.585080146790
-136.359802246094 -72.869262695313 -286.041107177734 1.424270272255
-67.995803833008 -76.018165588379 -286.961975097656 1.182168483734
-33.024150848389 -76.540916442871 -288.056488037109 0.690716505051
-112.598014831543 -74.152046203613 -284.462707519531 3.087560892105
-95.007392883301 -77.851119995117 -290.251037597656 2.912363767624
-89.320701599121 -74.594291687012 -291.453918457031 1.993968367577
-49.509147644043 -75.657478332520 -291.911224365234 3.484848976135
-115.650436401367 -78.229698181152 -288.612304687500 2.266455173492
-113.410064697266 -75.476226806641 -290.319641113281 1.978909730911
-32.777729034424 -72.044830322266 -289.246978759766 2.312987804413
-115.025955200195 -74.775352478027 -293.076385498047 1.399704217911
-126.784164428711 -70.356491088867 -290.321136474609 2.928506374359
-144.098724365234 -76.237701416016 -293.636718750000 2.094812154770
7.454576015472 -74.193939208984 -291.535369873047 1.472654938698
16.939691543579 -76.125900268555 -293.309326171875 1.233845114708
-159.605255126953 -74.277702331543 -292.916076660156 2.063398838043
-158.004501342773 -77.860031127930 -300.721130371094 3.880162000656
-146.668624877930 -75.766456604004 -310.555084228516 1.410485506058
-151.665145874023 -73.309677124023 -310.932128906250 2.242017030716
-152.250961303711 -75.987922668457 -313.622039794922 2.799456357956
29.371309280396 -75.048538208008 -14.895052909851 2.875642061234
31.301376342773 -70.397453308105 -18.293327331543 0.783657133579
21.945554733276 -72.456871032715 -24.282981872559 0.690364539623
29.452346801758 -70.323890686035 -39.291133880615 0.871237754822
-57.612125396729 -71.425231933594 -49.773902893066 2.010289192200
-64.708435058594 -71.930892944336 -50.205554962158 2.253647327423
-38.346481323242 -75.162254333496 -50.298831939697 3.415833711624
-83.939804077148 -68.763603210449 -63.000259399414 4.782601356506
81.708633422852 -75.641510009766 -74.195426940918 1.064608216286
-14.956168174744 -70.868995666504 -71.096588134766 2.016722202301
89.608230590820 -73.659828186035 -66.399314880371 2.850209712982
99.840583801270 -72.619667053223 -77.006767272949 1.462502241135
-92.100074768066 -70.777397155762 -76.390953063965 2.358526706696
68.128799438477 -72.797027587891 -80.458251953125 2.453059673309
-40.568965911865 -76.479995727539 -85.625259399414 1.344819545746
101.398559570313 -71.987731933594 -82.128112792969 1.572572112083
-55.145015716553 -71.509948730469 -88.684333801270 1.805860280991
51.514484405518 -73.350868225098 -90.599594116211 1.118644595146
71.425727844238 -78.078521728516 -90.752334594727 2.875864505768
55.969154357910 -72.236984252930 -96.351226806641 0.910848796368
53.296756744385 -74.758049011230 -98.596939086914 2.188624620438
74.892219543457 -76.114608764648 -95.687873840332 1.513466715813
46.957653045654 -72.906196594238 -105.267410278320 3.485999107361
100.893218994141 -73.794883728027 -100.822288513184 2.720557689667
106.375137329102 -77.061935424805 -106.449729919434 2.569658041000
80.460266113281 -70.506423950195 -103.504302978516 0.409763157368
92.287536621094 -74.387329101563 -103.499176025391 2.878384113312
101.343933105469 -73.346862792969 -95.187355041504 2.842841625214
109.983886718750 -73.758697509766 -103.754981994629 2.620407581329
40.046813964844 -73.146934509277 -106.172599792480 0.570351839066
112.998924255371 -70.779083251953 -118.698265075684 1.826918005943
114.252670288086 -74.626945495605 -118.901405334473 1.538326740265
31.790996551514 -71.878746032715 -123.581291198730 1.653557300568
45.214374542236 -74.483245849609 -118.899864196777 2.018062829971
115.743980407715 -73.877212524414 -130.221679687500 1.240549802780
36.709606170654 -72.893753051758 -126.689476013184 3.472203731537
115.542419433594 -76.928703308105 -127.730522155762 2.801526069641
109.239540100098 -74.353660583496 -122.459053039551 2.692335844040
26.908685684204 -74.186027526855 -135.585128784180 1.091665983200
-47.463989257813 -73.682868957520 -134.134460449219 2.043994426727
-51.630031585693 -71.710678100586 -135.165405273438 1.156597375870
111.846061706543 -72.883201599121 -135.007598876953 1.230699658394
-68.714019775391 -76.925796508789 -140.493194580078 4.011520862579
-72.318115234375 -73.998764038086 -140.388198852539 1.448642492294
-58.436576843262 -73.894668579102 -141.230072021484 0.714002013206
32.439891815186 -73.494247436523 -143.639999389648 2.253169298172
116.708457946777 -75.334159851074 -145.903137207031 3.164524078369
-68.887023925781 -70.328834533691 -147.178024291992 1.086145281792
-47.461013793945 -73.105415344238 -142.630050659180 3.158721208572
33.933681488037 -74.156806945801 -151.239746093750 2.342864274979
-67.586776733398 -74.531166076660 -147.861572265625 0.839649856091
114.536674499512 -72.607086181641 -141.327529907227 1.039126992226
112.411605834961 -71.914848327637 -157.569061279297 0.576801359653
116.871498107910 -74.779479980469 -152.950317382813 2.160041570663
-37.837486267090 -75.922790527344 -153.075225830078 1.727892637253
