# This PCD file was generated using the MATLAB® pcwrite function
# from Computer Vision Toolbox®.
# .PCD v.7 - Point Cloud Data file format
VERSION .7
FIELDS x y z
SIZE 4 4 4
TYPE F F F
COUNT 1 1 1
WIDTH 1425
HEIGHT 1
VIEWPOINT 0 0 0 1 0 0 0
POINTS 1425
DATA ascii
-75.121468 -73.791183 -252.685165
27.395855 -73.309059 -20.720209
36.841698 -61.585442 -128.167267
59.516323 -53.011002 -103.192802
5.386558 -77.466393 -291.375031
-14.074145 -75.403923 -202.287704
-42.729183 -85.372986 -192.579391
1.444141 -58.111893 -245.123886
-155.813507 -64.462196 -257.464661
-72.692474 -60.876583 -112.372795
-82.604195 -84.313690 -105.516747
-148.968643 -64.537376 -194.341583
95.670502 -55.111137 -94.984833
66.495621 -53.978264 -91.723938
-46.706116 -79.731674 -196.883179
108.547714 -70.943642 -126.849380
74.054207 -53.001308 -99.659149
20.966028 -72.417046 -27.700602
-151.519257 -71.361099 -189.116043
66.462578 -47.310024 -89.858192
80.795708 -46.441242 -65.013481
41.075909 -78.810150 -111.564079
-157.279373 -64.955544 -196.305038
-146.107422 -85.043266 -257.607330
23.203018 -67.795219 -172.379105
-48.304874 -81.812302 -72.720757
85.062668 -59.064709 -58.846874
-96.380013 -67.447914 -108.594421
-132.780197 -73.748581 -227.603439
69.841522 -55.935188 -60.137600
-167.259323 -69.902054 -258.847839
-150.394241 -77.891418 -235.974640
11.600408 -82.220345 -243.032532
-91.390244 -57.597149 -121.993729
27.112104 -77.942299 -143.025543
101.816010 -68.932724 -85.686890
-53.160641 -78.189575 -189.674744
-77.357994 -63.160439 -116.055794
-55.809967 -55.498001 -83.973892
43.588013 -70.557808 -22.541468
-18.501669 -55.542542 -257.141693
60.935452 -61.238247 -79.793488
-92.659309 -73.061684 -85.384506
8.946888 -76.503494 -211.742920
86.760071 -57.059902 -104.903488
11.968739 -70.954903 -244.044785
-60.352459 -74.878159 -244.540436
-73.332291 -83.386208 -210.278778
-29.611090 -70.171730 -169.057983
12.907228 -59.798050 -288.618561
65.709137 -50.602287 -73.292114
-116.850555 -70.309204 -232.389603
-5.963801 -52.997952 -289.328796
113.706123 -77.479988 -140.115524
6.205053 -61.240208 -278.928772
70.793831 -71.676155 -234.526703
7.553974 -73.203255 -216.573517
87.043098 -59.374813 -59.574574
-91.539948 -37.862503 -111.059654
-165.282333 -69.412331 -286.134155
-151.905884 -67.668297 -267.730957
-71.169739 -66.568520 -99.151558
-145.786438 -80.640495 -198.522537
4.114991 -65.077805 -231.676102
-78.230415 -69.560410 -112.136131
-164.929810 -73.417183 -210.661407
-143.737366 -71.671753 -294.602356
-148.141403 -75.770767 -215.892105
-50.945133 -48.293648 -48.498592
-159.475006 -72.328537 -234.915848
103.445107 -63.225285 -72.065048
-31.079666 -70.589462 -172.197662
63.607510 -57.488148 -79.541756
-99.415436 -39.761772 -69.770233
-140.607315 -73.435677 -229.193924
-19.633972 -72.435577 -182.923584
34.505630 -66.707405 -17.176029
-149.704224 -83.706970 -231.207016
-93.991898 -68.448029 -121.433304
43.916599 -65.163246 -255.064041
15.040294 -79.456657 -229.135391
-59.873695 -69.090149 -46.606133
-75.680313 -70.965027 -98.525246
87.464905 -47.646568 -110.605453
-98.794456 -62.358429 -93.984795
101.705879 -72.647133 -203.977936
-151.738373 -62.965427 -259.306122
13.671906 -54.395741 -294.732697
-82.660278 -19.814709 -85.677094
-157.264893 -65.074745 -286.177368
11.438325 -68.842941 -205.574753
-12.590076 -52.174805 -245.734756
-14.988862 -60.456875 -52.947479
-21.644920 -76.224266 -198.114731
-72.053894 -67.420113 -102.471275
-152.068466 -74.834373 -293.834534
16.024626 -52.531036 -243.706039
-113.164711 -70.667580 -203.307632
113.459511 -73.474823 -146.761261
42.125870 -69.118431 -112.058868
-143.395935 -62.507484 -261.839783
85.217598 -62.304222 -62.665375
-122.614571 -70.791138 -197.990646
18.253384 -68.256386 -190.289200
20.895439 -59.049648 -250.959381
-1.553642 -70.933380 -226.561111
66.665359 -74.268486 -237.128204
-11.433408 -52.383915 -259.730560
-99.171379 -60.267262 -68.485435
83.588020 -54.203003 -57.606091
26.259216 -66.352837 -263.334290
-1.343046 -68.656075 -225.307632
17.404081 -80.326256 -272.963898
-57.316006 -75.971153 -137.114410
-78.503227 -70.375046 -119.157745
-38.288807 -62.567699 -79.534622
25.897503 -69.349030 -165.332184
-65.803459 -76.175316 -152.142914
-75.150238 -73.466301 -249.313858
7.791591 -71.333389 -154.167343
3.402238 -60.446548 -289.671936
50.697739 -67.002518 -249.883560
-39.071419 -77.836884 -167.138840
-153.229095 -83.765762 -285.115234
-151.743271 -79.666039 -201.334763
-3.097861 -73.234695 -234.079865
-167.743729 -71.673172 -238.903290
11.695932 -81.757416 -227.186844
2.234972 -78.353775 -229.261322
-104.660103 -71.488411 -224.286850
43.679565 -70.212616 -26.503912
11.597808 -73.337761 -155.747498
20.005484 -71.385132 -28.482306
33.370319 -70.390930 -39.328026
14.301250 -53.347679 -280.343262
21.420826 -60.313065 -242.959534
-143.622269 -63.299210 -187.863785
-79.608612 -79.728958 -211.869293
-150.615082 -83.844543 -261.333099
-56.783722 -70.911606 -141.474365
-81.665794 -76.047638 -66.814690
-101.965660 -65.667412 -156.084610
-95.444160 -70.217331 -80.802513
-15.850720 -58.814747 -270.864899
-100.294327 -32.468483 -79.235207
-86.498940 -36.430714 -109.163528
-79.481369 -69.385391 -254.922272
55.383606 -72.043968 -101.204315
-151.733444 -85.423180 -275.449463
40.376415 -80.762718 -120.142326
2.806512 -79.630692 -247.477066
-148.878403 -60.613583 -210.994858
101.575607 -54.799622 -70.082901
-34.199379 -75.610382 -159.964752
-72.316307 -85.638466 -94.303238
60.837540 -50.789684 -89.687103
-148.694809 -81.479347 -198.675156
-154.031403 -61.729031 -226.410278
-148.552872 -80.147980 -241.624954
102.553070 -43.657745 -84.505142
-89.315689 -55.302082 -121.038452
-10.535365 -45.310020 -57.834366
66.907776 -51.772530 -101.393578
-152.277206 -63.182358 -259.388916
-47.522243 -56.491013 -78.899223
-148.006409 -76.432480 -295.611481
-164.640869 -67.990768 -267.817535
80.582146 -48.816708 -109.763374
90.841141 -44.369305 -67.874466
-14.019710 -53.057507 -255.781204
-136.849442 -77.777451 -230.976776
8.466449 -51.963017 -293.818695
-60.901234 -85.669930 -94.640877
101.047173 -42.277153 -76.835915
20.414253 -74.002785 -157.640747
-8.226674 -56.344002 -279.561310
56.576988 -70.042114 -93.702797
40.844776 -72.700661 -40.613369
-31.729328 -77.796829 -212.947784
20.114830 -78.884857 -258.956818
66.126320 -68.674530 -242.497864
31.662323 -73.844269 -16.148172
-48.682056 -74.372765 -56.487770
-96.091812 -65.329948 -140.268112
-145.739990 -72.237839 -296.044830
40.832333 -76.202454 -123.638779
5.524954 -72.664482 -226.464935
-109.043465 -72.863869 -260.643799
103.513634 -45.158405 -88.501717
14.827806 -74.824760 -180.994339
33.037842 -73.042816 -147.605988
7.898182 -72.176872 -221.726242
83.853043 -75.339767 -216.428879
33.715363 -68.840401 -128.219193
-166.986786 -71.330139 -251.901657
-121.315964 -72.160606 -195.775772
-14.960325 -40.985428 -60.981953
104.179245 -76.762039 -181.404129
41.146446 -69.642952 -14.181198
-68.850662 -69.972626 -289.273987
-153.219940 -71.751083 -296.324799
47.074024 -78.380066 -105.100822
-70.786713 -74.342659 -248.631134
-134.377319 -74.080635 -260.542847
-1.444079 -49.803577 -270.572540
24.561022 -50.652714 -282.162354
-148.689423 -84.394608 -289.511841
-71.078331 -53.893730 -115.580635
58.325272 -69.814766 -246.466278
-63.276077 -58.173706 -126.595512
64.922699 -54.329227 -88.499504
-8.737485 -72.791840 -205.769485
-71.156670 -34.379417 -103.892838
-22.161129 -73.221878 -198.102005
44.556679 -70.425949 -25.113653
-61.582661 -78.088287 -206.982071
68.024567 -49.607101 -70.138756
-69.781281 -78.395630 -205.938965
-12.759625 -77.635056 -269.744720
68.609543 -47.402016 -101.381897
-153.638626 -63.479774 -234.510986
-13.506673 -54.556480 -251.812561
-94.548508 -73.709785 -291.676941
-149.280365 -75.028900 -259.099762
-92.118011 -75.225090 -287.043701
10.724213 -79.521217 -232.033096
-144.737991 -68.578201 -264.757202
50.804935 -74.683365 -97.466446
1.359522 -74.820122 -287.527039
24.106245 -73.568771 -154.080078
36.624882 -78.414017 -136.141312
23.670828 -73.811249 -143.749252
-40.086262 -83.193291 -78.239128
84.036522 -55.593449 -93.298866
-66.895714 -53.291656 -112.781151
-12.503070 -69.157883 -269.271698
-75.905243 -83.154114 -83.747238
-165.072815 -70.515892 -204.012085
-103.532242 -72.827385 -226.903915
43.522785 -55.857845 -30.611143
27.582090 -72.409172 -30.481930
-17.470240 -52.211849 -241.137466
-26.721138 -84.284859 -184.283859
28.365953 -58.705002 -21.532993
21.878157 -76.852455 -266.904602
55.571648 -73.596169 -100.351791
49.009155 -67.523674 -97.272903
67.204575 -56.431423 -96.791084
-0.029943 -51.065845 -265.992706
98.634468 -43.995552 -100.449257
-146.637390 -72.706238 -228.093155
-49.411671 -73.340302 -133.617645
73.962387 -45.241871 -81.898560
-71.528091 -20.040483 -61.851646
-85.127937 -65.824684 -118.924484
-72.374954 -49.595043 -99.474075
18.316761 -51.356037 -255.864761
-14.957799 -71.788521 -64.690331
16.289116 -80.636009 -235.487488
-39.531616 -73.164322 -285.058472
-65.532799 -23.838240 -85.245491
-143.293579 -75.380363 -186.569870
-72.749619 -68.713844 -46.877613
-41.381760 -67.600784 -156.440033
-49.786667 -79.639511 -194.164597
101.866112 -49.024330 -72.957939
-55.558060 -38.748798 -65.435844
66.034798 -48.619469 -66.139343
17.587032 -71.568687 -230.568054
87.433784 -45.932636 -58.744881
-57.645576 -63.098003 -82.401726
66.431168 -68.642250 -77.841827
-79.309502 -63.074455 -125.272972
-113.410782 -73.865494 -288.945770
-34.087433 -76.355858 -200.426437
102.950783 -51.268570 -77.675949
82.823990 -69.279617 -101.216927
-58.282494 -81.306854 -94.076225
-0.176650 -71.331688 -224.997055
-82.738579 -26.328249 -102.992378
-0.709948 -76.906151 -247.460739
-71.910042 -68.462006 -148.597336
-67.256340 -64.922478 -98.170525
-148.955597 -74.160309 -231.070145
94.074493 -57.920979 -109.763733
-6.585284 -49.582550 -243.361572
25.602777 -55.371262 -15.375471
-4.852941 -66.256737 -284.355072
62.813072 -49.516502 -75.356094
16.261799 -76.717606 -199.708755
106.011543 -72.280998 -120.156044
88.830475 -46.333218 -108.407692
67.227379 -71.799774 -239.907700
-18.196772 -54.313251 -61.067173
-80.819847 -75.099342 -250.655304
-15.962121 -79.301262 -203.639969
43.854050 -57.426926 -24.583851
102.112793 -51.856426 -93.386734
-130.490585 -64.746170 -228.697052
-80.938774 -85.003960 -104.252472
-153.450562 -77.117897 -306.833801
-5.107489 -59.447102 -283.481506
-35.465824 -79.135475 -200.696198
-37.561596 -79.898842 -241.393661
-124.387482 -66.377785 -263.047974
-92.476967 -66.788834 -138.687744
35.754318 -50.010002 -15.522204
-93.261314 -26.726950 -91.327934
108.945427 -69.270370 -133.106247
43.461494 -68.328011 -249.167145
-139.599716 -68.998299 -234.336243
-43.579941 -79.064850 -66.168671
-145.706497 -73.284615 -252.870636
-19.182158 -76.531197 -72.940224
-166.908112 -72.436783 -224.688614
33.121777 -67.465630 -255.596512
62.703648 -49.559589 -81.426033
30.970388 -80.984398 -151.277557
-25.751871 -75.451515 -285.413086
-43.422432 -75.975471 -164.076355
-133.346054 -67.454620 -225.447647
101.391380 -43.413971 -83.067924
-115.869797 -65.097786 -232.081406
49.649593 -77.947197 -103.101601
-136.262436 -73.454948 -255.192566
33.857494 -70.466713 -129.822083
7.860632 -59.683983 -292.779358
-146.158997 -84.089981 -285.835846
-141.270615 -73.509644 -230.460495
-64.336815 -78.578041 -250.185562
-10.008772 -79.795761 -170.238815
30.900906 -52.579067 -42.009232
7.797843 -69.040131 -156.415527
77.729736 -49.697483 -71.291672
36.481705 -55.579739 -12.684793
105.431923 -65.894058 -91.513329
18.540436 -49.735214 -238.281677
-146.205597 -75.783264 -300.760620
13.476376 -80.550797 -249.971741
-6.805479 -68.252708 -223.583939
-28.950891 -71.643738 -287.987213
60.415237 -56.088661 -84.758881
21.684544 -70.995697 -164.500259
-151.418945 -66.112679 -282.127319
33.962494 -59.502258 -40.192554
-93.492516 -63.269810 -123.093300
-129.213928 -65.401634 -205.137283
20.119434 -57.138435 -276.179260
-91.537621 -60.719173 -123.301689
85.962074 -46.188484 -61.563869
-145.947845 -73.894699 -252.142273
94.971947 -54.992893 -103.007805
-150.260529 -84.125671 -240.794006
-55.066936 -72.132042 -246.366501
102.987953 -42.672691 -72.393623
26.675337 -66.941170 -138.047211
92.891350 -56.023403 -109.521461
-54.211185 -75.032722 -291.228455
-143.538818 -71.693161 -311.473297
-19.803474 -72.900208 -220.518005
-141.448593 -67.795288 -182.836151
-23.597895 -64.124321 -66.880951
66.363602 -50.419052 -79.765640
66.221306 -66.360077 -83.539764
77.245888 -57.748688 -101.909660
112.314476 -70.204140 -176.495407
21.696289 -67.786491 -276.883362
65.945007 -68.438431 -83.059464
-49.440041 -43.028679 -51.608143
-148.475037 -84.984528 -238.978897
-58.248997 -44.204700 -49.632896
-13.047378 -67.961464 -200.547592
23.037489 -70.346115 -188.607208
-147.799713 -77.990997 -283.076019
7.433338 -81.818336 -249.911072
10.550920 -52.745609 -241.629944
-91.043381 -70.824532 -66.849182
20.223377 -64.033104 -22.694702
-112.589355 -70.977798 -258.712433
7.021806 -68.206917 -224.439499
-143.880249 -67.127373 -254.055756
-77.557228 -59.664753 -119.819801
-34.184631 -74.826859 -165.781982
67.280243 -46.054020 -98.818466
78.999237 -61.119057 -108.628044
88.206833 -51.308189 -72.613503
-147.025192 -83.349686 -204.283844
96.942039 -58.620144 -62.615940
-57.611294 -39.374870 -76.058693
-149.695282 -63.266956 -265.014374
-154.753204 -73.873131 -294.000092
-80.864105 -17.222492 -75.292389
-92.013069 -43.602959 -53.047714
-39.640282 -75.551781 -200.863525
81.814201 -72.567421 -230.494629
-60.518978 -66.178719 -138.121490
84.201050 -71.969872 -69.481560
105.243332 -59.025116 -71.029068
64.524231 -71.245171 -236.747742
107.778366 -46.120808 -85.674294
-147.746521 -74.762741 -186.469696
-11.367611 -76.321190 -173.560669
-9.872241 -72.204552 -223.355988
-52.138947 -80.988373 -91.481285
15.360836 -72.117409 -152.620514
71.616341 -46.968243 -85.752243
-130.971268 -77.240799 -287.391052
-76.704262 -18.453342 -70.344872
-101.954697 -73.850212 -290.767639
39.471691 -77.396423 -106.565918
105.012306 -44.557354 -82.840317
25.381847 -77.350159 -146.282303
52.328175 -56.905190 -105.435219
-89.477631 -71.586250 -216.931641
-89.522514 -58.322701 -122.130241
11.841194 -68.376945 -200.203445
25.327557 -53.636761 -257.759888
-72.585533 -62.686970 -44.012745
6.478607 -71.451958 -234.805817
-125.496040 -64.892960 -259.631317
107.101288 -73.098297 -178.533249
7.614635 -73.470802 -290.262512
-11.170707 -75.281693 -176.794922
93.217522 -71.844528 -201.773682
32.910938 -73.586067 -123.513954
45.965443 -52.377811 -37.092781
-144.828705 -68.670929 -235.326569
-161.140015 -74.295586 -263.763702
-78.006828 -29.322538 -54.812111
-43.878941 -71.802170 -162.743652
-99.746025 -73.023972 -219.967850
104.039719 -61.047482 -93.269463
64.089584 -49.838230 -80.799812
-63.084808 -64.617416 -94.607948
18.094585 -74.923676 -168.113617
-57.506577 -49.379143 -87.225845
68.877335 -52.867813 -73.496201
-98.637085 -57.819038 -74.677025
-13.984620 -71.406898 -249.563950
52.750244 -74.402870 -91.631172
-45.867638 -76.127472 -165.132294
70.497505 -65.603561 -63.387909
-49.714298 -64.428658 -134.369553
-23.505884 -77.900436 -291.718811
113.089127 -72.707863 -163.739975
-16.483101 -74.076736 -226.039810
95.804451 -51.588993 -92.660515
73.913597 -69.202835 -104.666283
-72.126915 -85.058403 -88.804428
-135.524841 -71.154327 -257.087921
-84.734543 -67.733475 -105.038948
-60.355236 -76.604080 -290.289703
-95.763199 -28.679438 -74.658714
110.320259 -72.309494 -158.208923
18.297791 -64.541794 -241.753616
28.746803 -71.252174 -172.912277
5.611922 -66.602661 -293.167236
16.766441 -77.475853 -206.864288
75.928040 -75.313927 -79.787712
-51.031975 -83.946854 -80.377655
-149.047592 -77.933174 -274.503662
36.656872 -77.210007 -115.919556
-84.648117 -26.620630 -58.398907
-55.717163 -27.072443 -78.266258
40.695156 -50.672714 -14.921752
-11.872432 -52.923458 -250.659119
-58.785480 -42.088493 -82.831932
-81.422958 -55.392231 -116.243225
-25.624039 -76.179794 -190.114456
-151.284042 -65.081474 -292.249512
5.624152 -69.890694 -226.273132
-44.533401 -65.547554 -82.482063
-40.802799 -80.792694 -198.158829
103.575699 -73.298325 -97.090843
-88.376678 -77.621658 -112.628815
-52.182159 -77.781761 -140.198441
84.745148 -46.502792 -102.496010
114.484360 -69.172668 -120.011536
-11.608883 -72.251137 -243.597992
10.408421 -68.851280 -244.851654
-36.826542 -75.551300 -159.733963
14.927059 -80.633163 -217.912582
-91.953873 -70.426575 -121.583702
-85.614510 -46.411018 -111.812347
-64.725525 -78.811523 -156.803009
-142.681702 -71.490433 -232.771545
-28.881451 -77.638107 -188.449036
46.860687 -74.536140 -98.668785
-13.573160 -77.308060 -218.696808
-59.456070 -32.772224 -86.663322
-98.168190 -65.006218 -118.403015
-12.132830 -70.113831 -247.196182
-145.768616 -63.522243 -199.478577
-28.442879 -69.068939 -75.672012
-77.764923 -20.464899 -62.234631
-153.459824 -64.395981 -256.664856
-64.391739 -35.754978 -96.654221
34.034946 -60.576996 -41.238205
26.701101 -55.245609 -269.099518
109.846474 -75.437889 -175.370270
-59.672543 -44.768375 -50.270145
-53.097847 -70.325256 -288.580414
-46.110485 -68.526695 -144.206726
99.115280 -45.715019 -101.204987
82.789612 -70.770935 -226.733170
-63.508392 -26.772528 -92.273254
65.799141 -46.873001 -95.601234
-55.471069 -69.039253 -48.567513
12.154394 -72.127090 -189.772354
-147.319580 -69.379280 -258.404785
-152.829468 -85.392975 -293.118591
62.706787 -63.573982 -86.004570
-46.114895 -77.992165 -189.007278
14.355456 -77.508125 -187.807449
117.445808 -73.782745 -161.754456
0.755983 -54.689312 -240.687576
-149.488251 -62.585411 -200.743835
79.705544 -60.010166 -105.440521
44.767693 -71.620003 -252.916153
-98.262947 -56.448425 -67.203140
-153.553299 -65.503510 -283.486023
-146.688232 -63.583694 -258.407593
-0.431164 -65.435120 -265.507813
-144.924423 -82.077400 -198.970673
-154.522141 -84.169983 -254.802658
-69.433029 -85.388504 -87.489265
-166.152649 -74.477829 -284.593689
-128.177307 -67.319817 -290.835022
-149.101944 -68.541855 -261.000000
-157.958527 -69.800339 -248.143494
-2.164789 -74.763557 -245.369186
36.651646 -77.198769 -142.421951
18.290327 -69.396439 -247.269028
-45.527416 -47.202408 -50.325459
-160.434998 -71.949791 -287.500275
58.211266 -67.817825 -94.563423
114.776070 -73.314438 -124.437042
-56.271568 -74.869865 -54.948318
-10.759954 -77.928802 -211.469055
-59.843800 -34.715145 -55.867626
-85.205742 -69.930733 -117.874146
16.294285 -51.667542 -242.865875
-92.475594 -51.751148 -120.965370
96.081741 -50.102345 -73.422577
-145.603561 -62.327145 -253.668762
-16.486420 -82.060867 -175.082138
-154.587616 -76.270714 -198.456039
-149.871750 -61.413914 -200.414017
-58.458866 -24.572647 -68.938301
70.563759 -47.764713 -105.310318
109.812714 -76.793800 -165.107468
-89.543816 -40.058933 -53.498661
-72.856316 -72.808739 -141.014893
-65.400497 -34.458759 -52.739117
10.251716 -70.517242 -223.039597
-77.572586 -54.998566 -43.821663
107.903412 -70.830879 -168.698669
13.127205 -82.654999 -270.453278
-13.321216 -78.168480 -173.379517
-35.675785 -77.244263 -239.009628
71.497932 -68.121902 -103.567902
-10.680054 -75.662514 -225.203323
-131.583450 -68.314796 -292.339630
-17.643679 -58.152565 -260.559570
2.425785 -79.553726 -236.166138
-5.818555 -71.027611 -227.055435
-148.263535 -84.965034 -245.783310
-54.777214 -76.518738 -243.438995
-46.143372 -41.595879 -77.468979
-43.572250 -71.870583 -288.524841
57.957649 -70.775620 -96.812141
34.174805 -71.206024 -155.535034
111.415779 -73.912361 -134.487686
-11.110634 -75.861160 -230.900253
105.632957 -74.306969 -175.757721
87.891319 -48.947632 -68.226334
-142.301208 -70.416023 -263.542816
24.004469 -69.464005 -151.531219
-32.189575 -75.673889 -237.786072
109.966690 -72.022400 -112.465759
26.052723 -58.987530 -37.814533
47.109554 -67.952492 -245.886047
-74.133774 -49.851387 -99.237953
33.710888 -62.126633 -127.652512
-68.871315 -21.553610 -63.766674
-32.031406 -66.773468 -78.281616
-17.289042 -58.457134 -267.967377
88.728020 -76.708908 -80.174393
89.862305 -54.963398 -89.113495
-54.074993 -75.998764 -248.417160
19.478029 -69.165367 -190.829559
5.110646 -73.699242 -210.894730
-51.682041 -61.137398 -129.366837
-36.261810 -56.524071 -72.701569
102.926033 -44.871906 -82.946312
-77.397362 -77.513756 -216.949966
42.291203 -73.111427 -125.067390
77.916367 -75.602272 -227.655014
76.442574 -71.436211 -236.137054
26.035151 -55.393158 -257.663818
19.424778 -77.167175 -255.693451
86.875023 -60.698151 -109.121132
-143.777267 -71.261940 -249.608643
-49.613525 -65.729004 -84.529274
-165.242126 -67.845421 -262.826965
-22.129692 -79.807655 -182.432343
-142.416306 -62.477104 -202.409424
75.015335 -46.632771 -61.140724
-22.573784 -66.857063 -190.084381
-63.939724 -85.311104 -209.724838
-166.043442 -68.048958 -250.805237
-12.544035 -68.865372 -252.579361
22.395342 -78.546928 -248.864716
12.865967 -70.085609 -244.312607
-40.926659 -77.346687 -62.133202
-153.325211 -69.890816 -253.207825
-15.958610 -71.686134 -292.127289
-22.943939 -77.099197 -286.455627
-148.654572 -66.810234 -198.235703
-12.673027 -73.863281 -198.005707
-65.811264 -72.945328 -151.899796
-146.833755 -61.906670 -226.707184
69.213257 -52.971889 -97.562592
-65.643326 -78.018425 -59.908302
-97.975410 -43.468948 -63.440968
-27.518848 -80.576805 -183.065048
-20.725979 -74.774338 -181.609970
-98.574272 -54.139587 -114.219894
89.668823 -68.755875 -217.424179
-59.000732 -61.376427 -137.848389
-151.437775 -75.080421 -282.675110
-28.299732 -80.185654 -75.344490
-165.892441 -73.264137 -255.090881
-97.438492 -69.263763 -149.762619
-146.104477 -73.374489 -187.697281
-88.970955 -34.482784 -54.117653
6.524430 -55.844135 -293.584625
75.763947 -75.505867 -94.181046
10.717813 -79.645149 -245.895996
-161.425690 -66.608253 -238.766037
-167.517761 -68.742981 -262.943695
-124.341225 -69.037804 -194.493073
-78.697372 -18.859755 -75.934380
25.283056 -68.411926 -149.280869
8.559491 -54.853600 -246.021317
26.454018 -52.501408 -257.916779
-75.753914 -34.192787 -103.528191
37.878304 -80.403336 -118.685020
9.546178 -86.116302 -265.120056
10.235044 -82.664574 -267.737610
30.264191 -79.634644 -163.724258
-21.205446 -73.136780 -217.516953
19.459179 -66.533226 -180.250870
-15.245578 -55.165485 -266.168396
108.884323 -72.421295 -189.825806
93.982269 -46.971817 -72.225220
37.344715 -77.782875 -136.175079
38.787701 -69.734756 -35.509186
30.818771 -70.784935 -156.427994
41.555702 -70.381516 -253.531311
23.879623 -67.950409 -167.003311
-51.252941 -75.860146 -247.941711
9.242315 -70.864006 -235.375488
-16.285097 -57.563030 -272.552521
89.594910 -77.493866 -84.813934
-147.421371 -77.813553 -295.898407
-78.897644 -69.315910 -113.774529
-145.764160 -73.481590 -300.926453
104.910889 -46.216080 -79.335350
-7.396729 -54.360874 -279.758728
8.322783 -70.217323 -198.151688
-146.254898 -83.230324 -278.105591
73.804909 -73.546967 -228.852570
-107.597595 -65.450005 -226.824875
-11.426330 -49.817215 -250.047028
-39.918400 -65.467659 -77.032410
14.605530 -54.324017 -281.740631
22.854548 -49.597473 -284.611725
-163.558334 -72.572136 -199.518051
-142.192093 -83.435638 -230.924911
92.235268 -77.280342 -86.615555
69.160759 -72.095001 -230.573273
-19.185865 -74.174156 -219.557220
-118.977974 -66.155663 -289.024078
17.880817 -68.027267 -146.150635
-148.387436 -67.211624 -311.788513
-81.810547 -40.078011 -106.298409
-72.444603 -74.543159 -152.017532
-15.380968 -72.781242 -231.390198
-5.034977 -66.981369 -269.254547
-14.420833 -78.118141 -175.849701
17.242161 -83.788971 -248.095581
23.170155 -51.808525 -252.634079
-30.786541 -77.943291 -67.009354
27.927807 -76.751823 -128.724014
2.186411 -83.131104 -253.655380
18.324913 -49.865162 -244.898880
-150.289124 -62.306381 -220.694199
-42.537724 -75.485008 -81.340996
22.646278 -62.288601 -276.467621
-62.156155 -75.191910 -174.244720
-72.670525 -68.869240 -136.477676
-58.719116 -78.071152 -249.370300
-82.104507 -62.413662 -119.802940
101.105347 -44.545177 -96.000793
-60.023643 -46.296665 -53.099117
-60.797150 -62.385536 -113.798355
-27.703577 -79.735756 -183.926575
-45.954777 -84.457764 -197.090408
-37.019138 -77.828590 -288.716797
-78.728516 -64.569092 -111.423622
-16.051651 -54.548347 -240.907257
42.579414 -67.233078 -111.956512
-1.533842 -72.265678 -240.459824
71.995285 -52.977173 -96.317551
1.235637 -62.120033 -255.727188
-13.892135 -50.200405 -252.666901
-89.186325 -27.046619 -58.757973
13.281143 -59.027924 -245.145584
26.041990 -55.856171 -263.868347
-85.092117 -59.423820 -115.789055
-80.535469 -86.589905 -99.454880
-106.237877 -71.680717 -291.004425
45.977150 -73.345589 -34.647812
-65.793526 -74.457809 -157.728043
56.843185 -69.879326 -241.845749
-24.304531 -70.662567 -175.106674
-125.163666 -70.596344 -205.897705
-56.175598 -84.244591 -91.976746
7.131270 -79.636902 -221.328171
25.292879 -72.405197 -28.495159
-132.887177 -74.973083 -226.651413
-149.368439 -83.116699 -193.789810
-150.744507 -79.466537 -271.157928
22.797947 -52.126122 -19.072109
-124.987572 -65.536797 -290.120972
-160.195770 -67.602814 -220.649261
-24.601149 -77.509888 -218.479019
-55.667606 -44.967632 -78.321075
-77.804779 -42.918732 -104.818787
103.912682 -74.279182 -194.062469
45.280483 -76.435051 -119.408455
-116.754295 -66.586502 -290.027405
-10.096160 -76.789978 -289.122375
-146.367355 -76.150673 -186.381470
38.427120 -66.131760 -34.608089
16.712479 -49.856590 -260.827484
11.787668 -50.333149 -282.913940
-53.466469 -77.960617 -147.913193
91.951752 -47.014999 -59.808075
-152.514664 -70.354126 -254.444885
8.427353 -50.065285 -244.974213
-13.237728 -66.823860 -239.399765
-146.767120 -84.185654 -195.295837
-142.047729 -66.903290 -186.686218
8.033739 -84.995445 -263.623871
12.012627 -70.805367 -232.505066
-52.492443 -78.651413 -62.929771
-148.602921 -64.916397 -295.814941
20.475586 -69.065117 -176.860107
-59.279060 -80.128113 -175.566147
-108.312828 -61.352936 -182.306580
-0.202480 -78.229706 -238.180832
47.340870 -70.395332 -114.120148
-45.557285 -67.136589 -46.627197
-10.164305 -78.486534 -209.308746
-144.329498 -65.812920 -192.926529
-44.771660 -75.030052 -142.242081
-141.936310 -62.485878 -177.873291
-150.699158 -77.938744 -277.810699
-149.658020 -72.288544 -187.343262
109.990791 -74.371620 -173.173355
-8.343663 -70.780388 -208.211090
8.183754 -68.780045 -242.134048
-90.149055 -74.437965 -213.170944
9.102022 -76.754738 -233.463943
-12.428946 -77.062828 -216.638855
85.829857 -68.479706 -219.641937
50.205013 -65.938286 -252.426605
-141.329330 -65.182022 -228.370697
22.124012 -75.260216 -268.556213
25.873129 -63.286789 -260.068512
-26.957630 -74.247757 -241.198151
5.115143 -70.401756 -160.320663
27.513865 -70.470978 -148.652267
-80.740913 -59.749573 -122.371193
113.710861 -78.007332 -168.522064
-72.906097 -17.138460 -77.651550
-43.994892 -73.309219 -150.263306
-151.216843 -71.054436 -312.717194
-88.025337 -63.576370 -116.532028
-134.061340 -75.776337 -257.586578
96.159561 -73.298660 -77.166748
-89.570557 -68.241936 -143.471054
-143.948563 -77.173035 -204.003159
0.106305 -51.108284 -243.086472
97.637070 -51.403164 -64.670784
-14.637783 -73.281021 -220.115341
-137.576584 -77.817139 -226.489304
-94.645386 -31.349812 -100.756851
-39.260410 -71.996521 -49.398396
-143.158203 -82.455162 -196.314545
-20.407887 -76.682686 -190.428711
-57.351410 -59.665901 -124.529533
106.323662 -73.285210 -108.750900
-85.286499 -82.637413 -89.276695
-19.185946 -83.807396 -179.067261
94.048584 -46.702419 -110.728584
14.687815 -68.332443 -216.193192
-133.579163 -71.665787 -294.515747
-51.343979 -61.480808 -133.039398
19.507267 -65.326843 -152.551666
93.207634 -68.644676 -211.935135
-97.642647 -64.661942 -76.195419
-25.547815 -76.409149 -76.397903
-98.923325 -49.663849 -99.852501
96.810104 -43.530281 -94.582230
-17.106236 -70.059242 -222.735962
-10.277656 -68.162567 -279.897369
-156.584091 -69.008163 -236.849396
4.977342 -74.917854 -233.120468
-16.518906 -50.125069 -52.148502
-67.354897 -76.980568 -209.264328
-166.826538 -70.642410 -273.890137
-162.921295 -67.534882 -215.817932
-4.794690 -53.920982 -241.895645
-82.276825 -79.270561 -214.379868
-56.904091 -44.038845 -47.486740
-64.901703 -75.289726 -169.367798
-11.443687 -71.826401 -206.007248
-106.688469 -69.697533 -181.624313
-78.093483 -66.649292 -123.122238
25.709932 -79.638420 -163.381134
-47.238789 -78.989494 -87.196167
-6.805975 -57.927971 -288.729004
-132.489914 -68.368317 -290.463257
-3.705254 -66.089539 -235.789032
68.855965 -49.721123 -99.755600
-6.043725 -70.569496 -287.957794
-48.236557 -76.595627 -143.607193
111.043198 -75.249451 -162.804520
48.570957 -71.789063 -113.914200
-47.172394 -77.009979 -159.323746
-4.338172 -50.303146 -251.266907
32.069378 -70.331520 -259.545746
-12.471055 -75.187973 -201.309937
105.158409 -67.329163 -97.440292
43.913036 -50.420383 -17.464769
-160.917587 -74.427689 -257.282349
4.860546 -52.786373 -288.413116
-80.771301 -65.433517 -119.544540
-122.558090 -70.580490 -256.224243
42.982983 -54.043896 -29.757080
62.788059 -60.399624 -88.985809
-21.067467 -49.310020 -60.990112
-151.123154 -62.840237 -262.968445
2.078736 -70.641846 -243.160782
-14.220181 -74.813774 -269.549713
18.497763 -52.036568 -275.908142
-111.991844 -66.754036 -204.214386
-75.307144 -67.783745 -112.810112
-157.132507 -68.544472 -263.703552
32.255287 -59.858932 -124.942635
110.501945 -75.712280 -152.204788
-167.312225 -69.363983 -239.409134
-30.901731 -75.522011 -205.683167
-135.852768 -73.808899 -262.937775
-141.475632 -68.037186 -188.495316
52.440491 -77.249298 -101.526978
-145.275345 -84.018295 -192.091202
24.378698 -54.766026 -282.488037
26.685081 -69.258148 -259.849762
97.455414 -73.865555 -90.026779
-76.200104 -75.618774 -213.564896
-64.716064 -76.230103 -57.585346
19.726349 -63.670815 -23.224628
1.433528 -53.440125 -290.770050
-68.177147 -19.180416 -68.727089
-107.621613 -67.581314 -288.115997
22.641924 -52.742401 -249.083923
-153.233429 -83.487099 -259.092651
17.443777 -78.088486 -251.791931
102.786736 -45.015690 -84.763710
-67.087242 -78.170403 -156.999390
-49.250210 -87.307617 -82.816315
1.113202 -86.492500 -257.773804
-67.062553 -50.071709 -93.503891
-117.260094 -66.737907 -265.052856
-143.882919 -68.402084 -253.075729
-50.466240 -79.518143 -90.051003
19.830528 -65.080757 -150.540756
-68.637207 -87.297035 -96.477936
-38.112083 -76.712883 -170.964447
-102.293732 -66.577644 -168.770935
68.966103 -45.513973 -69.651566
4.817713 -73.019684 -242.398788
-153.776321 -80.941071 -256.713989
-76.121307 -63.444614 -109.655785
-108.444778 -65.766479 -166.511078
-149.485443 -62.172043 -249.914368
65.610710 -48.184036 -106.176559
-125.552078 -70.152145 -225.089050
-89.593170 -60.236111 -49.880215
37.011623 -62.363911 -125.424141
-36.487465 -75.044807 -77.653893
-4.120420 -79.024506 -171.459045
-42.883106 -77.568336 -286.297180
-43.505390 -42.877483 -77.703033
-152.656906 -80.243416 -298.107941
-128.634705 -64.996689 -287.878845
9.470729 -69.660286 -236.806686
3.600070 -53.678059 -243.200195
-29.778357 -70.167862 -179.071198
-157.960907 -69.587959 -201.896149
-96.110542 -67.441269 -76.407959
22.049480 -71.333900 -178.830963
-111.019852 -73.575813 -260.160553
-13.679826 -59.115963 -272.842407
-36.253952 -67.302620 -77.625809
-31.865625 -75.610931 -208.594467
-85.882759 -66.526253 -54.661743
68.548866 -52.377777 -61.424915
-80.534363 -65.582840 -102.468193
44.047268 -77.963425 -120.365730
4.849332 -53.179031 -242.136383
-115.058487 -74.390015 -228.785751
-36.044441 -68.973885 -174.482239
9.319223 -73.274117 -244.149918
13.099710 -75.589706 -247.219467
-46.158298 -78.835335 -198.358231
63.712864 -49.963116 -66.843887
8.486690 -68.904083 -241.415497
52.379128 -77.159225 -98.992630
-81.074715 -59.627777 -45.049072
-82.237823 -50.432983 -114.075577
104.739990 -70.729118 -178.142319
66.470070 -47.270149 -89.392792
85.545502 -68.052231 -106.291428
6.366028 -74.784431 -243.296448
46.469299 -75.984360 -114.771912
21.034714 -51.951263 -22.631897
-38.543674 -51.846199 -72.938179
-79.670303 -64.678795 -112.301865
-80.304321 -72.044685 -210.703476
-3.149820 -64.976234 -268.856812
-93.705322 -72.022949 -96.033882
-53.009926 -72.005775 -150.058182
-5.337897 -53.774426 -288.822418
31.283272 -65.249222 -260.117767
-85.640182 -63.600193 -124.021286
-106.418488 -70.874207 -223.966080
99.265381 -46.990810 -63.342731
-9.429203 -80.733772 -217.697342
-65.381409 -78.181129 -246.776901
-51.620361 -71.331810 -289.667999
4.749938 -50.495651 -244.164536
-90.412445 -21.147066 -70.409195
-115.673424 -67.224426 -204.416824
86.992165 -70.230400 -104.530998
-71.632599 -78.929306 -66.793236
100.313217 -53.081699 -66.476631
-17.668224 -76.459282 -200.949615
-17.599272 -76.647476 -211.949127
9.935343 -68.468987 -157.443451
-146.706406 -84.117744 -220.319901
-35.450283 -70.301361 -163.028763
-71.126945 -74.107330 -147.946152
-72.703224 -72.606339 -248.787994
73.922035 -75.201454 -94.969910
100.438736 -56.823402 -67.464363
28.263512 -74.829887 -163.800873
90.033867 -44.761772 -63.427814
43.468254 -51.295269 -24.370735
28.341955 -70.932671 -40.208347
-54.933529 -62.608006 -139.341995
-144.533600 -73.474648 -263.893555
-141.613022 -75.302475 -229.690353
-71.894051 -32.237682 -53.140694
26.923002 -68.090073 -150.252441
-22.077030 -79.181923 -216.804398
-38.844761 -70.289345 -76.633430
68.241867 -58.261238 -99.006165
110.655266 -72.088242 -124.995667
-45.899708 -71.692650 -163.776382
-57.774815 -56.381321 -124.231148
-93.183167 -24.945843 -91.123924
-148.514984 -72.953583 -260.007690
-69.915825 -35.294876 -50.938763
-147.157578 -75.475037 -278.746429
69.163712 -60.557053 -102.463181
-58.080799 -82.244171 -71.616646
-54.626957 -37.010094 -57.661442
-124.123672 -69.828735 -292.363922
24.514105 -59.124893 -259.614075
-150.686493 -67.980469 -261.288025
12.593181 -69.279167 -233.039734
-150.570496 -74.010582 -244.748505
-108.088593 -69.888016 -261.685913
63.876675 -58.868511 -73.252213
100.863617 -70.261818 -76.982979
96.437630 -69.393974 -204.519012
-64.779861 -78.575287 -165.392014
-73.558533 -23.918530 -57.135235
105.890717 -43.493229 -74.994301
-57.866234 -66.242630 -144.566116
26.942810 -71.715446 -17.664698
-134.287338 -70.992409 -224.848969
-77.156509 -66.559387 -101.437439
98.444954 -43.132210 -93.623444
62.669468 -73.343895 -242.248566
-142.918900 -68.736534 -225.829803
16.414652 -65.709991 -151.887878
-156.119339 -70.104874 -259.131653
-6.092635 -79.446693 -218.669205
-47.319275 -77.689705 -190.426224
-125.972595 -65.642570 -256.383148
71.128220 -71.582100 -239.012207
-82.514908 -75.517220 -285.307831
-17.684990 -73.352104 -236.995178
-150.228882 -63.899422 -283.333649
88.108398 -45.135841 -58.679306
-89.577423 -79.243065 -93.277817
-11.048497 -72.775635 -202.916916
-101.321350 -46.599159 -73.765442
38.852669 -70.156494 -18.961039
43.451660 -51.025318 -36.801853
28.643097 -70.624542 -39.173752
-123.010864 -63.997150 -200.561615
-69.745514 -65.368546 -100.552238
75.005051 -57.080711 -104.049896
-84.837479 -70.282959 -127.095009
-63.168060 -55.025654 -111.430511
1.443628 -64.340164 -239.753342
-76.125000 -57.968018 -109.561226
-11.323491 -75.974304 -206.402008
-141.289276 -78.549866 -288.331360
16.901791 -52.216190 -253.593491
-56.880375 -78.488029 -168.527451
96.927406 -46.822586 -107.543846
-150.004883 -81.468163 -289.739197
-125.390648 -71.036415 -234.686890
-98.250717 -54.122047 -108.295975
-150.213501 -73.258446 -246.050034
38.476494 -65.902573 -254.573624
-106.013344 -69.438721 -177.294662
-69.191261 -74.754219 -102.496216
95.131302 -68.918007 -103.241737
-147.581055 -68.822578 -295.970551
13.300522 -71.843880 -147.584000
5.595334 -51.131702 -239.592514
-35.047153 -72.598442 -207.071793
-82.376152 -71.872299 -255.283203
-53.776318 -84.926651 -90.297165
21.982521 -72.224533 -33.823307
-76.036926 -84.335175 -94.036522
-22.014940 -73.620567 -60.646679
-7.950125 -81.006851 -170.324524
-32.276943 -80.004105 -185.709854
18.690922 -78.616814 -274.317169
24.330465 -68.930565 -26.472233
-62.628971 -49.929958 -53.364208
24.307850 -71.771034 -153.672974
-50.287308 -74.520943 -187.569305
-101.679176 -72.927864 -224.148224
-126.203423 -67.834053 -286.801270
-148.706802 -84.277618 -257.028290
37.083492 -70.718811 -117.996735
17.086487 -76.241570 -205.556458
-11.395233 -41.620159 -56.638691
36.432281 -70.140068 -122.982254
-11.042624 -73.052368 -243.566986
-83.878326 -48.084721 -113.239365
-95.791786 -71.652130 -86.173027
-82.807121 -72.614914 -215.166229
-106.513824 -74.805824 -257.997009
-152.774765 -60.768204 -198.262863
-124.500511 -64.991531 -234.735886
43.671471 -78.488091 -104.251602
86.836754 -43.314770 -64.129692
-56.966732 -41.478134 -71.954742
18.127138 -49.751339 -242.697754
-66.948914 -73.777405 -154.152710
-64.517166 -55.660748 -42.466885
-24.611111 -72.512894 -79.036118
-66.303688 -35.608440 -98.909348
-98.131561 -61.500561 -66.829292
-146.135254 -75.783447 -293.822296
109.090057 -75.604935 -176.747269
-73.381523 -70.319199 -248.291763
-61.331200 -80.419220 -70.904938
-146.460739 -61.551395 -182.166199
-151.983978 -86.136345 -256.381165
75.900932 -71.528465 -228.198303
42.958122 -76.891197 -125.833427
13.919493 -56.525135 -265.526611
-166.863281 -69.510635 -216.079041
-35.855774 -49.336014 -53.444050
46.590332 -71.527512 -118.341537
-147.999557 -68.690704 -228.521286
-130.847656 -70.647911 -204.035522
97.680885 -42.080853 -68.315826
97.989525 -71.097351 -197.418579
20.009968 -78.006874 -245.891830
-3.391354 -65.790627 -288.137604
-153.676895 -82.641739 -262.666748
-66.966507 -58.909252 -121.127823
15.601823 -71.783829 -157.115463
-150.495239 -62.776882 -265.727112
-111.184395 -70.698868 -225.742249
-81.353020 -22.118057 -96.029030
-130.832214 -72.786247 -264.516144
5.630232 -85.408249 -271.083679
27.356974 -71.642555 -148.317978
-95.291275 -67.774315 -84.302101
19.590595 -58.900276 -244.508087
-15.360624 -56.884056 -258.382721
-35.261177 -86.331917 -192.891739
63.692024 -56.769825 -88.871071
-53.457119 -75.083847 -135.026398
-0.922922 -62.390121 -251.762131
-42.124023 -38.738953 -57.119289
22.750153 -73.197052 -256.397369
-49.779762 -74.261139 -247.061310
64.583214 -56.377766 -103.263046
103.615601 -61.722141 -100.862480
-21.465673 -80.208054 -220.831100
-68.242142 -25.653030 -58.960777
-96.762611 -49.495644 -57.155544
105.554031 -70.044312 -104.077682
-137.108261 -82.981537 -226.402267
75.374748 -72.893959 -99.488091
-58.562641 -60.938240 -116.165085
-3.944200 -78.592422 -291.085663
-93.810219 -57.377323 -54.895744
-44.816422 -68.778114 -161.323044
78.757286 -73.348763 -72.965218
-80.615356 -61.088100 -111.566986
35.884293 -76.818878 -124.355659
-125.446999 -68.006264 -224.928909
11.907510 -78.360268 -282.378082
-126.036377 -76.408302 -285.061523
-163.982208 -70.968529 -291.813995
85.481285 -74.729820 -74.315315
49.066624 -77.698372 -107.342697
-40.662113 -80.704529 -71.309479
-0.593560 -68.172577 -227.304901
21.928644 -58.415310 -256.574005
63.960762 -49.671665 -78.010796
-6.555951 -52.437275 -238.723587
-6.336771 -51.789997 -274.104431
80.330818 -46.645214 -60.264881
86.488441 -65.342247 -63.082649
-146.854721 -70.810280 -283.675842
106.267021 -67.058128 -101.021370
8.986274 -68.335854 -198.490173
-37.047005 -78.128296 -239.465622
-74.527489 -73.603722 -254.485306
-68.590912 -86.297073 -98.123627
-154.431458 -59.886017 -203.420685
88.763916 -43.855873 -56.775455
86.441078 -49.146103 -112.451111
9.475250 -79.928185 -214.547607
-10.561316 -49.273636 -56.946583
21.047464 -52.516285 -239.141846
26.133066 -75.930450 -137.954620
21.561543 -62.283653 -245.853333
-10.527107 -70.315636 -229.555847
-32.260960 -76.436386 -189.234436
58.772324 -47.155655 -90.454552
-154.538696 -70.108047 -292.887787
-7.804932 -68.021446 -220.560135
21.979813 -74.750237 -246.723831
62.173145 -50.227707 -100.233330
0.310882 -69.962486 -237.310959
-67.814148 -73.891762 -149.960144
-168.043304 -69.044685 -261.746124
3.309570 -69.511574 -235.568558
-148.204712 -84.856140 -262.832520
-32.411579 -68.294426 -174.816849
26.105648 -65.031273 -260.749542
-78.973755 -56.129353 -115.422798
-146.513565 -85.827225 -260.198517
32.115879 -76.862976 -153.482407
79.408974 -48.682793 -108.811081
-59.161499 -73.265671 -175.950790
-45.972519 -36.885750 -62.950565
77.544907 -55.760181 -84.580757
-142.880951 -67.179482 -174.731659
-89.025703 -47.585987 -118.597748
-67.463860 -61.194424 -94.682304
-147.431992 -63.248970 -265.422913
-127.830849 -75.161369 -293.227661
48.415806 -51.883537 -32.795464
38.678516 -66.883957 -259.191681
-57.730518 -79.022934 -203.927856
-39.419930 -72.980232 -158.993790
18.585566 -79.389999 -268.509705
116.294899 -72.208000 -125.100349
-137.058273 -82.784744 -256.992737
-62.478249 -51.922848 -68.382492
28.401535 -71.438545 -135.699234
46.385433 -63.231350 -14.911909
-111.900757 -66.587074 -258.339569
6.182950 -60.828743 -245.003891
44.235817 -51.236931 -36.341633
-17.898355 -67.581459 -195.000763
-152.088608 -84.399338 -300.062561
7.937901 -69.454071 -200.420547
55.272469 -72.618988 -97.543732
-87.848396 -78.142029 -81.491745
105.898621 -46.331627 -97.592484
-12.469855 -70.244987 -204.776825
-76.591660 -67.411224 -133.527328
14.652264 -48.778835 -278.713440
-160.841507 -71.684738 -293.456696
74.336105 -47.486382 -62.178631
78.162544 -46.846344 -111.896461
11.708603 -78.441711 -215.331223
2.195922 -48.420868 -248.175522
10.543706 -71.269028 -242.568176
102.701714 -72.271935 -108.823494
-145.198822 -82.836327 -201.382462
85.165840 -61.698414 -107.457809
9.322346 -58.967575 -290.960327
104.144104 -43.679668 -82.678482
11.375962 -75.647949 -195.313568
-1.280043 -64.555832 -285.768066
5.946412 -75.730690 -163.800385
4.581333 -74.520576 -231.277466
3.355957 -67.511749 -229.758072
7.107156 -83.317467 -273.192413
-3.574210 -65.772133 -291.751892
-144.852798 -64.356133 -193.642883
23.042507 -52.657223 -277.536987
-107.025917 -68.728363 -188.761002
91.478493 -44.687298 -106.969795
15.542637 -54.172127 -277.118500
61.933285 -48.334194 -72.132248
31.217701 -68.654396 -148.597839
-48.128944 -82.707802 -201.720230
5.101016 -74.330017 -224.900635
-19.282885 -67.465721 -197.236862
84.346481 -73.204086 -226.535461
-27.815376 -76.675842 -173.958466
11.644678 -53.929638 -292.954865
-142.001465 -70.128281 -261.765686
-146.934540 -77.393616 -265.658173
-74.751778 -66.772530 -114.766235
16.333017 -71.483192 -246.878189
-62.385300 -87.544380 -83.254547
-80.333305 -71.686668 -116.737213
60.853287 -71.495049 -86.326233
7.844246 -68.311798 -293.785278
30.958542 -78.452446 -160.988403
-31.362341 -58.773926 -47.481503
-62.897232 -74.860786 -166.913071
54.994938 -69.006912 -245.358185
27.664286 -54.069511 -249.472672
-91.211334 -37.831882 -111.087807
-55.198067 -70.726555 -127.900558
56.010086 -68.938515 -88.202286
1.879430 -64.141174 -280.504639
9.151293 -72.042725 -242.656799
-66.195953 -62.592113 -124.661812
-155.622437 -71.121956 -217.120895
92.588158 -53.916790 -80.740929
30.243591 -66.808212 -259.767731
6.576122 -76.822723 -243.577271
-26.028423 -69.543419 -188.571320
-87.412766 -59.412868 -118.742264
103.265404 -77.511810 -188.432129
-5.871193 -77.166710 -221.852661
87.152870 -45.950096 -58.413181
15.173043 -69.452858 -213.420547
-94.012650 -75.791153 -213.843430
-32.449615 -72.481064 -180.709549
-54.131680 -61.173027 -132.152328
75.901321 -64.619797 -61.789021
5.498942 -74.920799 -164.873566
-20.811348 -75.089111 -186.461548
21.096119 -48.277069 -239.703049
114.264488 -70.965309 -168.265045
-147.014908 -67.662277 -181.580597
-63.613758 -22.763086 -65.697739
-83.649864 -71.728165 -107.017586
42.178776 -62.536392 -20.527033
-13.814311 -51.238731 -244.975510
22.866526 -70.009621 -166.041275
-143.750656 -80.918373 -205.556183
109.980919 -74.151596 -166.271454
81.322632 -54.055813 -81.682060
9.404531 -71.863922 -208.292953
-150.791077 -64.876106 -207.109421
-47.397221 -49.389500 -80.323868
-152.463455 -77.697189 -201.865158
-54.450859 -73.242661 -140.079620
-5.769758 -52.983158 -279.142273
8.847103 -85.542313 -257.749756
-2.252284 -76.255089 -164.379227
83.304970 -63.778782 -105.843147
-153.645660 -79.793648 -252.963089
111.905678 -70.170662 -105.880096
-82.687607 -75.709465 -290.985657
-61.582672 -76.768135 -248.381226
-145.232666 -79.063248 -228.267105
17.033228 -51.250858 -244.175720
107.950073 -69.617783 -182.929688
-79.849007 -61.477615 -129.275330
-4.794123 -62.311832 -248.973007
-145.300415 -62.596607 -236.199615
-152.429001 -79.673775 -295.046295
-103.396774 -74.425186 -287.764954
-44.285583 -76.683617 -196.893738
-26.314337 -79.181923 -214.002625
-150.597855 -64.293343 -259.547638
-11.664948 -69.660332 -242.279984
95.312721 -47.985992 -108.269524
-18.931154 -78.332474 -226.633713
-50.360706 -65.584213 -133.927826
-150.793289 -71.474800 -189.032684
-8.489083 -79.996040 -175.558868
-65.905594 -63.580555 -114.246063
-86.925369 -63.434505 -113.634445
-48.227768 -62.664425 -82.316971
-96.000839 -56.739899 -120.279236
99.478828 -44.412106 -64.302902
50.303123 -56.553699 -115.101845
-97.365021 -68.523148 -158.620010
25.901852 -77.390495 -180.706924
-150.203949 -65.993820 -286.256317
2.714972 -83.005966 -275.120514
15.584419 -78.049896 -277.402039
-35.840439 -77.512199 -207.545349
-30.145432 -41.588833 -56.421394
18.453707 -56.409702 -282.265137
82.890793 -51.363865 -71.588974
-86.977928 -77.103233 -217.628220
-123.647545 -64.183556 -195.317383
13.798073 -72.080307 -185.082703
48.730080 -72.437675 -250.063263
106.131546 -74.664764 -113.631042
-32.748650 -75.115120 -159.553253
-126.002831 -76.888237 -289.241791
-150.642548 -85.311111 -300.359985
-10.076043 -79.359680 -266.884827
-32.012169 -76.849190 -207.590210
-78.084724 -60.714653 -104.388519
-30.118635 -68.155846 -51.684620
53.930016 -58.528446 -109.670578
36.277046 -54.296867 -41.641552
110.515297 -73.112511 -110.573059
16.042818 -80.701668 -232.145264
-98.214676 -53.522614 -112.730499
-123.467712 -65.268089 -196.454285
111.137154 -68.336967 -168.889999
33.689503 -51.031769 -37.005123
-92.241600 -41.455032 -55.041321
23.471674 -68.160400 -272.034546
76.727921 -57.078693 -98.784477
-107.151688 -69.918236 -178.066330
0.631184 -49.279655 -241.478683
5.282037 -56.645947 -245.957962
-82.704224 -67.454826 -103.708107
13.522431 -61.688484 -289.798920
28.019707 -53.111126 -255.167740
-10.438480 -52.653820 -261.306366
-74.636887 -76.451195 -215.781082
-5.532551 -70.090050 -234.105515
-12.015683 -66.442268 -64.938530
-149.025162 -77.667061 -256.834839
-5.244284 -80.004501 -275.997650
1.113894 -68.902397 -234.090942
96.159828 -53.104210 -82.864220
2.682934 -49.742695 -256.071808
25.095684 -76.381645 -183.437546
-97.769020 -37.854534 -67.562149
-64.742500 -57.719181 -67.870667
-132.303513 -74.835938 -223.865173
-145.807816 -60.723972 -206.666702
-58.214451 -78.496147 -208.681473
-64.207565 -53.187855 -62.579933
24.580936 -61.057838 -270.423401
32.771801 -78.751823 -145.172607
-72.060150 -82.130966 -81.976517
-59.307228 -82.714157 -208.733200
-69.361259 -74.083900 -144.438629
-85.369675 -67.192459 -130.953918
-57.306782 -61.394550 -122.247261
-144.543991 -76.790680 -188.438324
-37.775127 -53.688782 -47.997459
-43.874729 -79.987625 -245.626984
71.970245 -75.273483 -90.426979
-98.034523 -52.445396 -60.850739
56.020454 -53.727814 -107.208054
-149.176117 -73.838547 -180.600540
-96.955322 -38.133286 -103.589294
-23.528847 -47.454491 -54.332203
-27.354679 -41.687244 -61.770409
44.236568 -70.047020 -112.001602
65.789963 -59.037621 -89.881126
88.043663 -58.077625 -98.840591
-5.177871 -71.706825 -215.276154
-96.346764 -37.381470 -101.735718
-18.273315 -61.017570 -49.818169
-13.074759 -73.887993 -218.459167
-25.374903 -78.602150 -243.920563
-63.919868 -65.974815 -125.598312
67.840965 -71.220528 -83.196098
-16.130575 -70.445541 -250.685043
18.494368 -77.320450 -221.831375
-150.273560 -60.489227 -205.736069
-148.059555 -66.315109 -230.470139
-83.691139 -62.584770 -50.154064
-56.313534 -61.618881 -81.446640
38.602455 -64.825333 -249.966736
3.294486 -70.411827 -225.938980
43.627300 -57.622982 -32.520836
3.061887 -81.336540 -248.896957
4.911895 -72.903923 -221.173294
-76.623428 -62.309494 -116.280067
87.806427 -54.728302 -82.538612
38.765892 -51.887436 -12.657280
-15.386249 -70.599281 -68.451317
114.538498 -73.916992 -130.511841
-11.615056 -51.741608 -247.402481
