# This PCD file was generated using the MATLAB® pcwrite function
# from Computer Vision Toolbox®.
# .PCD v.7 - Point Cloud Data file format
VERSION .7
FIELDS x y z
SIZE 8 8 8
TYPE F F F
COUNT 1 1 1
WIDTH 768
HEIGHT 1
VIEWPOINT 0 0 0 1 0 0 0
POINTS 768
DATA ascii
-104.046295166007809 -134.552093505937506 -289.016296386703118
-125.640655517570309 -132.855178833085944 -329.360900878890618
-140.129135131828122 -135.369430542070319 -352.328956603988274
-93.882675170890622 -133.410785675126959 -272.743240356429681
-52.009109497062497 -135.497634887773444 -199.657653808578118
-49.044281005851559 -135.797775268632819 -190.574859619124993
-90.727005004874997 -134.458469390947272 -267.354293823226556
-124.972213745109372 -133.192714691240241 -326.200439453109368
-137.718704223624997 -140.057640075761725 -343.959793090804681
-105.269577026359372 -135.439754486162116 -289.991195678695306
-94.055130004874997 -134.877639770585944 -266.028305053695306
-100.301437377921872 -133.773811340410163 -283.501190185531243
-51.743011474601559 -133.646766662675788 -195.832366943343743
-59.744506835929684 -133.029232025224616 -200.175140380843743
-101.053970336906247 -134.967491149980475 -277.160308837874993
-49.570343017570309 -134.041183471757819 -190.406280517562493
-61.715454101554684 -133.344188690263678 -203.070343017562493
-90.431182861320309 -132.818870544511725 -259.790191650374993
-98.793029785148434 -134.358551025468756 -271.617202758773431
-59.806503295890622 -132.562568664628913 -194.784790039046868
-52.787048339835934 -131.650688171464850 -191.814849853499993
-57.429168701164059 -132.634822845537116 -198.183074951156243
-94.395141601554684 -134.520961761552741 -265.626083374007806
-88.826141357414059 -135.195186615068366 -252.205825805648431
-144.261917114249997 -135.613353729326178 -349.264755249007806
-52.820159912101559 -133.076812744218756 -189.522460937484368
-87.360794067374997 -132.298969268876959 -243.213577270492181
-87.553390502921872 -131.172657013017584 -249.797012329085931
-95.657958984367184 -134.478366851884772 -259.708023071273431
-55.932510375968747 -133.628013610917975 -184.724578857406243
-60.325241088859372 -134.823005676347663 -194.184448242171868
-70.164566040031247 -132.668930053789069 -213.145507812484368
-93.362915039054684 -131.794334411699225 -259.217269897445306
-52.723648071281247 -131.552543640214850 -187.976348876937493
-63.584289550773434 -133.422145843583991 -207.993408203109368
-73.088607788078122 -134.738937378007819 -222.063659667953118
-91.901245117179684 -134.472866058427741 -254.108688354476556
-89.513183593742184 -133.703159332353522 -246.542297363265618
-67.455200195304684 -134.496223449785163 -212.937286376937493
-79.872833251945309 -135.403518676835944 -228.199310302718743
-91.541854858390622 -132.661140441972663 -247.491302490218743
-91.352493286124997 -132.133560180742194 -254.085174560531243
-93.017257690421872 -132.396232605058600 -248.189483642562493
-66.602294921867184 -132.781593322832038 -200.000701904281243
-86.843627929679684 -131.755355835039069 -244.463363647445306
-93.057723999015622 -133.392860412675788 -245.822753906234368
-61.985504150382809 -133.170883178789069 -199.718353271468743
-83.535903930656247 -131.821578979570319 -237.335266113265618
-88.346984863273434 -132.432186126787116 -242.043930053695306
-57.697662353507809 -133.646682739335944 -186.687683105453118
-60.349609374992184 -133.690902710039069 -187.847015380843743
-68.189468383781247 -133.867404937822272 -197.922302246078118
-81.113357543937497 -135.657573700029303 -229.215362548812493
-78.568252563468747 -132.745475769121100 -219.899291992171868
-86.130599975578122 -131.914546966630866 -234.833572387679681
-65.207916259757809 -132.720947265703131 -198.238067626937493
-71.174987792960934 -134.050971984941413 -203.067535400374993
-83.846755981437497 -134.339153289873053 -229.111206054671868
-133.983581542960934 -135.423599243242194 -314.202484130843743
-65.130203247062497 -133.340320587236334 -189.132354736312493
-71.677139282218747 -134.956100463945319 -204.570556640609368
-79.230529785148434 -134.841720581132819 -219.763275146468743
-78.663284301749997 -132.776782989580084 -210.509429931624993
-64.697906494132809 -132.820537567216803 -193.396301269515618
-66.983169555656247 -133.046981811601569 -190.618560790999993
-158.162216186515622 -132.061794281083991 -346.539062499984368
-71.751113891593747 -135.008960723955084 -191.218475341781243
-142.389160156242184 -135.910789489824225 -310.049942016585931
-160.791213989249997 -135.253406524736334 -338.560485839828118
-79.652862548820309 -136.036140441972663 -192.515808105453118
-68.838928222648434 -133.357948303300788 -175.791900634749993
-147.623046874992184 -135.403839111406256 -311.362823486312493
-152.722244262687497 -134.077987670976569 -312.261276245101556
-164.416137695304684 -137.094665527421881 -333.046615600570306
-88.237686157218747 -133.704166412431647 -186.373840332015618
-159.027191162101559 -134.743942260820319 -308.559524536117181
-167.173095703117184 -132.914272308427741 -326.812240600570306
-89.364089965812497 -132.490863800126959 -188.660552978499993
-95.694671630851559 -134.580162048417975 -197.160980224593743
-134.307739257804684 -134.688167572099616 -263.572708129867181
-127.107696533195309 -132.517856597978522 -253.253234863265618
-145.295440673820309 -134.305400848466803 -279.711456298812493
-148.785507202140622 -133.268142700273444 -288.667037963851556
-121.368621826164059 -133.386783599931647 -245.390151977523431
-149.104431152335934 -135.205287933427741 -286.215454101546868
-149.575622558585934 -133.906074524003913 -291.097183227523431
-103.739791870109372 -134.898094177324225 -206.548828124984368
-104.056228637687497 -132.875400543291022 -211.695098876937493
-106.573837280265622 -133.801933288652350 -214.865417480453118
-119.450149536124997 -132.720130920488288 -232.857254028304681
-120.480712890617184 -134.479404449541022 -233.533935546859368
-113.918197631828122 -133.398418426591803 -225.739959716781243
-80.069000244132809 -133.888530731279303 -167.609802246078118
-108.421310424796872 -136.687141418535163 -212.487274169906243
-108.764602661124997 -132.523807525712897 -215.221527099593743
-80.966613769523434 -135.209964752275397 -170.354705810531243
-141.236373901359372 -133.747474670488288 -264.501983642562493
-115.691375732414059 -134.055625915605475 -229.570877075179681
-119.940658569328122 -131.452125549394538 -229.265274047835931
-128.355056762687497 -135.431636810380866 -242.540832519515618
-144.939392089835934 -134.299674987871100 -272.319519042953118
-109.846221923820309 -136.098419189531256 -211.444122314437493
-110.143295288078122 -132.415931701738288 -212.424804687484368
-113.348175048820309 -133.835308075029303 -217.023437499984368
-150.836700439445309 -134.258827209550788 -283.436645507796868
-108.882415771476559 -132.822238922197272 -209.771484374984368
-111.154586791984372 -133.392612457353522 -212.599121093734368
-115.461502075187497 -131.211845398027350 -218.577575683578118
-158.408966064445309 -134.326282501298834 -294.887344360335931
-106.393905639640622 -133.955909729082038 -204.648376464828118
-96.418411254874997 -133.525032043535163 -186.120117187484368
-173.341262817374997 -132.716033935625006 -318.589019775374993
-178.285751342765622 -135.813045501787116 -322.046417236312493
-89.564865112296872 -134.362232208330084 -174.939636230453118
-94.045059204093747 -131.853782653886725 -173.630096435531243
-107.284729003898434 -135.982826232988288 -200.507049560531243
-93.319793701164059 -135.577735900957038 -176.223358154281243
-96.286010742179684 -134.574699401933600 -176.087921142562493
-101.312576293937497 -133.424186706621100 -180.863677978499993
-98.752273559562497 -135.565223693925788 -170.412109374984368
-109.687576293937497 -132.927333831865241 -179.631439208968743
-106.212371826164059 -130.385265350419928 -170.241729736312493
-113.890029907218747 -136.021682739335944 -176.472717285140618
-111.133468627921872 -130.091541290361334 -171.312408447249993
-110.278930664054684 -136.071205139238288 -169.749755859359368
54.508584976204105 -132.468521118242194 -473.064342021926507
56.792938232429691 -133.993331909257819 -469.877484321578606
54.397287368782230 -130.747734069902350 -469.522134304030999
53.040277481086918 -131.369075775224616 -465.004402160628899
49.013587951667972 -130.315086364824225 -460.521568298324212
53.177787780769535 -132.451835632402350 -464.710968017562493
45.679695129402347 -134.108043670732428 -461.670514106734856
45.161457061775394 -133.505912780839850 -465.170862197860345
42.004024505623050 -132.512161254960944 -460.954904556258782
36.905673980720707 -132.626316070634772 -460.866146087630852
72.008374214180179 -129.615653991777350 -376.582794189437493
68.311363220222660 -131.820674896318366 -385.307098388656243
65.975080490120121 -134.537754058916022 -387.152679443343743
71.270609855659671 -133.044872284013678 -373.275375366195306
61.157474517830082 -133.744262695390631 -388.968948364242181
59.043060302742191 -134.013591766435553 -398.350616455062493
76.102230072029300 -132.368350982744147 -364.371253967269524
52.499195098884769 -131.945842742998053 -401.263000488265618
74.314255714424320 -132.840377807695319 -358.570846557601556
31.910285949714847 -132.314689636308600 -409.327934265121087
-19.278968811027340 -132.551338195878913 -492.998432159408196
35.438648223884769 -134.806201934892584 -407.908416748031243
-22.304039001457028 -132.706565857011725 -499.018785476668938
-22.741645812980465 -134.444007873613288 -498.978534698470696
-15.360786437980465 -132.294048309404303 -485.536868095382317
63.129203796394535 -135.367206573564459 -338.677841186507806
-15.992279052726559 -131.964637756425788 -481.407406330093011
29.918266296394535 -135.212951660234381 -398.662994384749993
33.936187744148441 -132.583312988359381 -387.534637451156243
36.837875366218753 -130.622585296708991 -389.369689941390618
38.025146484382816 -133.050209045488288 -385.887603759749993
-29.560729980460934 -133.238086700517584 -500.766653060897454
-30.834762573234372 -131.665245056230475 -503.012413024886712
61.009386062629886 -133.506015777666022 -335.959548950179681
-33.646980285636715 -132.913120269853522 -502.626556396468743
-18.050163269035153 -133.903614044267584 -479.618398189529046
32.388149261482425 -134.695274353105475 -379.058433532699212
57.412204742439457 -130.193134307939459 -332.941345214828118
-37.727973937980465 -134.027534484941413 -499.879199981673821
34.432144165046878 -135.327293396074225 -376.425849914535149
33.822948455818363 -134.696968078691413 -364.963394165023431
-40.167549133292965 -131.381206512529303 -500.758779525741204
-21.029418945304684 -133.578662872392584 -459.946620941146477
-41.609100341789059 -134.471488952714850 -497.529029846175774
32.952953338630863 -136.295036315996100 -364.621871948226556
-30.666679382316403 -134.022708892900397 -473.815914154037102
-43.513687133781247 -136.994106292802741 -493.044968605025872
-30.130249023429684 -133.145023346025397 -458.287055969222649
-28.046119689933590 -131.412837982255866 -456.307260513290032
-34.238204956046872 -133.498817443925788 -474.524988174422845
-23.514083862296872 -131.164844513017584 -448.953847885116204
-54.366363525382809 -133.431835174638678 -499.897855758651360
37.351940155037113 -136.271167755205084 -339.658645629867181
-53.678573608390622 -133.490989685136725 -498.635990142806634
-57.258331298820309 -134.230045318681647 -499.371896743758782
-46.566040039054684 -131.256023407060553 -477.383278161271676
-44.544708251945309 -137.287025451738288 -486.465366363509759
-49.510299682609372 -132.461151123125006 -484.088151931747063
-56.412002563468747 -130.362648010332038 -496.335973739608391
-62.457458496085934 -132.966587066728522 -500.808557510360345
-27.687789916984372 -133.536113739091803 -439.115295410140618
-33.559944152824215 -131.995815277177741 -445.832912445052727
-27.178726196281247 -134.650177002031256 -432.293201446517571
-38.219001770011715 -133.275897979814459 -444.034687042220696
28.577426910408207 -135.700901031572272 -323.593368530257806
-34.446327209464840 -133.604072570878913 -430.334171295150384
-69.542739868156247 -133.409225463945319 -497.683250427230462
25.978515625007816 -131.967079162675788 -315.778915405257806
-66.125686645499997 -130.820220947343756 -493.248559951766595
28.246940612800785 -132.480876922685553 -318.225845336898431
-39.307395935050778 -135.955158233720709 -425.244979858382806
-71.054855346671872 -132.379409790117194 -490.554982185348138
-76.282135009757809 -133.249198913652350 -493.125969886764153
-75.753723144523434 -133.886535644609381 -495.436462402328118
-41.473999023429684 -133.510581970292975 -433.228897094710931
-77.948013305656247 -130.829219818193366 -492.833588600143059
-40.800216674796872 -134.255443573076178 -423.648521423324212
-44.966796874992184 -132.695018768388678 -428.006797790511712
-44.072372436515622 -131.527046203691413 -417.508651733382806
-48.952484130851559 -133.714756012041022 -428.486354827865227
-83.690841674796872 -132.818180084306647 -492.727663993819817
-80.458206176749997 -132.221504211503913 -491.059763908370599
-46.004013061515622 -131.955894470292975 -428.559349060042962
-86.894149780265622 -133.979457855302741 -488.554081916793450
-50.723693847648434 -131.780982971269538 -424.019958496078118
0.423309326179691 -130.356098175126959 -342.822128295882806
-81.466003417960934 -134.511657714921881 -491.578092575057610
-46.688003540031247 -132.891391754228522 -412.240791320785149
-82.931365966789059 -131.488224029619147 -485.609428405746087
-12.184333801261715 -133.799541473466803 -343.641052246078118
-7.155075073234372 -134.137058258134772 -343.581573486312493
2.594581604011722 -134.419811248857428 -323.319427490218743
-7.957397460929684 -133.036983490068366 -343.461624145492181
-12.080963134757809 -131.491073608476569 -339.328994750960931
-88.252471923820309 -132.837417602617194 -486.744512557967766
-55.441757202140622 -135.214786529619147 -418.162673950179681
-91.972229003898434 -131.762660980302741 -491.777112007125481
-90.797470092765622 -131.124423980791022 -481.985276222213372
-92.456008911124997 -131.834430694658209 -486.044398307784661
-49.413665771476559 -132.270683288652350 -407.893432617171868
-3.176368713371090 -133.451023101884772 -326.782775878890618
-3.029708862296872 -135.104518890458991 -320.195510864242181
-9.772125244132809 -131.510242462236334 -335.724700927718743
-56.713912963859372 -132.115333557207038 -416.294277191146477
-96.209289550773434 -133.294170379716803 -482.219831943496331
-19.709655761710934 -132.420040130693366 -348.445526123031243
-48.835388183585934 -133.327293396074225 -411.259315490707024
-7.764953613273434 -133.642539978105475 -321.216049194320306
-9.911437988273434 -130.966808319169928 -329.599319457992181
-24.619125366203122 -132.831859588701178 -345.913192749007806
-3.431419372550778 -131.213371276933600 -318.862930297835931
-59.050338745109372 -134.346851348955084 -416.570049285873040
-57.767898559562497 -134.191471099931647 -406.158668518050774
-103.051757812492184 -132.569946289140631 -484.461068153365716
-5.235038757316403 -132.565628051835944 -318.729202270492181
-5.959419250480465 -130.354763031083991 -322.137771606429681
-16.959915161124997 -134.277080535966803 -334.646255493148431
-10.985603332511715 -134.581859588701178 -323.387054443343743
-100.856460571281247 -133.373794555742194 -482.571144103988274
-13.840690612785153 -133.192447662431647 -322.975082397445306
-101.357864379874997 -132.028472900468756 -481.802577972396477
-26.977714538566403 -132.941329956132819 -344.343933105453118
-104.051574707023434 -128.863197326738288 -478.615496158584222
-52.433410644523434 -134.216281890947272 -389.359703063949212
-61.166687011710934 -131.930465698320319 -396.992553710921868
-56.265213012687497 -132.611740112382819 -390.538848876937493
-108.087188720695309 -134.711910247880866 -480.554276227935418
-28.811050415031247 -134.672309875566413 -345.839553832992181
-18.077552795402340 -136.025444030839850 -320.478134155257806
-53.049972534171872 -134.742435455400397 -383.220947265609368
-16.102416992179684 -133.008258819658209 -315.535064697249993
-63.470474243156247 -132.012187957841803 -409.170455932601556
-98.365051269523434 -133.454204559404303 -476.316238164886101
-54.736511230460934 -133.996292114335944 -379.834739685042962
-107.505950927726559 -135.033191680986334 -471.484504222854241
-104.150588989249997 -132.854244232255866 -478.180408120139703
-36.161407470695309 -133.846393585283209 -345.711547851546868
-107.152191162101559 -133.276050567705084 -474.702968120559319
-17.118583679191403 -133.973243713457038 -325.242156982406243
-34.636962890617184 -136.049526214677741 -347.197769165023431
-107.302658081046872 -132.628707885820319 -476.171758174880608
-32.726135253898434 -131.635974884111334 -337.437789916976556
-62.046112060539059 -134.268600463945319 -396.460960388167962
-57.792327880851559 -131.985183715898444 -381.822731018050774
-60.304595947257809 -130.664047241289069 -381.365089416488274
-23.743301391593747 -131.047695159990241 -318.835861206039056
-34.919586181632809 -134.582359314042975 -338.660202026351556
-56.496688842765622 -132.813827514726569 -374.508407592757806
-108.859100341789059 -133.019870758134772 -473.757530212386712
-58.526809692374997 -132.134601593095709 -372.976821899398431
-57.577056884757809 -128.860012054521491 -376.764724731429681
-29.016700744621090 -134.075000763017584 -315.053543090804681
-43.306381225578122 -131.971027374345709 -345.711288452132806
-112.252655029289059 -132.819450378496100 -472.731512069686516
-114.228012084953122 -132.253154754716803 -467.298751831039056
-42.333480834953122 -130.009166717607428 -345.167510986312493
-36.026557922355465 -132.089710235673834 -333.015121459945306
-32.894500732414059 -134.641128540117194 -319.551055908187493
-34.600669860832028 -132.374217987138678 -319.004150390609368
-115.782348632804684 -133.380661010820319 -468.548064231856927
-42.898323059074215 -133.539722442705084 -335.282684326156243
-46.936798095695309 -131.914516449052741 -338.645233154281243
-49.430221557609372 -133.410312652666022 -336.923706054671868
-125.061141967765622 -130.778949737626959 -462.871058464034661
-115.109527587882809 -131.961914062578131 -469.452674388869866
-52.953704833976559 -132.882587432939459 -335.871063232406243
-77.389251708976559 -132.674980163652350 -384.938034057601556
-123.494384765617184 -130.642169952470709 -459.631771087630852
8.044273376472660 -132.376087188798834 -237.843673706039056
-85.244247436515622 -134.873970031816413 -392.431411743148431
-125.242645263664059 -132.062019348222663 -461.572425842269524
1.600303649910160 -133.020236969072272 -236.507339477523431
-56.783660888664059 -134.094501495439459 -346.355148315414056
-61.166778564445309 -135.517154693681647 -350.292396545394524
-79.991653442374997 -132.379516601640631 -390.520500183089837
-86.403259277335934 -134.169181823808600 -387.167953491195306
-83.407577514640622 -135.229671478349616 -379.876502990707024
-86.958679199210934 -133.303222656328131 -390.424072265609368
-126.488327026359372 -133.106555938798834 -459.279058456405266
-131.131423950187497 -132.726085662919928 -462.508786201461419
-4.175781249992184 -131.420429229814459 -232.283554077132806
-66.292053222648434 -131.692684173662116 -345.232818603499993
-132.694290161124997 -134.396942138750006 -459.051956176742181
-125.432235717765622 -133.155025482255866 -455.404090881332024
-132.326995849601559 -132.226997375566413 -451.286348342879876
-125.098068237296872 -130.276916503984381 -460.283390045150384
-3.843963623039059 -132.978157043535163 -234.762313842757806
-70.541809082023434 -134.221515655595709 -348.263046264632806
-131.412887573234372 -134.205425262529303 -447.766300201400384
-69.034149169914059 -131.876060485917975 -338.515441894515618
-68.239395141593747 -133.475784301835944 -338.741363525374993
-9.879821777335934 -133.009899139482428 -233.594268798812493
-88.277603149406247 -132.085746765214850 -373.789512634261712
-9.055366516105465 -137.206375122148444 -228.903274536117181
-136.006362915031247 -136.221385955888678 -452.413808822616204
-131.613647460929684 -133.211811065751959 -448.311992645248040
-141.509857177726559 -133.075069427568366 -449.058589935287102
-71.790557861320309 -131.759757995683600 -335.697265624984368
-133.227050781242184 -133.541511535722663 -450.143878936751946
-23.419990539542965 -133.485286712724616 -253.328933715804681
-70.561920166007809 -136.018310546953131 -336.552856445296868
-13.429084777824215 -133.629425048906256 -230.972824096664056
-19.237510681144528 -132.770065307695319 -236.237670898421868
-133.811935424796872 -129.711048126298834 -439.486602783187493
-90.177001953117184 -133.571453094560553 -365.344940185531243
-97.168106079093747 -133.856025695878913 -376.715942382796868
-20.303504943839840 -132.579021453935553 -245.613265991195306
-77.566940307609372 -132.748481750566413 -338.999511718734368
-21.758247375480465 -132.591873169023444 -242.657867431624993
-30.244361877433590 -134.259162902910163 -250.538772582992181
-15.152206420890622 -135.739334106523444 -231.661193847640618
-21.054588317863278 -132.310005188066413 -234.535446166976556
-138.493865966789059 -131.053565979082038 -437.705226898177727
-137.008834838859372 -129.812412262041022 -448.056518554671868
-94.893356323234372 -132.421012878496100 -364.845542907699212
-87.320190429679684 -129.313148498613288 -347.479232788070306
-26.116821289054684 -134.032058715898444 -240.688964843734368
-27.442504882804684 -134.030601501542975 -249.887893676742181
-99.096572875968747 -132.432903289873053 -374.203849792464837
-99.796020507804684 -130.084316253740241 -374.530067443832024
-20.769203186027340 -136.055652618486334 -231.730575561507806
-89.170608520499997 -133.910285949785163 -347.812606811507806
-96.670547485343747 -132.538307190019538 -364.004646301253899
-83.067901611320309 -133.615177154619147 -336.600173950179681
-103.608551025382809 -130.811260223466803 -374.529212951644524
-91.379516601554684 -132.542690277177741 -345.078338623031243
-101.633560180656247 -133.254016876298834 -361.540962219222649
-142.978179931632809 -133.838459014970709 -433.124748229964837
-24.778617858878903 -132.625392913896491 -225.111236572249993
-88.197402954093747 -133.316036224443366 -337.381851196273431
-86.587097167960934 -136.089801788408209 -337.291763305648431
-141.794296264640622 -134.016307830888678 -431.856594085677727
-145.594207763664059 -133.086341857988288 -434.056144714339837
-30.323074340812497 -135.174552917558600 -219.776977539046868
-147.846176147453122 -132.096725463945319 -435.400543212874993
-16.916000366203122 -132.601173400957038 -207.886871337874993
-59.587631225578122 -133.311985015947272 -283.009735107406243
-100.248138427726559 -134.346729278642584 -356.964530944808587
-144.557723999015622 -132.442859649736334 -428.677078247054681
-91.508575439445309 -131.624206543046881 -337.235671997054681
-105.738830566398434 -132.336338043291022 -355.612098693832024
-81.661575317374997 -134.897342681962897 -323.456481933578118
-56.781005859367184 -132.879043579179694 -277.840316772445306
-60.165359497062497 -133.349216461259772 -279.074493408187493
-30.742187499992184 -132.757713317949225 -221.950790405257806
-82.944503784171872 -134.543884277421881 -324.158721923812493
-86.226226806632809 -134.407840728837897 -327.710342407210931
-25.636756896964840 -131.773166656572272 -214.869293212874993
-93.426834106437497 -132.235076904375006 -328.739013671859368
-86.482833862296872 -131.675216674882819 -327.570800781234368
-145.179016113273434 -130.724323272783209 -419.292652130111321
-146.676193237296872 -133.137168884355475 -429.972866058333977
-149.831237792960934 -133.156455993730475 -424.083118438705071
-61.097473144523434 -131.672824859697272 -277.955947875960931
-102.413421630851559 -130.157379150468756 -347.247650146468743
-54.316528320304684 -132.066940307695319 -263.838638305648431
-89.380493164054684 -133.349193573076178 -322.478866577132806
-26.393188476554684 -131.514133453447272 -221.474090576156243
-59.921295166007809 -128.561283111650397 -274.510864257796868
-149.615631103507809 -134.244865417558600 -424.800659179671868
-105.004196166984372 -135.592498779375006 -349.826065063460931
-144.466705322257809 -130.976608276445319 -421.577522277816399
-19.219802856437497 -132.720645904619147 -210.698486328109368
-100.935760498039059 -132.941165924150397 -332.685317993148431
-59.085693359367184 -133.181732177812506 -262.363220214828118
-115.422760009757809 -132.928539276201178 -361.242759704574212
-152.935791015617184 -133.120197296220709 -420.177986145003899
-109.264801025382809 -134.849678039628913 -358.761413574203118
-35.480125427238278 -135.526920318681647 -217.094299316390618
-149.628143310539059 -133.932960510332038 -417.140396118148431
-22.201461791984372 -133.405170440751959 -207.103454589828118
-29.013725280753903 -132.276725769121100 -207.013763427718743
-30.442375183097653 -132.643772125322272 -213.679229736312493
-57.827972412101559 -133.796699524003913 -260.074508666976556
-99.435043334953122 -130.306587219316413 -325.351852416976556
-32.664947509757809 -129.645805358964850 -215.018829345687493
-57.441680908195309 -131.010925293046881 -253.328369140609368
-108.193130493156247 -134.512310028154303 -344.919586181624993
-57.666839599601559 -132.241283416826178 -257.084747314437493
-107.515426635734372 -133.752422332841803 -337.755462646468743
-108.411666870109372 -133.700138092119147 -354.034141540511712
-31.772178649894528 -132.133522033769538 -204.612518310531243
-105.569824218742184 -131.063125610429694 -329.773376464828118
-31.024162292472653 -133.003322601396491 -206.076446533187493
-153.283569335929684 -136.431137085039069 -418.454257965072259
-111.498001098624997 -132.139049530107428 -347.159667968734368
-118.701477050773434 -132.360828399736334 -357.085144042953118
-34.347579956046872 -133.408130645830084 -210.973937988265618
-39.599403381339840 -130.094673156816413 -222.425033569320306
-49.474914550773434 -133.664211273271491 -236.591949462874993
-62.146820068351559 -130.910442352373053 -253.875564575179681
-104.639144897453122 -132.087024688798834 -329.977035522445306
-57.243072509757809 -134.904624939042975 -250.950851440414056
-31.532203674308590 -135.270519256669928 -202.293029785140618
-43.203155517570309 -133.673446655351569 -222.221984863265618
-58.713790893546872 -131.200176239091803 -248.014404296859368
-57.613372802726559 -129.918994903642584 -252.238784790023431
-104.254989624015622 -132.600292205888678 -332.449325561507806
-113.453704833976559 -134.790786743242194 -347.858749389632806
-150.571685791007809 -132.649631500322272 -412.725296020492181
-30.057044982902340 -132.968029022294928 -199.631011962874993
-32.880584716789059 -132.873409271318366 -205.088043212874993
-41.123657226554684 -133.098098754960944 -216.728759765609368
-50.711242675773434 -130.462886810380866 -235.670944213851556
-151.457656860343747 -134.563716888505866 -417.507774353011712
-56.878601074210934 -131.667694091875006 -243.587478637679681
-39.685615539542965 -132.321292877275397 -212.700317382796868
-41.222373962394528 -131.746276855546881 -215.007781982406243
-42.851119995109372 -133.162406921464850 -213.494079589828118
-54.570312499992184 -132.354301452714850 -237.477035522445306
-108.600372314445309 -131.363449096757819 -336.471145629867181
-35.528366088859372 -132.397808075029303 -209.921386718734368
-56.016632080070309 -133.722557067949225 -233.771133422835931
-108.570266723624997 -134.957145690996100 -331.853698730453118
-32.444694519035153 -132.063686370927741 -199.064086914046868
-45.624282836906247 -130.876510620195319 -220.124450683578118
-50.694198608390622 -132.152984619218756 -224.752456665023431
-40.193725585929684 -132.744411468583991 -207.268249511703118
-51.008758544914059 -132.254756927568366 -224.329757690414056
-56.905807495109372 -131.466068267900397 -232.433029174789056
-38.237312316886715 -132.078456878740241 -207.839996337874993
-45.083663940421872 -134.087287902910163 -217.281249999984368
-42.458236694328122 -134.093849182207038 -210.922882080062493
-153.845397949210934 -132.233196258623053 -406.145492553695306
-154.288146972648434 -132.513908386308600 -404.286041259749993
-41.984474182121090 -133.354896545488288 -202.459014892562493
-44.549621582023434 -132.529083252031256 -208.128295898421868
-152.631698608390622 -130.800895690996100 -400.018745422347649
-113.041107177726559 -135.200027465898444 -323.828842163070306
-118.186248779289059 -131.969959259111334 -334.721603393539056
-123.680480957023434 -131.411289215166022 -348.032760620101556
-125.846130371085934 -132.653179168779303 -345.073516845687493
-32.348937988273434 -131.614410400468756 -197.840301513656243
-49.919494628898434 -132.505352020341803 -204.657867431624993
-132.298599243156247 -132.124916076738288 -346.879180908187493
-153.814010620109372 -134.675445556718756 -394.271560668929681
-131.668029785148434 -133.088619232255866 -351.740280151351556
-131.526504516593747 -131.687110900957038 -348.044464111312493
-127.852783203117184 -135.126045227128913 -342.780487060531243
-159.141708374015622 -133.578739166337897 -393.461357116683587
-121.597351074210934 -132.107761383134772 -330.259719848617181
-114.348541259757809 -131.552165985185553 -318.690612792953118
-113.619049072257809 -132.861671447832038 -317.356475830062493
-116.013168334953122 -132.347091674882819 -319.812194824203118
-126.343612670890622 -134.587249755937506 -337.080398559554681
-126.493011474601559 -131.943218231279303 -337.017150878890618
-126.170349121085934 -133.768417358476569 -337.555007934554681
-155.159805297843747 -131.231319427568366 -383.356750488265618
-135.145782470695309 -132.533340454179694 -351.536201477035149
-98.651916503898434 -132.011398315507819 -285.853973388656243
-137.672500610343747 -132.161666870195319 -350.805580139144524
-155.714111328117184 -131.330932617265631 -384.230064392074212
-99.612075805656247 -133.759490966875006 -282.234283447249993
-138.077651977531247 -133.757934570390631 -348.111480712874993
-91.230270385734372 -132.170425415117194 -268.489501953109368
-99.556594848624997 -132.423110961992194 -284.197494506820306
-153.709945678703122 -133.664646148759772 -377.351898193343743
-123.996109008781247 -134.360408783037116 -325.697402954085931
-101.255905151359372 -133.695186615068366 -280.414276123031243
-101.547882080070309 -132.751289367753913 -282.795745849593743
-97.792953491203122 -131.552619934160163 -274.678237915023431
-125.189743041984372 -131.474002838212897 -321.832321166976556
-126.087799072257809 -132.448936462480475 -321.558288574203118
-90.239547729484372 -136.611263275224616 -255.854583740218743
-89.511032104484372 -131.132034301835944 -257.596023559554681
-99.349349975578122 -132.253372192460944 -270.950683593734368
-128.131561279289059 -132.940971374589850 -321.072570800765618
-63.711425781242184 -134.601135253984381 -205.133026123031243
-95.395492553703122 -130.990779876787116 -260.081420898421868
-73.617874145499997 -132.108535766679694 -220.334960937484368
-87.735687255851559 -132.566032409746100 -247.956329345687493
-130.683090209953122 -134.792907714921881 -317.915481567367181
-147.628509521476559 -135.437507629472663 -346.626571655257806
-79.575607299796872 -133.341808319169928 -229.956207275374993
-92.856124877921872 -131.632179260332038 -245.927764892562493
-81.758239746085934 -134.974483490068366 -229.824310302718743
-91.295776367179684 -134.251129150468756 -241.416275024398431
-85.589813232414059 -133.978687286455084 -235.465347290023431
-89.069488525382809 -129.224086761552741 -240.263870239242181
-87.102966308585934 -133.086780548173834 -229.419464111312493
-81.626800537101559 -134.043769836503913 -218.753082275374993
-61.244110107414059 -133.194988250810553 -180.935028076156243
-73.106506347648434 -131.850975036699225 -196.927001953109368
-71.080535888664059 -133.255599975664069 -199.515502929671868
-142.807434082023434 -134.141040802080084 -308.020446777328118
-63.857299804679684 -131.985576629716803 -177.591766357406243
-80.580047607414059 -133.364124298173834 -192.237518310531243
-167.377960205070309 -132.686244964677741 -328.497207641585931
-98.883193969718747 -132.801399231035163 -206.773223876937493
-92.228958129874997 -133.239639282304694 -191.520233154281243
-133.005905151359372 -131.155872345048834 -269.501358032210931
-120.251037597648434 -133.048049926835944 -237.219940185531243
-131.468582153312497 -134.210674285966803 -255.612136840804681
-143.158905029289059 -134.597908020097663 -279.510833740218743
-104.790771484367184 -131.327640533525397 -212.630340576156243
-148.711120605460934 -134.711364746171881 -287.673080444320306
-113.123962402335934 -133.600002288896491 -224.007446289046868
-147.169021606437497 -132.132778167802741 -285.944229125960931
-150.597259521476559 -132.589370727617194 -291.173950195296868
-159.928115844718747 -134.119148254472663 -309.779678344710931
-81.979934692374997 -131.841274261552741 -169.568817138656243
-159.906768798820309 -135.282184600908209 -304.027618408187493
-170.195220947257809 -136.090091705400397 -319.953063964828118
-150.645660400382809 -131.506763458330084 -290.097808837874993
-171.164260864249997 -131.286571502763678 -325.340576171859368
-137.717269897453122 -132.672103881914069 -263.446533203109368
-147.557052612296872 -131.453845977861334 -278.832763671859368
-154.683074951164059 -133.023475647050788 -287.909164428695306
-175.146743774406247 -133.654338836748053 -326.170578002914056
-130.224487304679684 -133.383987426835944 -250.350952148421868
-136.352386474601559 -134.159332275468756 -258.208282470687493
-149.542663574210934 -134.391662597734381 -280.397903442367181
-159.693450927726559 -133.062114715654303 -298.708984374984368
-125.032089233390622 -131.589427948076178 -237.237228393539056
-159.534591674796872 -134.147888183671881 -296.293853759749993
-165.447631835929684 -133.328754425126959 -305.347610473617181
-124.463470458976559 -132.301166534501959 -233.388290405257806
-172.830368041984372 -133.531623840410163 -327.414749145492181
-163.742721557609372 -133.423465728837897 -305.806106567367181
-168.746734619132809 -132.891201019365241 -314.359786987289056
-176.574356079093747 -134.972686767656256 -321.292297363265618
-178.098434448234372 -134.847263336259772 -323.179519653304681
-102.677810668937497 -131.249885559160163 -195.178161621078118
-107.233840942374997 -133.521320343095709 -180.616424560531243
-106.916931152335934 -132.485687255937506 -166.403717040999993
-107.303329467765622 -133.151245117265631 -166.873413085921868
-113.440170288078122 -136.560058593828131 -175.479553222640618
59.396562576301761 -129.111019134599616 -476.137804150565728
56.266798019416996 -132.148590087968756 -482.386708259566888
53.900583267219730 -127.617477417070319 -484.778536319717034
58.211971282966800 -130.960617065507819 -479.521070241912469
52.160476684578128 -129.111072540361334 -478.454906225188836
56.704801559456058 -132.383132934648444 -477.594500154241189
52.521434783943363 -130.584648132402350 -480.019928216918572
50.232582092292972 -131.496658325273444 -485.105636119826897
45.902595520027347 -131.717750549394538 -484.714848041518792
54.958469390876957 -129.887821197587897 -466.561240196212395
44.844032287605472 -131.815071106035163 -484.459850311263665
40.342872619636722 -131.890117645341803 -484.724088191970452
49.630657196052738 -130.805400848466803 -467.606544494613274
37.114017486580082 -131.696022033769538 -487.408457756026849
56.372013092048832 -133.941944122392584 -463.479698181136712
49.642913818367191 -133.527782440263678 -465.122817993148431
48.006221771248050 -131.737239837724616 -460.274593353255852
35.716915130623050 -132.970832824785163 -479.782996177657708
34.899806976326175 -131.033889770585944 -477.533250153049096
40.134479522712894 -133.991428375322272 -464.608099937423333
35.998210906990238 -128.790988922197272 -474.749688148482903
32.389698028572269 -131.226055145341803 -475.185088157638177
31.488288879402347 -130.582469940263678 -478.660894155486687
37.566146850593753 -133.244773864824225 -467.451866149886712
34.547779083259769 -132.359333038408209 -469.179100036605462
32.333045959480472 -131.413814544755866 -466.304838180526360
31.386730194099613 -131.397220611650397 -471.793772220595940
30.823795318611332 -132.624294281083991 -468.408954620345696
74.372391700752445 -130.546966552812506 -371.204574584945306
63.762756347664066 -130.287784576494147 -392.540946960433587
60.050786972053714 -130.347801208574225 -394.774276733382806
56.987581253059574 -132.574432373125006 -403.648117065414056
52.276805877693363 -130.683265686113288 -406.527198791488274
78.336483955391117 -128.427047729570319 -355.324569702132806
72.709547996528812 -132.056209564287116 -350.298408508285149
-15.272750854484372 -133.133140564042975 -491.543129920943841
-18.515998840324215 -131.337230682451178 -494.771503448470696
-13.688140869132809 -129.606323242265631 -487.875612258895501
33.609981536873050 -132.917209625322272 -406.533576965316399
68.278915405281253 -135.070934295732428 -342.394958496078118
28.526752471931644 -131.917118072587897 -395.074890136703118
-22.754806518546872 -130.946029663164069 -473.913866281493767
34.812942504890628 -133.087966919023444 -371.994987487777337
-21.987258911124997 -130.670429229814459 -468.672247886642083
-21.467620849601559 -131.625244140703131 -455.758316040023431
-23.933837890617184 -132.769584655839850 -458.832141876205071
-44.171737670890622 -132.716373443681647 -494.338750839217766
-20.113418579093747 -130.145156860429694 -457.103609085067376
-25.242401123039059 -127.605403900224616 -462.388244628890618
38.369380950935550 -131.161022186357428 -354.434501647933587
36.916957855232425 -129.142074585039069 -354.715339660628899
-21.471527099601559 -134.884075164873053 -451.354175567611321
-31.294067382804684 -132.105941772539069 -470.297662258132561
36.578723907478519 -133.613658905107428 -354.226921081527337
-53.306152343742184 -130.985229492265631 -502.329313278182610
31.950160980232425 -132.279155731279303 -351.534149169906243
-50.795532226554684 -129.774467468339850 -492.114589691146477
-21.648048400871090 -132.567516326982428 -445.597852706893548
-58.340393066398434 -132.123950958330084 -501.872457504256829
35.016845703132816 -131.743705749589850 -341.683685302718743
-41.301887512199215 -132.717948913652350 -473.592938184722527
-31.016387939445309 -134.252128601152350 -453.462720870956048
-51.439178466789059 -131.066692352373053 -497.187021255477532
-59.061325073234372 -130.355232238847663 -496.581222534164056
-52.274765014640622 -130.711967468339850 -492.808177947982415
-26.115615844718747 -132.466087341386725 -445.307085037215813
41.989894866951175 -130.992485046464850 -322.690124511703118
-59.547348022453122 -129.405490875322272 -498.963932037337884
-29.771812438957028 -130.966018676835944 -434.622982025130852
-62.292800903312497 -131.573863983232428 -497.599065780624016
-33.208610534660153 -132.406265258867194 -444.655193328841790
-61.206298828117184 -131.499710083085944 -493.492980957015618
28.165290832527347 -134.335536956865241 -324.630599975570306
-39.034591674796872 -132.375209808427741 -441.336349487289056
-27.917282104484372 -131.111572265703131 -433.315254211410149
-36.669441223136715 -130.794658660966803 -438.528553009017571
-62.580612182609372 -132.774726867753913 -494.025989532455071
-67.291824340812497 -133.077762603837897 -497.398475646957024
-67.669952392570309 -130.898391723710944 -497.949626922591790
-69.383163452140622 -129.661994934160163 -490.672132492049798
-71.250991821281247 -132.530158996660163 -491.935361862166985
-72.256790161124997 -133.957756042558600 -492.274687767013177
-34.506286621085934 -130.479026794511725 -432.179092407210931
-33.659706115714840 -133.649692535478522 -424.361347198470696
-38.740806579582028 -133.118873596269538 -437.868488311751946
-71.929565429679684 -130.808471679765631 -493.258157730086907
-41.681472778312497 -130.917240142900397 -429.419479370101556
-43.442337036124997 -132.055568695146491 -433.725097656234368
-78.480651855460934 -132.501110076982428 -487.971839904769524
-80.872787475578122 -131.537631988603522 -492.270053863509759
-40.098403930656247 -130.994533538896491 -426.078964233382806
-77.734451293937497 -131.680431366044928 -487.511874198897942
9.109954833992191 -130.047706604082038 -327.446289062484368
7.324966430671878 -132.797416687089850 -323.631790161117181
-82.029403686515622 -131.724689483720709 -489.913570404037102
-88.955612182609372 -135.195770263750006 -488.692592620833977
-89.131484985343747 -130.553554534990241 -491.927180290206536
-45.262619018546872 -129.526004791337897 -425.818058013900384
-85.763381957999997 -132.595630645830084 -486.246813774093255
-4.805740356437497 -131.011428833085944 -342.102798461898431
-51.865295410148434 -131.331764221269538 -423.237140655501946
2.474365234382816 -132.092952728349616 -327.945541381820306
-8.139213562003903 -135.759342193681647 -336.186325073226556
-11.681640624992184 -131.434902191240241 -346.209671020492181
-43.771926879874997 -129.966640472490241 -415.481575012191399
-53.614135742179684 -132.562923431474616 -421.814632415755852
1.927688598640628 -133.309066772539069 -322.000976562484368
-16.368881225578122 -132.130989074785163 -345.085556030257806
-90.819259643546872 -129.958023071367194 -486.301658630355462
-1.536849975578122 -130.772766113359381 -327.940032958968743
-98.177261352531247 -132.837898254472663 -480.752066135390862
-4.048454284660153 -131.492233276445319 -320.323135375960931
-95.429016113273434 -131.331809997636725 -486.779069900497063
-99.419021606437497 -133.569210052568366 -485.469438552840813
-52.463989257804684 -134.614448547441413 -405.459930419906243
-16.188476562492184 -135.625350952226569 -345.388916015609368
-51.680114746085934 -132.160877227861334 -411.203598022445306
-9.132110595695309 -130.249439239580084 -322.736557006820306
-56.715240478507809 -131.544509887773444 -404.249427795394524
-12.677925109855465 -133.122798919755866 -321.826202392562493
-55.332458496085934 -132.318889617998053 -401.294616699203118
-52.751068115226559 -131.393321991044928 -391.132545471175774
-20.953842163078122 -131.096481323320319 -337.542037963851556
-50.638778686515622 -129.387989044267584 -389.881782531722649
-21.301788330070309 -133.354816436845709 -335.314575195296868
-24.568023681632809 -132.200218200761725 -337.880966186507806
-105.134216308585934 -130.710659027177741 -484.273238182052239
-51.217590332023434 -131.040580749589850 -385.206314086898431
-63.760147094718747 -133.281333923417975 -406.819915771468743
-106.540679931632809 -131.796543121416022 -470.845880031570061
-29.531394958488278 -128.238739013750006 -343.940826415999993
-11.534294128410153 -130.865528106767584 -317.011642456039056
-28.520980834953122 -133.854202270585944 -335.964324951156243
-27.502456665031247 -129.085533142167975 -340.373565673812493
-59.946380615226559 -133.032688140947272 -392.173858642562493
-60.278503417960934 -133.151458740312506 -399.720542907699212
-20.933647155753903 -131.530193328935553 -323.180297851546868
-109.753067016593747 -132.005687713701178 -477.420562177880868
-65.675155639640622 -133.977176666337897 -406.615737915023431
-58.876296997062497 -134.059188842851569 -383.379142761214837
-60.990676879874997 -132.113349914628913 -391.901473999007806
-67.905395507804684 -130.786968231279303 -407.224708557113274
-38.530891418449215 -133.833248138505866 -348.298080444320306
-53.632064819328122 -131.038459777910163 -380.049278259261712
-31.830307006828122 -131.873817443925788 -333.794082641585931
-71.079315185539059 -135.243381500322272 -404.840873718246087
-19.956329345695309 -131.473731994707038 -319.616058349593743
-25.944580078117184 -134.041370391923834 -321.767028808578118
-69.096664428703122 -132.675834655839850 -400.945381164535149
-22.344802856437497 -132.624965667802741 -319.394531249984368
-113.003021240226559 -130.650283813554694 -478.340140223487481
-34.236907958976559 -131.855915069658209 -336.300949096664056
-69.287902832023434 -133.014263153154303 -391.813362121566399
-25.995162963859372 -131.060260772783209 -316.609893798812493
-114.063796997062497 -130.763008117753913 -467.014090538009270
-29.730407714835934 -131.386344909746100 -319.124206542953118
-35.435432434074215 -131.444484710771491 -344.332321166976556
-116.490081787101559 -130.561008453447272 -471.160665988906487
-41.618202209464840 -132.209022522050788 -336.811752319320306
-44.813644409171872 -130.533046722490241 -344.750305175765618
-50.367935180656247 -131.340042114335944 -344.104721069320306
-49.000274658195309 -134.080619812089850 -347.230819702132806
-118.150680541984372 -132.811843872148444 -461.685564041122063
-121.631057739249997 -132.358348846513678 -468.825332641585931
-56.222808837882809 -130.746395111162116 -345.022659301742181
-47.076782226554684 -132.169990539628913 -339.017639160140618
-72.415466308585934 -133.031726837236334 -385.302040100082024
-123.493591308585934 -133.038513183671881 -465.572830200179681
7.798561096199222 -130.496685028154303 -242.203109741195306
-76.963180541984372 -133.435115814287116 -385.423400878890618
-79.706771850578122 -129.263191223222663 -394.946922302230462
-83.643051147453122 -129.925765991289069 -394.136085510238274
2.182281494148441 -131.786495208818366 -245.249755859359368
-124.769592285148434 -129.532863617021491 -462.193659782394036
-57.494812011710934 -133.642375946123053 -349.101165771468743
6.837188720710941 -132.629417419511725 -236.910461425765618
-0.329315185539059 -133.293426513750006 -243.519119262679681
-84.515823364249997 -129.957908630449225 -387.519409179671868
-1.375099182121090 -130.780960083085944 -244.220901489242181
-56.830245971671872 -132.690681457597663 -338.129745483382806
-63.847015380851559 -132.737575531083991 -347.505050659164056
-62.195175170890622 -131.491565704423834 -338.502044677718743
-63.439666748039059 -132.886398315507819 -345.268875122054681
-81.636611938468747 -132.929637909013678 -379.260665893539056
-86.790145874015622 -132.988677978593756 -385.626243591292962
-6.455093383781247 -132.087879180986334 -240.149429321273431
-6.352142333976559 -132.496803283769538 -237.485717773421868
-68.919372558585934 -131.072101593095709 -346.490554809554681
-89.138626098624997 -133.059341430742194 -383.609741210921868
-64.913650512687497 -131.851642608720709 -337.636489868148431
-84.304336547843747 -133.015453338701178 -375.140579223617181
-8.868110656730465 -132.844177246171881 -233.936294555648431
-62.909927368156247 -134.101123809892584 -339.244537353499993
-71.948181152335934 -133.321949005205084 -345.141723632796868
-87.906127929679684 -134.442260742265631 -371.598503112777337
-128.617645263664059 -131.430206298906256 -453.374742507918938
-93.114654541007809 -131.250835418779303 -380.994979858382806
-133.189651489249997 -134.218898773271491 -456.112983703597649
-95.931213378898434 -130.956153869707038 -382.576881408675774
-73.338043212882809 -132.882530212480475 -346.911865234359368
-74.116973876945309 -133.414562225419928 -336.904052734359368
-8.214263916007809 -133.526710510332038 -228.999313354476556
-21.979530334464840 -130.949626922685553 -245.244323730453118
-24.255409240714840 -133.146602630693366 -252.438217163070306
-77.582443237296872 -134.752910614091803 -344.497390747054681
-7.533729553214840 -130.549743652421881 -221.993270874007806
-24.381736755363278 -130.915622711259772 -252.833648681624993
-78.652435302726559 -132.401157379228522 -338.441558837874993
-88.885620117179684 -132.026264190751959 -368.315238952621087
-135.097244262687497 -133.760887146074225 -445.402774810775384
-12.536384582511715 -130.413040161210944 -230.946472167953118
-78.934066772453122 -134.354934692460944 -343.712265014632806
-11.705291748039059 -131.455783844072272 -225.512908935531243
-15.758735656730465 -132.441596984941413 -232.189453124984368
-80.058883666984372 -131.021194458085944 -345.155990600570306
-12.618446350089840 -129.915462493974616 -228.679016113265618
