# This PCD file was generated using the MATLAB® pcwrite function
# from Computer Vision Toolbox®.
# .PCD v.7 - Point Cloud Data file format
VERSION .7
FIELDS x y z
SIZE 8 8 8
TYPE F F F
COUNT 1 1 1
WIDTH 769
HEIGHT 1
VIEWPOINT 0 0 0 1 0 0 0
POINTS 769
DATA ascii
-138.440109252964078 -139.448841094947284 -332.466720581067193
-127.982086181675001 -140.279327392554706 -322.582580566418756
-135.677520751987515 -142.586345672584002 -326.890640258801568
-67.528427124057814 -144.276916503882831 -198.633178710950006
-144.685302734409390 -143.377586364722674 -337.117050170910943
-72.007690429721876 -145.059478759742206 -202.503997802746881
-134.643402099643765 -142.563201904273456 -317.149169921887506
-151.091583251987515 -148.045562744117206 -335.530654907239068
-146.151809692417203 -143.426185607886737 -318.148315429700006
-150.800445556675015 -145.726585388160174 -335.332901000989068
-144.497192382846890 -143.751148223853534 -318.511383056653131
-75.755691528354689 -142.212081909156268 -195.504577636731256
-156.917831420932828 -139.557697296119159 -320.295181274426568
-154.888000488315640 -144.674949645972674 -338.921234130871881
-156.275314331089078 -141.994140624976581 -326.131958007825006
-81.945846557651564 -141.969188690162127 -184.313812255871881
-86.977233886753126 -142.630302429175799 -188.369232177746881
-89.945220947300001 -144.468090057349627 -185.922943115246881
-92.518676757846876 -140.611892700171893 -183.292724609387506
-92.097000122104689 -143.894882202125018 -192.088012695325006
-95.174606323276564 -142.302112579322284 -182.255462646496881
-100.781005859409376 -145.887706756568377 -175.493347167981256
56.892501831020311 -139.547451019263690 -361.821571350110162
50.789302825893358 -138.351680755591815 -362.175140380871881
53.211975097621874 -142.629623413062518 -367.300651550305474
49.475212097133593 -138.320610046363299 -379.683616638196099
45.951404571498827 -138.608192443824237 -372.488739013684381
43.395854949916796 -144.998962402320331 -377.313377380383599
40.965892791713671 -141.237491607642596 -376.073028564465631
38.949131011928515 -138.155326843238299 -385.885444641125787
49.724105834926561 -142.776451110816424 -353.571472167981256
31.315422058071093 -139.983310699439471 -383.419334411633599
33.119785308803515 -138.818614959693377 -384.997764587414849
55.529403686489061 -141.143444061255877 -350.627815246594537
36.104671478237108 -143.013263702369159 -380.515937805188287
33.290454864467577 -141.440227508521502 -367.561569213879693
53.311681747402147 -143.737384796119159 -347.528991699231256
29.825473785366015 -143.682449340796893 -362.669898986828912
30.225494384731249 -143.833812713599627 -344.872299194348443
32.458110809291796 -140.958438873267596 -330.571578979504693
-58.285690307651564 -141.550910949683612 -360.948341369641412
-63.588088989292189 -139.789066314673846 -353.905593872082818
-60.978103637729689 -147.788177490210956 -342.949356079114068
-68.702133178745314 -143.019874572730487 -348.731468200696099
-62.255874633823439 -144.019832611060565 -342.565307617200006
-50.287322998081251 -140.421314239478534 -323.739746093762506
-3.738365173374220 -143.578441619849627 -231.009109497082818
-7.959159851108595 -144.051025390601581 -235.375778198254693
-59.958358764682814 -142.013088226294940 -321.419677734387506
-67.693145751987501 -141.021556854224627 -331.236465454114068
-56.087371826206251 -140.935394287085956 -329.429367065442193
-1.035964965854689 -143.915817260718768 -234.239120483410943
-67.789978027378126 -139.729713439917987 -320.360794067395318
-10.776031494175001 -142.328624725318377 -235.268600463879693
-10.858047485385939 -138.322647094703143 -230.552108764660943
-14.763862609897657 -140.661766052222674 -234.524993896496881
-13.181472778354689 -140.820167541480487 -222.771682739270318
-18.478103637729689 -143.344894409156268 -236.020050048840631
-65.230758667026564 -135.824443817115252 -319.867126464856256
-21.590255737339064 -141.876438140845721 -240.157485961926568
-63.208206176792189 -137.981555938697284 -320.756256103528131
-17.220016479526564 -138.891933441138690 -232.588317871106256
-58.670211792026564 -142.976818084693377 -309.191390991223443
-14.001327514682814 -140.288394927955096 -225.141113281262506
-16.622955322300001 -138.233100891089862 -233.120605468762506
-19.120651245151564 -145.139469146705096 -239.487930297864068
-14.929725647007032 -140.986412048316424 -229.458465576184381
-16.664642334018751 -142.362525939917987 -235.430465698254693
-64.959045410190626 -143.583728790259784 -309.506668090832818
-58.647857666050001 -146.590930938697284 -309.111022949231256
-10.902992248569532 -142.361660003638690 -222.818161010754693
-16.792350769077345 -141.459781646705096 -228.490829467785943
-61.418685913120314 -145.712329864478534 -303.955932617200006
-16.823524475132032 -143.665493011451190 -223.221267700207818
-56.502746582065626 -141.349674224830096 -297.257781982434381
-66.962326049839064 -143.875873565650409 -307.188186645520318
-22.251167297397657 -143.483558654761737 -226.179229736340631
-63.812088012729689 -144.482421874976581 -286.444824218762506
-63.751190185581251 -142.526546478248065 -297.500167846692193
-63.096008300815626 -144.421077728248065 -290.353408813489068
-26.158111572300001 -141.296424865699237 -216.366546630871881
-26.599113464389845 -138.497276306128924 -220.938629150403131
-45.233581543003126 -140.868648529029315 -221.704574584973443
-44.876770019565626 -143.212646484351581 -224.545333862317193
-36.951034545932814 -139.280231475806659 -209.596496582043756
-121.721542358432814 -144.135429382300799 -352.565689086926568
-125.742401123081251 -145.248569488501971 -348.167549133313287
-122.710906982456251 -141.405170440650409 -354.221984863293756
-45.600845336948439 -147.090347290015643 -210.526702880871881
-126.087112426792189 -139.713203430152362 -342.669647216809381
-139.513961792026578 -141.592605590796893 -348.964729309094537
-137.646530151401578 -142.264225006080096 -342.343200683606256
-53.715316772495314 -143.751819610572284 -205.687408447278131
-139.446182251010953 -137.911327362037127 -340.774368286145318
-59.390426635776564 -146.448078155494159 -198.827178955090631
-138.382827758823453 -141.542407989478534 -340.077896118176568
-62.067352294956251 -143.775737762427752 -200.496429443371881
-58.546829223667189 -141.423091888404315 -192.330535888684381
-142.211105346714078 -142.710700988746112 -342.031250000012506
-67.630096435581251 -144.408092498755877 -195.752044677746881
-62.864578247104689 -141.762947082496112 -195.999816894543756
-71.350982666050001 -143.109821319556659 -206.155151367200006
-70.544219970737501 -139.375728607154315 -206.368530273450006
-70.079254150425001 -144.173553466773456 -194.932861328137506
-149.836288452182828 -137.373268127417987 -339.427185058606256
-78.258239746128126 -144.982845306373065 -189.107818603528131
-72.995803833042189 -143.930572509742206 -187.206726074231256
-157.457778930698453 -146.428657531714862 -334.843170166028131
-151.824783325229703 -141.247249603248065 -320.166763305676568
-82.397293090854689 -140.723293304419940 -189.745391845715631
-155.348342895542203 -144.281509399390643 -322.824920654309381
-81.331466674839064 -139.310474395728534 -190.729858398450006
-82.086486816440626 -136.567237853980487 -191.618591308606256
-93.073822021518751 -146.158191680884784 -192.867889404309381
-92.064392089878126 -145.639877319312518 -187.051177978528131
-99.310150146518751 -149.174343109107440 -194.691467285168756
-91.610916137729689 -141.541255950904315 -181.280426025403131
-88.703002929721876 -148.938201904273456 -180.175628662121881
-101.985000610385939 -140.894943237281268 -192.334686279309381
-92.529327392612501 -140.515312194800799 -181.407684326184381
-94.975616455112501 -141.406158447242206 -171.535461425793756
-93.842071533237501 -140.894889831519549 -178.502960205090631
57.642398834194140 -144.381217956519549 -368.280548095715631
47.794502258266405 -143.459388732886737 -373.449920654309381
47.416557311977343 -144.508563995337909 -372.097503662121881
44.444599151576952 -140.356273651099627 -378.275451660168756
55.442871093715624 -142.578674316382831 -361.838661193860162
61.598642349208788 -145.735244750953143 -358.059913635266412
47.612918853725390 -139.506206512427752 -380.161705017102349
39.348400115932421 -142.150661468482440 -385.022201538098443
39.133045196498827 -139.345550537085956 -381.419906616223443
56.298818588222460 -143.203521728492206 -351.908607482922662
41.841911315883593 -140.746505737281268 -384.071861267102349
36.584217071498827 -136.083381652808612 -387.459693908703912
40.632793426479296 -141.542823791480487 -386.742385864270318
54.168426513637499 -143.025367736792987 -342.733169555676568
33.290363311733202 -143.166324615455096 -381.121101379407037
34.496971130336718 -141.869056701636737 -373.803703308117974
30.533313751186327 -140.056537628150409 -358.777320861828912
43.650672912563280 -142.675132751441424 -331.602264404309381
31.383316040004686 -140.703788757300799 -345.965881347668756
34.504013061489061 -143.538543701148456 -337.768997192395318
-42.246673584018751 -136.783676147437518 -428.141616821301568
-44.746368408237501 -137.598060607886737 -424.736789703381646
-50.161697387729689 -142.824462890601581 -419.079708099377740
-61.037322998081251 -140.672435760474627 -408.881790161145318
-62.219284057651564 -138.843147277808612 -360.538742065442193
-60.298614501987501 -140.330684661841815 -361.322174072278131
-58.885589599643751 -140.688339233375018 -354.018501281750787
-65.042770385776564 -145.922500610328143 -361.594383239758599
-61.467071533237501 -138.517078399634784 -354.949272155774224
-60.130630493198439 -142.980129241919940 -352.114974975598443
-59.312438964878126 -142.607341766334002 -352.765998840344537
-58.319976806675001 -139.917186737037127 -341.372329711926568
-4.718566894565626 -140.314029693580096 -238.044387817395318
-62.758605957065626 -140.131816863990252 -329.541366577160943
-50.738586425815626 -136.876201629615252 -318.352554321301568
-61.267425537143751 -143.614528655982440 -338.118087768567193
-7.384696960483595 -143.769920349097674 -238.002456665051568
-9.778442382846876 -139.758113861060565 -234.223403930676568
-12.383026123081251 -140.541858673072284 -227.469909667981256
-70.143737793003126 -142.254890441871112 -323.940887451184381
-63.672515869175001 -139.769737243628924 -318.639678955090631
-8.723159790073439 -143.301998138404315 -229.138854980481256
-10.676666259800001 -140.045650482154315 -221.287002563489068
-67.386428833042189 -141.194454193091815 -323.350250244153131
-58.956466674839064 -137.842525482154315 -321.818588256848443
-17.440528869663282 -142.549175262427752 -223.849075317395318
-17.616889953647657 -142.648857116675799 -222.108154296887506
-55.172180175815626 -138.396476745582049 -297.590637207043756
-59.859939575229689 -141.709247589087909 -292.189132690442193
-64.614212036167189 -141.823554992652362 -301.059432983410943
-65.338211059604689 -139.854938507056659 -295.608993530285943
-25.554878234897657 -144.570056915259784 -225.173355102551568
-63.385299682651564 -140.890014648414081 -291.295059204114068
-62.948211669956251 -141.941364288306659 -286.397201538098443
-64.623916626010939 -144.103092193580096 -285.477859497082818
-64.550491333042189 -137.669227600074237 -282.705902099621881
-107.233886718784376 -137.941669464087909 -358.864799499524224
-33.127685546909376 -143.906364440894549 -214.479705810559381
-32.892463684116407 -143.761016845679706 -208.913787841809381
-38.521217346225782 -141.263084411597674 -214.890350341809381
-34.814529418979689 -141.124599456763690 -208.849243164075006
-118.128860473667189 -143.582183837867206 -352.668830871594537
-40.407989501987501 -144.304817199683612 -212.399536132825006
-45.061386108432814 -142.887767791724627 -220.224166870129693
-47.954589843784376 -143.039253234839862 -215.819702148450006
-128.766921997104703 -143.338325500464862 -351.645401000989068
-46.620773315464064 -142.086700439429706 -204.270690917981256
-132.282135009800015 -138.959781646705096 -344.261825561535943
-53.581451416050001 -139.798011779761737 -201.952972412121881
-136.068206787143765 -143.053886413550799 -345.918670654309381
-55.615402221714064 -142.886207580542987 -202.572784423840631
-133.058639526401578 -138.426940917945331 -335.161758422864068
-138.077865600620328 -140.843605041480487 -331.173202514660943
-138.448760986362515 -141.500251769996112 -342.161727905285943
-58.566818237339064 -143.421665191626971 -204.779418945325006
-69.392395019565626 -137.496597290015643 -208.750274658215631
-65.557998657260939 -146.062496185279315 -200.851470947278131
-71.073089599643751 -147.156452178931659 -216.059967041028131
-135.309753418003140 -140.561916351294940 -325.623001098645318
-145.230117797885953 -141.204540252662127 -347.051559448254693
-66.717758178745314 -138.801067352271502 -190.710021972668756
-145.584579467807828 -142.622966766334002 -339.656066894543756
-69.534530639682814 -141.810562133765643 -196.268554687512506
-153.438919067417203 -141.950733184791034 -340.595260620129693
-78.947158813510939 -138.434669494605487 -191.521881103528131
-159.138488769565640 -140.825061798072284 -335.758743286145318
-76.753509521518751 -144.364906311011737 -184.319458007825006
-155.595382690464078 -146.931632995582049 -317.287521362317193
-158.981521606479703 -139.571411132789081 -326.804656982434381
-157.880691528354703 -141.613426208472674 -325.068069458020318
-155.823684692417203 -141.886421203589862 -317.008468627942193
-160.118530273471890 -142.595817565894549 -327.898620605481256
-82.800430297885939 -141.607616424537127 -180.649749755871881
-90.205596923862501 -145.035301208472674 -187.716369628918756
-101.047683715854689 -141.018489837623065 -174.800628662121881
46.062412261928515 -139.172161102271502 -381.997573852551568
56.401369094814257 -138.298320770240252 -369.525550842297662
52.265583038295702 -138.224063873267596 -381.587089538586724
59.342901229824022 -142.983371734595721 -361.231956481946099
52.548690795864061 -143.370578765845721 -374.863784790051568
50.762329101528124 -140.365497589087909 -374.108810424817193
46.052539825405077 -141.542434692359393 -381.548400878918756
57.673978805507616 -142.653137207007831 -362.948509216321099
42.786659240688280 -137.711292266822284 -387.626167297375787
61.385879516567186 -141.658287048316424 -360.280456542981256
43.512004852260546 -138.860012054419940 -388.830604553235162
37.194496154750780 -144.384902954078143 -391.695693969739068
60.024173736537890 -140.314437866187518 -353.882148742688287
57.283954620326952 -137.328376769996112 -353.534950256360162
32.997455596889452 -141.732856750464862 -391.779159545910943
32.448150634731249 -136.600433349585956 -384.163757324231256
49.756004333461718 -140.859840393042987 -338.126037597668756
34.566123962367968 -139.543411254859393 -375.581329345715631
30.421447753871874 -135.335468292212909 -359.714683532727349
31.973739623989061 -139.183834075904315 -355.424118042004693
30.649974822963671 -138.470752716041034 -351.343490600598443
34.140586852992968 -139.985004425025409 -338.980133056653131
36.205314636196093 -138.351055145240252 -328.125991821301568
-34.394180297885939 -138.671138763404315 -437.965515136731256
-36.625411987339064 -138.473487853980487 -434.129207611096490
-32.283592224155470 -139.429508209205096 -428.262626647961724
-39.176094055210157 -136.300407409644549 -433.983257293713677
-42.140029907260939 -141.310321807837909 -433.438804626477349
-47.387802124057814 -140.675373077369159 -418.146759033215631
-42.391258239780470 -142.521862030005877 -425.042915344250787
-50.484085083042189 -140.549419403052752 -416.453701019299615
-53.797424316440626 -137.535758972144549 -412.846138000500787
-66.943222045932814 -139.315925598121112 -397.946121215832818
-36.693389892612501 -140.274520874000018 -339.027648925793756
-35.135200500522657 -135.655284881568377 -344.207199096692193
-42.939865112339064 -141.747428894019549 -340.473846435559381
-29.440620422397657 -141.192558288550799 -324.905227661145318
-60.089797973667189 -139.907741546607440 -367.993026733410943
-67.972702026401564 -136.086170196509784 -398.564842224133599
-54.081954956089064 -142.308525085425799 -367.636665344250787
-31.773544311557814 -141.168407440162127 -316.933807373059381
-35.547813415561720 -142.343563079810565 -318.521438598645318
-45.567367553745314 -137.990524291968768 -342.888290405285943
-62.557495117221876 -138.552883148169940 -364.898315429700006
-58.587478637729689 -136.383808135962909 -351.763519287121881
-42.961685180698439 -139.802032470679706 -318.099487304700006
-46.020217895542189 -140.966419219947284 -316.080764770520318
-48.104690551792189 -144.029319763160174 -339.257064819348443
-61.094833374057814 -135.409225463843768 -354.265197753918756
-48.081665039096876 -136.847919464087909 -322.336578369153131
-60.565185546909376 -135.587879180884784 -347.546386718762506
-57.097991943393751 -137.132781982398456 -338.750686645520318
-58.175918579135939 -141.079795837378924 -342.073501586926568
-71.543212890659376 -137.088714599585956 -342.678588867200006
-44.991195678745314 -142.499423980689471 -322.408203125012506
-1.471412658725782 -138.901649475074237 -237.034240722668756
-51.467361450229689 -140.262771606421893 -324.075729370129693
-65.003021240268751 -139.368728637671893 -318.694305419934381
-61.960327148471876 -140.630859374976581 -343.803009033215631
-54.771743774448439 -140.685081481910174 -338.702697753918756
-67.425308227573439 -136.433433532691424 -343.508605957043756
-59.204757690464064 -144.125785827613299 -335.117996215832818
-64.722946167026564 -140.808990478492206 -328.903228759778131
-68.073608398471876 -143.016380310035174 -327.945755004895318
-65.230148315464064 -139.219924926734393 -329.791107177746881
-65.636169433628126 -139.978240966773456 -322.470809936535943
-67.661056518589064 -141.605049133277362 -339.395233154309381
-60.404602050815626 -144.923416137671893 -319.659317016614068
-9.455368042026564 -141.653934478736346 -231.981384277356256
-77.371810913120314 -141.000801086402362 -342.861938476575006
-62.461624145542189 -140.672328948951190 -324.347000122082818
-72.995208740268751 -144.813308715796893 -338.709716796887506
-69.267501831089064 -135.280342102027362 -323.124359130871881
-69.380920410190626 -141.393024444556659 -322.444396972668756
-62.981430053745314 -137.382884979224627 -312.853302001965631
-23.529388427768751 -146.187034606910174 -242.814590454114068
-19.866645813022657 -140.230545043921893 -233.689483642590631
-67.515243530307814 -142.193439483619159 -316.842117309582818
-60.872589111362501 -141.926307678199237 -307.509155273450006
-62.568252563510939 -143.932975769019549 -313.673278808606256
-64.136077880893751 -139.892311096167987 -317.015625000012506
-17.659614563022657 -136.751407623267596 -232.691925048840631
-57.587066650425001 -138.710929870582049 -308.282531738293756
-67.889373779331251 -142.733783721900409 -311.677520751965631
-67.105010986362501 -145.809074401832049 -315.548568725598443
-101.940811157260939 -140.985252380347674 -357.023422241223443
-19.624458313022657 -135.580005645728534 -229.171417236340631
-66.538375854526564 -141.597824096656268 -303.031616210950006
-71.030609130893751 -141.529621124244159 -323.695129394543756
-74.413085937534376 -140.774177551246112 -328.210189819348443
-22.796424865757032 -139.979526519751971 -231.734756469739068
-57.938827514682814 -140.452041625953143 -289.011276245129693
-63.865692138706251 -137.424011230445331 -286.364303588879693
-73.274353027378126 -141.116138458228534 -329.862899780285943
-91.351760864292189 -138.965709686255877 -336.778411865246881
-59.525695800815626 -143.130378723121112 -282.604125976575006
-64.100936889682814 -141.134418487525409 -297.048950195325006
-21.669471740757032 -140.357601165748065 -226.188934326184381
-89.645416259800001 -139.603713989234393 -319.794860839856256
-101.837875366245314 -137.477191925025409 -363.585014343274224
-24.540168762241407 -139.580924987769549 -221.279342651379693
-59.017883300815626 -134.240127563453143 -280.347976684582818
-60.672042846714064 -140.693656921363299 -282.463500976575006
-86.639556884800001 -139.860370635962909 -324.036758422864068
-106.441467285190626 -140.081367492652362 -356.687904357922662
-88.291534423862501 -137.487617492652362 -322.428497314465631
-97.846649169956251 -140.333744049048846 -335.110153198254693
-106.319686889682814 -141.344776153541034 -360.576721191418756
-99.232406616245314 -139.861911773658221 -343.921340942395318
-32.023712158237501 -139.627391815162127 -216.657287597668756
-115.618789672885939 -140.957012176490252 -351.747322082532037
-114.832794189487501 -140.592983245826190 -360.423881530774224
-109.429946899448439 -137.141986846900409 -353.150497436535943
-109.906936645542189 -139.902553558326190 -344.189239501965631
-117.136810302768751 -137.961044311500018 -353.597915649426568
-37.600685119663282 -145.616336822486346 -227.122467041028131
-37.615097045932814 -137.280097961402362 -217.762786865246881
-123.855438232456251 -136.693527221656268 -358.964698791516412
-37.978469848667189 -139.737983703589862 -217.173706054700006
-42.863052368198439 -137.871517181373065 -220.438507080090631
-49.252029418979689 -138.761585235572284 -216.887023925793756
-121.075073242221876 -136.197834014869159 -348.253295898450006
-127.446823120151564 -142.246967315650409 -350.365341186535943
-136.546920776401578 -137.924839019751971 -350.465812683117974
-123.153579711948439 -142.309013366675799 -347.503936767590631
-128.273284912143765 -136.855052947974627 -353.559906005871881
-128.836883544956265 -138.244464874244159 -348.381500244153131
-48.501068115268751 -145.383987426734393 -205.648895263684381
-50.270584106479689 -145.429622650123065 -208.096801757825006
-106.517379760776564 -136.072761535621112 -307.575027465832818
-127.491378784214064 -138.885402679419940 -347.760131835950006
-110.687118530307814 -142.516120910621112 -304.519332885754693
-102.732345581089064 -141.749710082984393 -296.069244384778131
-108.454223632846876 -137.869560241675799 -305.194396972668756
-104.888336181675001 -138.624717712378924 -296.676177978528131
-103.279479980503126 -140.532962799048846 -300.877655029309381
-133.241073608432828 -143.215858459449237 -347.782409667981256
-134.654800415073453 -140.007743835425799 -349.543373107922662
-104.070693969760939 -139.251434326148456 -298.324935913098443
-53.652633667026564 -139.487823486304706 -200.723876953137506
-60.787902832065626 -146.651340484595721 -211.422271728528131
-57.584396362339064 -142.074928283667987 -205.994873046887506
-144.990203857456265 -137.369285583472674 -349.414100646985162
-130.024658203159390 -143.645782470679706 -324.140853881848443
-66.890762329135939 -141.341094970679706 -205.764617919934381
-58.114120483432814 -138.466091155982440 -196.996551513684381
-147.237823486362515 -139.245815277076190 -344.630523681653131
-132.501480102573453 -142.379650115943377 -319.005325317395318
-132.745986938510953 -142.052749633765643 -320.075912475598443
-141.383895874057828 -142.111904144263690 -317.726257324231256
-74.573745727573439 -146.208465576148456 -208.995117187512506
-61.957473754917189 -144.677642822242206 -199.937072753918756
-61.507659912143751 -138.449222564673846 -189.997344970715631
-153.274673461948453 -137.527050018287127 -339.883972167981256
-70.016220092807814 -141.055515289283221 -196.096038818371881
-66.977096557651564 -145.566379547095721 -193.397521972668756
-72.924301147495314 -142.803138732886737 -186.986145019543756
-135.900756835971890 -142.286823272681659 -315.590896606457818
-162.180908203159390 -139.057094573951190 -339.046432495129693
-150.922927856479703 -140.009391784644549 -321.737731933606256
-155.816207885776578 -143.469577789283221 -329.235671997082818
-155.715332031284390 -135.368137359595721 -325.804946899426568
-156.769760131870328 -138.923305511451190 -326.035644531262506
-78.103683471714064 -138.309711456275409 -188.392486572278131
-164.344070434604703 -134.963466644263690 -318.965866088879693
-90.524017334018751 -141.166675567603534 -190.070098876965631
-93.411926269565626 -139.915706634498065 -191.574432373059381
-89.365295410190626 -142.384204864478534 -182.658569335950006
-98.252502441440626 -140.978744506812518 -199.295562744153131
-97.196182251010939 -145.423854827857440 -193.924224853528131
-94.592941284214064 -141.357456207251971 -187.447204589856256
-91.723785400425001 -140.791034698462909 -187.519653320325006
-93.847564697300001 -138.565532684302752 -177.260406494153131
-96.156814575229689 -137.161502838111346 -183.155639648450006
-101.177490234409376 -139.686210632300799 -170.039215087903131
59.457473754848436 -139.704540252662127 -364.993423461926568
58.530069351161913 -142.164375305152362 -371.779075622571099
54.909942626918749 -137.479442596412127 -377.646537780774224
56.523292541469530 -142.661445617652362 -370.025581359875787
48.602291107143358 -137.821926116919940 -385.572647094739068
54.629930496181444 -143.912807464576190 -378.225944519055474
65.711809158290819 -137.534919738746112 -361.915962219250787
54.284553527797655 -140.813888549781268 -378.964035034192193
46.548496246303515 -134.981895446753924 -389.965248107922662
60.331077575649218 -135.858089446998065 -358.513870239270318
63.357273101772265 -141.508666992164081 -358.066001892102349
44.277801513637499 -138.460971832251971 -382.130531311047662
43.951080322231249 -139.732490539527362 -388.843681335461724
64.454874038661913 -140.196628570533221 -357.752685546887506
39.895378112758593 -139.501869201636737 -390.195579528821099
58.517738342250780 -140.908737182593768 -353.810791015637506
39.556243896449999 -138.492454528785174 -389.442031860364068
33.843475341762499 -139.253154754615252 -394.692176818860162
59.805463790859179 -137.062301635718768 -344.644927978528131
32.819942474330858 -142.197322845435565 -386.989570617688287
54.208736419643358 -138.025779724097674 -339.899063110364068
30.442768096889452 -134.651672363257831 -382.668724060071099
28.964450836147265 -140.529071807837909 -374.932655334485162
34.927761077846483 -141.925422668433612 -369.676147460950006
50.603488922084765 -138.517200469947284 -329.150680542004693
33.056644439662890 -139.196693420386737 -370.970008850110162
34.944980621303515 -143.938037872291034 -334.007324218762506
-26.644859313999220 -136.180702209449237 -441.377933502209771
-28.706886291538282 -136.129920959449237 -445.825206756604302
30.787521362270311 -137.503345489478534 -328.717041015637506
35.664215087856249 -139.537624359107440 -321.471649169934381
-33.031669616733595 -141.906768798804706 -440.322841644299615
-38.659378051792189 -142.917503356910174 -427.837043762219537
-35.337593078647657 -138.460872650123065 -420.455776214612115
-43.989654541050001 -139.013729095435565 -428.489700317395318
-36.370948791538282 -141.067390441871112 -424.246433258069146
-41.785209655796095 -136.749031066871112 -417.479061126721490
-49.117919921909376 -140.743007659888690 -422.386077880871881
-54.054077148471876 -144.233875274634784 -415.743694305432427
-54.741271972690626 -134.323898315406268 -402.664367675793756
-59.189544677768751 -137.862152099585956 -415.268257141125787
-49.721618652378126 -142.528610229468768 -414.209621429455865
-60.094299316440626 -135.202899932837909 -409.002021789563287
-23.279594421421095 -140.403614044166034 -337.255920410168756
-25.948051452671095 -138.715202331519549 -339.342880249035943
-64.087188720737501 -139.647064208960956 -408.881515502942193
-60.172607421909376 -142.727306365943377 -402.448143005383599
-28.933113098178907 -136.205101013160174 -339.147399902356256
-25.791595459018751 -141.980659484839862 -343.114746093762506
-63.114334106479689 -140.240493774390643 -401.649719238293756
-62.834228515659376 -141.292247772193377 -395.676948547375787
-40.932014465366407 -143.969890594459002 -347.384613037121881
-35.158859252964064 -135.167274475074237 -336.536315917981256
-56.044921875034376 -139.426979064917987 -368.098709106457818
-68.709777832065626 -138.533142089820331 -391.584732055676568
-25.652641296421095 -142.549106597876971 -321.640426635754693
-77.045272827182814 -142.319824218726581 -398.081169128430474
-28.915687561069532 -142.491935729957049 -315.665969848645318
-70.046356201206251 -136.378311157203143 -386.291595458996881
-56.027023315464064 -142.777297973609393 -362.297477722180474
-40.671775817905470 -139.144538879371112 -315.860687255871881
-66.704360961948439 -138.227207183814471 -371.978530883801568
-45.127716064487501 -138.932380676246112 -338.591842651379693
-59.587463378940626 -141.168041229224627 -356.008155822766412
-77.987243652378126 -135.146919250464862 -387.580589294446099
-53.743652343784376 -134.936817169166034 -362.675994873059381
-54.048171997104689 -136.044586181617206 -342.044830322278131
-39.254112243686720 -140.148685455298846 -323.896820068371881
-48.171997070346876 -137.268840789771502 -339.930694580090631
-35.970024108921095 -139.844074249244159 -318.573715209973443
-69.059738159214064 -142.502586364722674 -361.826980590832818
-55.495971679721876 -142.244655609107440 -337.274429321301568
-77.260757446323439 -134.894523620582049 -384.552902221692193
-65.839981079135939 -140.020950317359393 -347.882995605481256
-65.916900634800001 -140.921226501441424 -343.152725219739068
-46.607910156284376 -137.994274139380877 -317.289169311535943
-59.897933959995314 -140.688102722144549 -338.604522705090631
-82.965332031284376 -138.888229370093768 -383.038932800305474
-46.227661132846876 -138.709285736060565 -319.919158935559381
-51.864151001010939 -141.183513641334002 -322.276245117200006
-86.590408325229689 -137.144287109351581 -378.639015197766412
-4.661758422885939 -138.446529388404315 -236.293853759778131
-64.901870727573439 -136.441749572730487 -339.550460815442193
-71.323104858432814 -136.936672210669940 -333.808807373059381
-59.680130004917189 -139.378479003882831 -318.835678100598443
-48.163986206089064 -140.443626403785174 -310.605056762707818
-55.567764282260939 -136.415775299048846 -316.881042480481256
-60.389053344760939 -136.998249053931659 -321.314743042004693
-5.666114807163282 -139.122425079322284 -230.821243286145318
-85.405853271518751 -136.920589446998065 -377.078132629407037
-71.617370605503126 -136.669017791724627 -343.340637207043756
-7.306289672885939 -144.068378448462909 -224.289001464856256
-55.766891479526564 -136.834415435767596 -314.815856933606256
-64.158004760776564 -141.129302978492206 -320.409759521496881
-15.352401733432814 -140.108230590796893 -234.500473022473443
-64.685638427768751 -141.387020111060565 -314.012771606457818
-82.099426269565626 -136.611728668189471 -342.654922485364068
-9.513000488315626 -142.393402099585956 -227.963775634778131
-14.468544006382032 -136.616317749000018 -229.624481201184381
-71.869628906284376 -140.102031707740252 -327.236373901379693
-79.229476928745314 -138.890312194800799 -339.477127075207818
-78.523406982456251 -139.810272216773456 -344.525588989270318
-13.710762023960157 -138.757381439185565 -231.512786865246881
-63.897628784214064 -136.557209014869159 -312.414230346692193
-80.212753295932814 -142.635555267310565 -336.042724609387506
-63.972763061557814 -137.820793151832049 -304.854293823254693
-61.245742797885939 -139.316093444800799 -317.175430297864068
-62.603454589878126 -140.274612426734393 -309.069198608410943
-85.197830200229689 -136.549682617164081 -335.094802856457818
-61.721466064487501 -141.830341339087909 -298.691299438489068
-59.592025756870314 -133.297012329078143 -302.785476684582818
-21.306655883823439 -140.531867980933612 -222.595474243176568
-92.191070556675001 -137.196189880347674 -361.907981872571099
-66.405761718784376 -140.005828857398456 -308.687911987317193
-68.036682128940626 -139.585773467994159 -298.514099121106256
-77.920654296909376 -137.297954559302752 -325.841094970715631
-83.015747070346876 -137.447151184058612 -340.335601806653131
-59.887756347690626 -139.934265136695331 -287.955413818371881
-102.166366577182814 -136.928825378394549 -364.872627258313287
-63.744338989292189 -137.131397247291034 -299.460601806653131
-76.690460205112501 -138.738368988013690 -321.230880737317193
-58.565582275425001 -138.956520080542987 -287.964050292981256
-25.352081298862501 -138.465461730933612 -221.581909179700006
-26.936271667514845 -142.484512329078143 -222.017303466809381
-25.069740295444532 -138.902976989722674 -226.427459716809381
-80.616348266635939 -142.889919280982440 -322.903579711926568
-105.107803344760939 -144.261806488013690 -359.294967651379693
-63.843170166050001 -135.661586761451190 -293.214324951184381
-99.482162475620314 -135.737205505347674 -360.611335754407037
-61.842849731479689 -140.312507629371112 -292.698348999035943
-85.016113281284376 -139.085884094214862 -322.541198730481256
-57.595916748081251 -140.218738555884784 -282.357635498059381
-58.287979126010939 -138.337947845435565 -280.788970947278131
-89.391433715854689 -138.620117187476581 -342.629135131848443
-62.649291992221876 -145.231536865210956 -280.824371337903131
-98.194351196323439 -145.215225219703143 -340.154235839856256
-27.452957153354689 -138.111930847144549 -218.012817382825006
-93.855194091831251 -141.870056152320331 -325.124771118176568
-94.209930419956251 -138.746990203834002 -330.144042968762506
-114.901260376010939 -137.032791137671893 -353.798912048352349
-108.279510498081251 -137.566448211646502 -357.614158630383599
-109.052566528354689 -139.130172729468768 -357.490921020520318
-32.988616943393751 -143.813110351539081 -215.188079833996881
-104.313018798862501 -139.942840576148456 -338.329864501965631
-101.177398681675001 -141.840305328345721 -337.355117797864068
-37.370101928745314 -143.646579742408221 -210.527343750012506
-116.910659790073439 -141.598087310767596 -349.885833740246881
-113.356018066440626 -137.234157562232440 -352.009544372571099
-39.851799011264845 -143.025947570777362 -215.802459716809381
-35.942527771030470 -139.310493469214862 -218.207733154309381
-103.848388671909376 -139.948196411109393 -340.897933959973443
-120.717956543003126 -141.432621002173846 -356.945770263684381
-50.184432983432814 -135.890155792212909 -225.975769042981256
-47.252197265659376 -143.318923950171893 -223.551910400403131
-122.882995605503126 -140.626071929908221 -359.162628173840631
-117.326477050815626 -137.816677093482440 -349.968193054211724
-41.490531921421095 -139.094947814917987 -209.984405517590631
-122.929214477573439 -141.121406555152362 -354.730041503918756
-117.797164917026564 -134.360595703101581 -341.507507324231256
-46.291519165073439 -142.736949920630877 -213.279998779309381
-112.267517089878126 -140.350349426246112 -343.225860595715631
-127.594207763706251 -136.526107788062518 -346.050170898450006
-133.673019409214078 -139.244632720923846 -353.982872009289849
-104.031158447300001 -139.598228454566424 -313.722229003918756
-52.504165649448439 -137.267333984351581 -208.451538085950006
-99.243820190464064 -140.865055084205096 -307.370300292981256
-111.702377319370314 -137.538684844947284 -315.676605224621881
-98.870803833042189 -136.748474121070331 -300.126922607434381
-98.505081176792189 -136.937477111792987 -295.820449829114068
-112.638336181675001 -134.699028015113299 -305.745056152356256
-134.934402465854703 -136.727508544898456 -349.768264770520318
-101.258087158237501 -141.170894622779315 -295.290588378918756
-131.559555053745328 -135.347221374488299 -347.422912597668756
-101.815979003940626 -143.162155151343768 -291.752700805676568
-124.493377685581251 -137.357364654517596 -344.977142333996881
-133.963760376010953 -141.070838928199237 -342.937271118176568
-106.791564941440626 -138.351169586158221 -287.153808593762506
-108.651580810581251 -141.233081817603534 -293.902114868176568
-131.536544799839078 -139.999053955054706 -347.471740722668756
-102.381927490268751 -137.585723876929706 -283.869171142590631
-141.385559082065640 -132.851631164527362 -352.616790771496881
-131.901824951206265 -142.664249420142596 -337.880218505871881
-61.482681274448439 -137.192604064917987 -203.298889160168756
-132.711975097690640 -139.448810577369159 -336.500473022473443
-131.794540405307828 -140.520343780494159 -337.956909179700006
-139.532638549839078 -140.728530883765643 -350.228477478039849
-130.664184570346890 -136.944858551001971 -336.012191772473443
-132.985214233432828 -136.936614990210956 -341.928222656262506
-58.461181640659376 -136.224205017066424 -198.083404541028131
-66.511199951206251 -137.772808074927752 -209.498168945325006
-63.999450683628126 -141.975196838355487 -194.489166259778131
-68.372238159214064 -143.393096923804706 -204.803710937512506
-68.205886840854689 -140.756484985328143 -194.070068359387506
-74.842453002964064 -140.625656127906268 -201.264495849621881
-151.758590698276578 -141.104408264136737 -341.151885986340631
-140.478698730503140 -136.629901885962909 -316.075897216809381
-146.788879394565640 -141.690574645972674 -308.547882080090631
-74.819198608432814 -138.441711425757831 -191.643554687512506
-72.930038452182814 -136.036090850806659 -189.086486816418756
-147.490478515659390 -137.155471801734393 -310.953994750989068
-148.134048461948453 -145.641738891578143 -314.368118286145318
-80.459030151401564 -134.945404052710956 -192.418670654309381
-79.655014038120314 -141.969718933082049 -188.726135253918756
-79.070877075229689 -139.924533843970721 -187.961212158215631
-86.015869140659376 -136.305740356421893 -187.772949218762506
-83.601211547885939 -139.005603790259784 -178.300750732434381
-88.357299804721876 -141.693759918189471 -183.971160888684381
-93.167984008823439 -140.530208587623065 -196.497558593762506
-91.175582885776564 -138.003894805884784 -185.192016601575006
-89.250579834018751 -143.241535186744159 -182.503387451184381
-90.232360839878126 -144.304435729957049 -179.151672363293756
-99.735153198276564 -136.874275207496112 -179.657287597668756
-96.918502807651564 -139.207809448218768 -176.647277832043756
-97.291442871128126 -140.128784179664081 -178.848968505871881
-97.402252197300001 -136.638793945289081 -175.786682128918756
-99.210159301792189 -137.118267059302752 -177.455352783215631
-103.117004394565626 -139.976150512671893 -180.085906982434381
-101.205001831089064 -144.197319030738299 -176.267578125012506
56.694431304897265 -142.702102661109393 -385.706703186047662
63.505132675136522 -137.692218780494159 -376.417900085461724
64.981607437099413 -142.626605987525409 -371.580192565930474
55.888191223110155 -136.360248565650409 -381.312873840344537
70.812287330593065 -136.550140380835956 -363.863845825207818
52.003349304164843 -135.932415008521502 -383.838035583508599
68.699977874721483 -137.955451965308612 -366.474494934094537
53.670051574672655 -134.889686584449237 -380.262069702160943
49.100433349574999 -135.093791961646502 -385.844795227063287
49.500659942592577 -137.505580902076190 -393.093185424817193
39.776039123500780 -137.688129425025409 -397.427444458020318
64.342895507778124 -138.720149993873065 -359.350616455090631
37.653167724574999 -132.426288604712909 -393.931549072278131
66.285921096767382 -138.337387084937518 -356.238166809094537
45.421607971157030 -138.442985534644549 -392.651092529309381
41.548767089809374 -135.468360900855487 -398.503051757825006
38.498420715297655 -136.445178985572284 -396.301261901867974
33.679012298549608 -133.779113769507831 -388.611236572278131
34.395137786830858 -141.514553070044940 -365.541694641125787
50.065567016567186 -143.665969848609393 -330.790969848645318
31.373142242397265 -135.805793762183612 -350.871368408215631
42.962364196742968 -143.940654754615252 -327.551010131848443
-27.238647460971876 -139.671699523902362 -445.230264663708795
31.124340057338671 -136.875461578345721 -333.999221801770318
-29.251602172885939 -140.994331359839862 -439.714466094983209
-27.952400207553907 -136.671619415259784 -435.679519653332818
29.952331542934374 -139.916400909400409 -322.088256835950006
-36.542449951206251 -141.524578094459002 -438.314155578625787
-35.632308959995314 -141.633102416968768 -428.067466735852349
-36.292564392124220 -139.756278991675799 -438.583297729504693
-35.849617004428907 -139.855762481666034 -431.000411987317193
-39.080238342319532 -135.646480560279315 -431.972209930432427
-42.293304443393751 -138.452949523902362 -434.968765258801568
-42.569618225132032 -132.216476440406268 -426.134628295910943
-48.138397216831251 -139.490470886207049 -425.409481048596490
-49.392379760776564 -135.745727539039081 -422.252983093274224
-43.295578002964064 -140.162944793677752 -416.872772216809381
-48.861053466831251 -135.693248748755877 -410.025962829602349
-50.246109008823439 -135.461841583228534 -414.419208526623834
-47.219268798862501 -139.173355102515643 -419.008033752453912
-50.578979492221876 -138.107288360572284 -419.729106903088677
-46.855056762729689 -139.400783538794940 -414.718006134045709
-53.698028564487501 -139.031623840308612 -410.518890380871881
-57.488494873081251 -139.980850219703143 -406.406356811535943
-22.616127014194532 -139.220211029029315 -345.991607666028131
-24.465293884311720 -133.210475921607440 -349.017883300793756
-62.136581420932814 -134.230438232398456 -398.347328186047662
-61.137771606479689 -135.792835235572284 -407.201484680188287
-14.590988159214064 -136.704048156714862 -332.128524780285943
-26.150810241733595 -135.288528442359393 -343.382629394543756
-65.183502197300001 -140.685420989966815 -403.279174804700006
-57.419036865268751 -142.302524566626971 -408.195510864270318
-25.482131958042189 -136.606796264625018 -337.810836792004693
-66.640075683628126 -139.250865936255877 -392.052314758313287
-21.253379821811720 -141.798416137671893 -318.476531982434381
-29.196060180698439 -139.579338073707049 -340.872024536145318
-62.499389648471876 -140.880981445289081 -401.079620361340631
-25.484413147007032 -135.173801422095721 -318.910949707043756
-23.030006408725782 -140.302913665748065 -319.358398437512506
-29.469749450717970 -137.896846771216815 -337.443069458020318
-40.827621459995314 -140.260425567603534 -338.499511718762506
-62.415802001987501 -138.705394744849627 -397.160881042492974
-68.322265625034376 -138.315807342505877 -405.446182250989068
-55.787094116245314 -140.931137084937518 -373.229331970227349
-43.196685791050001 -138.172969818091815 -341.189437866223443
-56.142181396518751 -139.019126892066424 -365.616439819348443
-71.556289672885939 -136.211738586402362 -396.682815551770318
-57.061782836948439 -143.668407440162127 -366.884613037121881
-31.038749694858595 -145.246158599830096 -324.158477783215631
-39.149528503452345 -137.112026214576190 -337.655303955090631
-68.728988647495314 -137.004249572730487 -396.979209899914849
-41.857810974155470 -138.985408782935565 -341.501068115246881
-44.135986328159376 -136.476203918433612 -346.830093383801568
-50.006530761753126 -137.453701019263690 -335.790481567395318
-75.498611450229689 -140.246166229224627 -392.661895751965631
-29.976547241245314 -135.162631988501971 -314.690750122082818
-61.348190307651564 -140.735149383521502 -368.578742980969537
-46.241516113315626 -136.772186279273456 -338.461776733410943
-40.005332946811720 -136.407150268531268 -320.451126098645318
-37.337020874057814 -136.883003234839862 -318.872161865246881
-54.936706543003126 -137.100185394263690 -340.536743164075006
-80.959945678745314 -138.081718444800799 -391.712203979504693
-39.379226684604689 -140.788066863990252 -317.494842529309381
-61.916198730503126 -141.608020782447284 -351.673995971692193
-49.471923828159376 -136.731201171851581 -320.927017211926568
-56.237304687534376 -135.186370849585956 -342.661727905285943
-57.793945312534376 -135.191696166968768 -345.564239501965631
-59.345108032260939 -140.109119415259784 -349.023628234875787
-62.625671386753126 -140.910335540748065 -346.514389038098443
-85.323867797885939 -139.210533142066424 -386.569808959973443
-57.402435302768751 -135.469673156714862 -345.678558349621881
-49.696777343784376 -140.321212768531268 -323.322402954114068
-52.773269653354689 -139.188640594459002 -335.695846557629693
-60.656143188510939 -137.421493530250018 -338.976181030285943
-46.707733154331251 -138.890110015845721 -319.406417846692193
-81.526901245151564 -137.980529785132831 -376.253936767590631
-47.223312377964064 -136.175231933570331 -321.944473266614068
-59.020111084018751 -143.275329589820331 -335.746383667004693
-61.862091064487501 -135.966011047339862 -339.555191040051568
-51.748443603550001 -142.704460144019549 -315.607131958020318
-61.485763549839064 -141.061851501441424 -326.159454345715631
-63.103775024448439 -136.851322174048846 -336.201644897473443
-56.732238769565626 -142.376148223853534 -319.966003417981256
-65.563323974643751 -136.482845306373065 -316.489074707043756
-85.123794555698439 -138.631233215308612 -380.596672058117974
-11.325866699253126 -135.965572357154315 -232.435882568371881
-70.164627075229689 -137.309608459449237 -346.024520874035943
-73.574859619175001 -142.607673644996112 -338.215576171887506
-16.310966491733595 -143.792778015113299 -241.403991699231256
-72.689361572300001 -140.227714538550799 -339.302536010754693
-12.730545043979689 -136.173133850074237 -229.987548828137506
-12.215560913120314 -137.179180145240252 -226.401107788098443
-15.657150268589064 -140.030254363990252 -239.008666992200006
-89.322174072300001 -138.560142517066424 -367.639358520520318
-14.301567077671095 -135.631893157935565 -236.789840698254693
-99.660186767612501 -132.961498260474627 -370.537422180188287
-73.646057128940626 -140.926750183082049 -338.536865234387506
-76.603546142612501 -138.257099151587909 -341.529891967785943
-67.185531616245314 -140.535850524878924 -320.407379150403131
-91.713470459018751 -138.560207366919940 -372.435340881360162
-13.620330810581251 -135.468086242652362 -223.329498291028131
-20.698234558139845 -137.040176391578143 -230.344635009778131
-80.066802978550001 -138.792213439917987 -342.476760864270318
-72.969924926792189 -140.635517120337909 -325.129684448254693
-17.206695556675001 -139.697898864722674 -225.804565429700006
-77.123199462925001 -140.527324676490252 -325.440582275403131
-58.258377075229689 -142.563926696753924 -290.549163818371881
-70.202499389682814 -139.986854553199237 -323.312423706067193
-58.504653930698439 -138.718009948707049 -292.830718994153131
-61.402206420932814 -135.279731750464862 -296.574935913098443
-99.901855468784376 -141.485725402808612 -362.911666870129693
-95.152023315464064 -138.385581970191424 -362.045333862317193
-57.003219604526564 -143.644401550269549 -283.379852294934381
-82.927841186557814 -138.056385040259784 -324.151504516614068
-83.563354492221876 -135.772567749000018 -325.853775024426568
-77.581573486362501 -141.172790527320331 -323.752410888684381
-100.517395019565626 -140.333110809302752 -361.096435546887506
-62.180343627964064 -135.678173065162127 -280.362213134778131
-91.169052124057814 -139.747268676734393 -323.349288940442193
-89.388534545932814 -136.181552886939471 -339.521850585950006
-99.307235717807814 -138.096115112281268 -338.124282836926568
-87.398513793979689 -131.859325408912127 -331.044525146496881
-107.975326538120314 -135.960277557349627 -364.533439636242974
-58.763076782260939 -138.730289459205096 -279.957427978528131
-59.869247436557814 -135.744400024390643 -268.317352294934381
-60.303421020542189 -139.179454803443377 -279.975067138684381
-108.680435180698439 -139.486335754371112 -365.423866271985162
-31.896453857456251 -139.141777038550799 -220.323913574231256
-96.980255126987501 -137.804687499976581 -340.659576416028131
-100.167556762729689 -133.622924804664081 -345.600738525403131
-102.849136352573439 -138.657413482642596 -339.793395996106256
-110.381256103550001 -143.421661376929706 -356.753868103039849
-113.573135376010939 -139.634426116919940 -357.856224060071099
-108.399963378940626 -136.882804870582049 -342.058212280285943
-115.767822265659376 -139.364730834937518 -350.658767700207818
-113.190505981479689 -140.057006835914081 -346.854995727551568
-122.990341186557814 -138.331432342505877 -356.613265991223443
-41.300262451206251 -136.849559783912127 -223.147720336926568
-106.722930908237501 -139.135501861548846 -343.179443359387506
