# This PCD file was generated using the MATLAB® pcwrite function
# from Computer Vision Toolbox®.
# .PCD v.7 - Point Cloud Data file format
VERSION .7
FIELDS x y z
SIZE 8 8 8
TYPE F F F
COUNT 1 1 1
WIDTH 799
HEIGHT 1
VIEWPOINT 0 0 0 1 0 0 0
POINTS 799
DATA ascii
-288.585956133642696 -43.925646767858737 13.469052384260083
-289.862639933996491 -43.582245125164874 13.265817402627459
-289.497900282772264 -44.016859870080800 10.718050522302629
-289.788041592960496 -43.055538033671297 10.858380701166421
-289.346235763726156 -43.227752060431904 10.251163048496640
-289.202671443326949 -43.014920877644947 8.471664522656871
-288.829693328733185 -44.080821664503127 -1.397215738106112
-289.744099225044920 -43.389176922735366 -4.067952016730647
-289.333680658278922 -43.420482677607033 -5.045930564286600
-289.380945594769628 -43.986579312221927 -6.581376358693358
-290.325111413519721 -43.666990192217476 16.499070110719579
-289.912676474086368 -44.319382439458970 15.941694337011992
-289.707524477195648 -43.271474112079964 10.586589902559917
-289.425159725457092 -43.321633990580992 9.995213971865343
-289.873237452907404 -41.930663188195929 8.437217568776031
-288.913127395849813 -44.130999378068829 -1.375823220227405
-289.553609882623562 -43.015493495826746 -1.563469550288849
-290.553002683898455 -42.840535830485400 -3.239732494662890
-289.903898330427296 -42.928405755432685 -4.471760425523350
-289.742015908893904 -44.029086646223313 -6.474752008964110
-290.106500955778813 -42.708300997269184 -6.702031566747401
-289.943064023462682 -43.819258623107729 15.419222061450508
-290.516538421697987 -43.671278774578859 11.597350640818625
-290.341025840104635 -43.763898332417128 11.057958990162874
-290.614175740472263 -43.785396734058033 10.252648054641414
-290.541288090308171 -42.650752187088735 8.830862099016930
-290.234354089552426 -42.664119426873576 -0.655392302125058
-290.190930141163108 -43.215232405341723 -2.550529263858103
-290.287514361752699 -43.462429506282497 -4.507994776576361
-290.442470827895704 -43.550272423256381 -7.015004150913597
-290.585263305796900 -43.126617718039171 16.271771476542941
-290.280298906776181 -43.778807288212242 14.686263789176806
-290.403569852119062 -44.148951071376210 14.098056712560590
-290.716149964714191 -43.467348426219750 14.616217097240339
-290.693970865889867 -43.549949109852150 12.112166277006347
-290.539106173071559 -42.955857165346757 11.840399273687828
-291.084423014062338 -43.932928337425182 9.892976775953899
-288.975425121391254 -42.439541520906431 8.710123943502676
-290.769728974855241 -42.969823455418499 -0.510583797626955
-290.676977654595589 -43.640655928508792 -2.528846008338471
-290.644353946019351 -43.688466408807706 -3.867700360655947
-290.624626502694809 -44.216395913042547 14.829956038023766
-290.798047323974515 -43.011143480688844 15.045975468324240
-291.026067107079882 -43.252732553577765 10.971687076102157
-291.175194906976742 -44.050420995762991 9.026575858505844
-290.650264673688014 -42.766540536512842 7.967925830524525
-290.866001629242589 -43.307796019739868 1.407932699351969
-290.498853974127883 -44.079931011065142 -0.217949808197119
-291.125497444477730 -43.094812372411432 -3.047642653393249
-291.327448966311408 -43.517783442851815 -3.631408697999051
-291.005095712735738 -44.007576946407497 -6.254089109397526
-291.772889546868953 -44.183496549588668 -5.522586293681641
-291.673415651572839 -43.697489931674468 15.061879658542122
-291.088899608575048 -44.134877048225839 15.079814629118141
-291.122791105393731 -43.887804731869629 13.314297287110454
-291.821287269278116 -42.904492181216504 13.675033842650903
-291.074259076407770 -44.360409861124950 9.885096140210155
-291.351819081368490 -43.440866714401274 8.831711253529134
-292.169000957806816 -43.151443760462513 7.666867893199269
-291.280168053164573 -43.233688266521348 6.698262104805465
-291.359328389668349 -42.251203772870888 1.925322416816721
-291.497957257226744 -44.317315165828610 1.640220909107024
-290.936317484278675 -43.218348583146877 -1.361357002051900
-291.007398030467982 -43.156999280827719 -2.172861120597011
-291.612754030903034 -43.931887833036733 14.000479744997421
-292.469716458777725 -43.113865782204037 13.723661918244540
-291.786560573908673 -44.252208904932374 13.028001589333110
-291.611107429029687 -43.638461398624919 12.516251721885823
-292.650057132801464 -42.089664905603946 9.150161111224580
-291.477728219628830 -42.542699822718049 7.187387564619748
-292.282999156791561 -43.456893877433771 5.230966929569347
-291.688779602422073 -42.594388725744537 4.573809817341889
-291.858806940655541 -44.330382109238329 4.904010774302246
-291.982507792984734 -43.263058822776614 4.237511195214519
-292.405753689096514 -43.224604598173933 3.028846339309068
-291.987988589458610 -43.934983263179248 -1.509351778291585
-292.414699217069085 -43.511235929924972 -1.300379593314862
-292.157745485489045 -43.176946104169438 -3.123873600010976
-291.956539585719895 -43.486257954455702 -5.280162355732145
-292.626790277608961 -43.903362297154565 13.818298955850889
-292.583475601557893 -43.095954067519145 13.504096385273312
-293.029459471911366 -42.549920947787086 13.535314926162563
-291.835111475342785 -44.108939608589452 9.697011854877246
-291.893104330055223 -42.247915114959071 8.676873529976804
-292.552180493528510 -43.436498203039726 0.376353939731453
-292.154232131111826 -43.063640654133387 -0.388667750875655
-292.052754258714913 -43.432035364057668 -2.259463836487846
-291.843095164500028 -44.323308289516305 -4.129360302252227
-292.056536400208302 -43.880719997832166 14.108221946193062
-292.956282826634606 -43.378457168444541 13.239909861443953
-293.015899044362186 -43.738077832946217 13.139204786356050
-292.433241936847537 -43.014393376358790 11.904031856184270
-292.965961870511023 -44.344664672375693 10.473898377637161
-292.415295757780598 -42.811939691647240 1.734788083319026
-292.168434443036176 -43.364242171726360 1.597210875322126
-293.112261042541434 -43.991809913934006 0.396866857067540
-292.791207295475544 -43.277609654579152 -1.604033371847715
-292.380765552966807 -43.045083355056150 -1.793873812885790
-292.886969915793827 -44.458480752647894 -4.041090855856872
-293.196668729526039 -42.488936435864389 12.542815566990022
-292.124541429623832 -43.670236442122317 10.728110422639523
-293.092171086343740 -43.455614434911787 10.808325564460731
-293.319326938438962 -43.511630170127646 6.713388048473249
-292.998560343325948 -42.967674397497888 5.593252452933447
-292.760170922337068 -43.489385462099392 4.979172326779485
-293.735725028116008 -42.674753997772264 4.035246303893956
-292.500074484710524 -43.682147536420587 2.868103747417290
-293.573186142044449 -43.480268326015306 1.850114298110674
-293.153326530408549 -44.025756028218680 1.340716600615920
-293.043983440232239 -43.045262397769058 -0.113712831924571
-293.180921464255221 -43.337745638458671 0.117006696436558
-292.185730302851027 -43.665193127052433 -4.047908251230748
-292.828645344020856 -44.168835607961917 13.507679538326576
-293.540528930785342 -44.133539235224688 12.000742113186085
-293.009263073759257 -43.587015407793857 12.974148197225041
-293.124266534362562 -43.627144854073421 8.846129070896126
-293.650384349375940 -43.681207994216791 0.959903989903220
-293.547970304320756 -43.247826397970080 0.794095567442337
-293.373334695847177 -43.676291371168070 -3.119736315470647
-294.137436729201568 -43.095304515315739 12.222806141735562
-293.576107373409570 -43.807381376097091 8.305202921559825
-293.649340740840330 -43.074543121140167 4.540375855103152
-293.369669923838330 -44.200132428047183 2.478928519510822
-294.782544234783188 -43.645582106813819 -2.556915431427431
-293.197833653937948 -43.937144770308393 11.072206198378307
-294.400480966764349 -42.750740044477084 8.263672196826336
-293.936480241104448 -44.223808048682002 6.956112156183575
-294.650631115696683 -44.129898788477192 5.579194282285662
-294.338772809303066 -43.136250536472772 4.675254191997638
-294.973963734661254 -42.916669141112095 -1.451486039209914
-293.546920277100355 -43.377855457289833 11.542856443216552
-294.775401481441122 -43.784615277174403 11.058208532475213
-294.713423191134098 -43.912357437636295 0.162382659850817
-294.730771879032147 -44.126786684508872 -0.335537712154563
-295.210383516096101 -44.204395570529414 11.123464870003819
-294.956177490065272 -44.707199179277602 9.370802330166745
-294.507681556123543 -43.334050071147743 0.956616503876674
-295.074882594361497 -44.656864759649970 9.065884359250717
-295.444408290862327 -44.076060938056656 7.893461705702641
-296.295647448835382 -43.756076221271499 6.754946282049604
-295.478723230309811 -43.690458778940261 6.339327097609811
-295.385340048719456 -42.864277207853384 4.563193362368822
-295.824231857917368 -43.869904893790704 3.848416557497785
-294.595542182417091 -44.591595702854789 2.262863838954361
-295.730437164182604 -43.119804486857099 3.253227883654732
-295.988276279841102 -43.856167130859717 8.120052205256616
-295.920629430812312 -42.962296715884406 7.474901024638752
-12.075562645642202 -43.022505236656180 -22.733913177293680
-12.771083682054808 -42.244316677376553 -23.920428795125908
-12.294888249285874 -42.993580040959998 -24.220617534422203
-12.508530657421437 -43.175496804209693 -19.891909894548849
-12.313277054129726 -42.802971113925878 -20.191079758634395
-11.934511772175775 -43.064166323598862 -25.291872795093212
-12.478992400025616 -42.069302351823310 -26.799408685179188
-13.016721548878545 -42.936658978443830 -17.724193677362997
-12.854569497322995 -43.340501461193611 -19.618257806430840
-12.146246391380622 -43.786720178156131 -27.027147481042256
-12.892501168868067 -43.349433513909489 -27.875003505916290
-13.131539570873784 -42.911736903593358 -16.087908595893790
-14.249932097408761 -43.135076669350909 -28.838396773639175
-13.948659048455735 -44.049971837074985 -15.510834572493557
-13.525696645254506 -43.677141646583905 -29.864071935480638
-14.926154038723300 -41.785067298190597 -13.604936069229606
-14.457557181862860 -43.181186343933639 -30.069748322226566
-14.703778060483495 -42.548203246733706 -14.013527270125941
-14.911686172399657 -43.402410212003822 -30.292366894477119
-14.909542038357509 -42.711947679015161 -13.069184219690428
-14.267919924266927 -42.844189327040560 -31.964330857410566
-15.256078053696378 -43.102381259740717 -31.777622869785759
-15.511667093591294 -42.897327635457764 -12.980515059664594
-15.847606582818521 -43.137179357468462 -12.024808406502856
-15.061998961741772 -42.830190659036589 -31.948708105091399
-15.336131527240065 -44.268824314032479 -12.596048232634224
-15.940157135561064 -42.592268991916228 -32.788911606093187
-15.928634715299481 -42.869320595586224 -11.996876824803181
-16.091587203882160 -42.618200108848377 -33.695537500532019
-16.238315444509013 -43.666498475701466 -33.616444513417882
-17.312389165630929 -42.628235844036269 -33.466650045987976
-17.253988440768339 -42.009696890574190 -11.220149902834290
-17.615824831909130 -42.994275457695863 -21.311031505195395
-17.794177706610242 -43.205919474500675 -23.281015717665170
-18.193017259853285 -43.054310407037619 -24.076843392363088
-17.006074130653694 -42.863832677303137 -24.367880204943020
-18.031210634145896 -42.890907502775164 -11.062534332420789
-17.526611294770614 -42.801256505067819 -20.367452967654522
-17.781938620686958 -42.164133290541507 -24.924066005272202
-17.288551707429189 -43.003271043539286 -34.267328992574193
-17.658873629880183 -43.129841099684107 -10.518081993650753
-17.477971193595053 -42.919383782791002 -18.840220632316075
-18.553841081180479 -42.704227918416322 -17.830524348799443
-17.458007910930185 -42.876711052896020 -26.851163243281697
-18.267153413414341 -42.976772135921870 -34.971217521498509
-18.033007178142846 -42.947576948962961 -34.749408598587451
-17.388890027934000 -42.579110759246092 -9.567925322706749
-17.920492522277105 -42.467738880398947 -27.221520803804282
-18.292299556223544 -43.617642513893358 -34.322460878179790
-18.661457914128459 -42.755856616123538 -9.411047053100038
-18.577257039983269 -42.869027942203608 -17.674043581972743
-19.204792930911712 -43.094953169026091 -17.855359329567541
-18.277100363306992 -42.772364619105481 -27.569484777183689
-18.394139455276012 -42.929983956210130 -36.048403064046610
-19.102678812647643 -42.888236547511511 -16.831356730389100
-19.561351527005392 -43.472858412001024 -15.933711095050008
-19.432019929349519 -43.024435385344006 -28.649934017721804
-18.820739621153685 -42.436367507889038 -35.742669799605167
-19.371869777075620 -42.257554648707313 -9.047618182564094
-18.822747355400633 -42.783451432561030 -35.540776949934639
-19.601760252071891 -43.067632035707319 -16.120255340186663
-20.051775437926359 -42.492949145758743 -36.682918006253736
-20.103557799775835 -42.869416230960219 -9.368924302363773
-20.598907163485162 -43.044152947127735 -15.716341746730890
-19.624578336268467 -43.200536219167191 -29.542738783090073
-20.112640550742363 -42.957839317515180 -9.679397782269035
-20.605446121778602 -42.177250794870162 -15.533414981554024
-20.287673230887634 -42.885777192706662 -37.292957392261741
-20.861243171163146 -43.137854549477218 -15.120774795142925
-21.095895426596133 -43.449914319302465 -30.017309265585936
-21.193503189129938 -43.013605632951702 -36.099853849921658
-21.810498294881807 -43.665897657533229 -13.468773006782090
-20.989109391952852 -42.668168152951786 -15.113010330734731
-20.890245069355718 -41.501229769633731 -30.685184791820646
-21.596010141628554 -42.914414930674404 -8.322946402321612
-21.717111709217267 -42.897658972514265 -36.113083496709883
-21.512178261948808 -42.998739196336089 -31.121407485540047
-22.777457168393319 -42.756165179658304 -14.917865374157397
-22.213430706768261 -42.794766961873684 -30.712473472669650
-22.901520961431970 -42.193551369852671 -37.137811967536301
-23.434708598219853 -42.683074592540528 -8.759044841737744
-23.234331713112841 -42.162370268532634 -14.684458762487381
-23.311514797938941 -42.637978746949571 -31.668989733019693
-23.263606280069176 -42.337212162234202 -7.985191317411189
-24.899915688184887 -42.964935354948260 -13.189596439682351
-24.223051489753949 -42.443011901904953 -31.907104882143329
-23.641591491325407 -41.904208969811783 -7.848762407725303
-22.748970206499955 -42.796976961622683 -31.273238412244808
-24.660900407238682 -42.649429839119662 -32.275728082733096
-24.606634992626368 -43.001940395524663 -7.637660831502075
-24.095581243669276 -42.317858726301829 -13.841511018900317
-24.389062537833464 -42.567024845070215 -37.497591074633988
-25.227844086265584 -43.056590378538708 -7.671444411207638
-24.674040343781346 -41.969455825104383 -7.884667625127403
-25.761768268322236 -43.110222321068967 -6.561064638804517
-25.919671324906286 -42.735730772684356 -13.614204272225422
-26.317651888208125 -42.992749678958987 -37.379509147905488
-26.215508573706838 -42.326199243967260 -7.051147060979883
-26.784353865753673 -42.405757793598568 -36.887794561536204
-27.196522601651221 -43.331673556828207 -31.364003070951185
-26.937822219515507 -42.589538258329569 -7.524035532088391
-26.732944167837921 -43.783467320002671 -14.299854493433379
-26.136016324987001 -42.660739588533986 -36.452372661723643
-27.118674743408093 -43.667064921996541 -31.556466789072985
-26.858793777420601 -42.667554227580794 -37.468666531883429
-27.586188770929795 -42.414381981908896 -7.205574670296862
-27.733166954480080 -42.931648235974940 -12.900327541702762
-27.713641383824879 -42.452166951055702 -7.543085261418735
-28.100580124690005 -42.549555289136087 -36.827026562881400
-28.213702308106701 -41.298182947249842 -8.497387547658363
-29.305593481226285 -42.681970622076882 -13.155831685336484
-28.658390079644676 -43.193456142554510 -31.336706539475266
-29.604076645132132 -42.887737201906539 -7.439444650502100
-29.159113995598524 -43.001396974630779 -31.696432349780025
-29.968380096566673 -42.393735044588198 -7.452701017328611
-30.070201558430206 -42.775988644711781 -8.066710825502152
-29.489601438861733 -42.907315450526347 -14.101081349989776
-29.813586553447788 -42.431099631340409 -13.270469158378344
-29.421367408186882 -43.549301678865696 -31.243743627433204
-29.631524854149401 -42.987596416428573 -37.739336867808326
-30.032937478941164 -42.486705155575422 -14.147815455666933
-31.356982277972048 -43.287496539616122 -31.370999123079486
-30.272247447952200 -42.311453078530647 -7.516094201807551
-30.894271153505553 -42.158039745926047 -15.197640859621806
-31.667661357459853 -42.536218845230231 -14.201048463520600
-31.085113259391495 -42.716525387465367 -30.923475962774575
-31.709167454779308 -43.363151479734498 -37.118352632568012
-31.747909066606265 -42.644016181312779 -15.292632960693389
-32.204717392410778 -43.361344883813906 -30.943275869050652
-32.146039789583867 -43.097897872134006 -37.170900914317329
-32.579735288050863 -43.313452981091039 -8.176483764229012
-33.044182922453828 -42.997077304746021 -14.277186107974270
-32.314065363952011 -43.565199178596238 -14.301157887747753
-30.770725427653971 -42.170164042916142 -29.781474556733379
-31.326545702834625 -43.768162083040863 -36.747619076218093
-32.429159770167786 -43.136241173599188 -8.997017406480811
-32.473151282046913 -42.244765237844035 -9.637679143616950
-33.180070753789217 -43.190612568964575 -15.265676674020252
-32.761656804686496 -43.655647052109401 -36.717096546239027
-31.808993308495719 -42.381979955146981 -15.465879413442075
-32.925919817459210 -42.746615204141847 -30.153896239140877
-33.230674009294198 -42.840022686701211 -15.625841792675701
-33.671659876880831 -42.511518146168783 -15.342625292593723
-33.475538864110938 -43.052728085889150 -29.243325012328569
-33.433784868274159 -43.008864505363725 -9.340434051160596
-33.706878197041156 -42.932008447229016 -15.913065698037517
-33.650774630329153 -42.501638853345099 -29.555361404482369
-34.838698463444231 -42.761737217684036 -28.851292081622965
-34.051988416016506 -43.418691023352650 -8.894702038979862
-33.091103606740276 -42.073601412028012 -9.832006089492900
-35.005622091132651 -41.756917642426188 -16.929719900907070
-34.093172731595502 -41.918947258672539 -35.217336199005402
-34.647466954418171 -42.779579033048051 -10.093913832804787
-34.217365535804660 -43.749536930419659 -9.603526109635364
-34.830477438289407 -43.499918901635326 -16.789455361743368
-34.757672601435225 -43.081830887981916 -28.173047225139044
-35.996271735946628 -43.607912470460448 -16.969307441938785
-34.518162251055202 -42.134385134827703 -17.427531329626504
-34.633257802510251 -43.621653709308070 -28.198568506064142
-34.551466591448104 -44.054926827384094 -35.118876442524808
-35.749156746814805 -42.614795795036180 -9.910955602553337
-35.435686970931016 -41.985717139228441 -17.716430440351882
-35.182226861821697 -43.296288464419099 -27.349983418391638
-35.696449508777270 -43.911259829722319 -28.002781688738892
-34.207153913115718 -44.104890984258574 -35.925243520060967
-36.197939566171598 -43.078368428393937 -34.696180202368531
-35.963892139288916 -43.247771904742827 -10.762593823619138
-36.368105892136796 -42.252018525920569 -10.860840138178549
-35.222764408178762 -42.698895461222534 -17.948284204970818
-36.002681536055825 -42.921530639229893 -18.653080844094475
-36.224960513689453 -43.260552036344450 -26.236723779324350
-35.337234217119210 -42.867125369348230 -25.974596101751537
-36.205199378415912 -42.644954762060259 -25.405955990867689
-36.107557399054770 -43.266583759154706 -24.934805370937880
-36.168588233663073 -42.171449109646495 -34.571785298066459
-35.898917449498704 -42.065518919591327 -11.065608909959554
-35.708128054671185 -42.662738842670201 -20.272023149013783
-36.349375090845626 -41.994326352192822 -23.988826445937178
-36.134040703688164 -43.324236503645331 -34.481462422150756
-36.063679927285868 -43.359506153110893 -34.121900029024175
-37.654873989467916 -42.695765373105381 -21.057994703236332
-36.882093284739042 -42.584554894013792 -23.282057330957919
-37.545602213094092 -42.292936883195843 -11.963748261428275
-37.356408171188839 -42.403030507361905 -21.367919205836337
-36.501466156870094 -43.160847984191875 -22.370485998387700
-36.901710897085202 -42.735059788448574 -33.322015817509758
-38.062538630198922 -42.947146160484508 -12.346588723808235
-37.549317755335949 -42.904999922041121 -13.043170867404889
-37.800969895410034 -42.458329764009562 -21.883579307144217
-37.707718876026640 -42.446343577130328 -21.918648511602321
-37.868095434585612 -42.197011251035264 -33.276244816336138
-38.020569003582253 -42.515649983373052 -22.705224615518183
-38.440388496236984 -43.059531318466149 -33.641393957489441
-37.887407661029961 -42.043357527533288 -31.548948515282028
-38.506397324056792 -43.093664215848513 -13.218546215257270
-38.300621202355032 -42.475625836294107 -22.063038688683953
-38.219624450367746 -43.299343771523887 -14.670995285141366
-38.700124978135044 -43.491134066587570 -21.940555878013889
-37.930542990538754 -42.706791199781932 -32.269707647836164
-38.504673710983134 -42.626607879035014 -31.554294266912059
-38.884946502394975 -43.572695096969248 -21.391890448700906
-39.474397810462605 -42.757453675548291 -22.081699045745779
-39.103278048349637 -42.762803073885053 -30.183228407872960
-39.703198599277940 -42.300933784225300 -30.386652192886352
-39.615562207682309 -41.783357845345108 -15.025650742016683
-39.929279162238196 -43.142627030245073 -15.910480622980330
-39.789709738595917 -43.006802958095427 -21.388744161074158
-39.322884625689696 -43.103042876406263 -22.436807275875339
-40.525848363764972 -43.373245105928312 -16.909820172855934
-40.144194973705524 -43.239758670982880 -21.115296104583400
-39.608901138047422 -44.019009302129973 -29.325751104781475
-40.335431652411742 -43.227448129409481 -29.071987559850349
-40.610724419103349 -42.927739277630550 -17.466419181161751
-40.317787839967970 -42.121851918730840 -21.264814573737510
-40.261230919826566 -43.195697345288579 -21.928617201373143
-40.109662343910152 -43.030122429212817 -28.389249897321612
-40.797146826446969 -43.640104784642695 -17.457244972360900
-41.393516830704620 -43.056452124016651 -18.669485689674733
-41.410437372934112 -43.535659371107670 -20.478912038674828
-41.217894020061230 -42.453654700635006 -21.799642423024387
-41.262276428768679 -43.729893460690413 -20.866199322612857
-41.367161524145601 -44.208934883532152 -22.411569312677017
-41.572644862633105 -42.818574320918827 -26.736299924334112
-40.865838527457342 -42.764283673973196 -27.222702306294508
-41.103860735567402 -42.849651492512365 -23.402999110570590
-41.437047110505397 -43.117562008459750 -23.408021377313240
-41.349864541209996 -43.011014641217194 -24.097781050939211
-41.260130431228049 -42.333636995444181 -25.680994601075817
-42.855699647373783 -43.935418736481317 80.649953390327909
-42.837204854201559 -42.358656800176007 79.398787933182334
-42.708721185593710 -42.540519332594002 78.844328852021519
-41.843830154818995 -42.872682414631832 77.519375716796461
-42.254005814781344 -42.754851507043689 76.760814998379246
-43.102807610397079 -43.503396812110310 83.617389544929807
-42.971668435743062 -42.777429477073134 81.613360298377074
-42.595471772274450 -42.320160876011158 78.585769631136273
-43.652192432648143 -42.029780254634559 75.083311390171701
-42.818006602488794 -41.927380279305254 74.468263584168341
-43.147332260496547 -43.551193800219444 86.615658466250693
-43.504343248016085 -42.635661527859888 86.196321842906272
-43.974375372293579 -42.432101068402453 76.354809184393531
-42.807691255709571 -41.860523246410111 74.563709369429915
-43.676886975465308 -43.229891591819701 89.442549026067198
-43.739257334643817 -42.579666422051872 88.037815946265269
-44.438379291432618 -42.476591045500733 73.269764435690149
-44.216866475160508 -43.138635639042157 88.807614328059572
-44.027416234229833 -42.253162510172707 70.111885101984200
-44.556295517876976 -42.832537026172716 91.895835114851337
-45.650091442104113 -43.637515436789442 92.959252862070485
-45.523856199401216 -42.460043625692158 68.661975616877584
-44.613147730084620 -42.504832587210487 65.066354473113662
-44.813148766213089 -41.657902975359036 65.367232325020680
-45.357344549012808 -42.048690626448277 64.175565935363039
-45.626792296225126 -42.013651736410417 62.884133369993116
-45.697492247517602 -43.516064106288709 94.061409973685514
-45.541241510913466 -42.877572704368760 64.537260015150295
-46.401356706970056 -42.977757098524208 95.871883172961319
-46.128907651893599 -42.604151644533857 62.063840659616886
-46.752828516747698 -42.480972241720622 61.641632869970358
-46.805165344332565 -43.023947279809711 96.629270146425583
-47.010027418443698 -42.109070431091823 60.741174671247656
-47.009505777621918 -42.220064977589246 58.455732740830378
-47.503726553376055 -43.259852796061530 58.412403083627368
-47.128737854353766 -42.363607354895208 97.275547335651396
-48.223746445559037 -42.096505045671179 55.723888223126565
-48.526186943995519 -43.045723470051605 100.402653436821126
-49.194374617209043 -43.033532099739134 54.056583210018289
-47.954202556181087 -42.748966206006301 53.172459428136882
-49.232398825079223 -43.068123817430028 49.634630218576866
-50.138765100366285 -42.877193986602222 101.575209950326681
-49.686881776346709 -42.800804919360353 47.179832524485903
-49.398854375352421 -42.830112542660977 45.898020604080138
-49.933377878590960 -42.670268470690864 45.376470701820885
-50.087959076375050 -43.261100651426702 101.818528937295170
-50.168947556725612 -42.876702502269154 45.346522202289250
-50.131396763198815 -42.849118869990342 102.483781588384971
-50.018503008113306 -42.051848064655381 43.864595874500381
-50.707714775652249 -42.568612406262588 41.721155733823750
-50.305081539750788 -43.061542220938271 38.928557222623283
-51.187634844172685 -43.477749434015472 102.217301673392413
-50.644708234563033 -43.345073363375569 102.233319421739068
-50.755135607878081 -43.123612313829568 37.585690033198944
-50.723446799523202 -43.172117971887005 35.161846346118686
-51.162696702512243 -42.390269896221604 34.977071362582933
-50.215013774404916 -42.624864747336510 33.152077822821795
-50.424595253800078 -42.199504955449157 35.920426585169608
-50.850830698527126 -42.580742986304031 33.972318113488029
-51.348329505341262 -42.270273167375898 33.243025814264058
-51.391846891983704 -42.275298927780014 30.290794340298763
-51.135726238967393 -43.074930760369575 29.059520378104512
-51.441438357812970 -42.660070791541294 103.761360807426897
-51.496415620890495 -41.914460680809775 33.614500289956879
-51.234286577528081 -42.555438185859906 30.609366235618740
-51.725545113673277 -42.722717818820165 27.121236407986128
-51.282199439546737 -42.960601361192296 26.180224086492444
-51.747687397593843 -43.559908294049904 25.040989459396663
-51.739251083679051 -42.945943998971828 103.556818710350640
-51.755460472860598 -42.499337851965628 24.171518529095493
-52.217868844371004 -43.392285580856587 23.262980434772444
-52.397139951683386 -42.771735419966355 103.689285821414941
-52.367740182842162 -42.786257330215022 22.804591663240572
-52.175900523677541 -42.643236222958251 21.498552790766915
-53.682359551121593 -43.217355192021266 104.534671529167241
-53.193002238376145 -42.360213614836695 21.520210932322044
-52.584834261568311 -43.072411874490747 20.645319699709646
-53.120750013515718 -42.771597702536617 104.767346687081044
-53.650052318680771 -43.773464082965987 20.450726757733023
-54.629679566067395 -43.211603548226435 106.384170416607830
-54.907678136802893 -42.385996421604766 20.568696364706049
-55.310922534625739 -42.763836854351212 20.172410183223448
-55.606190662643755 -42.570525212227587 106.293985525197854
-56.273137443834848 -42.541220595355810 106.856104537711659
-56.762886393906840 -43.820688113232983 107.378224908529234
-56.721468258586796 -42.329765779431526 106.770254608104622
-57.085750114138705 -42.953071802704144 -65.132959867045230
-57.231584435808024 -43.116260137090329 -66.027005210128692
-57.379669605470923 -43.038814092058580 -67.573875900732205
-57.598424077054858 -43.299463433439364 -67.709666110709989
-58.130950412191879 -43.030103623117576 19.933079839807355
-57.263762808741582 -42.644374990446529 -64.710846876386498
-58.790655493914194 -43.920307576221013 -68.585075912747513
-58.233617978096369 -42.723045671052169 20.391828863650737
-58.471440273140601 -42.154584401254127 -61.327988081629655
-58.263625718238814 -42.829144360241969 -61.934374263071419
-58.134921387998013 -42.592063680262342 -70.102956094712127
-58.630867746060076 -42.688655333024272 -73.878053824595881
-58.790204244191507 -42.412608338250315 -75.430089404740457
-57.973104677968429 -43.091735548745604 -77.031262704411091
-58.985552100377575 -42.540520547578609 -77.462436460146577
-58.313556435642909 -42.345557659734240 73.945878992867392
-58.742267161916580 -42.943178745474114 -60.531712973111581
-58.437274171001270 -42.864966952079200 -60.055936832561144
-58.213353656274393 -43.140916745185606 -62.002235380400762
-58.920206304684918 -42.682480216002972 -70.166938071426387
-59.117626588965635 -42.252500326705714 -70.654124253246735
-58.403762446462650 -42.406223469669953 -73.660789815283536
-58.514391369668893 -42.657729644350184 -77.554324661321075
-58.540289791075416 -42.784693930453692 -79.234408281109850
-58.272676757726892 -42.771739719716486 -79.216987384629348
-58.569425273687770 -42.452894027420321 -81.816392086817586
-59.195813025750468 -42.578684273266184 107.998835721916407
-59.073359981074290 -43.072068027369170 21.031754970179662
-59.429263219778633 -42.408081806420952 -60.481501439293126
-58.804915904978664 -42.688470362441691 -70.110829524841876
-58.828044317816527 -42.913243474749557 -72.270208943739291
-58.439900242184898 -43.202773756480717 -73.694568097967306
-59.091998051557198 -42.995837012368348 -72.229127126372518
-58.238983154056392 -42.425986758619757 -79.742577032090381
-59.786575751920068 -42.490394660513118 -81.998490465836241
-58.963990235647550 -42.813736382325288 109.914422754035442
-59.197303754080480 -41.848128645485474 75.393310748161667
-60.070636269245469 -42.452234028011304 73.504546418892289
-59.514789321320762 -42.832266975567606 20.968206960381863
-59.067362396123684 -43.396444306190638 -59.226407212848372
-60.025684742613564 -42.807372228137666 -82.498409490450285
-59.547765083130919 -42.419798094377434 74.712096977956406
-59.718586406030575 -42.262417454479881 73.593449838943485
-59.875649714454113 -42.451990960344887 -58.474837942935963
-59.155659596181714 -42.914972934662700 -83.021478143041833
-59.597892069734229 -43.005282323998266 109.341199025234161
-60.520754466588123 -43.698022225028794 109.386055654819060
-60.599332314778401 -42.022381142094886 75.877422555654590
-60.724558642700245 -41.537869969866513 72.752688604536388
-60.443125373138848 -42.911084568528366 30.387941338185659
-60.289829992134656 -42.984870250357240 25.770723619840037
-59.951728588028587 -43.502055839427960 24.902421637507523
-61.114069553711452 -42.895793949781535 22.783779465874172
-59.982964155467556 -43.741094675471068 -58.189374845379547
-59.944139988799975 -41.988103610319278 -57.164955632843117
-59.930227885240733 -43.487717946968303 -83.672008911129168
-60.180847934208238 -42.592986457489353 -84.177682974434063
-61.342771771016814 -43.222133506540160 109.371326501782818
-61.157840336654559 -42.937244581375758 75.175962649269621
-60.811724900146352 -42.684170976492432 74.787009081811149
-60.311769034035521 -42.005618347913014 74.383977469957017
-61.148015762300844 -43.105914806408165 34.185431881170167
-60.864180483305404 -42.955516499336689 -57.554870913342981
-61.513033365197671 -42.729339188831283 108.727530045736017
-60.900568153007917 -42.194620819016933 76.110473602276315
-61.090281417363556 -41.880553308476230 72.371512093179319
-61.835611338125204 -43.195099726628577 34.437203202665827
-61.534988666351246 -43.352325988994266 34.859483351905119
-60.700969242096093 -42.650586811210715 -57.499888749833659
-61.114477912364407 -43.083544960987247 -84.654128999967739
-60.819672490850841 -43.158735786482595 110.406893923393270
-61.172501381541828 -43.319071309995913 73.872385278973951
-61.010892737358766 -42.650573652187468 36.629842880396644
-60.765368539343882 -43.409291627007207 -84.473804868476364
-62.503957073797906 -43.493831950994391 109.826067462328965
-61.422696597783236 -42.843302014733290 76.834282025474266
-61.326716212341971 -42.358275384998784 73.473384781899625
-62.262284835438010 -42.759544884551616 72.895231392244540
-62.055391428109765 -43.497742639295595 38.502287156186696
-61.378451421264565 -42.597554090920866 39.370770326965555
-61.883075490952230 -42.488431671420607 -57.136298045609564
-61.737391895274492 -42.624106501459217 -85.867606738063373
-62.539035074744291 -42.515571712812580 76.447816272666032
-62.168886171215902 -42.448381377591673 76.966532703707060
-61.744564664041995 -41.931181855959622 -55.848971796417459
-60.829201960370554 -42.434984023982572 -86.080079110633150
-63.446768475211762 -42.996761861080039 109.896416419894450
-62.368398160149830 -42.806754843166033 76.080276299710945
-62.212148667332244 -42.316130846298506 73.315556253989058
-63.283800210884081 -42.612086547698084 41.137852206204180
-61.885018497069495 -43.138094718230626 -55.329430102417646
-63.460889139726923 -43.010580236784854 -86.947137690773502
-62.414701374224755 -43.369586859104061 77.064004066858999
-63.203402489714350 -42.045764947383987 76.414125395355001
-64.099087448788183 -42.753199750484292 73.313850037677028
-63.074071822103470 -42.082374053882667 42.667899395739397
-62.409320269272662 -42.619687436757388 -55.062870542557150
-63.293352069341040 -42.504558212811553 -85.724219862562038
-63.255726155064323 -43.147900447433109 111.308081250855281
-63.496543324958814 -43.406205910554938 76.694983338369738
-62.993789562929699 -43.231902885683581 73.806183129107865
-63.608621510728035 -42.722125686943471 -55.196015497765842
-63.906215362819147 -43.446936490100533 -86.433881305076881
-64.207053326287621 -42.989452065170902 72.822947325494226
-62.995388536437140 -42.610097751206347 -55.167461783202015
-63.703147076380851 -42.899695106704598 -87.243548221147805
-64.831217903059866 -43.399764414406462 110.887234237955354
-63.814374380217167 -43.191118147675049 77.539952991482920
-64.488744928501887 -42.808036089552999 72.725842978400067
-63.406394542010666 -42.233065775728043 43.853717828130371
-64.634581269988075 -42.923199831064530 -56.125135365273948
-63.687906336496141 -42.584091405806873 -87.997387460203797
-63.813600811893835 -42.273044610293717 -86.910294097203959
-64.217667666440562 -42.988984355395921 111.082011165432846
-65.863746543980056 -42.776336573298494 77.273424630037965
-63.750518277541978 -43.644096659180114 -54.303459039768825
-65.029210044022236 -43.010700092892193 -87.397281828779313
-65.286026674858846 -42.803590972772263 77.292884612403995
-65.994548266712130 -42.681304419384411 44.744881108492187
-65.516469536364383 -42.002433397864742 44.644266954212576
-65.824324418341789 -42.755701784691368 -88.512082762428719
-65.538479607396454 -42.806672224928612 77.544320030452781
-65.696869181937245 -42.708706003728331 72.708497753815323
-65.765344184158707 -42.397971103073310 44.840975360851495
-64.587370622603970 -42.635739446037157 -54.340737727154135
-66.375045938168398 -42.991466183064858 76.743522797180262
-65.726040238523595 -43.656791117805128 71.993587124472725
-66.066904260936852 -41.932087388291315 -54.001915881029902
-65.943144017253815 -42.710363184017368 77.920497994811882
-66.223034338868274 -42.763271185804058 72.543175821890003
-65.874153593699347 -42.986573863655330 44.489344544626903
-66.443486630965481 -42.016821595254505 45.901267367318162
-66.902846236948250 -43.011295243988812 -53.813553618915321
-65.611175343024598 -43.132508445999889 -89.339887065527520
-66.268375735273921 -41.730477553260236 110.866384922463837
-66.373044994390582 -43.471157524097073 77.407664066151227
-66.684285159008795 -42.385667420278985 74.053002809067678
-66.560260489861875 -42.243515304221539 45.778766322292157
-66.610641376242270 -43.092198386930313 -54.204543174657331
-66.030295812455392 -42.774895682671094 -89.055997368229285
-67.847465142139072 -43.095694269207755 -89.453137794220268
-66.732594295618028 -42.107526239714012 78.428513359376083
-66.903012484463488 -42.309243083930838 73.771202349591334
-66.939326686149968 -43.104916867830696 45.787463408647127
-67.267577177470926 -43.363511067988142 -52.532886304777819
-67.283383916846901 -43.043676301135584 78.300455042199374
-67.965027583633272 -42.854246662490020 73.605033080348903
-67.553623017359598 -42.587039399339886 73.736089200626139
-67.219024427966175 -42.317027555075249 47.414059262041796
-67.129837100063057 -42.928786874994614 -52.261856175608131
-67.114678649497719 -42.322509207951938 -89.715629181928009
-68.029408679499781 -43.461993124531048 110.375838820274495
-67.921488534747226 -41.912545181374554 77.994599196577482
-67.438988640284350 -41.891896785312767 77.150668102342323
-68.059533006836531 -42.922838587818568 73.772402042743067
-67.206652227126696 -42.704403214828183 46.912908413086555
-68.081391981277790 -43.327060573521429 -89.074719277825622
-68.298645562298333 -43.425135116475651 111.795606899456445
-68.519801624049435 -43.130899205203022 77.858143981351816
-67.815142843222787 -42.450236551918628 76.075891367565845
-68.298311403532963 -42.647773680259832 75.636974455712476
-67.964159654350837 -43.374084374879800 73.334784772530853
-68.089112185637916 -43.037778231330655 -52.789081397050680
-67.183106928603777 -41.946016184540731 -52.884594438523948
-69.215088951729129 -43.387327372279472 76.239361350432276
-67.659872147175520 -42.629772354097305 75.324661827165386
-68.351440196678965 -42.539202155740725 74.261814637930115
-68.048804384775295 -42.129212824631090 73.575527730052826
-68.993164946136858 -41.912356527124039 47.474712628263134
-67.780466787940853 -43.298118326872171 -52.134994209824256
-68.905890097358466 -43.136304192722690 -89.753591067621031
-69.228860155776815 -43.195424666367565 111.266558055069908
-67.870030758130298 -42.782141263161066 75.783827963429815
-69.079452467616434 -43.122678712502001 74.920707260790380
-68.257585771481132 -42.578738390951557 47.452879531565465
-68.858957136803852 -43.107552165878417 -89.776700834634781
-69.734086717965482 -42.136659506756445 112.179051862659549
-70.314747424081858 -42.729946923013209 76.122718296858480
-69.825734509377455 -42.492978824227514 -53.181015820907774
-69.866924873854316 -43.223825628972428 -52.827144853929724
-69.488512374888103 -42.495719564782121 -52.911267848693399
-69.687528846366348 -42.806812657070786 -90.742738394408704
-70.143011162193744 -43.700744792261681 -53.105134235002495
-70.001031370591221 -42.450156534513162 -90.428894944207343
-70.477347274176225 -42.140229012114446 -90.862041874166252
-71.333439645724042 -42.635733407424276 49.186136055725093
-70.606062916704730 -42.525310457902428 -53.441592450042862
-70.323502577277765 -43.413023092575422 -90.828212338061689
-71.353069614591220 -42.157099241669819 49.051430323043412
-72.185367744028611 -44.296583806452155 -53.430627876501447
-70.736333512524965 -43.231989811803260 -92.106433828844615
-71.670628811184457 -42.006659331197973 49.366431259344743
-71.990313742238442 -42.966857288646253 -52.246747790185594
-71.519849282561111 -42.723967097382356 -53.105573812434159
-72.619276930072729 -43.266272647415995 50.142742700703693
-72.384652032501549 -41.609297415817323 -53.687802398454153
-71.813266961191999 -43.069994437075991 -91.067472236257416
-72.408705501662638 -43.096069622020551 112.425393594213716
-72.008772919295211 -42.747310740703902 50.070602012371289
-72.957221553952223 -43.243154951478822 -52.612013467961859
-72.754708194692313 -42.479873745925119 -92.375213719512672
-72.621772196611559 -43.364099287130848 -91.365252323249351
-73.219301383212240 -42.940292175663203 50.509737543699231
-73.502865319928176 -41.979120426651647 -53.157046621168533
-72.169770645711083 -42.232917835130273 -60.393592043633873
-73.456716359287341 -41.523268885729848 -60.775691831045691
-73.730579470714261 -41.753805600820272 -64.167613821687368
-73.790438711293078 -41.944183402253664 -66.677414166029664
-73.465067966062591 -42.363371577654902 -69.212245974011296
-74.385586210914809 -41.842921525851111 -70.491128155987639
-72.912432970885916 -42.722371870535781 -92.139188705704029
-73.881786404302503 -41.951020745448332 -59.194034701465341
-73.662014352903114 -41.195234589211260 -61.388608823459691
-73.438806812226446 -42.041842539474402 -64.086220637459789
-74.239752559732523 -42.161684054311635 -65.524665403953861
-73.889740105887839 -41.361515054777293 -68.512153333469982
-74.001294548730357 -41.896959820175290 -70.539210121262542
-74.239390965375918 -40.991490868283492 -72.939736553205165
-73.973605125280329 -41.651689819722996 -92.334085308389717
-74.053486822967145 -42.684931982101070 -53.847324531231365
-73.689970247378682 -42.670816321198153 -58.160441524954479
-74.187765548461257 -42.264192073161531 -68.142649897717945
-74.171877087231110 -42.243584644672218 -74.984715546373224
-75.229992017225385 -42.400508423310505 -54.096139812352376
-75.127514786681203 -42.750832145843702 -67.076279167789721
-74.700301550196116 -42.463686889423464 -73.021124624157039
-73.950120367925408 -42.656104503217691 -92.070228746517969
-75.526491483816756 -43.143485657561492 -52.624889888361011
-74.717849660385582 -42.213349414699785 -53.968269129189281
-74.038675924322050 -42.000404249131805 -61.327257417059855
-74.530005170117647 -42.259651530123094 -63.152033021111237
-75.145351757114980 -42.887486440504055 -64.150471627228342
-75.761014582254887 -41.929161391586113 -65.832712457372025
-75.205000816010795 -41.874652960747731 -68.789302184475233
-74.629116508438514 -42.275031923494389 -70.997053538833867
-75.270426290848192 -42.361231294368245 -70.916537255287281
-74.717797818734212 -42.144136658835926 -72.584300334733570
-75.213981212579668 -42.273736228255203 -76.023620207731696
-74.249768106087046 -43.177932550026867 -92.853036480740784
-75.807963968289059 -42.832892412630152 50.503883747411933
-74.515873846265563 -43.079915420178821 -52.309944279003631
-75.002909073397035 -42.735150236873601 -60.484287965362640
-75.698764540222825 -42.221614211352936 -62.408518027368373
-75.775689628284397 -43.299572759979938 -63.587596375849088
-75.525142040446795 -43.090453477535618 -64.331370188772297
-75.627294259604540 -43.309493459737830 -67.718030805310974
-75.444940585690929 -43.177483899806596 -69.179524069022591
-75.662458702109802 -42.826718624113539 -71.281193122066867
-75.970686174716803 -42.719219242472128 -73.279050240574506
-75.507834461112552 -42.277142156230489 -93.116241073952139
-76.704368242798992 -41.528033166330175 111.933071940107439
-76.874985004761811 -43.604115269350061 50.665968523635890
-75.939713270279071 -42.655621567083848 -51.695937267366844
-75.540218738724292 -42.295060653435989 -52.459726391913790
-76.001272587910321 -43.042212762592300 -52.895596798795935
-75.909383875684796 -42.325283301195945 -60.096475381391443
-75.260744395964949 -41.645465201495043 -60.624891626969003
-75.349672037744696 -43.070781728889592 -63.077886391342190
-75.489370347765572 -43.263260084913782 -73.167763785249292
-75.375462134679381 -43.270826450693974 -74.806990547401668
-75.704715537818515 -42.667929496961669 -75.700082617576300
-75.172360409016207 -42.927148033162389 -92.145514835448594
-75.849784390065508 -42.002953571833331 111.568474255148757
-76.488321586079465 -42.463093969173343 -58.741452941177130
-75.605592396207129 -43.414359458596749 -61.820818323424305
-75.818336655709913 -42.367753264017210 -61.723276763724257
-76.335672293693236 -42.806576948278064 -74.041936693981484
-75.579846105434555 -43.309149255867354 -76.193126568708792
-76.677332896396251 -43.096133697143038 -92.823813895133767
-76.550325101786626 -43.191552233721040 50.714245827134185
-76.274517339764927 -41.351261091006485 -52.788408733260908
-76.693369820864248 -42.026603964381906 -54.535200252144065
-77.173041820891910 -42.436261548955827 -56.449587268813346
-76.519478440294250 -42.601907304112160 -58.829152181301296
-77.427378070647009 -43.038867685047293 -60.424106684228221
-76.425290371286422 -42.131012025754551 -77.441053279895769
-76.505999677859748 -42.600046639044969 -92.359880416702453
-76.012140688407158 -42.403131448887500 -91.678535459231824
-76.938504027759421 -42.473715716439926 50.579728911285763
-77.058188727954573 -42.823337100299042 -52.097421381730058
-77.068822154481566 -43.004818064182437 -52.938376800080732
-77.212786963660150 -42.626272232358531 -55.013513127534011
-76.765283673876738 -41.780468356682285 -57.855659909579813
-77.201804835993542 -42.422907348288739 -59.233147083169001
-76.305072271371102 -42.395012220643203 -76.812342104473032
-76.285253769701285 -42.404083172546279 -77.917419627001422
-76.706995159576934 -43.342507434166869 -92.989792510802218
-76.851392875275238 -42.966607639080109 -52.726940808591436
-77.489336688863233 -42.832032566874062 -52.994490776421543
-75.801038873004444 -41.541588205323130 -53.869048564239066
-77.469967807524512 -42.663362067065201 -59.199087401066265
-77.225229080067123 -42.341109123293798 -76.643747741069276
-77.487652892623387 -43.403328387329886 -77.766250593382551
-76.267057335309744 -43.575606284142928 -78.398194251858982
-76.211883827125547 -42.764460390113541 -92.201759599047321
-78.569116062134938 -42.721719867171998 111.897232494048396
-78.776394138142834 -42.146846353645657 50.448164559108029
-77.491166782193574 -42.406733855645783 -56.903439057131351
-77.429695865700026 -41.825852546787395 -57.866830709350253
-77.789956934674620 -43.093893624874482 -58.704973428825923
-77.547989979853327 -43.437475699813007 -58.415107468897901
-78.121287813818739 -42.243120679705953 -78.539242832187966
-77.627770470387247 -42.337892448149034 50.755601811104818
-78.198041155099901 -42.982868344850651 -53.024752833656805
-77.472394473943424 -43.171341606724525 -53.124849025508468
-78.149649506238603 -42.177429030423376 -55.249690100327854
-78.314394273653249 -42.032725027091615 -55.764220384804830
-77.594477991703641 -42.731282959394385 -56.826348058094325
-78.252057236149909 -42.911670599130233 -57.435311672454702
-78.621227676328388 -43.665057977391946 -77.005998777044653
-78.185716643000873 -41.948220918332318 -79.029583714145105
-78.991511971726879 -42.225927700168796 -80.075291265411721
-77.914066380750484 -42.636466327048517 -92.555868586447986
-78.122037001505021 -43.133486435504281 51.918190308749125
-78.973133518048613 -42.425223644717498 52.224109918492786
-78.661694158308720 -42.546327895773715 -52.841567534684017
-78.517483672504284 -42.189650043344017 -53.845363211401917
-79.154334013321701 -42.768633446973361 -58.199518455900559
-79.049206602040371 -42.430634379660795 -78.742204423559542
-78.321764852973658 -42.529255103255828 -79.223700489575435
-77.610026047382860 -42.679161141190491 -80.125438093018232
-77.653030751775049 -43.065884678196937 -92.134151326743066
-79.345392013047046 -43.159346838670935 57.479982114297130
-78.782100063535282 -43.153332976482965 57.229418088268673
-79.205248951725721 -42.932192453125282 52.834548074089511
-78.655984850955051 -42.121154152862658 -54.747101750377027
-78.782937170039602 -42.755364828578685 -56.027034780200680
-79.307192327590329 -43.224518469207588 -57.144563951567591
-77.938068417200398 -42.762308193794439 -81.459202612031376
-78.973124614125894 -42.595664456490553 -92.776399426845501
-78.992624723445502 -42.044260401327868 -91.949751728141123
-78.951755193751069 -43.410709909693701 57.520164239866560
-79.336875186438348 -42.985564851897877 56.783139889470831
-80.025086059578470 -43.180294539424054 52.756128416250220
-78.618355960243264 -43.208406676429263 -53.417736922479364
-78.732462134459382 -43.092121979665038 -53.453492175365895
-79.613644359375357 -42.875335937991139 -55.570410776307639
-79.162283400847571 -42.307035824278138 -55.986208246239613
