# This PCD file was generated using the MATLAB® pcwrite function
# from Computer Vision Toolbox®.
# .PCD v.7 - Point Cloud Data file format
VERSION .7
FIELDS x y z
SIZE 8 8 8
TYPE F F F
COUNT 1 1 1
WIDTH 800
HEIGHT 1
VIEWPOINT 0 0 0 1 0 0 0
POINTS 800
DATA ascii
-283.646476968062132 -47.186764852293841 19.274501074004625
-283.456019351746704 -46.967148810140486 16.512185473854878
-284.709115909017214 -47.167289616115738 19.097760399921484
-284.518319270147742 -47.417090004377989 18.363876777628356
-284.126948948774896 -47.194362194939295 1.671814406829345
-283.864503360434981 -47.880270598683367 -4.804396409382008
-284.533822474867122 -46.742516224920635 19.149184443781181
-284.404627399279320 -47.763149037033408 18.462638754423718
-284.285452764741819 -47.653273394033071 16.760383946182674
-284.499748131861963 -47.999589995058173 3.128973803577971
-284.658155296552536 -47.226330918092778 2.256115471807140
-284.389178591255870 -47.712718434184346 -4.533313793814440
-284.775346804699552 -47.927576089938619 17.303318910938543
-285.121670904681082 -48.118196419158309 16.718531790430674
-285.245609821318510 -47.283362264350728 15.679229488616665
-285.757254583040492 -47.094185623043380 18.244960950142939
-285.494860863520046 -47.608422768599404 17.583177300843452
-285.008224902715824 -47.450193621109307 16.743394428463109
-285.528889770579497 -47.129319645329460 15.782246771294844
-285.252668375851385 -47.527878220785318 3.085179808152416
-285.604809579509379 -47.311498390818947 2.222733798144040
-285.336730546143770 -47.910348412087409 -3.308630215282006
-286.090518947492683 -46.510855424293013 18.584852471071816
-285.756825868105693 -47.190669804180224 17.547227532391720
-285.841826735511177 -47.997992761512130 16.603169878196251
-285.614051045105668 -47.887722461745874 -3.376594431261575
-286.010729350211989 -47.233257796448882 16.123701300540375
-286.421445012650850 -47.851765662037778 16.121885122692824
-286.094884754201871 -47.565549292272330 -2.947597441390506
-286.218670852339528 -46.961796539144864 17.286128045065958
-286.561407471247549 -47.142180765630407 16.567448512589841
-286.391284841897857 -47.550303087622972 15.293672060903340
-286.514525777434187 -46.734459703174103 14.216729629943739
-286.533842565984685 -47.406508373523558 2.258684991075739
-286.259964006470398 -47.829573726147558 -2.627995210814452
-287.158945914512742 -46.695625128262741 17.454783624155798
-287.178733722510458 -47.281782089009113 16.393412573455727
-287.361546992502895 -47.058277807867618 15.563284018766161
-286.946284474245829 -46.753155149266519 14.517814168982429
-286.946929775627268 -46.837408678996653 -1.764045678344166
-287.499445218301958 -47.198428831389748 16.389339591732472
-287.378490123311792 -47.661637376705713 15.841224742134013
-287.442756708073830 -46.957027927566102 14.751377390779071
-287.168973856381001 -47.770761267283845 -1.964011532730563
-287.246123487848536 -47.054811229505482 -1.665819670267121
-287.833803628331111 -46.920644746100145 16.933576307296676
-287.800310932443040 -47.469990517312894 15.530459417010338
-287.786912227598066 -47.264978221021060 14.668606617762981
-287.825413490264623 -47.607318256270595 2.548621720818550
-287.872015565609274 -47.344051134414443 1.932022579152632
-287.706316163980944 -46.621161409363253 0.753444852607863
-288.183589342847938 -46.797323789154753 -0.718531461350359
-288.304090531900727 -46.767997622327606 16.258848400404744
-288.347033391739103 -47.323244448787037 15.319470228708717
-288.155662331634176 -46.873472393154032 14.930283548277693
-288.230830315734011 -47.995302263387089 1.869199390627550
-288.271335448689854 -46.699022417916034 0.576984466174773
-287.966036748779572 -47.570195078784678 -0.792940722419988
-288.038799292718522 -46.894176493804096 -0.293125796964503
-288.522286144687200 -47.150515548867247 15.504814314250799
-288.444209095217673 -46.941463329113226 14.793029116661721
-288.897736785363406 -47.138769192000893 13.640259509124224
-288.707829991929486 -47.574351268283465 1.204270488306602
-288.697662430983542 -47.136840091341874 0.644155254495884
-288.212576836737639 -47.661645371532849 -0.829243186155745
-288.481066130617137 -47.214995988066619 -0.459790865315583
-288.965041232296812 -47.349477109272136 15.834401357935372
-289.189549571058308 -46.867806729238971 14.995214308776106
-288.615880225395074 -47.031669345614908 14.082589828763599
-288.561245743922200 -47.556340436798067 1.269591520069921
-288.877134279422478 -47.743266111084765 0.319856078300756
-289.169927441721484 -46.902759953582930 15.910672721370227
-289.057025766775098 -47.111207217340969 14.451039988965015
-289.718879910499538 -46.874196771704455 13.694734585594684
-289.788889573878919 -46.857284003900624 14.257316565147866
-289.725194615281055 -46.995513256850145 13.767856572438419
-290.329464043199835 -46.738022318349572 14.743684195528417
-289.978910304917179 -47.026956236031772 13.334813587760038
-290.775128288282133 -47.277500008464159 13.587052624788312
-291.176608708652168 -46.688382534473902 13.280194271134723
-291.018875397347131 -46.946340751779132 12.849752190756361
-291.537334751612434 -46.704173157169834 13.539003775493249
-291.230772455086651 -46.920062770207167 12.977275720055511
-291.287566901165860 -46.806036119164482 12.597353658268418
-291.866931543860460 -47.088305220996673 11.658750281331207
-12.423151301270460 -46.806175570456126 -20.462613629567677
-12.024452596931180 -46.792695762965330 -21.280217577535851
-12.803845731530158 -46.837654562638782 -26.007745180142713
-12.733642678471881 -46.626319648771371 -27.551007713982287
-13.410302796390738 -47.149620460933519 -16.886723270452162
-13.614705293773302 -46.832993457463175 -15.894149484167038
-14.075234587963520 -46.978930284932041 -15.226724801253184
-14.489798107140256 -46.658883850483846 -14.370036787511221
-14.920442748128650 -46.846043055107465 -13.999068694156609
-14.743619923089652 -46.844330019664021 -31.688590301229070
-14.956756853322764 -46.639207115969981 -32.189459974571768
-15.831027526442023 -46.941248050577798 -12.774115921383281
-15.865698262523448 -46.832629509261103 -32.809848163823162
-16.166758516669898 -46.830616829049269 -33.398277749142743
-16.604552636440374 -46.581844753021045 -11.807559058508104
-16.515217898320071 -46.528740593520958 -33.570393841409398
-17.204458081937666 -46.557971525484909 -11.818946138149116
-17.224158586717653 -46.934933233598329 -22.174126022717005
-17.425517130551420 -46.504124290348820 -23.284117225573972
-17.434728480683461 -46.616731425293807 -24.667081423372402
-17.079940021728177 -46.885137814253547 -33.564466547507401
-17.659799440677272 -46.682608245024134 -11.169720470700963
-17.605443398442965 -47.048058245169813 -25.421119115334605
-17.645866906737876 -47.116556720176263 -10.832407663131182
-17.459512150674087 -46.737432108237954 -19.636656811057414
-17.731075484767281 -46.859311520048983 -34.547519758406146
-18.269808286017923 -47.112783004467168 -18.774288076512189
-18.383953822968454 -47.055426966203207 -18.654882804324103
-18.110461363441704 -46.579774179042786 -26.591291797107175
-18.556900024198548 -46.866657112112307 -10.317529370331727
-18.475015146142777 -47.178359267507503 -18.311876840523738
-19.112832309698835 -46.935152037302863 -17.735863909550488
-18.339247001204232 -46.684270040252841 -27.242984421113306
-18.679621383775078 -46.730967384765634 -28.706950501926464
-18.873387904585559 -46.439069090448577 -10.005709324393496
-19.375197476906280 -46.612405734344115 -16.917456057096022
-19.707163536430684 -47.354318988485836 -28.544039373402590
-19.589937590618653 -46.900756483350683 -35.985830413998968
-20.115791268941308 -47.057152029524779 -9.720231629201219
-19.565732523434434 -47.009350460399133 -16.301637541959639
-19.838379514430752 -46.699698138259770 -28.901630204848438
-19.848502502730728 -46.811185834660513 -9.337489699809193
-20.058969292089188 -46.493028721792086 -16.394900751083458
-20.466709677263172 -46.657830194206937 -15.596379407072515
-20.360123866887299 -46.803594338042529 -9.125411429958589
-20.463859337361495 -46.821571382344473 -29.496320728265083
-20.894972358323123 -46.762161764521757 -29.983725454892557
-20.294321622550385 -46.542889008273697 -36.154280202326888
-21.324787296126718 -46.735267606840580 -9.068434325994655
-20.720616459587685 -46.973195964025898 -36.473813183895281
-21.121843003175758 -47.266906799315983 -8.935900405053889
-20.997810360394116 -46.769134325256069 -15.200277658797614
-21.582128387674352 -46.533056593044826 -30.113187631460626
-21.413770823661977 -45.764191422849876 -14.641922878902772
-22.158488091738370 -46.731485609418584 -36.762154827588091
-22.140877131439023 -47.079174510956172 -36.879545947168303
-22.889556414600307 -46.665810514353574 -14.685675975687065
-23.202511048455204 -47.183342264048420 -14.683231789437905
-22.803341273057605 -46.454814277762885 -37.212273889610891
-23.533897831928353 -46.838689752275300 -37.142461207088580
-23.830907033236862 -47.016960286214257 -7.845677886019697
-23.996365767819476 -46.693974700535485 -13.526269331494177
-23.770395451365641 -46.422759493801522 -13.647036708427731
-24.499926176544047 -47.211170132018069 -13.385370697041836
-24.260672411436911 -46.427110815994759 -37.383279317760234
-25.219153013703387 -46.757549662798560 -31.917098895852305
-24.987431322018956 -46.809890490033517 -37.263930024328580
-25.595743491775082 -46.833373653983877 -7.871278396582213
-25.652673823996839 -46.728339365927788 -13.241130163922371
-25.923767978603813 -46.703597500159546 -37.561086847038290
-25.711560460701232 -46.842896536306924 -7.659960599619190
-26.020120939527811 -46.335506628918374 -32.346155809957693
-26.659140197694821 -46.647390024371546 -8.125049035325134
-26.677714510076452 -46.490011024626355 -37.616926144989357
-27.039403000571919 -46.897696311601322 -7.744357769876729
-26.598924616930827 -46.907688165057763 -37.433036506812044
-27.720190298702828 -46.504012551252828 -7.601891221293329
-27.911566690680168 -46.274782508793024 -13.252238621404210
-27.508862606017853 -46.730902195839384 -31.969257931366521
-27.721022493048515 -46.524574289108742 -37.480651327391257
-28.219446065395413 -47.013120167645930 -31.945536815746891
-28.081882855282004 -46.759995391394618 -7.576735977761974
-28.611539005730720 -46.759322207572922 -13.445528483641340
-28.972772034562887 -46.500933470747000 -7.535488509136901
-28.945867946399158 -46.914641585006407 -14.113350420598454
-28.941243422352933 -47.168479125435354 -31.979825433752495
-29.812628544810920 -45.470329067752743 -7.931377646469841
-29.262130757523654 -46.823820652981148 -32.310199893326939
-29.751185422436485 -46.609344728379504 -7.690270647090390
-30.328794846740323 -46.513427591332444 -14.010216832968091
-30.594314054027397 -46.562051326094398 -31.123019821255561
-31.521631717600382 -46.610281138611882 -8.335767504591999
-31.692288159102084 -46.641542501646377 -36.772212089105757
-32.473644172718352 -47.009586096245002 -9.366885525309502
-31.934954662057145 -46.923117265009289 -15.012805732290403
-32.296077267179371 -46.886752294906458 -36.260076891191773
-32.823879670870717 -46.446144878798187 -15.351423053391638
-32.717710520132577 -46.972616219022960 -9.035278400430705
-33.270715736319069 -46.780685665587157 -30.094997186459061
-33.410765644391240 -46.992986867999271 -8.932763550577178
-33.314815308852467 -47.023575947051910 -15.820095826784648
-33.822753267341348 -46.522674886315507 -9.248462744378894
-34.532393125674126 -46.424685307824717 -35.904327209507670
-34.298165609047757 -47.121395323820622 -10.043262505653118
-34.423332948062814 -46.576033472250387 -28.757601815921859
-35.039638887949778 -46.268511473121990 -16.532325779545339
-34.615540942169588 -47.057188090241240 -28.699998381369070
-35.056896868327790 -46.640042362357725 -28.219512662322799
-35.229266241996868 -46.344123394913488 -18.018909728833794
-35.723965809244554 -46.429081646719460 -18.547094897779658
-35.684592698326085 -46.817831517464818 -27.226758883179002
-35.496595691708691 -47.096054010496665 -35.289493701240026
-35.588928623150181 -47.244281762375884 -34.516008983055237
-36.166952580273183 -47.011763284189726 -19.467792830185545
-35.839582577954239 -46.588449730088350 -26.089195303742493
-36.542411037022703 -46.780558085707689 -24.721040140886025
-35.686448031396395 -46.673981414982570 -34.746011410004847
-37.069276571182343 -46.977452591724621 -11.894228408585573
-37.190761068896741 -46.492000713634127 -23.945425715719871
-36.643452379022428 -46.589148394495155 -24.289381065429808
-36.516853649936955 -46.404160077664031 -33.955765896196539
-36.958473215713212 -46.753262410150541 -33.782213189639705
-36.803567174979960 -46.507547631513575 -20.880914232364084
-37.677075652170089 -46.868529604097660 -33.439482284070174
-37.860925591378390 -46.728633155149438 -21.489670432694005
-38.750408723066265 -46.701178279036959 -12.990581914398614
-38.617242693488421 -46.542564265822634 -31.950986208824631
-38.797728095840874 -46.964300288005056 -13.275420359596190
-38.473385878108154 -46.512827916123712 -21.456105445706918
-39.171685471781650 -46.269856132949094 -21.246462904785687
-38.868834346527095 -46.716847000791120 -31.120069411207076
-38.823880021726197 -46.783781573854135 -30.980809237214153
-39.703496341700152 -46.929637063972045 -14.964125912780421
-39.159883989068888 -46.737553615927737 -30.602516217715277
-39.494330309837913 -46.715872619030186 -15.090435138925208
-39.944487432820168 -46.808423507235446 -15.627320060904943
-40.095847199933985 -46.354399051863190 -22.740375658181897
-39.694574214087758 -46.564665481816540 -30.082054197127789
-40.721084024871892 -46.392060534360944 -17.737983339188869
-40.055944343652570 -45.920172666620751 -21.486732866234831
-40.476117722715500 -46.937010479801479 -21.371965902684792
-40.825720499224644 -46.725651639506900 -18.371154597275844
-40.745670521432260 -46.371068868897467 -20.918263622799330
-40.753503678332663 -46.464716437786279 -22.198205745700982
-41.823952512634499 -46.781920824313524 -25.815611558185331
-40.759717383727278 -46.840790772114637 -27.207939906590802
-41.270966114440668 -46.575173894957437 -22.840336248663377
-41.305940576695896 -46.287324909625475 -22.821989750500279
-41.662990934454960 -46.699315830118849 -23.837383278965625
-41.307224586752945 -46.880098271404592 -25.803252736300571
-41.384959879555296 -46.668570454616301 -25.255063440052446
-42.522251133794377 -46.306248533085991 79.678719481549763
-42.438439028456791 -46.850255399014493 78.521453501886981
-42.379266447071679 -46.701380133109573 76.767000933456998
-42.133638326157303 -46.635008488182578 74.008141600918322
-42.292509532509655 -46.690602354272066 73.042129946141912
-42.535617438585156 -46.657417268243904 72.054677547248417
-42.308179063727529 -46.994157448700548 71.040814122425729
-42.572492744254205 -46.559818809535834 70.262703144650260
-43.113228056956345 -46.915269524647726 83.355712850864066
-42.654627496024609 -46.615062058675370 82.813585754157145
-42.453742659960184 -46.804860388548150 80.302859445771119
-42.481115864860939 -45.728914843493307 71.826622383580855
-42.840939352160547 -46.308508259912692 70.734163064303388
-42.381863856160280 -46.562870527626302 69.027355120697621
-43.237272191935602 -46.644287245755230 85.958307165505985
-43.258284406700255 -46.531381814802081 84.079210781291735
-43.082904144756661 -46.660017778829854 84.419666766313313
-43.162316663158613 -45.797978566988782 69.808342839408098
-42.921347080896325 -46.684754487051407 68.162843337846525
-43.630206265173967 -46.474999913877575 88.028261568635600
-43.813100184886380 -46.959062463199601 87.721326256144636
-43.772229772785238 -46.537268713360994 85.477049758275129
-43.156828424042089 -45.937412733675224 68.340083563292978
-43.673420650879692 -47.695595089406723 66.104639274432174
-43.850902847929888 -46.807512856394986 89.259664639299444
-43.897052254445406 -46.576200648139398 63.946947518116900
-44.511792719332007 -46.438885057353112 90.039918420923428
-44.435575779753513 -46.317203763438172 63.583167248534771
-44.438781918812218 -46.821372989936833 62.810861681070087
-44.353236993325481 -46.528344246620918 90.637111319179411
-44.656571365206553 -46.002908668803379 63.670730822554695
-44.556029704966598 -46.477648303662953 62.665065528401264
-45.061051803132102 -46.281864745863821 61.699806006603438
-45.594999755231754 -46.277264860112666 92.683007485689757
-45.435062665293586 -46.159201694803492 61.580474542316466
-45.381755957087066 -45.999861443435734 60.608905785128499
-45.399094299285665 -46.257811765580371 59.690355113645658
-45.853913255508736 -46.577902048121423 58.893287071423636
-45.767439374394961 -46.012506749717787 93.884066372371123
-45.853089188245285 -46.783423102041155 57.574479881082119
-46.062678290987051 -46.527306121112261 94.376174280841468
-46.512144882109361 -46.836898349414106 56.387829246348716
-46.600416759575403 -47.038054295197561 95.479659897503751
-46.897613344245705 -46.516160207264662 96.574184849004837
-47.120670631690800 -46.306318456384908 96.914453514293555
-47.317374825493253 -46.141615406695969 54.891837473802461
-47.580047256946628 -46.693779362602413 51.102465033385769
-47.495169933325862 -46.119188251325149 52.831217645542125
-47.935951174752532 -46.690846165916128 47.982663128893897
-48.137948785035547 -47.046413088403426 47.039126926475618
-48.207076676557939 -46.428897533678871 46.637520298797881
-48.880327791777390 -46.926962598912070 98.516047605407749
-48.100767387390221 -45.585122026385768 48.065186212671357
-48.532163962044613 -46.402558772590666 44.417448564945360
-48.393696156355482 -47.239746045792195 98.566101710493442
-48.709605884071287 -46.919511370387610 44.255017720875792
-48.764448270328494 -46.660260233789074 41.965397720376608
-48.998799096137120 -46.752917610930126 40.615008096365273
-49.070612191771161 -47.202383321691798 99.562014028383061
-48.939500306849453 -46.474907696974867 39.133563912366924
-49.512808729353146 -47.118458737212300 37.669965260068395
-49.105979943996559 -46.587596251300276 99.748004876144009
-49.519462747655083 -45.816336728618474 39.509136969086725
-49.759066248363347 -47.046117807858622 36.700731666012921
-49.769753851467812 -46.692490990165382 100.233798132485560
-50.092620669753273 -46.828102788621159 100.835478443543550
-49.654981171380420 -45.833212646965642 100.327334487482503
-49.856423291863102 -45.619401073641434 36.641405449524171
-49.785440714110401 -46.568177801595773 32.562673733748063
-49.998335738962233 -46.740739495236355 32.578505662320538
-50.353305016181700 -46.893855222930100 100.916432575410269
-50.353607361909766 -47.177767745619811 31.692952942583634
-50.377922916874148 -46.560760199864646 30.574633958254882
-50.610645105388656 -46.727948108419348 29.036538398849714
-50.763586223082058 -46.260838911952298 101.642440025754823
-50.756421778343814 -46.575164425927603 28.366911716533405
-51.051668482323045 -46.661712669414527 101.592688588676708
-51.106145198260819 -46.523757755225823 26.785564396623172
-51.504006069972917 -46.776318715502732 26.456793380067658
-51.657044685787959 -46.597116417114364 102.657331092859124
-51.519418940175235 -46.898510316066584 25.949381340385866
-51.713007945432857 -46.783833059965552 102.815683606125788
-51.968743341121986 -46.751909345811214 25.169293071022821
-52.187252354179293 -46.441008025213350 103.322517935439848
-52.299457620732895 -46.665653033526233 24.385971261756833
-52.842562031178744 -46.750962888034877 103.582548802432015
-52.242801976799733 -46.673012823850705 23.317961590661824
-53.056585804181587 -46.527461083500242 23.119470590324056
-53.770953795714497 -46.988408358888371 104.305671576509667
-53.384617035908590 -46.879370165225964 22.577088319211036
-53.804598920348170 -46.803450623106933 21.969340825736310
-54.242571119113009 -46.590027127996478 104.770085140371989
-54.019172890834184 -46.781357606265722 21.144470511125249
-55.036774217196268 -46.642575435788892 104.734269946129416
-54.140811909754994 -46.911339330093270 21.223121087311640
-55.143391667382595 -47.101190682882063 20.276053451370480
-55.098007629390665 -46.141514138873802 20.429496414880290
-55.797910748572100 -46.825700962290476 20.275100660315040
-55.786047295939120 -46.705822990460582 105.819091559541206
-56.114157871221003 -46.721915400351975 20.193832170818098
-56.329183598788880 -47.199264942165613 105.902000728230476
-56.238264047298919 -46.794511719621717 19.643214584390314
-56.970102164770388 -46.632950275210241 106.266091932699268
-56.950358688202350 -46.699797762704819 20.169169556991463
-57.192553111697187 -46.465364295265381 20.041215536090437
-57.814399375766179 -46.563030427815775 106.903080079357295
-57.442882164264887 -46.864586856911444 20.108662251351596
-57.871420596393804 -46.944421099038138 -66.745458239259051
-58.135721589748385 -46.383314814229671 -67.330930357804277
-58.124067326805992 -46.644880076393264 -68.075310713624532
-58.207857889699369 -46.998195781323247 -68.771490635765190
-58.270175691780864 -46.524441617721799 107.032257714789580
-58.020824553927461 -46.631995196881405 20.348288258106017
-58.089937981571126 -46.977314838559991 -64.247410713482495
-58.116392391556182 -46.604195553844718 -65.224014437951411
-58.088132557763551 -46.604529160495218 -70.367423226940971
-58.229995262648522 -46.770006561038628 107.478362596357115
-58.970728068132715 -46.433407793115606 19.874424750075143
-58.415080017862337 -46.766039042145401 -63.726713778858496
-58.362565736879780 -46.588582471746690 -70.785196455750565
-58.793120242364196 -46.780304036198856 -76.348454631899898
-58.411851864579177 -46.714339149852734 -77.565627835505197
-58.236513533436906 -46.915733060009252 -78.764486047857559
-59.056004894610005 -46.808088645801739 107.608183575549461
-59.011988249776351 -46.809150630438488 20.208476050040943
-59.279989135680665 -46.650627660353251 -62.226005490168703
-59.194029986957510 -46.747227529716007 -70.430164410929976
-59.044160385193628 -46.512497990882608 -72.798681891585431
-59.009418404056461 -46.478039872264581 -73.726778919080658
-58.466479745037347 -46.790722241135263 -75.118477434361566
-58.769334366558752 -45.914544464456249 -74.671574775242817
-58.697846493710607 -46.605247423813971 -79.512285503286577
-59.405546605099232 -46.700035371878130 107.742918818722529
-59.541872252407259 -46.581493885997432 20.045744457892468
-59.802929874290925 -46.648749651819614 -61.419737648280702
-59.376243869373646 -46.502810545610359 -71.847710766991185
-59.293227186421731 -46.318216075525157 -80.585725610473162
-60.074455575024523 -46.034130948779548 108.603247140817302
-59.808755207360171 -46.708679604170413 20.449006944979494
-59.675925659589645 -46.835477856470590 -61.007134776429254
-59.415351718217877 -46.842894674272273 -81.357179868147696
-60.525254719193590 -46.817734498656492 108.128029084966883
-60.131598136396711 -46.065165875832641 -81.955154141175385
-60.652790613579960 -46.925528238326244 -82.509367883557061
-60.244007671820910 -46.781877986726251 108.810887000271649
-60.693494454581426 -46.771175682110709 21.164677464683102
-60.850857401321932 -46.445457470364254 108.603383013369651
-60.635640450252382 -46.907374781655712 21.253515893824350
-61.165848274152268 -46.839609172300811 -83.280897390822958
-61.805566152456954 -45.756156822458209 30.831792324648426
-61.218109333225819 -46.966340612106002 21.584413760774751
-61.355888619893655 -46.162878867495955 -58.115377103360572
-61.406664851849229 -46.601743166855933 -84.282060093465219
-61.901560912042960 -46.114827104437580 109.192377673185177
-62.217122488588672 -46.399089549967378 31.750509161894957
-61.808304983212885 -46.721816010750288 30.211104902488856
-61.754099529680481 -46.452110210385037 28.313633892321342
-62.102296074857399 -46.669927056772408 27.006615399815765
-61.589699144065449 -46.418038337350275 26.436144387123981
-62.062286094985510 -46.923958937980608 22.211295060855708
-61.798112269655320 -46.700142287154705 22.826675977107200
-61.927188428040665 -46.500014490210233 -58.019485260753569
-61.789663001598662 -46.057047853900002 -57.712059804633782
-61.496520448506573 -46.549379222336917 -84.566237946678527
-62.718214390724363 -45.897861734209648 35.550788917106132
-62.276274805490296 -47.054757783522902 34.982752955112716
-62.625394544985014 -46.011833463845790 34.907824509535324
-62.324328659862537 -47.246545352624075 33.736406284408524
-62.148001951712821 -46.425822448753877 24.331613006099268
-62.461867895701694 -46.393889365279570 23.578249989805705
-62.016742184655222 -46.963503352495394 -57.762750762943710
-62.041674699492887 -47.227733800290665 -84.454781332049436
-62.431968936051824 -46.110477348552735 36.789962768914933
-62.370241367840912 -46.576999758542492 -57.069120286982553
-61.934974644165486 -46.833357296344538 -85.329577039341913
-62.614755531913957 -46.688206763816019 -85.617711623662672
-63.055903559628618 -46.602978061837426 109.498921847930660
-63.198199159007238 -46.458199811602832 37.821170897955767
-63.092706279946107 -46.530792772333719 36.856267113641401
-62.637083451024296 -46.726799846393646 -56.885257839946675
-62.753638428195060 -47.103244593832585 -85.486452670204400
-63.883542049296302 -46.580674734734664 109.959899203647751
-62.957091612044302 -46.351090119411445 38.354671941379820
-63.285383163262900 -46.845156465781116 -57.429241053790676
-63.092432930851650 -46.522102133757855 -86.174745600041192
-63.958210641143516 -47.025181750140170 39.283053973830590
-63.485795005682284 -46.536109788806321 -56.730634293003121
-63.555874283767750 -46.650767383667301 -86.679806132469778
-64.334718394472645 -46.018561818944754 41.392510237667580
-64.011430669545888 -46.158972119047505 40.301289695710480
-63.913916776561500 -46.440111163872885 -55.674398916317017
-63.663102696334960 -46.895424402037385 -87.787887558164414
-64.777513420360791 -46.025960651256121 110.572072174115604
-64.565443054082550 -46.540087519936122 41.092156360085866
-64.671616212249560 -46.550193028317999 41.488400390970170
-64.266478196060362 -46.998434866533408 -87.964139558471800
-64.246792722984992 -46.579366345975913 -88.391974589601531
-64.804348484507372 -45.877441078907303 42.587483947863461
-64.880133235216590 -46.678123182969316 -55.329985980992376
-64.600424081661018 -46.746314161798075 -88.624138067626788
-65.359562289622119 -46.839628968005037 110.124077042630105
-65.220039732245866 -46.197650565175728 42.588952374605483
-65.672789782130224 -46.585145684565880 -55.236802279820211
-65.622573967594334 -46.814074466978809 -88.345566639730876
-65.844323366768023 -46.255011895275629 110.405702410999851
-65.760015205818050 -46.501025258005932 42.646047724139621
-65.910822863485606 -46.337334092000560 43.461398824264684
-65.874217633786088 -46.681696216614050 -55.422800922745125
-65.799782154225625 -46.071749691175889 43.531446080256245
-65.789626526597417 -46.833170691610732 -54.911690925409573
-66.051020368906762 -46.842811336796245 -54.894221922617078
-66.107826391662542 -46.551448906678445 -55.018132210034778
-66.742699028408296 -46.955908380916952 110.078002425985019
-66.756663377468243 -45.985449682553373 76.538640099655751
-66.548833647776888 -46.272174149550260 75.990735369938704
-66.725451778385022 -46.108929108589891 75.166503023381892
-66.219958256740128 -46.593929896825323 -54.408711525907137
-67.237557797621776 -46.558480562483950 110.352077193310677
-67.057399682332303 -46.408226499455317 76.725871153078174
-67.141529524231402 -46.106016595582311 75.541552927472736
-66.842435769195959 -46.097744302938295 74.303697123554713
-66.648908342621340 -46.248378331072907 44.244645650436020
-67.321813535773003 -47.014905580399244 -54.063669167791161
-67.663451133284838 -46.804631753686266 75.680518330060238
-67.461136070689903 -46.339329931042784 74.874978020779110
-66.987136193663162 -46.795383322387266 44.462563010374275
-67.468758136835675 -46.560810805571627 -53.990950954183688
-67.346896433934916 -46.711513601473818 -89.984150906396764
-67.586724556466109 -46.352406823647328 76.920779499744867
-67.587534300270235 -46.421489876630226 74.833319757014664
-68.336694612894391 -46.574056683284269 -53.822472490426506
-67.878350046862337 -47.044317165957459 110.664497817900340
-68.206234464421073 -46.777685520192918 74.788141395944166
-68.499150432370641 -46.610314438157836 45.440462303369934
-68.663667718746908 -46.775331943394882 -89.961935877711880
-69.058566362785371 -46.161069132417495 74.921122244415059
-68.505015514477464 -46.990099595493774 -53.366397930049089
-68.706654196257787 -46.664092200804085 -90.151176883331999
-69.431662728315359 -46.066939014835270 46.474379897159075
-69.602524516489723 -46.779107447680531 -53.097941882527948
-69.732870552606599 -46.579100883937976 77.937744626843838
-69.892249852597260 -46.555690892206769 46.679624932617685
-69.834309109379404 -46.444905409309463 -53.197736226044796
-69.676820743192536 -46.511336649496151 -90.453524871357416
-69.611835221276337 -47.239911200434655 111.233147930186988
-69.944950718517291 -45.526766991574448 111.056188405809422
-70.034267767905632 -46.193624875161646 75.317835684906498
-70.029825089753558 -46.587351433460739 46.382956151865251
-70.136350368970710 -46.716172615060266 -90.401527420854023
-70.710775192824215 -46.801670231054338 78.248865585781616
-70.327104400925052 -46.643999807906603 75.187220326063027
-70.645555389094099 -46.444346575421164 74.391774066670095
-70.466009127440074 -46.748176633673182 46.747276509834244
-70.781740481613426 -46.228181128353881 -52.849968404237188
-70.308340816744419 -46.646860908846755 -91.119640675801733
-70.866401568095597 -46.977563427047166 111.461895182581841
-70.871384538873059 -47.011509836224207 78.103902389221162
-71.002102491724443 -46.653744995519261 47.099849311743284
-70.951490576169618 -47.067632920339065 -91.487817330165427
-71.387715574419786 -46.595753741875185 78.467184575486868
-71.221664663240716 -46.302473923788575 75.143354356241176
-71.645928183190904 -46.166400916780283 74.952110346096816
-71.061832301788556 -46.531297315662343 -52.860034862697773
-71.153921555874447 -46.608308088051089 -91.654372778248486
-71.748386786200172 -46.946314312645512 111.403644613613096
-72.070937410659766 -45.930018121994863 78.355272871018300
-72.082958301505755 -46.422258567090608 77.190260768366485
-71.751310387689472 -46.660820152920714 76.862257418501287
-72.113242005362508 -46.637195722419740 74.854001648141946
-71.886811687052841 -47.130830892667120 47.320766049277040
-71.663923100806130 -46.887616875812981 -91.767954017842470
-72.312438679872614 -46.905607261383260 75.200001722552727
-72.151142332794990 -47.131959138771904 75.837743739359993
-72.059571041464594 -46.501570364398411 47.507822047331572
-72.378387198079253 -46.080805934221232 48.129261185194324
-72.120436971213977 -46.751811368536359 -53.021344052410313
-72.057408904572725 -46.953949019804050 -91.460273150362411
-72.724677492154768 -46.611786311061152 111.516678278569685
-72.551996922369639 -46.283430303714361 -52.443449098824630
-72.569566109919080 -46.881691944963549 -91.857683256956008
-72.625254673219374 -46.449131533366149 48.101687483209346
-72.860765927259621 -46.789986993200749 -52.638241727831357
-72.882731229359308 -46.913095345515629 -92.390524515903891
-73.502582608722889 -46.520152166267586 111.842473423730667
-73.705096978954316 -46.918600741371328 -51.969803147341388
-73.123605559880474 -46.802149824212385 -92.120532626579674
-73.604641345008687 -46.692774925250909 -52.093291417114628
-74.048596444939747 -46.866468756206615 -92.657512646185182
-74.580429357093450 -46.537947216013123 111.290418644559708
-74.696470400686877 -46.570704064150860 49.101624450487989
-74.715549956325006 -46.257290119824503 49.194632543343609
-74.445743812277286 -46.869841907315802 -52.089455013877952
-74.464139006313019 -46.726852354604254 -92.558389610142726
-74.781742669727777 -47.068157330361643 -92.438827513423476
-75.391229582833404 -46.266172278466037 48.522844495701300
-75.174574064425173 -46.315279583027134 49.184119626819474
-74.971225806818069 -46.485271502763673 -51.875128761449915
-75.099196808912438 -46.640707500659644 -92.457279197916606
-76.029567152327743 -46.958505884138532 111.622570382122447
-76.001028454125986 -46.792814368645757 49.049411511975904
-76.038773657496904 -46.331726984423192 49.029236744634467
-75.683530121210779 -46.894027966736822 -92.539365129146788
-76.302581442221069 -46.827020648585162 -92.420307747226289
-76.727426631286150 -46.469453592580031 48.817089561777735
-76.773075700049162 -46.573880110897953 -51.131322652729231
-76.547530527345444 -46.656775190841792 111.375930754164756
-77.290539112859278 -46.701172528905772 61.495264609695539
-77.435703258940151 -46.646531779246324 60.635689834196619
-77.018071438173692 -46.509169025570451 -51.617915818385697
-77.641575512885723 -46.850222713144149 59.900531090430491
-77.327582890850707 -45.812678907741869 60.813713350345559
-77.404719188160684 -46.968656379650326 -51.920629350773325
-77.941962317371747 -47.032394619387894 112.075721261318563
-78.056367794339195 -46.711458436742731 62.262021695055651
-78.036178244649079 -46.301812763671755 61.562878321577649
-78.005248777676556 -47.274763839227354 59.698936197363885
-77.250532676155942 -46.257790011666089 -93.155619988896092
-78.311552040055858 -46.047466254435300 61.195138781878278
-78.337139704837213 -46.431856046294001 49.650458976468833
-78.394919502950302 -46.319725973119255 49.995351442915592
-78.247383927601760 -46.965516718333951 -92.999158002224007
-78.761925683487988 -46.664738431112035 62.748728618001834
-79.301213542438219 -46.883273599172981 63.698461600355436
-78.730614887578611 -46.599808310924153 59.608247098421849
-78.238872532010618 -46.901012400237896 49.448560287851201
-78.191043797032378 -46.600715386856834 -51.925193982386936
-78.747296842394562 -46.884263394266121 -51.371553122736543
-79.065157210784349 -46.635223270715201 111.568015098365450
-79.040356718608919 -46.378925446219405 62.143668592276342
-78.939894758602605 -46.214758317066895 59.272043746111699
-78.894974588938638 -46.547066340057775 50.675832521170427
-79.044601337436148 -46.632872663813792 -51.834566901558063
-79.100706682056995 -45.550428349081280 -51.844583307407461
-79.149802573172067 -46.728454022577573 -93.342437108744178
-79.330671253499048 -46.548458248512489 111.784978563118244
-78.888346027608264 -46.702839702155224 63.588334507507312
-79.086875706468049 -46.179253449666405 62.629240620757656
-79.557021674229532 -46.943991621374145 58.417729973611756
-79.933413017624289 -47.470217644120474 52.083547159363953
-79.853427346697003 -45.484294535973120 62.410125481705236
-80.019548462085538 -46.826405563428899 57.853180812375037
-80.311951998488212 -46.933511270831474 57.033938155985176
-80.165537323497063 -46.741751140487956 53.927479175184459
-80.113866596894553 -46.566098832781393 52.716892685517870
-80.040518048270741 -47.143024676394710 -52.160304250341099
-80.163619208602967 -46.659297127962652 111.607233625675562
-80.390904218663152 -46.490035667826518 64.625943155391326
-80.321723873077033 -46.389083898373897 63.323571617231245
-80.109773423368736 -46.431923465352334 55.476460428679360
-79.885718509076753 -46.132406161005335 54.625437282254630
-80.458555651477226 -46.980854166501885 112.322973436605679
-80.521171936017993 -45.928405868081192 63.171814694672150
-80.523306405089699 -47.033578312306076 -51.216417944931585
-80.614297062169399 -46.294491312382370 -93.203467991304294
-81.244634831728945 -46.512448507272758 64.235367757415560
-81.082463018786271 -46.300467129287050 -51.434059442500718
-80.898135801372945 -46.984199145764585 -92.818025916390965
-81.499187533478349 -46.406570630514764 64.433373801966837
-81.807137393579097 -46.945240271009901 -93.252407250029805
-81.697585217959031 -46.296853169788285 64.922161318980883
-82.258316559214052 -46.518477653907183 66.701000102663571
-82.500340186385586 -46.148788265821622 65.632679559387100
-82.141001872350188 -46.673153820434976 -51.479205197978757
-81.926502918536599 -46.630765753915760 -93.282640301883148
-82.498555444178152 -46.322778346562551 -93.064545027414894
-83.237644297839026 -46.746886403326158 111.833096233356059
-82.524858332482040 -46.261920729282259 67.140521056938553
-83.061309690442698 -46.687738883430647 -50.661943051025858
-83.014189919370097 -46.852791905285052 68.079790836761063
-83.544304211852904 -46.010315386549266 67.336898535399968
-83.143309116045117 -46.487546810818856 -50.689100953440203
-83.059594589052736 -46.388983258683247 -51.368102024226552
-83.718000462329172 -46.635822103699809 69.122379857430104
-83.782737804103888 -45.611657564570919 68.170484387585731
-83.592829428789202 -46.980522170018403 -50.672264477225859
-83.671598469177624 -45.762711020217189 -69.396444014850928
-83.741354548512746 -46.013221837474951 -70.241032811658314
-84.307834346380773 -47.038484140496820 70.339270123398478
-84.007152036014830 -45.942418368342913 69.069672928883122
-83.962478427748096 -47.229117047028261 -51.056755612058744
-83.926647370010514 -46.411599535644946 -51.123907541917724
-84.113229605272906 -45.632366006311145 -72.670325841481301
-84.216947145372501 -45.719310005141395 -74.077182455159956
-85.020237694347344 -45.954928735196376 70.208207661295347
-84.673215099523674 -46.196406350403144 -50.301547282257609
-84.686484611684875 -46.230844389133217 -50.767273440840249
-84.710877546183127 -45.700166426789778 -69.394459837358440
-84.259343683486620 -46.185593839237733 -70.663234409024923
-84.404253387700749 -46.661625113178538 -93.177082188788560
-85.313319733318750 -46.897287417813196 71.847214140267823
-84.976867146995843 -46.425872050665511 71.031805366446463
-85.052664533682048 -46.360526469802473 -48.757314647035038
-85.268117589607101 -46.392888577563362 -50.170729291950316
-84.656631318443260 -46.170578567886594 -50.911749591785671
-84.716644169279562 -46.185955794422817 -72.850302088725073
-84.552248243125945 -46.554650638660732 -93.316476991606692
-85.707684106593291 -45.775891863719025 111.863660580760850
-85.596748473622696 -46.179551459721253 -50.827583517714217
-85.371664049912809 -45.922273854273620 -68.909568340385803
-84.932338037588423 -46.290710083744344 -93.565636327905850
-85.749661886160737 -46.210746757352645 112.220113783253410
-85.864603581528996 -46.746252687845406 72.229470669080342
-85.782865637078416 -46.065074899907302 71.982538774608301
-85.988102670138744 -46.136504336108914 -48.951959233795797
-85.538271839427793 -46.202503568422969 -50.257684977407067
-85.519714197824342 -45.852207390515282 -67.065248798520940
-86.116036161245958 -46.607922466720773 -92.825814346690080
-85.421422294397061 -46.337887698870752 -92.840687714313304
-85.964351332467658 -45.879409296130731 -50.660766590596900
-86.473906159768518 -46.372796171545716 -69.932104444574321
-85.844740175503745 -45.991893856633524 -72.646567715438565
-85.828683192204110 -45.691307052901493 -74.650182638060969
-86.173841125852107 -46.696957965179898 -93.433779133762357
-85.899840776532159 -46.649230373158716 -93.077849997123280
-86.403338707022129 -45.922347673596470 111.847675226755811
-86.733181097600735 -46.932166933438005 73.477224338387202
-87.507080391200020 -46.711600944609621 73.678028166285216
-86.672687566168136 -45.720253525720054 -64.960181165601909
-86.763626491199389 -46.117296498568074 -67.230236913221958
-86.153713381187075 -46.707904960103320 -69.395108396666686
-87.111805132764388 -46.801720090745704 111.839714983284622
-87.082623993946441 -46.277892066654310 -48.876685817675288
-86.829350915354709 -46.073623245856865 -49.851413637125766
-87.252585679317349 -45.827131660792737 -50.687347804677117
-86.814948532936270 -45.898798465644497 -66.101340027960859
-86.889771034220956 -46.588489535185829 -69.656943062867853
-86.871688387224609 -46.075533431955087 -70.554460236231876
-86.963135412010573 -46.422828014041855 -72.166978693181676
-86.652684694758122 -46.197066327921277 -73.877097639257926
-87.088545170503934 -46.099012904960972 -74.963777577875788
-87.096499334880647 -46.690154372692540 74.243976021421105
-87.439254247125902 -46.205211256921935 -62.404049561765291
-87.102275008349352 -46.230588325672855 -64.273675563781325
-87.360822600268861 -46.783366621999548 -70.782749653181966
-87.223258528724159 -46.166251850056646 -71.711920628842734
-87.301044629756106 -45.860213419061211 -74.529177409194290
-87.096267891480508 -45.571233497861449 -77.601377429136505
-87.722117831609566 -46.719700182714874 111.744190077912691
-87.607251981140848 -46.623778651150367 -67.617358649418364
-87.380428291078474 -46.260231808196565 -72.894586864467257
-87.840627999530071 -46.749093686798240 -73.972555000079666
-87.610372394772497 -46.433183275833855 -92.910720921441012
-87.782652030728158 -46.527125015698978 112.546987345751390
-88.153849760021018 -46.569437926681154 75.332466216363258
-88.146493372154353 -46.556117945390369 -48.649797712490347
-88.438985056573060 -46.373617505741599 -49.649943428540297
-88.011760910448643 -46.397548392119916 -49.871906196575516
-88.200721299984707 -46.135397637658770 -50.518656288752538
-87.952446079610368 -46.002854574619455 -63.087236751194652
-88.027723142576292 -46.110657749273756 -65.488649762759877
-88.159676292716782 -46.074735905246989 -66.385034954724262
-88.436399258995451 -47.309167565431537 -68.932529646444365
-88.298563845940933 -46.743908141654352 -72.212630998829212
-87.684351272750888 -46.438451807275932 -73.842237634004050
-88.077394177881658 -46.197254605429336 -75.387068634466317
-89.136374463009489 -46.675315672336069 111.870129121063002
-88.739878848526445 -46.619394325927452 75.921987057819564
-88.582044158757668 -46.372739611562899 -64.455847395332199
-88.359509556047442 -46.260003043895765 -65.293539991841484
-88.724307658907179 -46.159846192215646 -66.368660698445623
-88.559131117586659 -46.468260613469909 -67.439292534839112
-88.574620683634265 -46.661423382527907 -73.519226415590282
-88.725026131452466 -46.685586753563456 -75.868719953594592
-88.658815720443485 -45.804815883946354 -78.199913580872376
-89.209224470885587 -46.729464795829294 76.351066177679371
-88.824973471528011 -46.219057095152856 -50.175386243383578
-88.414179393197401 -46.083912372650090 -51.341638975448269
-88.814499115165788 -46.099986480183226 -52.023614265589927
-89.034819619552295 -46.583145366710447 -74.519418125339129
-88.707427947329350 -46.754851420597440 -92.756004085305776
-89.482140934582759 -46.964149727101585 112.372484052375029
-89.150923084158507 -46.672614819295880 -50.850212187091785
-89.533547776814302 -45.613043052153081 -51.848211771046351
-89.506036689552900 -46.004139379437312 -63.390121330263327
-89.196616337315348 -46.490091800822121 -65.287488392672998
-89.621268246905430 -46.725727412896177 -66.210653052734443
-89.704464146761296 -47.032283557308020 -74.877643517540960
-89.349195206969597 -46.000730435431720 -76.548731268655388
-89.176130623083594 -46.199048679020862 -78.540018259035179
-89.757654299462232 -46.521166969270048 76.657161806839554
-90.139984262329349 -46.106147737454805 -62.644061382128370
-89.605268368213942 -46.207031831398517 -64.633309056580174
-89.475134942070923 -46.331210061326097 -65.614962561277210
-90.081384340804206 -46.969003183148359 -75.804230565358253
-89.962839803518577 -46.162604711606328 -77.929494179839722
-90.231821171113793 -46.510344509435257 77.098190484045716
-90.064850144570542 -46.921691139770964 -52.059979652097283
-89.928240480253649 -46.325449246630996 -64.767674769057038
-90.269590724371895 -46.710377158827427 -76.308787628790370
-89.871196128652741 -46.226536079077626 -77.361675540710962
-89.702092764327077 -45.733018493053642 -79.211009306290592
-90.491616053302479 -46.874970471960594 112.401960394941256
-90.350558852587213 -46.581092054475533 77.304114485254317
-90.729986455348424 -46.312813000105464 -52.341573462120891
-90.322891739963154 -45.877121653307945 -62.320130448575455
-90.301323700781509 -46.975877192736590 -63.351574670380828
-90.609672448267247 -46.814972872681224 -76.150096830911394
-90.888608829409733 -47.079552912582940 -52.831482494938797
-90.682412313168612 -45.684535953153393 -59.486198062203911
-91.127887372741597 -46.079526456227477 -62.323453173349847
-91.046407108382127 -47.306280483310310 -63.986799904293633
-90.957310344178495 -46.378924214331661 -63.181674228682695
-91.133096947961363 -46.832824026497626 -77.054428876570299
-90.744628736845812 -46.595226115516517 -77.607008966447651
-90.878241788803223 -46.400784899685881 -78.820180529686667
-91.197805210696444 -46.079309911955065 -79.319997164117709
-90.553711197961803 -46.223773189267170 -92.886507641239703
-91.254500270452425 -46.758115707993639 -52.711392652102631
-91.446160381912776 -45.799490263997669 -62.640406431796393
-90.989438285400112 -46.536441380678973 -63.003376368725583
-91.378220614157513 -47.062531336603122 -77.484196142982810
-91.256544625533920 -45.998186947642544 -78.422806796070290
-91.871656818339062 -46.464256922502543 -92.578990725167657
-91.469183536695780 -46.486193214830365 112.076431482368804
-92.055113873607723 -46.881697909617998 78.628530872014721
-91.634525348850232 -46.743489349595748 -53.163440050567161
-91.703690228436471 -46.055991168398812 -60.517742707806946
-91.707867288458630 -45.798899912945970 -61.170945615520608
-91.547923633302702 -47.358157191798824 -63.852119755861310
-91.900954799175622 -46.691348003544022 -53.396213019103939
-92.203987861847878 -45.445350929877002 -60.610961895741966
-91.692641449695458 -46.205617062985837 -61.385875049823269
-92.055077410536526 -46.461500143729168 -62.414106620097101
-91.932307920194006 -46.671394504809520 -78.364928265792599
-92.273096271314088 -45.879247390618247 -79.518242759342627
-92.255094950188266 -46.451838070575711 -53.208149007800415
-92.571225048363814 -46.774926166116515 -78.255931432640949
-92.486681172803927 -46.055682619120205 -79.858948284544709
-92.255203001215833 -46.544248486411810 -92.989649828853771
-93.100017974334705 -46.748651734579802 112.250361249543843
-92.927726668064210 -47.098829189236021 79.525615736166245
-93.243992434171219 -46.742323251395774 79.569960010777592
-92.944809425627199 -46.648042768235065 -53.042447582670405
-93.251023448818415 -45.620024107362468 -53.600236650451976
-92.772574711740972 -45.702169356226889 -59.519929799533074
-92.550652554411798 -46.428869550165402 -60.178013205123392
-92.492260108701259 -46.405974256587697 -62.123554165768198
-92.453437338100670 -46.047300778203130 -81.414034402801491
-93.418262639391926 -46.622453481414468 112.366928443803332
-93.179644635155455 -46.641558673165356 -53.512499087819677
-93.325633637409993 -46.017738873869725 -53.296789587791324
-92.850859943757627 -46.637924553088311 -60.340846233407149
-93.270603612204241 -46.968559895292692 -61.644297922134697
-93.414153309403773 -46.783685004883452 -79.056701677608871
-93.688205826806097 -46.599415806376797 -80.034968648864009
-93.421299383729817 -46.825923504907223 -92.288171974993233
-93.472096475017665 -46.179321495510258 -54.394436023174649
-93.755992949839737 -46.134635210115079 -59.562997516373841
-93.629581234270631 -46.582184991350907 -60.668145072469741
-93.831856792258137 -47.077628854505903 -72.109823886870430
-94.046201543374664 -46.421105664804088 -73.343493132684657
-93.929810176936698 -46.822674593805907 -74.035223916585807
-94.276750592252370 -46.471718703314792 -75.393325627959413
-93.995421933971400 -46.579902805348041 -76.625212393787990
-93.751825195518023 -46.379999756687624 -77.632629493998138
-93.380099620392969 -46.311336779565380 -79.282559385923534
-93.803462705343520 -46.701698911274242 -78.711099458431065
-93.516729099624456 -46.175440761375668 -80.452994871880435
-93.564893424010123 -45.785764262031520 -81.681047290843239
-93.470613517006953 -47.180024035100367 -92.230510984970351
-94.020367453492767 -45.354858698814816 -91.739773504613709
-94.164061903786063 -46.837925965256453 112.195696725775292
-93.781996239720954 -46.652570441175456 -53.424033599731729
-94.133708429044404 -46.003826488447032 -56.756268283403770
