# This PCD file was generated using the MATLAB® pcwrite function
# from Computer Vision Toolbox®.
# .PCD v.7 - Point Cloud Data file format
VERSION .7
FIELDS x y z
SIZE 8 8 8
TYPE F F F
COUNT 1 1 1
WIDTH 799
HEIGHT 1
VIEWPOINT 0 0 0 1 0 0 0
POINTS 799
DATA ascii
10.947584793590950 50.846667886601367 -230.860102525011627
82.825202151500676 54.607715856789980 -234.612957562586018
14.737828401655820 54.598613083006050 -234.434079484400087
-123.524266782809875 54.019515090422964 -237.184041613214049
-113.367071715491960 50.128831762183218 -234.010021474614064
78.638225301773673 53.320518875129089 -232.830754047473988
10.668590694122731 54.064433532378381 -237.248051394398658
6.301331871368092 56.354114326146480 -237.008947991560149
74.572325795294759 51.198653276952840 -238.608794684293883
-140.107892676881079 53.364657785454767 -236.625235703700952
-14.817809373231126 54.462442239734493 -236.923393340742336
-7.195938199723027 53.825981836865772 -235.110324190175874
17.813947160328816 53.325025315067279 -236.236115262412085
-5.838708351776858 54.801479313416934 -237.375597581720626
17.586029686873943 51.922485032806144 -237.405900707391652
-14.101709080717129 53.707180473907798 -237.782387856300289
73.271749203410792 55.937659243967722 -243.068634319834501
-18.831506728905204 53.480923920070602 -238.977137445586408
-10.791217410440277 58.303945444166679 -241.418255283439464
-5.732368704351336 58.145567457047981 -239.434365122937095
71.762953444113123 55.000133455773529 -240.231955278811455
-9.297664918129666 57.095623248935780 -240.590169066237507
-21.288354152402391 53.358511635612381 -237.674494299099536
20.203737029319992 56.503984258086454 -240.800468729983066
-9.612431299955407 58.858935612752994 -242.722290018439310
-3.219110112559818 56.426130459394784 -244.110327111393502
-164.627617933633104 53.195696263356474 -244.244529264683251
-21.626180842937725 55.528318177005801 -241.202087156371704
-2.825935750616060 59.242268189500571 -241.535236171601554
65.875868643796565 61.284994318744154 -240.975282721366113
62.353897277099719 55.154628294791799 -242.652265882866544
-10.912416366048770 61.509941300397863 -245.728951893962204
-7.025232140807843 59.936461870225045 -243.480896270659088
2.763557131176325 59.400677495324274 -245.972979313126899
13.431039441508524 58.886994933421420 -243.833246849216096
64.566609378956869 59.317600954825473 -247.477427084674815
-164.347929527379534 62.056101736247790 -248.879128777099709
-64.588282528451117 61.826805916812944 -248.858043004868279
-12.322057188807186 56.261197138725336 -245.280968068080483
15.895987548836445 61.114806196644111 -245.910276258335188
59.678484592607205 62.612159586150462 -250.907136274288348
-63.751620886803316 58.653464456650291 -250.967651404201575
-146.563969171526026 58.668301595814640 -243.400075951500554
-69.496383020551150 60.899466819427687 -249.062988273610415
-70.591854611055211 63.780043166996116 -247.730268426836375
-62.186528615127948 65.073109785801449 -248.440009658524048
55.757352830562141 59.482113062971102 -247.743610590928142
-78.913231695477663 62.281965602047016 -252.529633178056343
19.569616577901385 61.730725590055940 -247.196669145226139
22.429978301613009 60.711506269506550 -253.664974913163832
-64.429130463586176 64.007987164122653 -249.244797389801050
44.379958595527498 63.366942986896369 -251.886988116024412
-88.097592526153150 62.168726510518177 -253.823790694277335
-65.705233994096801 60.670151836855119 -254.627133391705200
46.977492803526623 62.827914311258262 -254.879301278420570
-14.786855802189953 62.081387190374869 -253.481486601372268
-145.813298038949029 61.869816572700813 -252.219915464610210
47.205202985719609 60.972560641591727 -251.308119085408379
-74.746653032015544 62.274201638492947 -256.899301972935007
-104.439070713931727 66.826206618887753 -254.357546306414633
-142.925009137583714 63.259678887356046 -254.862102320847612
-102.681467841325457 64.418369614406785 -257.722331436682623
-115.974750018520126 63.492813378847956 -253.311659031499403
-108.951298341564438 63.836242490286480 -258.246483459549665
-108.354218643185021 64.178499873234912 -257.287039925927786
-107.609178461148375 63.091625699741151 -258.980937460670020
-105.269967393450955 67.193757509400541 -260.194409438222124
-142.863545390134334 66.054565269449554 -264.605133034568269
-136.744527275151455 67.820441974270878 -265.980069806431970
-118.154027525829321 69.241267996420220 -259.542141318710492
-134.895491670011495 64.624091702582120 -264.669124523393293
21.267463219051375 67.388528371062492 -262.544236908949074
-135.462518139119055 69.267991920370903 -263.165062975161220
-133.858793218400308 69.246129609360594 -264.859676177660219
-16.225716326512011 76.335877044486722 -269.312556971270396
-7.645841130302561 78.577235406618897 -277.131687812257212
-169.274621946959371 76.224450368218015 -277.317507269454040
-144.509252323103397 77.476929743445581 -278.350030312485671
-130.873344962229879 81.055099298746370 -281.861417142692687
-6.324954026862146 82.898504355389036 -282.834803072942179
-168.931960883978263 80.756192065364672 -278.171333193064527
-127.665390370969931 76.650217322574036 -284.439555246740781
-96.413523594413263 81.088987469278962 -283.980389197182490
-82.226083731354422 79.390608681584013 -281.467043042410921
-69.243777096325204 82.632721041727109 -282.474030065076022
-60.587664474229143 84.134799097024043 -283.590562311839903
-109.147902003733208 78.974512554256222 -282.524372168905302
-53.285469698043329 84.047930844357879 -283.289641424555214
-48.422546126415988 79.119000589234034 -283.792708902608979
-12.074781889110607 82.203874002183568 -282.712176124930465
-158.546798222167382 83.487122141943829 -282.996665746179701
-41.116949555054489 82.672805061798925 -284.624710793328802
-36.384647485324145 85.205781020220002 -282.563744440241862
-21.112352172350800 80.706921186097929 -288.134590891783091
-28.112011215128742 80.651640965891232 -281.836662173794480
-28.306759613019526 84.239290379909050 -284.870871485973566
-17.033979475946946 80.792139917506759 -285.315600647896019
-42.585257142404785 85.348726039009861 -288.284276547189847
-44.328587230993200 84.001678102188762 -286.931495543953474
-26.820104122324523 82.289966113707521 -287.129101260608422
-12.675285323799205 81.723797894213277 -282.183757740895601
-2.904720381080775 83.241165252856788 -284.504516431892512
-55.727811495862319 84.921463835667936 -284.520991316139032
-18.434738115670395 81.810369949863883 -286.094971208713446
-66.575008265135480 80.346751023485993 -290.449669691541146
-56.639150678979597 82.860931098155362 -284.051879153269681
-52.634410427772778 85.179694813336781 -284.454430796036775
-14.626355561634789 85.432604717499075 -286.396576761510289
-11.220889842987654 85.598253580797547 -288.099131543592193
-2.546502320602062 82.522386060948833 -288.351666607666289
-0.609392108430703 82.224241868115726 -285.140753821086150
3.612947393079082 82.470199840811503 -288.448851705144193
-108.767515508783603 84.489514724690665 -288.382550223751025
-95.207995902027889 79.770961496975062 -287.678389552839519
-88.755452763453150 84.215492629839943 -290.773616920365782
-168.121414274015820 81.423312529716085 -284.207017993331306
-144.039010430226170 84.351356941811389 -289.330911252292992
-119.022352880052594 83.445936719604688 -290.090798133772296
-134.838289619682143 82.376399332233220 -288.656382059984139
-144.782804613323577 83.740768417707471 -289.383587852689459
-153.068443673212897 83.648235638889517 -293.372483993812978
-154.330393547387786 90.049410437652341 -296.261648595691213
-144.011579879443872 88.374943279470301 -298.648525261422208
-158.018864805304247 87.287213164560086 -299.081974577491280
-144.720619989366043 86.478097597185908 -298.852477139520204
37.450829594934696 -52.557215797703641 -49.908625980213223
37.218843213383579 -53.632058335801673 -50.657844864302291
45.902454372286883 -52.710190529747670 -54.920288849228427
40.821822637519112 -50.950663783727947 -52.275771884127437
19.115006496891873 -49.820131660433951 -52.673836273971595
50.649455720379059 -48.864432608082524 -56.724201665268239
46.060871250456721 -53.204548120496071 -56.160480321002339
20.508427431148601 -49.101723206627135 -59.369384932627405
50.412267219884065 -46.822698523828549 -63.428401815267989
31.168457311593190 -43.963775589217619 -66.121900559349370
42.544872187079285 -43.416800704225928 -60.841781851398501
47.842276128065222 -39.898773085493083 -64.890833187842560
43.212892662373413 -41.577419227346901 -69.973638396605821
38.092766623718667 -41.279374239071188 -69.530896594894330
-67.407019434385958 -38.016177162234627 -76.824712053891275
-54.394341786946974 -36.299151921295902 -77.141151410121864
-51.162368530522912 -37.656142496787176 -80.900050969468452
-77.969698405396713 -33.055035639152699 -80.203875133084708
-32.770929862701699 -32.309134259033954 -78.608649433558298
-15.271135848202647 -29.682552633306937 -87.085107035478131
81.457834749437694 -30.206099034348405 -95.037161963007605
87.776195252637621 -29.706548782175950 -93.290171077922807
90.033378409436693 -26.732078330592994 -92.119416437376074
-21.677974763859218 -29.535070640271570 -96.203227403345892
95.455436330861843 -26.097840328123649 -99.914603436815554
101.442870866309875 -17.725289924635153 -103.625924898343499
-41.456344907714943 -23.292435153176381 -104.137929370164557
98.294707643833249 -22.066220280098140 -107.080216993016734
101.358931861271913 -20.041641870676390 -109.237677277560564
58.349089576376961 -20.951718412190207 -112.851390209158950
68.835032893007224 -18.886649995097599 -107.916346948531185
59.626558107513105 -15.663301820177233 -116.709939808476605
49.143730209342152 -14.077907850927598 -113.052429494694351
59.764942743190737 -13.395881432867613 -114.256735794403141
100.323388799541718 -16.626510771490675 -115.104451051369452
-66.106619698057386 -13.750331343162769 -110.872525873104195
69.134503260544463 -16.382622701026975 -113.029021721535116
55.367190226118630 -14.625222231248417 -114.469893380892131
56.032385554323255 -12.401290802277467 -117.253865895694020
-72.613958693754952 -10.989619118416934 -123.278040410586584
-77.700644445150985 -12.798995792895537 -118.988652934768652
75.468065605600273 -11.830665688163824 -120.653937933313713
100.695012401597310 -10.146568303463628 -119.997007462825337
74.058843603188109 -15.145395056681314 -124.906511552383051
107.437873311045919 -9.848271831632264 -124.402603407352032
92.850760694048432 -13.114932677108857 -123.098082957482845
-79.207502354899532 -10.854331543032284 -120.164887642684562
46.246439893022341 -14.173075540008190 -120.672354867567606
51.410780944416324 -8.473808794244620 -124.127896210753093
76.534850152299143 -10.620368757211731 -122.669399222540022
85.774525420833214 -9.055966594946717 -121.556005569329301
92.758074652052642 -9.307133099328606 -123.068961587341931
-82.349410888956754 -10.333913929716314 -127.469224809486349
92.986156573011002 -9.793766089266702 -125.337509327661294
53.966227790860188 -8.922574590315328 -130.329933361238005
38.274054206593874 -11.737562357195001 -127.264114576431496
35.884371429703656 -9.773286234400736 -126.791426161773217
108.139924694775672 -9.271583391172429 -124.234886461355316
-86.069357624453488 -7.372506621839600 -132.032761042083564
104.357929063494709 -9.830107627755840 -127.512287313596403
110.813617992025215 -5.777043678277943 -133.581851897864965
36.835256633267882 -0.741856765360026 -133.498711583105461
42.131698763592702 -5.601119261184543 -130.308947243300452
37.174425709664270 -2.498323754908907 -131.033729332395950
37.913511934777858 -1.627819858458450 -138.457784651609416
-92.527510637562017 -4.157073962006730 -138.545229665426803
41.363225195011893 -4.176667720753876 -134.096351302150225
40.184552133643614 0.392810026276450 -141.886916667601838
108.185903603418168 -1.804785267361165 -136.136168037343452
113.187376252409919 -2.315524950778382 -138.074738658784867
114.604704797146354 -4.815062603455510 -135.447691055478288
112.488929152814904 -2.761728619374305 -137.106008626775235
-82.397800818305086 -0.544164538680727 -141.389504746898751
-83.834779291301189 2.402093513867379 -144.353565845624075
108.482043900531153 2.098540165855649 -143.396960992317673
33.341212915595179 -1.530024553528830 -140.599744714467647
113.882259606680620 3.351760054580389 -143.121910801509102
36.831197781266383 0.965715110969081 -143.920238084683064
40.267407205191091 0.279548361531472 -138.623821435969916
37.881059997050336 -2.872618098802905 -141.990482759026008
36.355344795992330 3.705419527995456 -143.768003317164045
118.702743785337063 -0.678538964337823 -143.811182448341071
-76.139022932209613 3.618057526224953 -143.765284370504759
-60.385176432673255 1.241192799693730 -148.264893767374957
31.858181501706966 2.785136611342193 -141.078881913970093
-86.809857884019181 2.407913939736285 -145.241967780594280
30.217345338378443 4.271187215132850 -146.374740865698413
-75.180482243755506 2.349997167760287 -146.880853553222494
-58.309024080076455 2.260425194283635 -150.035816397306377
35.158409649550173 4.647950637437332 -148.951795371768327
-51.473287272957954 7.260247222008584 -151.077939747921079
-55.251595074414695 5.261133071433463 -151.755048412813863
40.671267504899333 5.580525602942916 -144.670804819667126
-80.855278221587398 3.813009185291185 -152.788173923466786
-59.657635742241609 4.779706485746305 -147.338852449782024
-48.195230459487739 5.785900947082561 -154.388755298246195
37.666686391249790 3.223951378254194 -150.235314898080475
-74.559345232837586 12.271864840452160 -153.260616076338096
-56.469285354795431 2.886387211663499 -153.477961184792235
-50.883277665236726 10.997351384407571 -156.499830253678766
34.153833104362249 7.953595392342897 -150.348662640887255
-71.526802843604770 9.816752415496678 -153.741661534673568
-61.991694901662953 7.771287590089276 -153.866964901558049
30.227010178740446 8.007324922784841 -158.219635239440862
109.100349774818724 7.851115945894398 -155.111818060266927
-55.790585013650819 9.177377721818678 -158.199970048433727
114.964408151040644 8.233630488560916 -155.964908207347349
-61.363159159124457 10.464478637701840 -156.825320024433893
24.535015392885057 5.146976543265994 -154.658451362757177
-76.646284546515545 6.497310313097509 -154.240364044220996
33.123827990156691 8.718360772045276 -153.016027233498505
-46.958900089647599 10.012897646019351 -158.730814911032496
110.200512556458548 13.392803012423792 -166.059632448201995
30.427066879249452 10.591343875018765 -160.716964344185385
-75.023484235108000 7.757760174105529 -156.770870987075824
-57.425279957473869 12.560940162767501 -159.565345566768030
33.869074799416204 10.081856815593296 -156.525251693682463
-75.185059492256656 13.913950227519365 -157.450744465402209
29.361271039472978 12.082645053817334 -163.304403039409749
-70.453616553796564 12.158472131928274 -157.833161623998109
-75.293164511144923 11.675605693370748 -164.199843587171415
-71.519394489592713 15.286572193208100 -164.108084875819401
114.414888542899305 10.599315961509252 -162.915728061625543
-67.942600073444467 9.151529580566889 -161.949880878433191
-39.859933367735771 9.837476771635744 -163.328523764849109
29.978274437930466 16.056937084814738 -160.820660282154080
-73.366881975471884 14.007387687754784 -161.996043860484718
11.987803114799362 11.959909936071234 -160.960890582114303
34.891338777762222 9.750025441143189 -161.027201160454126
30.859908359839185 17.347879389461681 -167.751084347008970
32.598826558016860 12.463321925523191 -162.960965873618022
12.524249882297681 11.564770832468367 -168.327978107138676
27.629124943392803 12.447425474992137 -161.326664000536226
-52.259071952031761 16.132556680696016 -164.887685512134226
-48.192087596908785 12.375483623229604 -165.905919418274095
-68.560589496649641 16.153920147211366 -168.749527899646807
114.333993171941074 14.335825071597865 -164.832708577378327
17.718730234693332 16.216391123772304 -164.476539729110783
30.615415543720029 15.294671733974596 -169.922610217616267
-45.629152990019271 15.123215834141886 -166.235526825784973
6.077902951919591 16.581489090464860 -169.380820615374347
12.285609603122348 13.904391780701301 -165.528576713685652
21.222367250844080 15.860273407843032 -166.278636502807814
17.199350087506922 17.687337719401153 -172.233866092319573
-36.994822655755726 14.572649228269585 -167.605636964523882
12.500791942587488 18.561295724979974 -170.757467449293813
-70.447726984552887 16.315317377693543 -176.158490510762249
-46.217798160536375 17.643995121472120 -167.128632850006312
-70.466301424638402 16.946315552691804 -168.639743632002848
15.606581107926404 14.584607985923192 -171.337599337339498
108.421282710431029 14.618590168335604 -174.264495274033749
-69.590157565824725 17.965801663009632 -171.098202569349780
-47.049137704509675 12.831663124857132 -168.335799727118371
13.004965848346274 18.648327049740470 -171.986146423989425
28.708201520140598 15.897529965562681 -168.726697169491018
-48.369760589691609 18.597606530810314 -172.700800576114602
26.284459924237673 17.855135025723889 -169.917952457062228
2.036354759736030 17.964742860374905 -175.411692107126669
19.000382212334333 17.223557311945999 -175.985804327173298
-42.370202282255129 20.241185160176595 -175.994062353757869
30.293462944375097 18.113859234186030 -175.597693399836970
-47.580259542737608 19.214360198535026 -176.355927944549876
-33.695608843905340 19.470143428861245 -175.512115939078882
20.284106196334402 18.688352972508422 -177.991533777222998
-41.419815276874978 20.025225318619320 -172.811818281920523
-42.324447026090603 23.802758739177992 -179.543228411504998
18.664623345176814 20.096166414384687 -178.084290144616972
27.328018273871677 19.014950222816914 -174.615498655243783
-40.545209719155309 25.739995163167766 -181.305397823021934
32.530517805250405 20.856225729718538 -175.705624515658371
27.499054983157531 21.987328524883559 -181.946073461457985
-38.441380610326384 20.841346998714975 -177.206494064470434
21.519783834031827 19.961988783675515 -178.983380881119416
30.195022534077477 24.257891736875369 -180.343559230778084
112.930074065624865 22.587120079532387 -174.614392708138212
-36.440813936789816 26.055851860495814 -183.619191585841719
-36.485930398525177 25.561286149920363 -184.972173798894175
28.240946349130152 23.821104063198529 -184.861468554080801
112.115977636321730 24.135248885741742 -183.101105927395054
-35.107980051804581 23.432384407102766 -184.406294771589245
-24.509855316757417 27.457662559049357 -193.417278665494905
105.073801534986316 25.995777826722108 -181.268763839704746
-29.543941050885021 27.268185897927257 -190.076839538997575
-35.463760797795210 29.365246297084813 -192.616484359761785
17.774029607515914 26.863246752710118 -188.723139652887397
-25.848398528275286 29.066370774647524 -192.817963535925173
17.938286638668064 28.314121048479045 -192.582360688485636
-21.949861158608556 31.094835836282787 -193.719404300717002
106.891802152978727 26.839494941390562 -190.951030075220274
-26.636424468161245 28.308620713651173 -194.733883900832041
108.936831332604385 28.544857655506444 -191.451427866307398
-32.051201847034001 31.262577660488230 -192.113102750675296
-153.312612113623231 34.518253273804937 -197.007440213919949
108.828964909548105 30.745890783453035 -194.532274609578963
-23.521833174498610 30.165380783255685 -191.162521663800817
106.095593551152547 33.292472437891284 -193.482882417098750
104.126935382971297 31.970316288765041 -197.813226569385932
21.277528489177996 33.276296245823247 -202.872809189718168
-24.729988351103540 32.840732300407375 -196.810770221252142
-21.989867410845580 35.470441341453153 -193.781844057596203
-22.403192545903433 27.756875590929564 -197.124152615715332
-149.219987334891584 29.881954878713927 -197.613326562712587
-142.675897689811990 33.793959293870365 -204.907122270946559
13.860122875403386 31.272891684863851 -197.054193198829580
22.812389226188117 36.670650667524924 -206.489479828853774
-110.958375100442254 33.141749984696169 -199.472803070626242
106.076985763308215 33.343034233167245 -201.048367235577416
102.894527567230242 34.611533223935020 -199.615563347161100
-154.163949595761380 36.399273348751251 -203.421038629178270
-22.588983558611748 35.720642966451969 -202.511540103566432
10.333457176802701 35.835730871221145 -207.572879040713161
12.721387314628041 34.455556441989692 -204.078171735330585
-122.039681709790557 35.651748354758681 -203.714952730954963
-116.902449913717376 37.894857208274232 -202.375802136476977
-130.885329433087747 36.279653384821813 -203.133443166815738
-110.507114051012337 36.434690211138069 -207.187492591138010
-18.289266070846118 34.887168903412764 -206.021681464623327
-113.696545944788227 37.571756860043074 -206.316746174484706
-111.231361318223748 38.627030543279893 -205.171408880553315
-15.974346117615253 37.207295969809479 -204.716322812301570
11.560579318974817 39.155044665274367 -206.567012239838618
97.103287865975545 42.835404526940088 -210.613502855911577
21.203365045915589 38.728857985646577 -205.116948781228189
-166.526110953793108 39.553531457785354 -211.386903915762161
-13.963399173862090 39.796132793503467 -211.338696479431974
100.560091575484293 42.727237578134272 -208.447693903309755
-134.776232588665181 41.796386176308317 -211.566030825402436
-123.792692448612371 38.382900100048076 -212.416051388490587
-22.409707525987624 42.139564108004741 -208.686803273061543
-135.833968817035668 40.982303984239195 -210.619652945371143
-135.662021118380324 41.970354117874344 -212.491807829649161
94.613632052444672 39.443719661305153 -209.714737574912391
-12.902650557572130 39.352545232252524 -214.903440107765391
9.766037464306155 41.462001893089649 -218.592676508746365
-140.726101772326274 37.383665871490230 -217.095964506378465
15.905408170714704 43.370808884434425 -213.732086959530534
92.525793307943388 44.003587275416415 -214.439063217872985
-167.200249920328218 38.946090756323038 -210.793806194450269
-8.961952861388976 46.030496907557087 -218.099135530751283
-1.022868750081378 42.602745359553367 -221.067007681790102
10.530506392640243 49.327953884342179 -215.994122013385777
11.131515672284852 45.616736741542169 -221.660828527386059
-89.755059805555859 43.745021107755569 -221.887917555270747
81.742186871798623 46.735096490355012 -221.339491275909836
-93.471661025522295 46.813810078945430 -221.712466438259696
-89.590745554198634 43.248527098019963 -222.364064606937347
7.671445181173016 44.907672700038631 -219.430604552894778
17.195007560935171 43.820457173568258 -216.972124822418067
-16.150523405049114 44.791865347169335 -220.851541675460879
-11.699645694578905 44.222496580375150 -217.078865654136678
-92.222036778369485 49.250192784423945 -223.339301116850606
-93.347237632803100 48.493225615517083 -222.056230305946173
18.617576351242469 46.203239670867639 -223.068786889877885
-100.412188482134027 48.037831492514869 -225.780578921487432
-3.383178476272389 46.786642877031149 -226.032656345987021
-14.231302201183189 47.300357218184317 -225.256930023283587
-3.845240594649707 49.050441320929075 -224.206505909087440
-168.452622666797396 51.267896376951626 -222.606579910138549
12.439817066774433 46.281977021320536 -224.966414412750964
86.760965959128967 49.049920464385011 -225.456065287522250
14.142742855513752 49.250356768694431 -221.816049023533083
-144.268447719238111 50.036431215440331 -228.323154347189529
11.340069701222758 47.948806830958326 -228.365829782578373
-128.959032057017509 51.162409236384981 -227.235101591177937
-99.962742482887691 54.364824188821764 -226.348350898175624
-10.162273656290521 49.681691125543381 -226.397934056237176
-117.928413121430467 50.704837435858245 -234.487127573157835
-21.728204050334345 48.960334018041927 -228.788646875263424
-10.256207612066433 52.449278915633940 -228.353249116749907
-136.375261549229123 46.368576776726066 -230.014675174553645
-113.667132021959944 49.713657168857118 -231.682594155299427
17.991483219003840 53.622572140232222 -230.544189180901640
77.168420700949923 50.881280850773102 -230.888095550716969
5.275692384907990 51.981878969343519 -230.386936311281715
-168.867613363381793 55.514991191312951 -235.069086573262524
2.764848916722066 52.478941864340584 -236.995791446476034
-107.955427715368046 52.475692101858769 -233.543787400390869
77.498133552416562 51.275920654189839 -233.917990167257187
80.687376860480683 53.545068174177807 -235.698667410269110
-114.634671449182989 55.113540298342926 -234.733020697794103
-0.558429280323330 59.260848919426714 -233.611870018486940
-123.993497743700374 54.284597109664439 -235.007289930622989
-118.340530168133384 53.784308771934469 -235.742775648976277
-4.847921415096017 56.824659305928179 -235.326096680942612
75.430889589880806 57.098454911730784 -232.247561175958481
-9.670608173932081 54.073048811448878 -235.250737818647167
-132.680631694586310 56.970388464380250 -237.280970339371663
8.787912064858608 52.989967156411481 -239.847930708746816
70.652586904161353 52.666318567762175 -234.649184778137396
65.329953538388878 56.460467763970307 -237.980444049710172
72.107784421933061 52.642033266260647 -237.380630273528681
-130.622796288193712 57.284290569624957 -235.613405572525522
13.143161630021362 54.985142624065297 -238.440064520159297
69.982721729401661 52.730249104023677 -236.332944122630636
-12.324877464411053 54.259923213379544 -238.726638016601299
0.752539180112175 54.599276241661812 -239.163280948577238
15.783464732441470 58.570750425608779 -241.705838653063779
71.800572414339243 55.999443125153583 -236.983926584750577
65.974565483613333 56.934544476013244 -238.565227317893687
65.764011612577576 57.633359118070551 -238.636730190025503
-164.201720453325009 55.077042269466624 -237.083625783368774
-144.435606012839770 55.187647458549279 -239.258068714514394
14.588880639838024 54.486029812198026 -239.314353398508388
-1.208517024837306 52.332887026356168 -239.612896576218873
14.816397632677527 55.802238343888071 -243.024796512169786
56.822418433650341 60.134923759189341 -245.161870641477492
-4.402857579198302 59.724288146485840 -240.942241365123579
16.498024875477679 57.553725893836521 -241.127412140784202
59.852361711989069 60.018570188663638 -242.952373892169106
-21.917555324357288 58.202547178603325 -246.124478199707482
10.131075482207416 58.957070627145562 -245.498653181063105
-10.677051589788730 61.865095606004743 -241.342666718440142
3.046961433287643 60.775006658662896 -244.747768697865013
4.444271051959873 60.049291426621068 -243.291560876246223
66.073863161541226 56.245108991294437 -245.392644259010353
-9.539718438024980 58.441654123191370 -244.471321014573562
6.628447315086749 56.919518813388670 -246.381834615450430
-144.914713087811037 58.521288732346662 -244.948029707155428
-6.100773299821990 61.474608390044423 -242.510407661273774
-170.556769937930312 54.722110973799815 -245.627675206834169
53.375508347547317 60.489496106149716 -245.202284971762907
62.148986950800911 58.816197885990626 -245.424468057814039
12.350129646631991 59.392973740379354 -246.573134144550778
-167.838795646390679 61.770779417945135 -246.507918797709749
64.612204705147988 62.348792807827337 -245.055864080737820
57.932869552432713 61.673863855111918 -244.407510592850400
52.094139371023203 62.587564407353014 -249.150217057400880
-72.862752649627708 62.225214286451809 -250.293065621700009
-11.057727908677810 64.283648843729722 -248.038706324359453
57.774701923085580 61.439159581240006 -248.068534898735123
-70.479431806894937 64.533662831700880 -247.466187313182758
-72.070505772373252 63.123574397062498 -251.392005761393136
-69.531330817770865 65.453199956406920 -251.231245038360981
-88.676760505968829 66.503147024106823 -251.619953488728271
-68.458729575790599 65.314760202254035 -252.342062242916541
51.336220217841706 62.537852732367732 -252.208355743064658
-94.207456389446889 67.080852182822142 -254.893468088728156
-77.610884269550056 66.184967262364566 -249.761046518988991
-127.370824638221606 65.496851803467933 -257.238080810098666
-169.732507587778741 66.644548334375955 -255.184912078232628
-133.843910520308441 64.410572857501762 -253.982419064695563
-80.626629450769002 65.385839891903231 -257.845073378983216
42.366254810448417 65.901115928814605 -255.657087856123383
-135.044328867360122 63.995750760994589 -256.408626194098019
-108.577374950291571 68.141595018728523 -258.059721893323058
-85.238124865386666 67.615439481592347 -255.926942740430945
36.458256634748246 62.289090542934318 -258.741210874155911
-113.997254902252934 67.709294094777547 -258.057458377515331
-91.703703925037289 67.139941272152285 -258.968160935257515
-101.910633526499254 66.008918359229213 -261.700516641372474
37.327571372457271 65.278326527694745 -256.946166759442292
-17.530673730325496 66.501336203486005 -261.178847427348103
-109.673388537853484 67.011721519561547 -261.493778271007102
-142.766156168838023 68.799764372724212 -260.626993416693495
-124.427646860702723 71.480447101147220 -261.593259214990098
-159.964255237334271 71.669738536178556 -265.135557561805683
-123.524322398230240 73.677026111797801 -263.381509080785179
-166.926152847830053 70.182156440404810 -265.007896179815816
-142.757573286590855 70.471750100848553 -262.466066007407733
-153.374528284223658 69.887299775879882 -260.613802100300063
-15.046994601444755 73.175010367620146 -265.855245926149792
-167.080706111379442 73.514504834961940 -267.866662141866641
-18.057440337490505 73.526231744418411 -268.707973912123862
-159.672447815412255 74.580633017981427 -270.403208026487789
-153.929254896985753 75.974248630394342 -270.567478299551169
-165.923812673545740 77.660133362069175 -274.449111635285647
-156.951917051528312 75.446653488642752 -276.316228195706458
-14.305134951855253 73.789335499946432 -271.638179697027908
-162.057730143158295 77.874245758871794 -280.642281151420775
-152.874882749571867 78.514086897919938 -278.641188020605171
-134.755394809775510 81.889428373023932 -281.151132577337023
-158.958978583709182 82.010452118499799 -283.192725714958044
-146.572663063091596 81.867561565919772 -280.757716706100382
-135.033141252739483 77.032584683588112 -282.481408469086148
-8.732706675782575 82.109727373833280 -282.483808307942866
-125.719331917071685 79.046562278673449 -284.488974182437630
-140.045696904556792 82.184560427280203 -284.025042384918720
-136.135038506174766 83.307704595409447 -281.364127065172056
-114.806988867938244 81.494493333680481 -282.014368353418092
-97.369432518241226 81.249669793465728 -282.206732681293090
-79.455966842769058 81.047276720927528 -284.439971525394981
-77.819575624140924 86.031551594886778 -284.453806256748635
-62.737598509461158 82.954367298536525 -284.134085966855025
-66.357498228256404 85.397900403957024 -284.212648211238502
-59.315120138782319 81.991098797622115 -284.846437661591381
-6.231709183021948 84.149383290428489 -284.553494488086926
-50.952734169615724 81.747363318347553 -282.739207516447323
-54.474979619544939 82.860505723933628 -292.148067394330042
-51.535387974270556 84.068886527998274 -286.579404082241410
-69.027992034294485 86.672260466255722 -285.711487853495782
-57.522293529036141 85.818731799794051 -286.560860055110084
-62.830363484044952 84.085895197695635 -289.306396730958170
-89.939383025040783 84.994851792124990 -287.946154313595628
-80.781626546574316 85.342831249214200 -285.983447089172387
0.488763768936048 86.067677000581313 -287.738393498511698
-99.903955231911624 86.502154273396300 -288.384499199265008
-124.463721807346744 82.952424209816414 -286.257971648168848
-163.329623791123737 84.010765012193048 -284.318967475819761
-136.482779551738901 87.887631679447864 -287.737631298727649
-156.481654092705298 84.882774148428567 -290.168764752385584
-126.394439784392091 81.391650196312654 -290.207426123085270
-125.018375582030984 83.168654377669640 -290.747499310601484
-141.165002007886528 83.328477120900985 -291.919690947507490
-154.015502234205513 88.718812817543167 -290.541322355840691
-153.005829529722831 86.158740188185689 -296.145822443608608
-154.696312444320910 90.698356175709122 -294.904243324440984
-147.004832246369176 91.084516141432289 -304.291705055509226
28.091226774854452 -52.854784371170851 -48.778733427361786
47.460378014508876 -50.034698758316033 -51.638108609471466
18.387193471573070 -50.411073266932434 -57.341658217144939
42.542179786418792 -46.648679692590612 -59.490594891600857
42.301052945960969 -47.101806850194087 -61.207830642908803
46.975554957360593 -42.777848538908820 -61.971958851776876
25.233870614645742 -43.238756775641434 -69.157058191428618
-57.663223567053684 -36.817813795138150 -77.340403699603144
-58.014276203665467 -34.174935114264500 -73.810618039393560
-69.721525950859188 -34.881020421137890 -78.214862662328954
-73.793406902699871 -35.199964109338396 -82.940875433094320
-90.101549103602139 -29.960118063216470 -86.030931207063034
-12.145453540031479 -28.660073315968415 -91.704551390915583
83.192153451173112 -29.739623156116192 -89.871185442315479
89.924813007013285 -25.269095517798934 -94.004367359232219
79.986800902168810 -28.130037569341354 -90.939384086456911
74.304141599441280 -25.206943199244169 -94.202024699780537
91.984317191809694 -26.464324094584487 -95.501945839140404
92.641926990619226 -26.773189247598783 -99.054438092085817
-92.259398451984836 -24.202336498639124 -94.924951422604664
72.658375457165491 -21.027399296519864 -98.406419519079392
-93.800098538208502 -20.030041862650688 -99.953921638054197
-36.642156567365511 -21.141130707409847 -99.738615246025503
-27.608793132295734 -25.801151548338687 -104.809941057009326
-42.409704383634043 -21.119596723553489 -104.893296035264271
-94.096453045275169 -15.188630580327455 -106.303469965261314
56.391041892776151 -17.846227426891367 -108.430422106171562
59.067788235348964 -19.333976083455113 -112.693814326213754
98.393440766513606 -18.767613799125296 -110.288661879921364
-55.894543199207369 -14.791003008063070 -113.732483801714750
62.454121041806353 -15.896613339618060 -116.211645920133918
100.159093488656893 -15.369096792722390 -116.878593792494769
48.847256026605521 -14.531068285006866 -118.723237856821953
96.101159582660429 -14.838208380514519 -119.954899963030968
44.164413653862105 -11.150367836927064 -119.007434200541439
104.785659029343719 -12.607338587880546 -119.708840930647739
61.730369164285001 -14.036278329248141 -118.944222658563262
71.122709701356627 -13.683434764720003 -115.308300714612230
105.348989427614384 -14.891262016162411 -118.876705364961367
71.080737369041941 -10.566869073811439 -118.246175763995794
-77.173761694996898 -10.044647184406942 -116.654992245001651
-71.850627059816546 -11.396204406492563 -123.368618635982529
58.676645854854875 -10.812807164277842 -124.213266513274647
100.019754630434676 -9.613728653069272 -120.621493952519799
105.660330501671254 -8.484119209278575 -122.988745604353340
106.354782918454191 -10.696224486418012 -125.456619164204014
83.378343264483448 -9.603718778356470 -120.766279772532698
109.406246877164335 -8.188633149799864 -127.288242823852698
53.700389476302838 -6.659296309244978 -127.728185674349078
88.050381895237877 -8.894489907889316 -122.618181940115846
79.458091569905349 -8.515831990009469 -124.916062489652035
42.524219002322546 -7.265878384334939 -125.271914140735689
106.636117862836471 -8.751474877889049 -128.106883812759349
45.507525274296675 -4.794271514507797 -135.081105309598172
49.534928748534853 -7.859825539753600 -125.836496861450073
-76.176049834247380 -5.290394470930601 -130.754249006169033
108.323016997445251 -2.129331654052331 -132.725189335770494
107.908501456168210 -6.750467541647700 -128.864930582412910
42.662098879540061 -5.908913905379253 -129.616457034037296
113.264140194955289 -5.684105036506166 -129.970724615129626
45.683040342139172 -4.913031559454559 -133.245808530277941
109.274326502526591 -6.066971623457181 -136.007532400669675
107.408658862047318 -1.807897928241048 -132.568313231415061
-75.820593931218298 -7.064588641570678 -132.905926653494845
-78.206089358029274 -1.783696201718254 -135.301655361675074
42.071076423370315 0.414275435026545 -140.009202361239829
-86.766353267714038 -3.226221690579125 -140.661317421050114
46.948800993473171 -0.565119434364511 -139.133195969775244
37.998514280274158 -1.747778976758449 -132.371580725815079
115.624632832779085 1.702484949045656 -136.958317209193268
114.932667634817051 2.209243400466617 -141.022637651752774
-80.201350674688854 -0.638616461995596 -146.294379240143712
38.926878028952459 3.500436931935967 -143.006945221721452
105.554947401728384 -0.554664348778160 -140.068263879807148
-87.696625511221711 1.859885183424313 -143.827870860207582
-78.748614140352316 0.625844393213116 -145.016369627727840
-76.014323743872723 4.383370670338904 -143.538734592867712
32.814352891955217 -1.286032923684209 -144.198073669296491
-52.576571075524626 -0.603580130357125 -142.606940979434086
-58.368063351396721 1.535545840852234 -146.556149106714969
-55.551430247577656 3.440532776093227 -141.428854555704135
-85.225161277968439 3.318093839963834 -146.025226385162512
-74.613145202948914 6.076382304016069 -149.400969203991906
-78.504632566810471 4.191506832693021 -151.565153293880968
-50.613437322555185 4.240309915139058 -149.885677796291532
111.286530873290289 3.558730114337418 -149.931778216348420
-89.595982574058908 6.933801523658159 -151.840435199727466
28.888721917467763 5.884305850723503 -147.722859235088521
-74.616466541721920 4.434023088008141 -148.931834360338542
36.486892563118900 6.443550272326667 -151.893084117644435
-73.488657541965637 8.594150560898424 -152.990561774208004
34.267501133143341 5.406753381082562 -153.728906879498908
30.279196040168411 4.192570093896402 -149.582091924915517
107.714313437186618 6.915526169750121 -152.527353142777940
-47.833997172553403 9.830229779730331 -155.916731220234851
24.267113350109305 12.572455307964910 -155.937851155083308
-72.414364700184578 7.991424145647663 -158.567043683103265
-72.788424281028014 10.283653067024376 -159.273895411770638
-43.555319694830899 12.419613183958864 -160.473012701036936
38.123281819030943 8.553032475625342 -159.106140423271796
110.150689478569262 10.986381346552466 -156.919112140591835
-43.331506897742820 12.256760107445560 -163.727276297537287
25.352192374468700 15.652163988721773 -157.250027955681333
113.296671864845749 12.404687949247931 -157.468880438991647
32.776594392295927 11.675637910461065 -163.835099506385234
109.310237748702917 9.656790079694634 -157.217212450384892
-55.291770951600256 8.534710375552084 -160.178415077532037
24.882847234591985 11.891494076165621 -159.471596295369579
-72.796084423930211 12.635736750775589 -161.524258644945775
-55.542630594766386 11.481865395659659 -166.004633512138327
-65.180301094054869 13.242303572479578 -158.725313170468979
15.361236605314124 14.786108588435830 -163.063954528232614
-47.252367544017297 13.143035495745584 -162.300745949472031
-51.968154686809754 14.593506970721457 -162.001675187207439
-51.488096173920525 13.336661223256153 -167.439530751356187
25.419468716437926 17.266272668130874 -163.941564909610662
115.776361991428175 15.315809663823803 -162.100670911687303
-68.891237822554032 16.085778547290559 -166.202893706523696
-43.085546453852558 15.931751020184006 -164.560632851323135
-68.555579761635371 19.431297653990590 -169.034870496100837
8.181741582344891 16.614621005722451 -166.133960650941816
4.486852177859570 17.199403412346015 -169.063402188733079
-41.536332937137900 21.104555557829034 -176.370384464923035
-46.547631239873624 18.045226083376537 -172.712552342071831
4.911699726177416 20.840086292444049 -171.417692148028380
12.105219602478623 12.940452907294160 -168.916096902928956
112.577910821276518 19.470865216862890 -165.604999285573882
113.387762873613752 16.088326637069279 -172.992918223394213
114.630490282427118 20.959841524250681 -173.661011339528869
5.354285423736994 20.239862359253049 -172.560379152343671
11.751128330012676 17.987267792519543 -171.773361362920070
16.121203127547609 16.201187661494640 -173.565156835896715
11.417369321643278 23.492652554466734 -174.261411235602708
24.377291715154641 21.294807722361497 -167.669239480218124
113.109981702627891 18.469422298268668 -174.756634860674382
113.369999547928686 19.513257509507877 -170.092810702225449
109.953281583915071 26.309301943140078 -177.484385048156497
26.151146624278027 19.092745127131888 -177.274234799368287
109.933433714666791 19.284295883068754 -176.938199998675827
24.928841876383569 24.106828472250090 -179.028060761582140
29.403347049778777 22.194322440724964 -178.963928867685809
110.371120267772852 22.121667121198673 -175.292063758312878
110.777497319263645 25.341699885385619 -180.754102776485837
-28.979921980440096 22.421600338989126 -182.495623138988179
109.425223793722537 25.173246966279585 -180.056454668819072
14.264992372634030 23.688415597780132 -181.592160581555305
25.385945281725657 22.405546669890544 -177.526876935019374
110.834542336992527 27.000688454508307 -186.882905137901616
112.845389474107535 21.652099472264133 -181.921409620931200
17.189155333302928 31.387862893706938 -188.900845809423714
22.919133567388243 26.056449252203748 -181.579914502722374
-37.855831546197095 28.546745555401330 -185.000201388910369
110.758504136208572 28.794840835148644 -186.323082611908376
-107.617527974830992 24.351233399204435 -186.109347462778999
-141.601333465086640 29.054400365722863 -189.068414396815939
107.650706043574090 30.144760159743335 -192.244721529852569
-30.179370326403472 34.864465693667661 -189.799718900528092
24.216472961262852 29.131862320062964 -188.407164497175728
13.418415631163988 29.841337619086961 -189.981363681935619
107.945947702164048 29.244473745706951 -192.383126537656040
24.324521622718482 35.500455072393784 -192.782107568465079
20.945320461612923 30.200579603761174 -187.007152354306186
-155.245981698089224 32.702817446851832 -193.157349673469724
-31.409768140265022 31.155515937243159 -195.882491016425945
-111.393074180211428 32.546511651937010 -195.907302828037189
-29.265494412774320 31.727366179290421 -196.324170236585445
16.552332037115413 32.735079004854988 -192.420082943800338
23.588221196502897 33.294878670465870 -195.839202002307417
-112.179128144625437 34.148146153509956 -196.466214310792594
-109.764196145760948 33.288465185654921 -196.021041678181462
20.151170280102473 30.702888571770064 -199.668845815571814
100.966696762120975 30.873853165004704 -193.346206093497102
13.169480533141392 29.427822990226542 -195.432307503760285
-26.821521367075469 35.721934005049441 -197.843713612934835
-29.262688616283377 35.334369075773104 -202.661147728183209
-25.586199357726670 33.355005586388693 -196.547964101529942
18.700263709286226 30.999998712672436 -194.016051107691510
22.479718710639997 35.521489089065149 -198.856116979483460
-150.298181586856003 35.085112885064042 -202.796211782519379
-144.149713931812641 32.904466808102242 -204.530279112996880
-16.799981504335690 33.788711850089925 -198.101716298927016
-123.967421807267343 33.184291113549435 -203.258916999264471
-21.607832695856349 34.493107523848870 -198.871079921156564
-140.130866666900374 34.621587685652919 -206.012235001988358
-22.121661244974131 35.017032482449160 -199.353107149097383
11.279274558310290 38.880659629867516 -203.344902321752130
-163.221609520765611 38.005135486127699 -203.691540745344156
99.508047516007721 37.330382219146038 -204.568335604076424
-111.820303259307067 37.924414049818473 -206.464458400551024
-22.026935756893085 38.323381734555440 -203.367785098425486
21.299688648092094 35.420009780836018 -208.606690315992381
-18.459548967798806 36.968211566268614 -205.000621467327107
11.364262780281756 38.382762069258348 -213.417355275664221
20.594666526309886 36.887528844852262 -205.252656260895776
-19.784353654335781 39.001414676265561 -204.161628029460928
100.329626706735041 38.025724650449888 -205.312144856007109
12.869483635596811 39.576944582520170 -204.769991742933144
-110.899447549032189 36.575094717764379 -209.798155387843593
-20.456204499911816 38.164784823225531 -204.525826719307815
-123.989812606917468 40.541670892579340 -210.234612138160799
-133.726649451524651 42.017614074842307 -212.612380861503198
-119.801844938299368 42.334033669881258 -211.000099837340059
-114.775895112540567 41.632041804246292 -208.693764494162423
8.117028823552246 40.974588624227373 -208.307275758608654
12.293679898227168 37.874230197117264 -209.353394916593118
-144.345276234725929 40.715511583101147 -210.794429087546121
16.103683058764130 42.121031388807381 -212.202989784297415
-142.643110833981979 42.230234387437612 -207.617071236227929
-26.013688590086581 36.029945911305042 -207.787745562376927
-12.299376937640243 40.258433850674642 -211.360607608866019
14.545289912911636 45.925708336972903 -214.728885533261064
97.061812165071288 45.905849115773790 -212.066747999900770
-165.878710808305726 41.918679678499082 -212.803392839720487
-11.290232317620976 37.350578019791449 -216.862937819995778
98.254244358824124 40.987295629056987 -212.804277010900222
-17.560986932506637 43.580103986854503 -211.101777700338943
6.178206903688462 46.913550682301320 -218.348437997521444
92.125434758851981 47.092793280252899 -214.632269047377122
-18.820039506307648 45.221397994334851 -211.650315172780438
12.652553652048404 42.077669558140528 -211.422793240533963
90.431478981535676 45.185520679425842 -219.474993254019466
13.515848987322231 40.866987573105270 -206.213607149507311
19.181220026361288 41.733373607753315 -216.729505902363343
90.980937211644019 47.124987979177810 -218.535957939974054
11.957509909711092 43.001947438150424 -216.902423795948380
19.128485079126570 44.925515919877590 -218.474898378359228
-18.922157992560383 45.054192997334042 -219.513190143218992
12.116715594342109 44.701563921680425 -218.353134827192832
-145.985990552501534 48.085443858309588 -227.633638907145439
-11.634893007489005 49.580052288674231 -222.551232026216127
88.753850189016930 46.130299996038062 -218.446192855724775
-15.207871099308823 46.314957996423985 -220.837185516139186
-93.392997806738009 47.636793495889101 -224.934038200893866
14.859282946058809 49.584646896815741 -222.110280221795449
-93.795225135583607 48.775762591739181 -223.610489814119006
-6.909664702304496 48.037851674028566 -222.247058558284891
83.365949837274030 47.488075465941044 -224.865526748410446
87.814549503585681 47.342840095600408 -220.660362922017100
91.487658175470173 52.580716362953531 -224.088158661193177
-93.930822865536911 47.984585910436920 -224.319217083945944
-164.540864793000992 46.869890925451507 -223.973960302762919
-105.064399325484118 50.465795041448686 -223.289370784012362
-94.623681411726110 49.273668219414411 -226.622767241941631
15.538823787243405 49.135118919796803 -224.887303709116651
-0.136225775466952 47.196885527382285 -226.793300962066922
86.459817991523323 53.572239946972310 -226.500200535159394
-131.372837381801332 50.557523511031235 -225.916511804644557
-133.636303735505010 52.566975436032266 -227.445290582803068
-111.224198768344891 52.918643440294332 -229.853569064219471
-109.547100644744205 52.495309467126589 -230.485274210489763
-0.073120660674360 49.626028336539910 -229.129089239973126
-134.232841343587751 52.701911227887400 -229.445594574588512
-112.226578661450048 50.150208303305881 -229.848079905390563
-17.162940619711147 51.462991585895757 -227.590809510523655
-10.288256118926093 54.522823760612873 -232.253123339790250
76.837831935106692 54.387031817130044 -229.843524790430507
-119.638264593273817 54.879765952095049 -230.509255441917503
-6.530176013644350 53.360007335739603 -226.280023068173335
-16.691423152379976 53.385910229853138 -227.043684267662968
-3.147950372598486 54.957445015190871 -235.466218259505013
-2.478134502529307 52.968522198254533 -231.144148993918606
-18.807782088484686 55.754367393451759 -230.806196644286018
-102.962582242555470 51.632898363960962 -234.510748089057557
10.537014514358235 55.620034702840989 -235.768108818327136
-19.070198176783009 52.744097884962230 -230.315338902719617
80.981226662349712 52.322611712214574 -231.667847658861120
-169.337465650806024 54.182208971975079 -235.429922007829163
