# This PCD file was generated using the MATLAB® pcwrite function
# from Computer Vision Toolbox®.
# .PCD v.7 - Point Cloud Data file format
VERSION .7
FIELDS x y z
SIZE 8 8 8
TYPE F F F
COUNT 1 1 1
WIDTH 798
HEIGHT 1
VIEWPOINT 0 0 0 1 0 0 0
POINTS 798
DATA ascii
30.846920020915224 2.156272991654517 -146.304693895087013
-75.442323745817760 1.408829331234828 -154.821645357443742
36.830555492929754 7.481230171480092 -152.439322728617043
-76.905225329993272 7.949718976761673 -152.618096424184841
37.001424999895363 3.890590126985202 -152.525664510386548
29.026546045540574 7.883019743420465 -150.005507086793983
110.012985777543989 7.595894235989391 -155.515191073036846
-45.089924922242879 12.254516605815379 -151.008731155543416
25.388227563702472 9.799746964836428 -154.880260905075232
-71.892393522145369 12.847251453432170 -149.519288667239096
-74.902340949099994 9.436512471534730 -160.821947738276293
-45.593393302517889 14.190485341218858 -162.975761403341750
35.582814242007132 13.252964174166726 -163.553515199763268
105.024009261234809 10.416445778033578 -159.138940827515171
-38.639078045199170 12.511668643057625 -159.197727457452118
22.271045144062832 18.191530985520835 -166.078755046024526
116.889183588419797 12.653132522645967 -163.585061990270447
28.845079472106473 11.362701587106645 -163.090536521689529
109.183834585369709 7.770250891444867 -157.964611924064826
-55.772820140967227 7.323705265262013 -158.925278280508763
28.775478880483291 10.725348101117984 -163.159625145763698
-78.507292570353201 15.019329170485513 -156.612026087099281
-55.324467555674858 11.385501048239282 -161.502850950722632
-71.783013528577271 12.822179510469494 -159.867665485424311
15.948984294150051 14.927554080851024 -161.201503064459843
-49.674117677901350 14.096370666600341 -160.979143584723460
-54.840185857315028 12.963323337725168 -163.553411351152334
-54.725141353575410 12.672492068468870 -166.023610717588525
25.337541193157669 13.677708952121673 -166.406639586982465
112.017616350534567 16.270125160512066 -158.982263686118415
-70.257644807038943 14.979073781910884 -161.613377416336505
-52.893695414953854 16.981102165253027 -159.968750093482726
-68.051854305427895 15.451612604437445 -167.184388667981381
11.453984686770298 11.816783605671709 -167.291170597364982
3.279923342069679 22.493691181783330 -167.265904862914454
-46.415831323062164 20.365065304543627 -180.336725552215768
-47.063652768369302 16.268532790353611 -172.749388724233512
5.870790058497521 17.335238308023353 -170.770401124571549
11.989299701511902 16.541683966993588 -170.859347804796471
114.316049214055084 16.257766538160311 -169.005293891878836
115.624073779534456 20.035704981204606 -172.123318783318496
105.946087304768795 20.102943076800457 -175.752244222617605
3.724288427107708 21.665592501936356 -169.430173966047732
7.694087205927289 18.995920395359558 -170.791928908696661
20.974288949539339 14.046506891890107 -168.326453878087790
11.672767361534419 18.545273990034957 -168.116415223114046
24.581061375128265 16.681075127315264 -169.077703782125639
112.231812119762978 17.356389130774545 -167.912098168079183
114.703739193171131 16.246603633441847 -170.759966418810990
115.990873560222383 24.454629492921022 -175.943905256900479
26.513616159566116 19.254467470270392 -173.775138567110787
107.992202946388318 21.237497280225824 -176.266395794007224
28.343132153105781 27.721854062222089 -182.104823958209124
24.447416545190478 23.203076348080309 -178.579174289892563
113.879106956449462 27.008823018280832 -177.236690951834731
112.959907548259224 26.121320214734258 -176.521231149196211
-28.354823514506506 21.642415764420370 -181.450416543008515
107.333761590226956 24.809757365447535 -183.006315745294899
18.322682997493462 25.838108073155016 -181.460154250352105
24.385540652040444 21.367293354284300 -181.127396356014202
112.081434491029412 25.335360416335483 -187.326665697995452
108.467126216128179 23.043931767518593 -182.760159947962876
20.251106201987266 28.756989277894558 -188.391979728715711
25.091403024305901 24.052015894196760 -183.411506342979550
-40.560483489370476 24.566779182682176 -181.178184938836694
113.335867235945059 30.348808781586065 -188.839790301621832
-104.604595243574593 29.921237631110916 -182.190494756376665
-144.420314129806059 29.944356744013007 -182.654340928454246
108.169837474738785 27.677006429419734 -194.215732311015302
-29.554855107200428 28.420374688624591 -187.973299025544918
20.285723336653660 27.268548476072649 -191.661588931186230
10.969063313290613 22.326703220974288 -188.585325353301357
112.549000138398739 33.540797743270303 -190.684022709804140
26.581807298023499 27.128156342909080 -188.523986209641038
23.075611772107909 27.830073309352059 -191.937317499982129
-150.449394147877911 27.666469442208491 -196.508569275333059
-34.123430255763992 27.164738543872858 -195.848194615401553
-108.417959299952969 31.071853766685859 -188.011428723188345
-31.730712843848998 33.027046032050471 -198.608628353926349
11.764250835524470 30.637107579057894 -187.973479466970019
24.252007431487847 37.872876431082773 -197.231622152074209
-111.880686356718371 33.318886567260215 -196.281665670683338
-110.652411129973459 32.960444947857077 -196.207239126687938
19.296226464934314 35.672715343844885 -195.834823769090121
100.710913151837133 32.380482963859492 -190.905060291155735
16.460977144735228 27.460909982097650 -192.521042449574026
-23.217743065498702 30.449714064931239 -201.187042512281351
-25.250961517391040 37.088631377918553 -197.201005889281930
-22.715555987673596 33.774401135199561 -194.732656022210875
21.378188361337230 31.975395060716981 -197.109610820653074
25.092875307751317 39.183450443893399 -201.448037125840727
-148.268028226894586 33.663248856457727 -204.918171923358784
-146.252866568478794 32.901606570031710 -205.541384849408189
-18.778834840096479 39.306402111298105 -200.201752972764552
-125.657839381869621 36.499912717388831 -205.194917574007235
-18.454137622435766 34.915551398362936 -196.856430257132843
-140.866875445051562 36.206840970357128 -202.200818471246066
-24.709605065151987 37.918359498141683 -201.854403322531056
9.995911664659667 35.924021152620995 -203.308635159391912
-165.907207573262014 38.276158166110783 -205.908289972371364
97.687025875185640 34.390639060288237 -207.439798099623061
-109.172150909424516 33.552455356598109 -203.080179636754337
-20.574422932467229 38.817022072720576 -212.200536554608846
21.613439655085742 34.517962575273586 -204.108875362869810
-20.700667080561683 36.312149653278240 -204.623870992351584
14.968892358759581 44.282019280492030 -208.898543843126589
19.532810111957183 37.043697734879522 -201.714064950701868
-20.544586922527685 37.550873743009532 -207.852245308523067
101.394891840285140 36.221040940362933 -208.625131162912197
7.492635766550301 43.221358204783243 -207.913283616997859
-111.229526848503056 41.318267561172284 -207.052475286032831
-24.270107666964549 40.250522850104709 -204.863409352249107
-124.800794337421038 38.448106672489970 -209.243168249527486
-135.169450829563942 38.257459680417220 -208.367161635814739
-126.346561109996159 40.997517560324880 -204.668572817299321
-116.001463733860675 43.561629892995889 -211.801453986062512
12.524652544979256 36.417941101318597 -209.402028195098040
15.712695172275161 45.690877976898051 -203.928760723080956
-143.928994794716118 37.603316504968809 -213.267999110115397
20.179007467402172 39.506175753703452 -209.747223386281945
-140.923343787793897 47.799786386165835 -210.162749026906226
-22.851641622953846 36.492751550942813 -202.043432028853147
-13.025076141021719 37.335577753937237 -211.063632674479322
14.231973592899957 37.441168970283478 -213.145828622518309
90.819729486812150 40.685394660227118 -216.189791480788870
-163.925881369850686 41.256103359358676 -217.282588758759971
-5.411329672710494 42.338941570150567 -212.468296359092761
97.912416122490725 43.850833906197728 -213.824113403113785
-19.902959702318196 41.530127792513980 -211.734374815398610
8.835234742789165 45.477018946715525 -220.082868927617056
95.441069524148361 50.566861204615925 -217.923514909278055
-13.611674551819135 42.365347850690668 -215.422796647864203
12.020194649783093 40.571698577645513 -210.098167652536517
94.533683161060026 49.331470953918860 -222.398091063816082
16.880375227014373 44.864283034018975 -211.641373326204899
19.262692816809007 43.210913792543096 -214.905680979300087
91.841739316831422 43.321072355621375 -213.369115875786633
11.543210233959210 44.747043750232031 -220.076000851950027
16.218474898344375 47.435236052865875 -219.233046986822728
-16.093114023847598 48.288784476336161 -217.449446231111324
14.242530548141755 45.269833288233492 -216.724030241151581
-142.925660730579438 43.725464236840281 -234.203607601753731
-14.298302863985930 45.159497265151323 -224.546513181797792
89.217308702770850 44.419174398053833 -218.741813426347051
-19.950411332907684 54.136429722416388 -221.668617939977395
-93.128134424539397 45.620044214327500 -218.963707931831919
16.492216641645978 52.114668875561073 -216.983858720728250
-92.887927648986206 44.573571042472743 -216.679761150449110
-4.172908464049132 47.686679830924888 -220.026342596694519
83.511800327212882 50.120878611782366 -225.113990564820710
94.571705640460920 52.701181426114964 -220.850830500292687
88.474846465557619 53.104573504254063 -228.938395581466153
-98.770116824517459 47.769617565817882 -227.143312599636005
-169.197693062519846 47.754863720868265 -221.446983657156608
-108.019726902941429 51.424334230595321 -228.372915223978453
-95.028123852189879 47.896129001571872 -226.703858351669709
13.005633468196120 49.944202428783058 -227.035438834992789
1.215224052077453 45.984438140513262 -224.575438514693900
85.764537506375717 51.212559475869988 -222.374323114073604
-133.596217249243807 52.323573413881185 -227.880426857056960
-137.101556537938478 53.693268170310255 -227.800573231159802
-113.943053600599626 50.697219766173546 -230.028550416354761
-108.872556642140808 49.468433891140862 -230.111377947989439
-1.179916701552711 52.791294522689391 -229.307980898311456
-128.319389733248045 55.049614447918394 -227.914682545782796
-115.650617448414962 53.650131155745072 -231.978407491336270
-13.807082085793667 50.661358524642800 -227.796889314285551
-9.945946067572175 50.619520602837184 -230.961651789400207
77.484253721228214 52.968696901559596 -225.951996510334084
-114.314420423389805 56.247168661487592 -228.574639362394379
-7.504015641550495 54.171849147005922 -233.061876155781448
-18.592197790932737 56.224091971558707 -227.047195445211770
-3.224270770159511 61.640636521518083 -231.504639039300940
-2.152877526819997 53.532400139222595 -228.039362206808761
-10.346379927641639 54.864001332068909 -230.857581684084352
-111.652969468839984 56.352007545861213 -234.940845254475875
18.482718382615751 55.030724166184768 -231.489129405164704
-14.448658587271115 49.883944701624856 -232.925188559223926
83.562950409169630 56.431896346826797 -234.923609319634210
-167.944557477094577 53.679663086311933 -230.991349641915434
-113.204948406039520 52.090622171083780 -233.459009406997268
3.048456721334746 51.901531129875274 -237.583867718943594
-7.604700859702719 50.729803282624090 -234.329011283389377
82.196385545315351 58.145070151824534 -233.738796282585412
11.930816284129506 56.923947954314066 -236.592745933564998
-17.798249974015835 53.628156590621458 -231.395084123816872
-118.917460305948268 52.515693769372476 -236.092306385887440
-130.133077339869800 56.288740722204274 -237.690089230104007
8.700898621934114 54.995285633583499 -237.712320822831714
-148.508769430097118 59.009870891139052 -233.034787973182802
-6.401503503969706 60.680918297926233 -239.413443862170737
-156.676113217144973 57.887776043936384 -235.931692086274552
-141.023091671809652 56.362330102596090 -239.897921337321293
67.037900184343471 53.211693133730769 -236.616682107370281
-4.027629105044008 58.485756625443209 -238.451174767950789
10.379814669917616 55.074075511858034 -239.304630270131753
71.769317516193340 53.332070151320359 -236.601438551615161
74.119985460909618 57.161902331999293 -235.647422494383136
10.350405807826087 60.857374484636814 -240.251637747811458
64.356376853137135 61.227418501806824 -238.943381947449808
69.432158325302623 58.047905548106193 -244.282499826147756
-3.568035097173688 59.618627160574626 -242.280589094574253
60.424134289050080 55.631533625335116 -236.165708728561100
-6.347961814063749 62.000561526720425 -244.052100100083180
60.113459734473629 57.614915864092872 -243.024243444622556
-167.237812715329483 61.420987517789627 -239.835517193693875
-17.852393068410866 57.387095669507829 -238.083731649742987
9.372681666224684 64.622643021000968 -248.242894987408761
4.333540006843576 62.218011126221931 -247.941358347470981
9.461938762207499 62.027390265651150 -239.566890696407540
-14.246700864365147 59.372608232424625 -238.271899659106396
10.159763489691517 60.638315424588612 -240.345682766262513
60.470652901505154 66.925374495625604 -247.054582155768657
-155.207584359892337 62.799354866209917 -243.213916369186705
-153.288073780066242 64.828006391815265 -239.003908044320070
56.884728150880633 60.792785096936541 -244.252010455920214
-12.856586353493393 63.052293670715876 -243.312036705569170
52.773027044078070 64.449161022381119 -245.186860603068311
56.897791676168090 61.790394906833214 -246.100813140577770
-144.622571784273845 59.211151749419500 -250.845947684342377
-14.541095758473192 65.165228833011639 -247.747609292284409
53.284177267489994 59.068302137054651 -248.564764603001720
25.206300878134126 65.496872423672215 -251.889394567213373
42.900577005158588 61.235109664178346 -245.994810480428498
-77.732214996184481 67.443407727982688 -247.713120498413360
-79.593684617762747 65.104294568747491 -246.855417720850227
46.290790591478839 61.420039549079881 -251.987806628979172
-79.626343121124876 63.824243642194077 -252.911551365686165
-76.005558230689644 62.021744865408017 -254.011063782331092
43.632142657284085 67.504232809842790 -250.582250218253961
-85.959651818971011 65.707556662831522 -251.612641129135397
-75.552513560517610 68.261187975574757 -251.702041521217154
-71.611957319585940 63.639212855793552 -252.442519410158212
-19.787204678647015 64.898888416192776 -254.634302975764399
-144.397314114528996 62.632059869682180 -254.675996362197907
-156.095563692332661 66.071265346474931 -250.336336495704245
34.681843458630624 65.583646452275502 -255.587719769918522
-94.581551025252409 67.182086384303545 -252.394611246696087
-14.710556885805893 65.010377071971547 -253.371533193320261
-155.460239958631917 71.453940593484603 -250.062884318262576
-145.078588509878301 65.681543595121667 -248.004837523442774
46.850258499952581 61.796328208404610 -253.869782016961466
-131.598740872395638 58.678437898520137 -250.681018842917638
-126.683920044837549 70.674687974166346 -253.191581395499725
31.856494815566229 62.991444241529969 -255.139282915591252
-118.771242808078838 67.469869108228323 -260.740167647216083
-114.671752973205443 69.965532373860981 -253.460950978593104
40.273844710259098 67.375575594108454 -252.943238520535488
-89.823248095361677 68.701769146741867 -255.452054943230394
-157.785012933662074 67.874879362879028 -260.519095736466795
25.749729647176565 63.690603409501826 -260.731373445542090
-12.348914363166948 66.997572512083138 -256.099872611009175
-102.193365555067061 70.788720874618619 -261.829082611653121
27.919737549845046 65.423342898119145 -259.985624049558396
23.469202546620537 68.224223119473152 -260.519697827265816
31.075259409047916 70.114534244355497 -256.359879717806052
-103.007284939369868 72.862836376951890 -260.387940936986070
27.872620198077971 73.454070908892561 -259.777507181995418
-110.237111006361573 70.484284436977859 -260.588920773935286
-166.054760684379744 70.850359517337651 -262.778137803810807
34.790255298197735 67.825492354540174 -259.594321216227456
-116.775482210520622 71.888522666625775 -264.703432097627172
-157.376999294564996 74.321936556998523 -262.161367483802564
-117.631079335440731 71.363277073496562 -259.248959964117375
-14.630558451388247 71.579993212209644 -256.714807446882958
-124.386380015085180 70.484311351068769 -262.392025465734207
-130.921646717860398 71.134461010508161 -262.967632829941294
-158.211906884375026 72.886191780495921 -269.385363538773788
-154.669873221711640 73.378525691936247 -264.621227883613301
-14.480702048772788 72.647510611580316 -265.852451218793533
-164.882545758851109 68.496974142027511 -261.378911202981953
-14.054651282189960 74.378986809409696 -269.169690547118137
22.026563047213141 73.470318767291943 -266.576416209770798
-160.065297119713222 80.425116464317952 -267.813564056462383
-169.516873668724656 77.317863191370080 -274.704581175825467
-160.182486737418685 76.584953282076086 -272.020258233287905
-9.716591323044518 77.483708345160409 -270.865188101032572
-152.686006487858805 77.821699585251537 -274.836223093881870
-148.285869338888460 76.378604463863311 -266.677493625612385
20.181534209647555 77.474464444993927 -276.497370631810725
-7.681307637852257 77.625883497867179 -278.658533428510964
-168.936105017197349 80.212650424675772 -281.303971159869718
-166.828328399829672 79.284474210565250 -275.357409688689074
-159.259904096915761 85.010445684941359 -281.990429523927048
13.556855619101627 77.456859484533226 -283.757213042650562
-165.752584120862963 83.467872713532557 -277.666528239520119
-142.345208644407990 81.795113139556321 -283.041717837197041
-164.815558454921813 82.289367163978568 -283.513510552479090
16.434391554222156 86.052075996926689 -284.481347702488506
-120.552394492232935 80.469003201089293 -283.070645895577115
-107.302828733296835 83.656163374402240 -283.971416240748567
-101.032296210192797 82.538205759783210 -281.737883575118417
-98.113427256012173 82.870530753508447 -281.612806596384644
-87.171548092394431 83.541124098498372 -280.828594551449441
-158.851700518088734 82.895919507649452 -281.842111213418548
-82.719880326128646 86.266859753887317 -279.609103835958592
-162.786629365612924 81.661562698804047 -282.253050037154594
-147.540180452563277 81.040408692749324 -282.660823118724011
-76.346119093698903 84.940520180772964 -280.712518120853986
-73.514085759466795 80.605711443811998 -286.454952862211769
-74.395255791783640 87.368739511346234 -282.575475211794469
-71.053698772628252 83.744042836298846 -290.117535259870920
-149.040415398221739 83.680139280030247 -281.337396754405006
-80.231510730586635 83.573523245343992 -286.704167042506015
-84.397648232874275 80.891426380365317 -287.834309698614561
-3.015001153574583 89.035475147717108 -283.502926447756238
-170.487929827044297 85.395981939436183 -286.215660192324719
-163.388509296467475 87.207784395668298 -286.868855803948463
-92.597337782603375 81.915745320574530 -284.019848431717321
3.358564814635809 86.673693251922955 -281.848942095198709
-102.618049670898088 89.654586795556114 -284.984971883688559
-144.241548945040989 85.585445568718839 -287.105060734377957
-119.053646587095855 87.974619361586591 -287.969681237568466
-118.868920668776369 84.789591237943654 -285.433519055698071
-104.977828179156987 81.635194329443721 -287.960386258685219
-112.709407177802419 86.656925508263839 -287.332688382587719
-154.791902049359464 86.366947011392455 -284.414967299230227
-131.904765572462935 91.417069105592162 -285.122272381682819
-161.308774072621674 87.938411977360360 -285.861360130413857
-148.878688659179915 92.331133568290511 -292.533116642565233
-146.939332274232811 87.199783030686191 -295.494964668053171
-154.491336116830865 91.136912607364096 -300.510895681970794
-144.331771264007898 96.731415508617189 -305.738110378011868
-146.374223319492188 95.554340979839310 -308.546152005709359
22.151428507401544 -53.112626071377690 -43.953745978142507
32.604607346379609 -50.169788443665148 -44.237281895305252
43.476118598405989 -52.765765327503352 -52.218089762798733
38.493634213084022 -52.941477138159861 -50.385956205210306
32.523862682519848 -50.103715274351984 -54.739395053470012
46.282982529134536 -52.158646573869575 -52.895015399829902
24.224839875852155 -44.703001775268149 -58.352751039505293
25.186034876119944 -44.417131714784610 -62.820328834392683
23.831805144709673 -43.264474779770524 -62.454691801755942
29.210788397377137 -42.405179375753420 -69.381929678053396
28.509394453473398 -43.007966927031525 -66.840891953807187
39.132606557602145 -38.628665574217571 -74.001386138535594
-65.005020626631506 -36.980159209377305 -75.582552368769058
-71.515883256892721 -37.472099573823016 -70.632030857550703
-42.495676858284099 -34.798664470881455 -73.281654962754061
-34.366145721253886 -40.550640311841526 -77.548767182584342
-33.055128300111740 -35.166313260669405 -76.329779384037224
-83.511696879927925 -30.335927552529128 -79.116222105598752
-85.957449489503261 -30.053305618964433 -74.971445884211008
-20.018172699107755 -36.073491581649414 -79.815628695334809
-14.431114294439030 -29.238993756029668 -92.840872958239729
89.936157119508167 -30.750248720704736 -86.693971769177324
85.006221501842816 -26.796769791162404 -88.931954167281731
-15.890112005297274 -27.151616991058543 -96.183916141378333
96.114203549763900 -19.623532904363490 -95.180257173752153
68.339126312018308 -23.507143756989901 -98.272508996755263
94.644150791830356 -24.568409309402440 -105.757030385676117
96.640591626093354 -18.008269546009874 -106.508305027533268
-93.501011435271124 -21.728944150723979 -100.924658447826715
72.912415329684109 -26.455606745385637 -101.965781699810606
67.841108219343496 -21.740943360201715 -99.510655418486749
-47.964401668384795 -21.195351081545088 -111.383976556754803
55.768175316773231 -19.032029850800939 -109.853025811221059
-91.884442301360252 -12.490651391370754 -112.620295260760926
58.643561150890314 -20.005927092933746 -103.915660165351269
-50.004837932871077 -16.409356730938715 -112.877896090039599
-52.828230246521080 -18.133907253427200 -109.013641504046419
66.400858591377684 -14.171189000665178 -105.171296705492949
-59.725576587005769 -16.419664325018079 -116.218680598792560
63.090014435004171 -14.267852318619356 -113.046697371954792
62.893933661223876 -16.580219208317278 -112.565852332050099
103.988229244856683 -13.682593150388254 -119.767872780488503
45.981883785921475 -11.427356555854692 -117.892373508466136
62.396688586784578 -17.251377928977803 -116.617711115975240
61.816505515634887 -16.156996821214289 -116.307527377160270
-94.844627923591943 -7.765471869189504 -116.383050083162985
107.347245868694344 -10.009172454965599 -116.288202463618347
46.185992831868759 -14.888768901218713 -123.656356073578067
101.432824370650522 -8.803996235917650 -118.362805968599730
100.076564167748785 -12.132411810182957 -116.130828004025446
42.320242894862098 -6.165449091974246 -120.290771904685343
99.855814655208562 -5.867360704557154 -119.660805246533556
43.619843030993501 -7.106382595241330 -125.795601142633259
76.420689631775758 -10.158301122137580 -120.047439146857300
109.836267048753811 -13.541335251459065 -121.220761049294239
74.629374686180398 -6.674404001364696 -122.242566774471669
101.990051614717743 -7.734503980615536 -123.260908327594848
73.665753603699429 -7.089534181607189 -126.144785747560249
86.564772886149626 -10.447456294885876 -120.607939328980194
89.772195917119177 -9.859840009380264 -126.213074540111705
55.148227012612885 -5.825911548661381 -126.691325457713589
108.665719432280682 -8.916670051093771 -126.390019471033455
42.391679008723010 -3.858780111896805 -128.880547441008986
43.287672627513764 -6.074734828319974 -125.034818504852822
115.921679683146508 -6.539109670191921 -133.443975578005876
-95.403735264012752 -5.992691013249052 -127.266803502192829
-77.103931211254803 -7.610907936839839 -130.677491717030648
50.389545103448647 -4.739810118943773 -135.188697618288842
47.461239597349774 -5.996774112914715 -131.629922210551342
-80.715054996567460 -1.881556704683212 -130.332843855039897
104.728065187482954 -7.776609556057775 -130.238864669603231
-81.658928014287383 -2.517327832270121 -129.443768283207731
40.356925468024237 -4.552011542764751 -129.626943393932294
38.761954744105182 -4.660976428192234 -133.145126760286729
-92.418751935341021 -1.680155695420690 -138.691841393543257
-93.972376970973926 -0.783762814743925 -132.054096268899400
46.529155166980530 -0.437408441346306 -134.221068991163122
102.949414940525131 -2.381435332159897 -131.658206245387760
45.818669911976933 -1.286289837487959 -133.841544209245768
-94.042632308474509 -3.582263291881650 -132.618552056128010
-94.706468687651707 3.562673712810595 -138.202357779591665
-89.334546432911253 -0.610136012346739 -143.511976221403415
39.189605994436789 4.478418298864550 -137.484681669867172
111.825197898564085 -0.551684252484993 -137.194579967658512
38.337409392099190 -0.294721696729999 -136.942495784717266
105.570319781628484 -4.161185600033533 -138.126566063847889
-81.523465417281074 3.759455993769202 -144.388510197136981
108.429264819272035 5.826711580369371 -139.731765757678858
115.044519073741810 10.258196749193914 -149.939820067222286
-80.019832681209891 3.725650300376302 -147.690427512300175
38.442267437996300 3.801044734572816 -147.320182182756099
111.850057526757865 6.254842239438383 -146.544375318489642
-61.257457857915483 4.478493359058341 -141.784304536677297
-55.259961655919938 6.593083181544259 -149.121379241817522
-89.459208322027422 2.429989138275908 -149.560233087175789
-74.433178292992267 5.416323971003340 -148.359484463354363
-50.525104052483776 9.635242323411056 -142.162379490104115
-75.390866992746794 8.301919581450575 -145.090448362212811
33.626349736439515 2.669036020001077 -149.634770117889985
-71.968139283973130 4.736016191826429 -151.220870205087493
-47.755958152995888 7.545664520423567 -151.177172531296776
-86.623592538897896 4.209012393246687 -151.007705823806901
39.362360582974638 6.706915813063159 -148.564433674282355
113.359399629036048 7.386104303791006 -151.175127289769677
110.417904309221967 5.145241944329880 -149.354500171423297
-90.794363220815882 11.475475063402310 -149.399792449782211
-85.436540923399491 11.202406953662774 -146.872959761567643
-85.772189979347573 10.106588012519936 -148.659762662085768
-80.202052373427918 10.756617837730291 -150.904692318656231
-54.387208972863689 5.917346845639921 -154.182060702200033
-43.225957053155973 3.983059941163534 -149.254005889977208
-68.534295895688345 8.821838271165456 -148.098025249071753
113.165099420911460 9.228363556432214 -148.254250162565654
114.808365096076130 9.370355567966637 -150.762492289897494
-70.947885115118638 13.327030701076881 -155.191783655345631
-51.142906185167689 10.169376044914364 -150.492150797653892
113.788754226546104 10.323012228215315 -150.326651354758582
-79.352257719009160 11.600508838014305 -156.068229275117659
35.876493107773349 14.194263860696143 -152.768558134984886
34.911725662104978 3.218884334595989 -146.421150813735949
-73.595854437316561 4.879526011299009 -149.308559166757902
-74.350248355531363 10.368808690177378 -155.139290059334712
-77.105501590138587 7.683631045862264 -155.828514602673749
-93.041453220711190 7.026704704295614 -153.706470846518158
-75.179255106541447 4.747982293029109 -155.456674404708110
-91.965777769352613 10.749403725990152 -158.469137417310151
-56.049989398782124 13.227964354995132 -149.511057244392930
39.755321533056630 13.698677794126441 -156.093924713781377
113.672233649423191 13.602065394935728 -158.947575941849863
-53.342369872496434 6.523677130062250 -161.623238561202470
29.811065347302382 13.574044021984950 -160.188812611796152
29.189200473488512 9.950142522457423 -157.214493349146551
27.525012478810805 13.815517912503648 -161.378715803641029
17.639939004543727 13.510300873007019 -155.424008561899143
107.641833567667945 13.476972764888725 -162.720916633525405
-91.450455390017595 15.465814023634655 -163.099799771261104
-58.249343428842117 11.284693391581129 -161.654788742010822
-50.640574063777720 15.996165286834167 -162.899864032112873
21.669091392437924 12.867641445834149 -162.549931244607393
-91.197556524955047 21.678708088431179 -162.721180220140667
-74.887648691272076 11.297497994021482 -162.746708433207374
19.450137049057588 17.349939721304992 -163.727512785538011
-97.777245072187299 19.136691429885754 -161.584505733671335
-71.440413936937034 18.768597720275810 -165.474214845205211
-34.264342060021328 14.092181658315734 -164.983803979350370
24.434012645091258 12.817606478673367 -168.543889059331264
29.390364753619441 17.335425274148307 -163.273908671526982
-52.250987874005482 15.383237452422803 -167.174337891762150
10.551822226980235 13.717036881533589 -167.873791953274832
12.436227248248002 15.517130361238433 -165.890390784834636
-42.062682249383414 21.902167015073164 -171.946758709677312
-97.137272298515455 19.624200713927255 -165.844090917968799
9.142246057863215 17.593712163183884 -168.282552033483938
14.561039781984229 16.886886536106722 -169.406574861711675
21.211761267405286 16.100395656451461 -174.168220306946608
-98.840646644423188 18.814942918117300 -168.985969875101489
-34.240954215195444 19.764092663674091 -177.398967738232557
28.686326393989031 18.288576001580452 -172.711025157903833
-102.092326958220013 22.856255531075348 -173.562850325881215
-40.005734166478078 20.112911536728387 -174.043547894271853
-35.255947600935059 21.475671995216548 -174.019127165099661
-40.891582986611510 16.971896579053759 -182.827137340277574
-38.786213141795265 29.378666771679555 -183.374752130231172
28.312104366330999 24.798808353892198 -174.785668971702449
-39.726674910663036 26.252674572471026 -182.652250122637895
-102.510230524759166 30.685502772057180 -185.955887460924743
22.657239168474867 29.211871667785026 -180.213824577648296
-39.402243406037485 27.477510031321430 -190.771960574100547
-30.378135552169539 30.558755614974931 -183.998811770616555
19.820490482693636 31.291674502483591 -187.546660290405725
-145.091448216209272 29.986432715657514 -188.007092886620370
-152.182060368038947 30.062896470446461 -184.438016993949731
-30.175679281220742 24.950287216375248 -185.068293083697085
20.999902515219947 27.768276581122027 -183.572602312664799
-34.535394492116254 32.969577904206496 -194.908481969359713
-27.944953511598275 27.511493707777021 -183.418640516011749
-156.697160270177079 30.041200554321108 -185.535826152854810
17.731512828975678 33.649099743321756 -184.659856930465878
20.890405092257922 30.798246063537430 -188.062538214950507
-28.202385438338702 32.557846709046878 -187.088171272300201
-106.110172462853299 31.364170519193131 -193.816744872311091
-106.807341119882381 31.906329521999773 -188.301508443499984
19.673439645470417 31.064849996868411 -189.641348316200578
15.915369472450152 28.734959564200402 -193.730078206862686
-28.909045714960151 31.128677980014416 -193.953568180815893
-22.562076407182687 30.536790533459481 -188.973787883776765
-152.581162741472355 29.593069225225324 -196.634028205863927
15.614020282652904 34.621316294968899 -197.844116429033932
19.674481464592340 37.223597305742629 -200.432313801992137
-25.422562564658122 38.233407109783244 -194.945813025389072
12.528806813848012 37.054373670921656 -192.905041996893317
16.965589444323193 39.031866495910180 -203.564718530068120
-145.424020795257491 36.117926126517190 -196.690140812369094
23.888444156591753 33.132431835907440 -198.402493552660843
-107.083703898395754 37.531758140697683 -203.210912339633012
-114.560149456889448 34.907584007344859 -203.395011193222103
5.784832515154674 37.463060262062157 -201.806336583588376
-19.685054401455414 35.220522653754003 -199.361317477291095
-138.983708997322367 36.844602293844957 -203.643739202378384
-117.261773742030130 33.170938154247587 -200.905351832022234
14.273783175775325 37.352065269310330 -207.436013728631167
-111.024952377023212 35.841978636697974 -204.940753919463504
-106.756969146515402 36.892008501550912 -201.277714315328836
-162.529240636804872 39.884270852890808 -214.924535736972672
-22.491530136782348 39.298044540569514 -204.259492245954220
21.645807027326764 44.206064372541114 -201.463052017301834
17.489942493751933 38.622203444201382 -209.824621316559643
-20.088518331285275 41.301612642673952 -207.172737709616655
14.151504909091743 44.319139747723874 -206.699502069386710
-161.100131950874101 39.129897653628213 -205.113474181098411
16.388844801173466 39.227573509323726 -215.824383361849726
-141.337894248716481 41.559696800848030 -213.702180492023331
-136.631771007143271 44.562208838442473 -205.966570346493114
-15.034586589207787 39.155027178701552 -209.235904653993231
-18.542480370396849 42.794288370870980 -211.870800740268862
-14.668502985250964 41.814897280171003 -213.277896236261739
-165.260644735471686 36.199414400700199 -207.561006195035333
-11.962942134613396 41.940747183649684 -210.030903679747894
-20.775059051031967 44.192856946502054 -212.240460688489577
-152.048816215710644 43.321088234112878 -215.295165132728158
-140.845082657500370 43.164219184046452 -211.789444275383772
18.923352373664038 45.909986006999581 -213.728686798485086
-19.784638866602641 43.583235127942793 -216.636837586130099
-19.944054916507287 44.937438792856184 -215.083500087486726
-16.833125403741569 43.438979702790228 -218.248454950547654
15.298407275191993 50.835971154488661 -221.401971697959624
10.846423747560870 47.873541354817640 -216.484428176140597
-13.405150898578375 45.810231696899393 -218.653966159436663
-163.992965065931401 43.805388046742117 -216.499984671500670
16.182994658921128 47.081819520449741 -218.221933014823378
-154.590264333920373 41.899325442096178 -217.343239368213204
-8.551962972846329 45.613297413949084 -220.724802075118845
-8.748946149844960 48.717262319126725 -216.154174797079264
10.988871607479036 52.554202319630903 -220.708089523603405
-149.790775423577628 45.151359284640797 -218.675131399826739
-97.522226995732652 51.155170651483694 -220.066636524064307
-98.469997078544552 49.929119873925764 -220.013599834276619
-97.567170909503446 51.737273250015818 -222.779539073347081
-1.167233806358399 48.747695555382734 -218.569817079462268
9.064044403400235 54.451566443774524 -227.130873285867239
-1.837109160080558 50.025347469748517 -222.504831266877318
-101.936199017259668 50.802374645179746 -217.616883459969898
9.897161462954770 58.048880108233568 -228.381545005435072
11.987061468315339 51.024363463925305 -228.823743360621194
-5.659917078540785 53.923658223826479 -222.630996734719275
-4.207772448190059 52.476643892490173 -228.103629609939986
-148.392960794870504 47.244185652742736 -229.062234084964473
-3.457438100862132 50.552435519319467 -224.495819550368452
80.504679869424066 49.262016517875296 -222.233385305904648
-157.837741764314956 49.930797215500135 -225.144964862846933
-155.878405592118753 51.692331135520497 -225.881128779791510
-15.392161752418623 49.152184087603338 -226.259846233078207
85.457280464501650 47.421881648879214 -224.108838398848718
-141.056906831790684 53.866586115645354 -230.813679287251944
-119.965408466565052 45.271354028546774 -226.207066197400934
-131.414526811174852 53.043338054996099 -229.323953241475436
-96.649160263997501 47.708587985745204 -230.254952827994771
-9.268206872614666 50.251864687020415 -230.138689463839341
11.630081785571921 54.855748869046991 -231.262521005930665
81.030252485041501 58.386603206705111 -230.253152183888687
-169.879733916981195 52.921494396028059 -234.802952110371621
13.542610951043123 51.372034009889241 -225.735967273009521
-155.521100058224505 53.921889984258989 -232.497315292341625
85.071007894218482 53.910988762380967 -232.631284285235154
-4.012677552539158 52.958684813184981 -229.004547276536186
1.110795015518118 53.044394690953141 -228.457609433781869
-1.194126271510226 53.146164660197634 -235.240491653094182
-10.600321838710151 54.647905683465353 -228.888662584543027
79.662168188719448 60.936508665705674 -233.488420302044631
2.109741278360084 51.686164526873775 -228.515824227398980
1.184011423057630 54.832862343509362 -228.043267644594351
73.693521706903582 51.524031229203729 -232.776800937912100
-14.943753027548436 52.131237925103392 -235.128505464340691
77.847939023621066 54.654307864744368 -231.636927198088244
-2.146548109655304 57.401664075778370 -231.844985171701211
2.565836398064438 56.761480954961016 -225.553555618150966
-124.625946217777127 54.576396208657542 -230.831949646429706
-12.990230139247446 56.782496813424338 -237.947525675022206
-124.674065458977381 53.642835947032253 -235.509211374739152
71.583955037257923 52.482735166367732 -234.496693754234059
-134.201659367559188 55.485278384792046 -237.247183158708623
-130.441417260611615 57.110103978743190 -237.743785824196493
7.994573692562578 58.885678821722465 -240.985294190040264
-171.313291488908106 57.733558852168358 -240.865020597233666
-142.256096274596558 54.564549379298732 -240.827848001325890
-1.444058639261613 53.172611882799181 -240.648752131746136
5.604779834845307 57.939196733299930 -238.948000647869975
61.871399311842723 56.269222470079647 -239.309980488372872
5.239898360675701 58.035846119176696 -236.944589986795535
2.178875959599876 61.168435365976208 -241.533333993724597
73.022711432819420 55.826037971382206 -237.413437880662798
-154.364358989356987 61.775658426854662 -240.048867978837308
-143.306650526433828 59.022758026012255 -247.046145014848719
62.707666799181276 61.038437506427364 -238.856150130127901
59.735493147899547 56.659942390428981 -244.118694847846115
-158.971065322188025 58.839728272655513 -238.192151993407890
-17.259338741089735 57.152001332000133 -246.095437834051836
65.877089096200052 55.926259863876517 -242.210836289400021
-164.526016469561227 63.873783867721315 -242.538048871262674
8.033077658872752 61.574784378930943 -241.968367188467937
8.953872295698870 57.653070228538617 -245.734127099244517
-166.547146502057103 63.177299074270813 -241.258526273136482
-157.893000862245970 64.695173880488355 -244.406142547071596
-174.029352826673858 62.808750980061589 -240.396942397663082
-165.346315303422386 60.156403953106462 -244.978402692470581
16.975177819268470 62.963039654640497 -246.476903489675522
48.054173386372781 66.498179055426363 -245.137599117655441
61.522733786692307 62.913341045159989 -248.074064946745182
57.441075685940483 65.122620331764210 -253.617666224831140
16.465829918648900 64.454960837388612 -249.583108811121974
53.400666143374849 57.889481395799365 -245.379270654314467
62.854533435009600 65.918080378124600 -247.268244632025102
52.972575552485488 64.008663882377562 -248.238189074990316
57.610159748756999 62.566575998494770 -244.893622396121003
-160.349071514915437 66.780917690335215 -251.685793648441432
55.877683144945536 62.868500881652999 -245.504894616607146
-153.893506986444919 66.007470458986646 -245.652381471180774
-164.230484117003215 67.561298781730841 -245.489871700580665
-156.025133427413266 66.624360568230500 -248.576559001831413
46.954445822953595 67.664590659742586 -244.456839687136949
-165.466994399690719 63.389018991224049 -247.890968978531760
-16.669705829023361 62.850291052683325 -251.063034284292939
-156.289472487218234 64.522257325318364 -248.361090915330777
23.182671064712444 61.528516654725685 -254.277778877180481
-161.823504573825574 64.416934969069757 -244.482635235884771
-165.590884299712343 67.142305173394433 -250.679029244445758
45.112764848605650 68.485949356743376 -251.327784654813229
46.388765808850053 65.886021830895842 -250.523537975360512
-142.834255366156896 62.366413178171641 -254.333152314925684
-80.315221335877425 65.185807360000567 -257.690906648970042
-166.000366713065972 68.996504716498222 -258.164844332729047
35.288160884848310 66.214276093236961 -257.618990958990139
46.743412412550128 61.868137325864474 -253.111150044257613
-84.802253380936762 67.207685170754317 -255.144048661398244
-101.918920864063679 70.502945086182422 -253.023639881289654
44.854694956648906 66.756997906812416 -255.143579438056747
22.078358098603402 70.968245404965117 -251.458704968469107
-12.484494955568964 66.626142339500618 -253.814414137718842
-141.090452717117216 67.827715650054955 -257.596948132519117
-82.046327649240311 67.134414513799157 -254.612654491606690
-84.835539700136508 66.646271998021078 -259.930842908213151
-108.571827764576980 72.538068977473472 -256.374015462729119
-114.816241395245129 71.914576732375025 -258.225480563779115
-154.385838690972633 71.199047178545030 -250.919872448272173
-163.235353853936488 73.028210573082248 -259.616473593933335
-159.155705953861769 68.593399050751160 -254.940638003296556
-102.313040290016815 67.412451985570087 -257.119604186904041
36.981192879019112 69.261660579120587 -257.901729569042175
-12.625090486259348 62.941801272651517 -255.610409129828213
-103.796438808750111 69.781728012616185 -258.028163494526950
-168.571365416790030 71.968536091720850 -260.090861450419425
-156.951396059797389 67.698665414173362 -264.584934866959259
-105.631949879190145 71.065980249962237 -256.780308529784179
-164.044642158441093 68.343203162632747 -258.707695443843647
-162.591915559667370 73.360220006275540 -259.009488699139979
-107.941023472908697 71.137653261776478 -263.930993111609666
-105.917754655662918 72.717840361605340 -260.707819827842400
21.957845326004115 69.398516853899068 -267.494521992222417
-113.420197074143601 65.166880876663299 -264.472203794474524
-166.261695155154996 71.171872366497539 -263.911936806708411
-158.462432809816221 72.631883705470401 -261.329307488233098
-153.683703059221102 68.483736383862009 -259.486626717598199
-165.095025674242748 71.158580378205386 -266.454892814150469
-157.805570587931669 73.095440846045420 -259.332285720277639
-168.942502332693522 77.623487463380087 -263.081713564629979
-159.355897629267503 72.179870669031516 -263.183454046410816
25.505040855420141 75.202486281650948 -263.004552023004521
-7.086569106742826 70.210709128158300 -264.255690818267681
-146.383948456195526 81.415873464638054 -272.514253418986925
-152.752131125574266 70.454359874206872 -263.196870336048903
-7.448593145581945 75.427727968680429 -272.399993119723433
24.482957120975740 74.611082094613124 -270.110217810066843
-144.593814141551519 83.831263361349244 -275.266497922956376
22.686950865812719 77.968609167318846 -275.232815805841312
18.724818706946166 76.192859965915162 -273.166053952423852
-7.879587388407987 80.373976437902854 -275.664871776800908
-124.465809329872641 77.809627385857041 -277.499363274184759
-133.766577789118571 81.407106874227196 -277.071264738350919
-137.215002594917934 82.179136535798520 -283.512773821256417
-123.024678518178007 81.360855559233372 -287.010587230879480
-118.644716936995437 88.144472235724834 -278.987971449503789
-98.868850320646885 86.829374092172188 -280.850987611657558
-113.994989767404078 84.131048451869631 -284.787877364507551
14.849022276631871 85.307308085330362 -285.953466470991657
-83.615497969592383 84.670809863606181 -285.498665971431990
-96.083008942186055 83.697058784233434 -286.023219996843920
-87.796019270825937 83.585714665801120 -284.504494459789044
-50.579182462378803 89.456464449376085 -281.890358378819997
-154.516231871776966 82.085677172172069 -286.782173843200781
-96.811942143696456 84.046499803472898 -285.982917186443785
-95.088737222516954 88.582093430432153 -282.939175441150724
-51.045681877796241 88.013958904173720 -282.927538266010174
-104.144064195273586 85.977604810946943 -287.734264265647766
-101.794815580026651 81.830224781656611 -283.217921794476126
-120.549733698932712 88.623004949148068 -280.841396155550342
-104.711378216747889 88.482984495372804 -287.372578501781049
2.424973784253892 88.236667645511389 -284.356233083165932
4.907544727529128 83.075736230717652 -289.731627766176928
-139.983683094509644 86.161590104776721 -291.222801437870430
-102.668288248271935 86.592156263593282 -288.131674350867115
-119.662886469469683 85.621098799769442 -283.733608743860202
-111.546453113745386 86.321623035688674 -281.349480288594009
-0.611429692917541 81.361305189989039 -288.110153099974639
-141.022596648464372 85.623823808428156 -292.615048446788592
-123.064589848656439 89.340847216261295 -288.358836724333571
-146.923701492495013 88.084000520409106 -285.854194511447076
-154.380093855584221 84.827967122962278 -289.914980183502280
-142.380298922046990 89.919540485377908 -294.480913434308093
-154.283200384771533 92.463785880402867 -302.668698586771313
-150.485054766282360 94.879367799870622 -305.467426979338029
34.084220104774921 -61.636471559513481 -44.874958809428655
31.230545536100362 -53.079007645031055 -42.972082401502909
46.480953082691300 -53.940288425619272 -50.874258204302215
53.227561811822511 -49.474416660760944 -58.082347821180662
24.316716847873373 -48.243308105886271 -60.377915762818773
18.948188845154110 -43.481335278343018 -66.015364462294571
35.182014736560589 -43.611581846982780 -68.943468841697779
43.255834879108185 -46.074363622880895 -67.999176469278524
33.835447859941574 -42.027772769207196 -68.696870511537071
-62.028525600254106 -39.360253374194642 -72.342805309597310
-49.608486948062534 -41.360962025367542 -73.983564934881045
-50.703054422728755 -37.615628637245578 -70.225534796297765
-18.869834358308502 -28.896697445594782 -85.521509997679573
-12.443630759674166 -32.012343098732515 -89.500727861803099
76.580309257166434 -29.806553946482573 -91.534484072038723
89.691058031250222 -31.910208260069481 -86.885806743068656
74.458587694811854 -19.963884970998006 -95.143279180436011
-14.106580172829666 -25.210930463278991 -96.649541710703417
-20.718578144992971 -25.135844735307121 -102.291817173046923
66.596010886986548 -21.650123847041275 -96.241593675588931
-26.115649583931297 -27.833223613044787 -100.155447355432642
-26.913392621604132 -24.363410399185639 -99.459343706670211
-32.979785772173116 -29.632943579341131 -94.137438818764409
-94.324201441757381 -19.307757261073213 -107.537900346961734
-43.806125052224850 -20.490226147197369 -101.577059755317521
67.202208842752398 -20.909350853065469 -102.715667305569866
65.725664436595679 -20.785307248358396 -106.533004004313383
58.500882106531016 -13.559217159392318 -103.481403167541160
61.220118716058678 -17.630314419995788 -109.626450011481694
59.034048106831641 -15.795939371179150 -112.277194600005515
-55.458467079949529 -14.971878757590474 -111.079006421576580
-58.209212311012941 -15.132931489464319 -110.599607037058703
66.819873775698127 -14.803335106048781 -114.516201859604791
68.598683252388042 -12.583388288481558 -113.620245568845533
-96.207966474418470 -17.357209086570464 -112.518439229820274
47.895350791572042 -6.092170837669340 -117.243546075098962
64.185606740192370 -11.012307197671316 -117.912974391253599
55.184735843178942 -12.744279430063061 -114.076382395089453
-64.372784621809359 -15.025011705592801 -118.187287513389109
53.330299831181385 -13.146224873444556 -117.552455289158786
45.390544286043294 -11.957290988409513 -117.767794793888513
57.111085493236352 -13.448023127999083 -113.546614272917907
-68.381949033953518 -14.036181906316438 -116.293241130832271
62.707824703825182 -11.328984213245741 -119.116295651329324
103.532320472788783 -9.622872352304825 -115.489244206335215
-64.151283271822194 -10.740579631660408 -121.115792696518227
54.065659667517671 -7.183632982677777 -119.348995917149210
106.932027599125234 -7.852392720988597 -122.234985615506716
-75.800870970766795 -6.957985767167324 -120.963680282743283
61.523645603466967 -9.367894701674876 -126.809514551042767
46.666017285408280 -6.664670177277884 -126.097310468196667
47.924030857119519 -6.347959795573003 -129.738753532427125
109.528144982139665 -8.442682155917275 -121.988875495864889
96.244787765870655 -4.500146551583168 -116.328162143757112
54.900785844953120 -6.507946741102044 -122.174434109577589
-76.686324898237274 -2.463586905687158 -128.138371597495848
107.267642380390853 0.994779687928785 -127.697501882779733
-84.809785747359712 -5.582402040400618 -125.288672454599165
93.279701336050479 -10.915803856977833 -125.667501453695920
82.583761753195603 -1.960287706972041 -124.175410126480102
50.022660145271907 -2.587440971815769 -125.994614578637922
-92.683013974885185 -5.333462894099370 -121.763361648108230
108.859802782514990 -7.541771520859493 -121.106427827578671
-74.564120005870464 -6.889277868534986 -126.337098730882630
