# This PCD file was generated using the MATLAB® pcwrite function
# from Computer Vision Toolbox®.
# .PCD v.7 - Point Cloud Data file format
VERSION .7
FIELDS x y z
SIZE 8 8 8
TYPE F F F
COUNT 1 1 1
WIDTH 808
HEIGHT 1
VIEWPOINT 0 0 0 1 0 0 0
POINTS 808
DATA ascii
86.063671401222422 -21.598428679876950 -74.756059331625224
88.901906296460666 -17.538495538783678 -76.652352340145072
-17.581339678142388 -15.543647037732571 -77.825594646625078
-12.841249052431110 -17.678725794579410 -80.885881085398040
-26.933585064465856 -19.046928982378201 -83.260304231895716
69.028115908361812 -17.287202438195383 -80.445717150831129
-27.361236065034042 -16.805277458742736 -84.633590821740597
98.651211802381226 -19.658192447293374 -83.046928134834658
-33.868583225294685 -15.958565665267482 -87.336234658184168
-67.497927282797846 -15.235023081618460 -87.321708652423766
-64.806770851281968 -12.183209203824575 -89.121527582524067
-66.521827137794688 -12.766254483353491 -91.936819645150010
62.544425422374665 -10.523514598622263 -89.773175512106022
-100.771194797222279 -8.934498538008558 -97.530253108088857
103.917752623813968 -6.391104066838227 -91.929331517765945
-48.356188840472832 -7.473031921772219 -95.800547544530545
-40.586298940076588 -7.705698984854286 -95.673408828853695
-47.262066856958285 -7.908623769529034 -92.181735434484636
80.262679142914905 -5.620375071336576 -97.355920394692532
82.249572479500543 -9.403001081088682 -100.751024995350264
-100.228053354650342 -5.716799883387568 -106.462101611219524
74.336754906670564 1.271446228259947 -101.217912627020524
86.426983784355173 -4.320390659060407 -100.154289573004206
73.617041540206344 -7.535412396706750 -99.665338390300960
-63.244220724587436 -6.912250922771604 -104.166894455023638
72.268124854579597 -4.910287414939910 -102.622087477608730
88.157557329185607 -7.034499267712731 -97.830484552848759
-64.262567185890887 -4.513718809053781 -102.321779161427870
95.150349414540756 -2.022020109475030 -101.743910595685236
-66.271068114739009 -2.023085210263234 -103.278212000182080
64.235113901825997 -4.697883224712657 -105.200504863193146
68.131369098742653 -4.053142390785880 -106.036484308492803
67.286929363036691 -0.246694146619578 -107.234692819883861
64.143654126703183 -3.413391527657979 -109.050813274244149
101.991800194658566 -0.005814792540651 -108.735097720257869
67.199498512516811 -1.034655916140635 -108.116263194408234
-99.537616102056802 -2.891415962576541 -100.981233120571204
68.195461923361620 -2.729319749838223 -105.711586272099325
93.519656983667474 0.217178288829374 -107.273464185175001
92.648367808071058 -2.740268201157525 -109.990291524194703
69.646553132586362 -2.206696807176271 -114.150958600568686
103.603933940090755 0.725125731886054 -109.125854706840798
-99.066846171063986 5.833185738223151 -111.206441859251484
58.843876446187075 0.704443605477702 -113.496053146308000
101.509578561981542 3.353474054632775 -115.652838422203814
78.834922668182102 1.592116703022086 -115.652163019953832
83.524372366851878 3.001935160458331 -112.344276725042135
58.254596040662655 5.813349069717380 -115.504030305944340
101.131661455545654 -0.100559640279977 -113.028059094629938
92.796843604388599 5.204013906805998 -114.342338581457028
93.092293962379060 6.153148974963772 -118.050093163095781
61.826027681550521 0.333615445954964 -115.979479798855294
58.226922838676032 7.148210414900968 -116.871144859563529
96.385466084255029 0.064360054434107 -117.774353188132679
87.897340824912490 9.740824849533841 -117.459912646093514
97.730385985843498 1.534883034753507 -120.570756701135949
92.130797033361944 3.363671974753949 -120.297701978332867
93.184478311208181 6.078846301284698 -122.265996325738641
57.033910440190347 6.476392428244485 -125.788263077208683
-73.582358640666982 2.708126223635636 -121.334654976371340
48.193772785243709 7.637519668048844 -129.089142727339606
-70.635000505359400 7.562999749770817 -126.077911210876721
-96.277937375797435 5.982505113224160 -130.462473732699920
-77.480558347801917 7.864630278079128 -125.491897766085614
-65.322768266871321 10.580741116149348 -128.113085984910953
51.413553347070852 5.572533330102943 -125.612651170521843
43.370644727369196 13.440760513793697 -130.655829045148550
-83.859802202758615 11.642539202870436 -124.871983867485682
40.975860488186612 11.489035862529395 -125.038756596064971
-69.340832678334863 8.941216931210084 -128.882298549253932
-62.765385695851748 12.905843415342225 -128.610603421810936
40.427555512271311 11.090861600921299 -128.072704791852601
-64.485658714677015 13.613970613598287 -128.269998090199408
-67.791645132349629 11.659086023425003 -130.040945370883748
-56.537535399426709 9.781936959150935 -130.330037262295576
-67.091452311693217 13.194854850838793 -131.791588549899700
-61.751130998552505 12.099244210099760 -131.099382806617712
41.627717374852395 10.983256201394276 -129.957064113259207
37.488976411467782 17.288387229106544 -133.763619507150310
40.861558599521004 12.739706531544400 -134.047724013731226
-61.251284227893500 15.397903314660411 -132.378474057729960
-64.729943598804368 16.023846384294188 -133.723734379817756
-64.078911259247477 17.520281919649168 -140.792598816337971
-60.047844957688618 13.780356022705186 -132.498526390878197
3.245899431128292 71.301543108765870 -233.518047681475110
4.871723677157998 66.590150046658039 -232.644389141676925
6.744060014045434 70.866295587516078 -235.783065827399440
4.607991533456916 70.061053666322792 -231.710723486183412
-0.338705283400797 74.440132324052740 -235.552404193477912
-12.977990443554338 70.757591947891271 -230.581880939319632
1.675429453652042 74.676852949325678 -235.516494381052809
0.263071482291635 72.347735650110749 -233.657360783201455
1.093769929852633 71.095696584495343 -238.556952448851717
19.455357600765964 74.726047882033228 -233.984787558622656
-14.774251074934334 74.039601379549950 -237.844871730139829
14.875410379306372 70.725714289154936 -237.386193571050114
20.213937176557724 76.770635890357411 -240.693897531341236
-20.525014305937372 74.004395957085094 -236.400122748864788
2.991732752315206 77.811318942239026 -241.597508225187283
-16.736717071792210 76.770618404672845 -243.437324315198822
20.899872371373878 78.695060585452197 -239.507644053654133
-19.923475280824356 75.480200674567158 -242.485782126969326
-17.397304865862001 77.766122394883880 -242.700966428939154
32.424811589873499 73.539468038500559 -242.316739895057708
7.938490019419173 76.174729346594205 -247.179204312293393
24.042775184218826 79.955749759909338 -244.103699673449483
-16.742304154624247 78.686837092454923 -251.315994586445498
-18.931891873313923 77.301811626977084 -247.788777444133046
-21.126404830603995 78.912282395385802 -249.784324156500617
-14.980136330799644 79.761871295331218 -251.319512564043293
-15.787946291289096 84.332320897721132 -256.131414067983201
23.411713658181537 78.260646460021221 -256.541326280794465
-15.992618481156459 79.142871783194991 -256.313150240217624
28.270072088109330 85.953165645076055 -251.613256661559461
26.526539769847677 84.862487652831973 -255.242916880977248
-14.999294896312453 81.261810442215591 -257.031097549813808
-14.039804611305644 86.017369243465694 -262.446700801529971
25.807597935065523 85.257929676368008 -262.571801209848161
24.791060750933511 89.098891533200046 -262.799904915471927
-12.717525634164476 91.482060618676954 -268.892730585074105
-8.707123346597225 90.941694912768540 -262.733464065421686
-7.675259345993817 96.512281904837423 -271.914373046710637
20.340186890438606 87.951805422383174 -261.920976164404181
19.318597460143447 90.479801983258227 -270.249562437992040
-5.986466511922129 92.705148853612414 -268.068163483000660
22.767705497551063 88.341551416051843 -264.713887746155535
9.994706681031241 92.555818374593940 -273.169791963197156
18.320955423614649 94.532582272690959 -273.112109575431077
-5.521573544516686 94.822803826692663 -273.045958774413236
-8.844094795249452 90.947699349229637 -275.159109364412757
-4.206167020360871 94.876323401673645 -276.565580629581007
-5.711440691207468 94.507615830826921 -275.556246398904193
15.706248751780494 96.157139960877785 -279.169775246319716
15.229510571378457 98.829243674717688 -279.457288442272443
-2.168630489941832 96.393859881128435 -277.864362529381310
15.248249059054238 99.815017127797361 -279.181493303480011
4.697995773585482 101.327239540887263 -277.923895503970698
6.745270468613256 100.310046627000489 -279.456576646866154
8.701625427296213 99.119868843299486 -279.482939460512910
32.596245071733925 -41.433670100424621 -39.721505160801833
33.413466614339910 -36.686017362364403 -37.242033232272043
27.095161233524490 -40.479338149884015 -47.557853240088569
45.526406764969728 -38.728273051470886 -41.991071385375541
45.737848407486787 -43.504560362782478 -50.436358866614960
21.876609358212963 -34.201662593481899 -54.821523815695507
28.613987353757601 -32.931579302369244 -54.402183185676236
25.757259744192215 -35.090767386854921 -53.498955408713257
48.038801749817672 -34.184015590623545 -58.111715668725424
48.227941549992202 -31.757627569457423 -57.169517499893317
22.577098281800115 -35.222662374971456 -56.781531400192783
42.108347093604017 -33.398646275330321 -58.497899650276160
38.347856205263035 -30.713774642178929 -53.875982327476066
36.878585115602903 -36.995021168177139 -61.772698364699941
28.649398903592655 -28.286082776364594 -60.427321157709599
-64.302398579887068 -27.160727530011776 -65.669498796312780
-71.150505656168193 -26.945469635329438 -61.916915990289048
-65.496335488120081 -26.245119347766323 -57.185871091491116
-77.834344966080920 -26.017138890149468 -67.376523252407097
-49.331749812547159 -23.040618962486995 -64.045524300516234
-52.733895307338550 -24.958792835923784 -68.777750512972275
-88.084776034954160 -21.307881439632251 -63.945619857258478
-41.613766008930590 -25.933817362453716 -67.603073732466356
-90.318794271505112 -17.148893785876815 -66.121919762985343
-23.256720049952690 -20.299022672832354 -69.038074027944944
-87.813914346648545 -22.787619550219716 -70.127271895699792
75.061468953570255 -21.347713961237979 -73.698082917253430
69.429052681984288 -13.825182135222850 -76.949188440686527
-99.796015582917249 -18.317861762019856 -79.745622580999992
70.705707686019139 -17.551232745313214 -78.269942809130868
95.228496963710640 -19.250254169434200 -79.517357145968376
-64.901504436200185 -15.724304364831655 -80.770249207488391
104.921666767178735 -9.273728785377214 -85.871714863302714
-63.390563172862230 -15.706666429609147 -85.849875760376719
-64.946821860226578 -11.407744225658501 -87.996388776175507
-37.376638450707816 -11.419827267411877 -90.157349908465193
62.339233036301643 -8.964864162683593 -93.367294876590151
80.615505908994095 -8.954443575211485 -94.506516920739202
-40.908106732289212 -9.870830573593203 -96.800646774364381
82.184077691407168 -7.681123782104334 -91.358700391311729
80.995429854589233 -6.312028238624658 -92.081605966866462
89.371923246715582 -8.055992797786020 -99.683976474233148
74.803466468154923 -6.409172785976381 -98.671270439939576
106.790209911892447 -6.181348168784914 -98.662482841373816
64.821106928869000 -8.458775710235873 -94.925866245589177
71.568515661450007 -4.953536262400878 -101.077643603219101
105.741042214130303 -3.732094628575880 -103.686070255148138
64.469220164881335 -5.027044382226550 -100.782018997278243
91.080170081717583 -6.427924356631469 -101.959024519421760
63.189951743005260 -2.883555526570031 -104.815855009976175
68.307078032932324 -2.632767312019436 -99.667778821064218
67.860664252442220 -0.784442391933157 -99.894679895937969
69.417241690584618 -4.021500235069986 -106.206415237391923
95.806974947564598 -0.455457318331164 -102.700757214614100
97.123242731214290 -2.389557373853044 -105.423600767283446
83.003274821892148 2.596718600489472 -106.290037622873655
88.259552061913254 -3.104798583397442 -105.492921142921446
96.177399767470519 1.195531477334016 -112.950682228119888
72.553284399303010 2.934099638627197 -115.321444285492774
99.983013498888297 -1.367719477169718 -111.585642828596733
-99.613392073015561 2.883896424493958 -112.742335789682087
72.125202159205784 7.517623251513515 -112.787993717161044
96.091614330089314 6.166769771211936 -118.122568811754121
66.836522983471099 3.446760778538274 -114.734282873421620
54.469489957905438 4.288103527698985 -119.720274031588019
-62.473496454288473 5.235230003695655 -118.808792758138594
-72.817868821806499 9.314481430467406 -117.633930147396612
-72.157236486667358 6.021256800439602 -120.899951431426672
-70.229381626698029 7.503931642890053 -118.961589040035221
-60.409548590284899 4.674733347210699 -117.574968440084035
-73.899586153707190 6.419150932671361 -123.843394901231861
-71.405060576952280 9.330476304471665 -122.522514882201534
48.249005460499440 8.472007494169210 -122.180349768930782
-63.293220565585543 11.161585050327091 -124.719861963849553
45.413138249583874 10.015626699040522 -128.586223453837817
45.851888714614915 11.915878121363797 -125.006642857351622
-58.198722230370365 8.347470803860897 -123.722437868883631
43.650487884247688 10.083545208967369 -127.506199031617797
-63.745355547376271 8.154850477461496 -127.365675312689405
42.434244222794014 13.220953229069220 -130.582959253544317
-64.568707769357857 10.545300314648044 -126.561712313842037
42.759722838565004 12.348160667325494 -129.223779608346860
-86.983656822603322 13.852962379802973 -127.838470710739330
-17.436708023714932 69.959624107310802 -232.091675124887558
8.352347124592898 74.365411617099312 -232.997562160410297
-0.818438888832695 76.475536294225307 -236.442181942727473
20.028973991880978 75.453031639038841 -233.967606349334204
-7.062646106283024 73.520418530052510 -237.474050914055283
3.715529287370987 76.225592203202297 -238.191270279043152
-14.373834792325024 72.081467501653151 -235.902605903399660
-13.184457974019439 71.780471104892754 -234.901176082496050
5.091288302924590 73.224075363619903 -240.901582371551143
15.052626013483117 76.279527970543725 -238.241786393290198
15.815672095391713 72.851546330752541 -234.068211330487571
19.099860191739968 66.993344565655718 -237.710168755670281
-16.073867034926401 76.516260523964235 -235.961369096187582
18.564618384681975 74.043812965500891 -236.607871807628129
20.195466126039992 73.818548502395075 -240.686928960483385
-15.722614603964585 74.890588479965743 -237.547379837542906
27.034931505549579 78.711436821711715 -242.504745784152419
-12.325485926302216 77.629224879223599 -243.721650025527083
-18.326021397228757 81.548853787976824 -244.321384826107959
25.845904563872537 82.291679958845876 -244.767294050407259
27.284970653076943 82.481064268634924 -247.775981831855063
-14.242560139870438 81.671892648820489 -246.733267248029250
23.712088679957585 81.589912512239493 -247.425901889921761
25.158530847702608 81.029223580747825 -246.038680542480364
27.185469667530548 81.927203924648694 -249.851494774968273
21.504881219708174 79.727940120392162 -250.742192160414788
10.185614310683823 80.639079051665888 -252.859322511469458
30.130688223801926 78.859796161627600 -248.675990915782961
-15.459131853738391 84.838145818531771 -253.213720652940310
-16.483551520492355 83.175083304172361 -245.341679381594219
15.916523440992506 87.478948275374535 -261.328209516269737
-14.918701424099767 84.587682868650191 -259.749456372331849
24.519639355025237 85.405337166132483 -259.599832406299697
21.005420701572646 87.502847249276968 -257.914989021084864
-9.023226973047880 86.280234777048605 -264.249559524565655
-12.161661234623745 87.129042220666165 -259.046447771529870
11.652385188084992 88.649161844235806 -266.192188261182196
-14.164483242351434 89.635813205049161 -261.512779186448881
25.385245992084648 88.659741226648194 -262.215805990143622
22.593357973702517 87.551558215362604 -267.642174896558515
26.767449309819117 88.101411173870957 -263.406038315005617
22.564955132508167 91.154474218709723 -268.312261503085153
-7.972693458708078 94.070788790736046 -268.903854380888049
-11.958504179906640 92.628768612970106 -266.522378368585805
14.358017469923897 92.685029289473007 -267.801886223310248
14.586921753453861 93.271047111998129 -269.734363785976711
-9.327814888584397 86.918050769021590 -269.991448890827201
15.196911592824028 95.236108536407400 -274.127004251178732
22.099939341043214 93.830667231481328 -271.778054009576522
-8.661316094743905 93.771245552674529 -273.535036283061402
16.384711880953972 97.004875977926062 -276.917696185465104
-5.606827544697772 95.079834604792481 -272.793828295802541
17.207469979106982 97.382783242782125 -276.283182834133186
1.214760772057820 97.362880882200031 -280.759257429133413
-5.118373386407823 94.427426375810995 -272.940653356329676
-4.348361079046525 95.111801671493083 -273.394662049484225
-2.472348181283980 99.608052583808544 -276.261783940548753
-5.721805808093811 95.356287430813651 -279.323394667074467
1.178366818570802 97.268841356341582 -278.620015502192985
9.920066583656421 101.162553463582483 -278.464859514754778
2.647547337742458 99.325760678681021 -280.590527789458520
6.303026535595259 101.431216940852707 -282.972908436759951
26.654451706892676 -40.369517959782797 -41.772269063635193
19.052825534769077 -34.664001111756988 -43.036920167667944
24.642011991238864 -33.372790133281526 -41.258298605218627
42.131481989020941 -35.659819871238071 -50.821716832438028
30.252349689562632 -34.412291855312944 -57.344765612313623
19.223497301400055 -29.878662501341449 -52.841992030273666
34.948190200054256 -29.692823658867013 -59.420189238676222
32.643965134186914 -32.933655552106799 -61.581467368415275
32.496891746305799 -28.681374086312008 -64.047649428200259
-60.073108431528269 -25.733334422276435 -61.391170301527389
-40.528988264691691 -22.216310954022664 -69.091436111769596
-19.885777814298503 -21.775569529952275 -71.119957862148809
-8.295191517933535 -21.901484811109199 -73.414879035407054
-93.308334718091118 -24.742250247694795 -72.293342785875410
88.761063431019025 -16.543525220832610 -75.995467078068188
89.121980940608836 -19.791320105983932 -77.267199016064993
-97.425499758338859 -21.575785515802718 -79.158336657382961
-10.730571237362939 -19.322877160757677 -80.581468264223460
-17.343570012476665 -18.474330838818211 -79.506587279675969
-60.989658450114192 -14.602169536902419 -83.589841157443672
99.853584949170951 -14.309336099277976 -85.771727887543491
-99.485029609411967 -13.933811718916905 -84.562253159524062
-63.833587059058736 -12.564636413263090 -84.939666786715307
-67.164305266867586 -11.376950669335118 -85.077664455450645
66.942147399348258 -9.714973355700817 -88.201995000000792
-63.102611714964084 -14.131493447261448 -86.168152313454428
-99.839788832684619 -9.132624465322486 -84.480898016506728
64.959485104061585 -10.364845881358875 -85.674154998485307
63.402745004293017 -9.975916226763257 -89.256575784810181
-36.340388456238834 -10.996487179486090 -94.082187470049533
63.814921659040337 -8.907962512568737 -95.630945833313532
86.447173052625772 -7.253879322372301 -93.116542030622696
90.212470391122494 -4.076378750719258 -88.169655337345858
-42.837777071271255 -4.992229928631607 -94.347340659685273
74.498596868983569 -6.542392686781067 -95.705677066955687
75.433729640933208 -5.651486271291914 -94.944145612051841
90.598842572008408 -2.787365885732141 -90.918910957725842
87.196399126830798 -3.660009153059915 -98.042090251553745
107.885100766083013 -8.341700670435102 -96.107828368062130
62.289115995000870 -7.454131682296389 -96.434113863781633
67.392643436626031 -4.646720302781011 -98.299825783025526
91.323939599762809 -6.324222557552607 -98.692662304958660
-54.075209528833334 -8.034506503390931 -98.313919327656492
66.002013486863405 -2.256056614369025 -99.858326077075290
-57.927651775504700 -3.375153815406918 -99.223210561641281
103.469567495461888 -1.485438215837380 -102.595586342237738
104.943426801250723 -4.763526578487986 -106.714084653229719
82.188892962500049 0.626684263468168 -109.392565019204255
70.269277155836903 2.254621679461240 -112.840036260344874
94.330763041496681 0.528653280902503 -108.097794081577462
100.604437041388394 0.020395526609041 -107.191401531984951
-69.921449264611454 -4.000290092905152 -110.397830991955601
99.704015174002478 -2.018499863109362 -110.452548852358930
65.768200688942400 -0.569085212847737 -108.891998428604836
95.424608859985284 5.284414565716005 -111.040161693721700
82.573712367397050 2.092230354454180 -112.946887319927512
89.961554621588263 3.217004862006943 -110.262174037494248
99.660788359690955 0.873662744056418 -112.501236025873126
61.132787214534481 3.204422006875676 -110.868811865263041
-99.157151229884775 2.098892007802346 -116.318284478814931
53.211132830176275 4.941223935921681 -113.612356412860393
57.531176622073318 6.901675709482817 -119.244756176769229
57.577912046054720 3.093503789259429 -118.768644134341088
57.074304426249491 6.046447729994179 -120.467875798745894
-71.220591538031258 7.913781759083358 -119.209930887668989
54.891834803814753 6.867255261940364 -122.470167121255415
-67.540776590147715 7.166796343563115 -118.993731343225136
51.332218822885139 6.383349584302714 -120.190475356654773
-68.821764264384598 10.476869352184151 -124.841842776816847
-58.815947208248609 3.650933730724949 -122.508626219666581
55.558619328386790 10.477916262962708 -121.440482671148047
51.903014083464662 7.691276242964748 -118.946489471245570
46.574597479386661 11.751517293620582 -123.071561221079605
-77.363262064857508 8.481022619898347 -122.710468827195385
-67.042130271039255 10.933035026014005 -121.806306289597416
-67.361799168762872 12.006300536691237 -125.830528887415369
-75.275222837718729 9.849804770800910 -126.267246425857252
-84.804926815326723 10.737470260687605 -127.794835004943195
-94.223617000245383 8.743178046107346 -129.387788327699013
-68.067859142669363 13.177775382875554 -127.677702552032969
-59.145395314577925 13.834327697210865 -133.053778564914865
-93.415504408104596 13.662475571716220 -132.104523654726023
-57.150479776561468 12.187814955189546 -131.365557973717898
-68.478858212580093 15.973030316659750 -129.917917916427967
-6.815151773599451 68.934346976427392 -231.387823517608012
-15.567993694212605 70.759687666893711 -231.984027130830356
-1.689514659731559 73.589065254350771 -232.879530938611708
8.076503159241717 69.507110486840787 -229.940789699896186
-8.522684791847599 74.423611279516294 -231.171147789446735
-5.750765000819751 73.802135158886458 -231.369782416720909
4.058326689121350 70.786981425908493 -232.551695468247743
16.750093147664376 70.749415924777850 -237.430627601737172
-3.198548636248337 77.945213757740433 -229.601026005670803
6.613005826132128 73.552757326564333 -231.981481394925765
9.166295600504965 69.197078977146560 -230.858534911262410
13.455270262659866 75.128574507203382 -236.473323904357045
-17.039760877060520 73.141877133028999 -231.197905959496381
-10.707501270267462 68.659802317012307 -235.525875465285736
10.303687084175808 74.592077469502158 -237.578224302281484
-15.896217588119756 76.230123005597719 -234.220108351673616
-2.899298648226985 74.400131267590993 -237.527865322521166
-16.429796145532727 74.415271492957686 -236.387942838204992
-13.285922003287988 75.411276810366047 -238.956539318269535
23.251443971038086 73.920611919245246 -239.451180957898345
22.711699261843684 74.576775499680437 -235.976035048447898
-14.229176758112251 76.095691260607424 -237.095810450044269
-12.414299068511090 76.201997897580966 -242.525333948265086
9.786955625536008 75.380152575380635 -241.535024143255356
8.040812108739686 78.003920974106933 -243.065538469192660
-15.355581201625705 80.334794147279368 -241.281184846584836
24.226575669636741 75.937500035194716 -244.946487962287961
32.020238234296585 79.161072100013740 -243.506081496997638
27.614010332939419 80.413113745729845 -244.158325460794629
-15.694636110565053 79.060137301639642 -245.133331025019032
-14.810361712740198 82.669800773007836 -250.451369793269009
26.927084624888376 81.158672331895872 -249.206469279815906
16.682662348383236 85.309145785949980 -252.468807198612097
20.309298185377312 82.003041474793704 -250.210095777798358
28.602535922442939 85.881841225027188 -254.750690439015216
-15.467060647566996 85.743852131296023 -257.346141456038595
23.752728936558913 85.702827907715914 -255.235084083124093
-14.772668582534482 85.001933097914346 -253.823392481737017
-14.330842640140141 86.353585166885196 -258.705429069652951
28.662980075100030 86.607916809471249 -254.040399612758506
29.913657731200583 85.154042551686615 -259.305880208547194
26.844216636387628 88.633921603708657 -261.984774842072682
-8.181950859254167 88.055992443713222 -259.774368351530825
24.223844427571834 86.671585709141652 -260.901334828508766
28.018606812410138 90.280039112407252 -257.725640823608330
19.203077669979717 92.552241788222105 -259.595197697384492
23.307476200741991 91.870034541962625 -266.837078972519009
-8.306493437081256 91.006404283028715 -269.427000072701333
-3.334335645907097 94.999218434429906 -267.405724343505881
-8.099145587069010 92.938482413877210 -267.634277683464802
19.895858330406021 93.554318080249629 -270.600509322033929
24.988994188079939 92.764444426133139 -271.419412458434863
-5.605347945443757 97.144475982510130 -272.190596927023705
-6.241365310388006 96.922120490550952 -269.214608290472768
-3.350643018872268 98.380900811434643 -272.267412629191426
19.072187017114540 95.567972732226409 -266.977777468704119
-1.113277986514323 93.979812671239841 -271.935321689240595
17.929334205480814 99.091581445798838 -271.678523952696139
-0.024033106573948 97.588095836162665 -277.937248061115554
4.289734939605808 96.116827778452844 -273.155196790244304
-1.009826164408931 98.336498211856266 -271.662957173952464
17.284961148507783 98.758971812232716 -274.429040140464622
-2.304408397099592 99.143554461934116 -275.262557024775390
2.292055394889167 99.820436742185279 -275.152646814162779
3.015510154202672 99.548179613782423 -277.034382663115991
13.979160250583268 99.338628907520388 -279.856057205816001
-1.276561010473053 99.747075340096174 -280.972597676180840
-0.707865465060900 97.996656755805404 -277.750151625037802
5.558862491142134 100.794202199011508 -278.879952958463889
7.770789190852156 97.375403178061077 -282.624659165845003
10.926106632813692 100.029413042814085 -282.445896691060739
31.304385629532096 -39.824029906799780 -34.249458983143604
28.187713169514581 -40.467022069092039 -37.752810396468881
23.723860109775465 -42.168803521259399 -38.599680722104253
30.501782255361292 -35.754919819987400 -40.960537676604758
41.440081107701083 -33.802681792724130 -40.167942785280395
22.478104703870898 -36.767594264624115 -42.495265477150561
21.131523674495128 -35.122288243259092 -47.942610507111588
22.458694853594686 -34.680333876533247 -45.204835763984896
19.173616143870191 -34.349674991133021 -45.923378337653020
45.436379269596848 -39.357807061000159 -51.140928536286680
28.296703545119311 -32.363751593387299 -50.884135145494263
17.163293160664288 -30.731022020877088 -47.646455799011768
27.063897134167277 -26.017111951626763 -55.471037840302792
32.840528642776128 -27.168380978411189 -53.463464727672260
47.250619090020976 -30.003501994637329 -57.279200607056538
28.519835712892846 -30.913625426607105 -55.296227971974098
24.072882794877003 -24.557728747530224 -61.194502518254225
25.466892299991791 -24.434390461338541 -59.508418331394445
31.163504078120543 -27.078493010275597 -60.012770319742614
29.018647646719192 -25.709369845020444 -57.199408704448672
32.306910425548260 -26.092516454802375 -56.337468807119151
38.228764592167025 -23.790292040192618 -60.201824473350136
33.669140756475947 -26.814081845664948 -61.335142325392873
-74.601024870202721 -23.931978957537812 -63.894523646601698
-72.408609746380677 -21.195843652481347 -66.493546939482314
-41.455980720195726 -22.428917840005191 -67.715126216288539
-10.609039234012505 -20.142537106591885 -70.453268139185127
-95.662988605261972 -16.271658897396090 -70.998822043219519
-8.577986214656770 -19.936383439202093 -79.425885022675743
76.267830044381242 -17.418034711730428 -76.856316893931762
84.515078632669628 -17.449844139400042 -75.637288785779660
-60.621558014510612 -13.947459961786437 -74.377481363332393
66.840127074231262 -14.967446450024767 -79.141903549801683
-61.542914495350807 -13.851640492444515 -78.601156966511084
-96.012032354239835 -17.748535750011563 -82.349278664712529
-29.869051679517145 -17.056228943224898 -79.727815269117713
-61.744078738225014 -13.680903138665247 -82.698347366557016
-33.310330512213248 -10.454500019891885 -82.762014741042762
103.709427490783654 -12.405458440989124 -88.317644387216404
73.566695049596305 -9.992575313047386 -84.913727943332319
-39.650009671297056 -6.250256502567230 -89.347470714707839
78.619253157675800 -6.773785558767170 -93.124089743926703
77.500910121551939 -9.212019595666442 -91.998608135840129
74.657571561226504 -6.550323253629459 -95.397895309236802
70.289938754716800 -8.253682927028267 -91.760553394161050
103.318019468113519 -7.463723458067229 -89.986734863388506
65.326540247307690 -6.798779466070902 -92.458638147777833
66.758209161534651 -6.512854382768532 -95.065499695927627
88.116084418187413 -7.921205891498899 -88.944120980640463
-45.023877331932681 -6.608677349675406 -93.822005130384866
63.015614431674038 -5.945847775879081 -95.618492362760875
65.285058343230617 -4.928988473350345 -92.354865698516292
104.470109835232051 -5.369942170183497 -96.140900740661934
-47.589568287359711 -8.851317090440642 -94.044057470624011
94.555251660351686 -4.539035994956043 -101.968128398873176
-57.377051319383895 -2.269015370157417 -100.083966003189744
-67.692652058818410 -4.085033111858770 -106.033680684923112
-66.174488720316646 -2.131690735840394 -108.685684549153478
-70.886279958086234 0.308873770696109 -111.349613013346314
71.975064772917946 1.272406800111248 -110.206432829406012
89.434214795094832 1.052359654184901 -106.100664912369524
86.815983839797056 0.456865682036445 -108.688594379798701
76.548023856580230 4.059221935360325 -107.217667839498318
77.377984910683708 2.379168333694074 -111.350016500525044
102.611104202634053 0.225561750041692 -108.055164853895533
-66.059462467975536 5.610553954536966 -108.243366789333805
71.784324863261986 0.561289704795428 -110.944630228841092
75.950052227988294 2.936858564068606 -108.585193063394030
85.204535837293392 1.868922636886358 -111.003231965340660
75.947456716304742 4.156223756982018 -109.454259671242198
84.996699987710286 3.759559346897387 -111.013824670329356
74.972149981251178 4.192312482757257 -110.470163496503318
75.205853049221332 7.664800078354409 -112.764445045786204
67.672762925826646 6.835385635910784 -111.907838146594358
74.634156221729910 4.404236228302465 -112.438428450127759
63.740658518667182 4.552812029683969 -110.648042489255999
-72.246307742465348 3.101667625855542 -117.693625812258460
58.167715762113083 5.324759850890394 -117.240342873220584
-73.466400857943995 4.844192303143007 -121.131151282944288
-68.532595883169407 12.932232791820514 -118.098338522808206
-62.003885530754467 7.853177942516318 -119.366553300041062
-79.182637267620080 7.853082125509774 -123.524236735867419
-99.003781270647437 12.508332091156017 -120.707566231326922
-64.215712419052906 9.847915558903274 -126.923906263585579
-70.890433562305518 10.821806295198972 -121.609329198766972
-58.382330513597353 14.393458421463521 -128.297827567386577
-80.794269551324206 9.935812934517822 -126.761508197171096
-64.204641274610424 12.078882109614987 -122.771787188368620
-61.659469023599442 13.686085192257249 -122.283423148276185
-68.081916617413953 14.743926629104060 -124.407497850102331
-61.991715676622285 14.799265811223606 -130.100157509567225
-90.097897506349071 15.082778468431934 -130.535051111138671
-91.238491492181993 17.191402635008693 -128.767653048917879
-7.287105767843423 72.408597726750415 -229.473043267339449
-5.072860498586254 71.741882832206940 -229.864320172584257
2.567223421947052 70.643134954617537 -231.570518986932086
11.930342305048898 69.519903943184460 -228.003914176566042
-6.398790350548747 69.819270705899115 -231.507342977377220
-9.446724450621915 72.122985014630075 -227.976802687226922
-11.312960726412214 72.241420895914644 -231.596713661313942
-0.312764070870001 70.598339456251622 -233.387557727002218
4.920377952975592 74.585597206157530 -233.007343775870680
1.693178426846224 73.575691970970510 -233.666293683117800
10.887681021101693 72.840517649581813 -233.080921446237397
-6.536012970883633 71.826711733421320 -232.884876699059845
-3.943367413208096 75.496319823973920 -233.474087489615812
16.989072119799022 74.672425503264989 -230.924084146877135
-0.552611111564971 74.568773971392943 -237.107904845709641
-0.623611629933843 75.597590126738837 -234.483530923984318
-17.474287663241778 77.283900039072222 -233.427257619131836
15.528688669950913 72.613064925329994 -236.889554020604265
-10.774669445961676 76.373222844131547 -234.331552676678456
4.226724415298531 68.833234870973911 -235.115411676568925
16.263985857983432 75.359254294437491 -233.208031771942132
16.148802010855903 74.829570863265786 -236.862548231616245
14.205417804442098 76.328006811444027 -240.897853408421184
24.774437052988951 76.657082826768843 -238.009965593206147
28.614127110010042 77.316748946402072 -245.913352390998682
28.552739516035533 77.073896645495878 -239.952641135042654
13.371960511804275 79.574082983777188 -243.598477339338558
29.741748445402845 79.977397814831079 -240.637504468745533
-13.693191641646759 78.841914769852011 -244.071686488777345
-13.316726628150210 79.606976402400903 -244.898260749190484
-14.286727419759123 82.041636066416388 -245.075517318833448
-12.033613875821921 77.260543467130518 -247.547203762801587
30.156222893405644 81.074627441597130 -246.030142591205816
31.692087613444532 83.199564614294616 -248.393445383439598
28.080806645843673 78.630379576168679 -248.125316271410583
-14.443762628402355 83.537076258784921 -249.945887574758189
-16.889433234954936 83.717430844127904 -248.692269745080324
-13.169118978912261 80.144732320700726 -246.740189709103674
-12.843369108105030 83.254024002496010 -248.627047349360311
-13.669358983340091 83.810417718904503 -250.836216864169046
28.171944183599940 80.246135237645461 -253.267366960922175
28.426631578012191 82.734733170363270 -249.761049047335348
-15.445435019975477 88.028128096326512 -250.866196548537431
29.695048644509185 84.873912801153196 -252.625582753956110
23.909008480183498 82.701988137668963 -249.860213536266087
-7.716717983054407 83.077653264757956 -248.060035627023979
-13.609734892820255 83.040309661365939 -251.551845536978533
29.473264775352177 86.825717952541893 -255.067721163283807
27.874317226144619 85.058142271846165 -255.413956200385485
24.430485627598177 88.517713261123788 -258.475145607080265
28.409727361214241 85.310745069942129 -256.191395131948696
-6.504857497723457 88.397945429932093 -259.093937893182499
21.529084572408436 94.022019132248403 -258.268453381277936
23.293620357945532 87.559547895900423 -257.955308056335696
24.503800629725486 87.511510629453298 -261.641994989375064
27.082144025833387 87.237517425142443 -259.220869506863664
26.410353366645950 89.139207489939793 -258.620992800868066
-0.766982196340421 91.846438594409619 -265.248868516933783
-10.536576514489266 88.548432731374845 -262.805381995486471
19.195016299797210 92.884893631146795 -264.844030401550071
18.518216487304368 91.527354465659982 -263.567259433917968
20.026364473203696 92.809365898970341 -261.426115308168221
17.672191127563259 93.896865272284586 -263.484214330823932
22.866883092385780 93.250453536799142 -265.983782791239491
19.906818006035994 92.823132521631535 -269.423357718316083
24.132061412074762 93.720308217577340 -267.555439977528067
23.018047610693213 90.710999216439973 -265.504649562479585
17.252810465424716 93.521871938245795 -265.229166105887430
13.049714700235867 94.356683309196725 -265.064378903266459
23.281822292034107 95.621946868629493 -267.969178091015067
23.220434539883762 91.054223212562775 -260.252779383516213
-6.217630362599884 93.283013025548655 -268.191795002373283
-7.534957058234833 94.791611657120015 -269.674054673431783
-5.112049311175134 92.105405550403020 -270.165054331770136
23.835353190462477 97.220064860355080 -267.928341477577874
1.408436124018877 94.401404639510957 -270.532129991326599
19.224325886023259 97.680160076538272 -272.917951025191485
24.357895875138770 92.327098522789768 -270.138439808800626
16.279421567875083 97.111183715136690 -276.189730283136612
20.201014059705518 97.433761503550897 -270.374044567641818
9.436178814480350 99.118415465050717 -273.436082317374428
-6.312442155090025 96.384466764217223 -269.694111719673799
0.480115898060011 92.974771709014632 -271.299999868246346
15.201134308835815 98.815722216287114 -280.942689457331369
19.720474227550959 98.013967998262743 -274.246565478017601
1.859345497599395 98.033586032437597 -276.816887987837845
12.011947227327127 96.339761676776376 -277.273617387909042
0.913834867310562 97.192089531679926 -281.675366555371738
9.493398997867518 102.434680173297949 -274.923453631887185
1.288616307249169 99.582324725560099 -277.910475143196720
-3.226473458551613 97.600149890743239 -280.767993828243391
8.374476626805759 100.105028467503786 -280.877395891125332
-2.990356748780111 102.913414974379222 -280.234685463268136
11.632209976949158 100.323024752525043 -280.396602052454114
17.944944979665294 100.377169907653951 -280.265579966104781
3.462535458846220 100.288629653611707 -278.413241300727066
38.933681754208720 -37.820277752306822 -33.330037601156263
34.610740855770125 -36.146806300766954 -38.355907244556647
43.283109005868603 -39.228380766598491 -38.459988691252995
31.254758511460434 -36.993462581451730 -33.934524950063874
41.520378773059775 -37.503303231506493 -38.166071177540125
22.664274883992537 -36.257303714273732 -41.231322428609829
45.999450987082888 -36.724702881849886 -38.676246818683595
21.640243394322962 -35.872576219843403 -40.335026507178860
25.606612493837375 -34.982473824136356 -40.076312221753199
40.431642591610782 -32.389203739710894 -40.744654134477322
26.743798759965141 -31.138249629009973 -42.999410619532846
41.551230495148374 -33.032128072498324 -43.404845275787366
48.771858635096628 -34.313271125088079 -45.454513685425006
44.004356721673702 -33.229830870349609 -45.062901113274080
20.699529023254200 -32.131965072104123 -45.034849162752536
44.220779221506284 -32.565828038150187 -45.047705737785428
48.353686765680415 -31.291137118328120 -47.122197371014352
47.412046206189046 -28.748963621743190 -47.519298886951020
17.268024732157528 -32.352786731032118 -47.965154394097283
18.369765963884877 -30.061565960079975 -50.401028527761035
27.735693822787777 -32.451823147132579 -45.377317067934982
21.622864882684361 -29.254658737651130 -52.869069736955225
41.092405114119302 -27.403064227113429 -53.377557576805565
50.178756250290149 -28.507023170687681 -52.512533922045129
26.446539796609219 -32.326630478248660 -49.143208606011655
47.228416597269472 -29.738379476711728 -55.530620493996167
22.301642568020014 -26.986754796130931 -49.636431819297023
25.811290547768447 -24.946558105384121 -54.088361651668748
25.210584977877311 -26.517369203028121 -49.618679140037756
36.471824891019892 -31.141764235088054 -53.247685711797182
22.135191800918491 -27.055032685636611 -54.036520496899989
27.324317221625442 -27.235198571768226 -54.779682363109970
31.717647157299382 -23.676664033412091 -55.141612840468028
39.476025254005840 -26.450262688626747 -56.173983293594510
37.023376557019247 -25.726544646571874 -61.913703080646059
46.365071750669550 -23.977238621374408 -57.477127831427445
21.295677461921461 -28.644542569716226 -57.362136496782924
28.403354587429007 -24.535876659359644 -61.963574690633777
33.468488873276279 -24.750710705711466 -60.453815782970629
29.952117981559358 -24.991027358535625 -60.130996924559895
29.927827803508819 -24.171721640098816 -64.597646420958867
38.225265968343031 -20.625433853511002 -60.180435497558321
37.804857327354249 -22.995439961687964 -61.353330907934108
-65.438345256268576 -22.416743938607510 -60.067240546045142
-89.541851595568303 -20.545860066326288 -67.007952212836926
-43.069234456640203 -20.814369625266277 -69.357589421819867
-25.359807360234150 -24.108473494825756 -68.400070202038265
-17.788101364569631 -17.839968429727392 -67.382664635826970
-14.557597146676647 -20.709231973491324 -67.131400421902711
-19.175357224870154 -21.231809623131507 -72.115462938943608
-94.103548743815963 -14.916534980744990 -72.634038226618856
77.891322464580298 -19.404704123451449 -76.136730896904510
78.605116882932208 -17.951505083752043 -74.263720174821842
-63.660409921964700 -15.420079424690313 -76.837145351430962
-6.286228094151999 -17.009968372697749 -78.888979092720305
78.036321862117859 -13.791820893230332 -70.841386809037644
88.263762143109304 -15.230292011735347 -72.808516699861471
91.596394217593911 -15.779530064792958 -77.435077650895764
-5.168960765338332 -18.084108143627766 -80.443836953960485
-60.556722835594890 -15.698745177629643 -73.879103916797916
92.879797028460942 -18.521288381702384 -76.645658609148740
68.432266358155815 -13.262887457174488 -75.925172925795053
95.735179840455061 -16.843062098331302 -77.691083599701940
-96.580471511430730 -14.474583798578283 -80.553915249611421
-61.787192380227282 -13.449723059702572 -72.531959725308667
97.547145125113218 -13.036994830550061 -82.074905242230727
-64.192126053525755 -10.356233712052530 -84.102698258813433
63.103341591706254 -11.228531377199287 -83.940220612672803
102.317624437249265 -11.537945996359134 -85.341233240458465
67.901764620644016 -8.961904805703046 -89.532846576791002
-35.098842231358482 -7.872121442504364 -83.779874726089446
71.588586908876550 -7.277216706387692 -85.312377671170282
79.162809699419483 -7.664041046978365 -88.153555338337497
83.041107624326699 -10.976659954434094 -88.005905257352197
69.003756298237903 -7.082417799106179 -89.413806146845332
70.555115770773284 -8.750653919279262 -88.293556722719302
87.667232312692761 -7.819893836161929 -87.879822845470869
100.009337198546973 -5.983804161450979 -95.173916212704242
95.775242614072198 -3.117497238718327 -95.753080940840206
100.778945616668111 -3.471760417426451 -95.368873843431288
95.537101307679094 -6.872737925436827 -96.114440044906971
-98.744331005905494 -7.236382734038066 -94.837835968853753
62.104688203877039 -3.821665540029072 -88.671417837355193
-53.881728620127809 -2.700731688261412 -97.259456894358095
99.885605344904903 -2.835945627133647 -93.701259976270606
103.632735298720675 -4.730532232258574 -97.298571073169356
96.044993226504715 -0.482441691881873 -102.625844654559387
63.609312856390432 3.180229378573690 -102.283453287049227
100.363365680339641 0.726973165646820 -102.194894246801894
103.227509395512442 0.434227070524782 -107.636126914118904
101.825727354922037 3.620860886235168 -105.490359464555738
95.407090283937720 6.012878099498764 -109.986917866212693
103.958880793739240 5.065673150828322 -112.691176271640813
-64.975971165415856 6.266483276553451 -115.464894428255022
-62.103734569999681 11.170766868792857 -114.630046479292830
-96.079279239472584 2.704070190354293 -120.276870038724837
-73.961362824736980 9.804749925693821 -121.251380037554313
-97.537824875096504 9.438215735299046 -126.000782574185479
-64.513786851805122 10.476667547068301 -122.554705311812711
-96.891774677932503 13.011086332149922 -132.277739469005439
-94.869968225506298 13.880056848592412 -129.060089249262290
-95.220930486724171 16.761853022922011 -128.713114032701554
-89.805838229306232 12.149493815753919 -131.098520878397977
3.990075169334749 69.211432008819472 -227.857737769022719
0.810423585992179 70.700249748962051 -228.532002725790363
-1.091599875906482 72.355827622340740 -231.898471203191804
-1.308397336052312 76.737501926678789 -226.910737168418109
2.970549703573313 74.862546265714030 -229.257152186734345
8.363967931193473 72.188083210902306 -231.933421242123927
11.140278095257891 72.661916964946727 -230.265908353120352
7.378671488188758 72.456217902996912 -227.066286820361341
15.658667471711404 75.379505338135317 -231.562922074534924
20.294914341699002 72.708913803908970 -231.719480509700446
5.037316964435474 73.177483362920796 -231.154099998071217
0.541543109192725 69.566071756411631 -233.956430870636979
13.491017449390077 76.625221678214558 -234.253568847290325
19.039226126269210 73.096796450795594 -233.221785732195343
-5.522940986067404 77.918333175310195 -234.053517194922080
9.508347537660075 76.904883212381620 -234.624438209110679
21.916103816638980 71.949231793091968 -231.609551601766270
7.671334552569512 75.639573509931807 -235.778412250731094
-12.544652485389012 75.785394863539324 -237.319245791459480
-5.307556853363759 72.984958379100703 -237.871684985193355
6.653223369626240 74.536658662283287 -236.150148430368063
17.003379385803996 81.951454620075296 -236.888503356373860
16.943732145185095 77.412212371116297 -236.390715907869350
22.826253624798433 74.976899454675461 -237.161823861057854
25.866361608511088 76.352462626282644 -237.918257975585561
20.332314751183510 79.016769245397228 -237.160937982007113
-10.717130175292549 79.285657114792372 -237.100624614372606
28.807666331252204 77.276443039089557 -232.999682521894528
-12.351541497817093 75.870352393343538 -240.915404250469663
-12.491055072324654 79.825965764959250 -238.164087704385963
25.806354667285678 75.943179575194620 -238.220344417240170
14.982272258869795 78.294121511956973 -237.492376419593000
20.495455665031407 75.733211495068446 -242.116240154001332
-12.589496714479028 79.808440955812188 -242.259255903311242
29.895366510694636 77.578907059471675 -237.831371388485962
-10.363435903203133 77.655040114866367 -239.011430944555741
-12.588842178360322 80.991993175970620 -242.728040746618262
-13.003234028852226 78.474249422776211 -244.077737603757868
-9.327649946159639 80.756713721941011 -241.966636835656999
-13.439042148185015 82.281256732042024 -241.033211385842975
26.875855637184248 77.511405631418853 -241.616050754760067
-11.754048032115097 82.551234977682029 -239.008037343796587
32.574693304218130 80.893519935764033 -240.478800220872074
-13.871131452178066 80.068682046001300 -246.063232752370595
-11.935975723761651 84.062195307111622 -244.358819430963592
-13.695758698600102 79.986640821932298 -243.812250565984073
-16.002467317547321 78.516240841941013 -246.041349200646238
-13.410197098923502 82.696601801840103 -242.236619467255650
-11.661847925881897 82.785771729759830 -242.956995481584443
23.961581715602023 79.638340606699202 -245.917020655086020
28.000366413416238 82.646237234254201 -245.148298530965803
18.895311639392588 81.185714729593812 -243.062708303963063
-13.774762114833061 84.173640345723626 -243.485930203388222
18.001657102680046 83.022498579825154 -246.942472041986321
14.707722858472593 83.652378777480365 -247.746159219465682
-16.497711786651038 85.242623619142066 -245.414802292124278
18.471104181059459 83.426022408148640 -255.094078970680016
17.482557085089233 85.356402839543776 -244.499894938824269
28.627744877752114 84.544866515070410 -250.540290021992234
8.726608124494092 85.106593227893697 -252.016909937927267
-11.722649552317899 84.846836117207872 -251.997352435095053
27.525792589234278 87.260006073907505 -254.368681929236431
31.241279940019890 85.456191143227244 -251.248993419780248
20.525633456290500 87.132693920582057 -250.971810409899632
29.696594063091990 89.583168247804409 -252.167321590588671
-12.275417445287511 86.140014132293231 -256.389860638421908
-8.660387120322572 83.500431277289422 -253.383717130430455
13.763636985475150 89.222999284747587 -255.693161874838836
-11.593463035916582 85.309730292945048 -253.943874596478793
2.386694855222189 86.014056963341091 -253.457707080473000
31.381287235654700 87.187092868357979 -258.844708623729446
-1.168181750430344 90.954355460835117 -258.031172134719952
27.106781099736413 90.600193159809052 -259.983946931699450
-12.648595492441469 86.213177088831614 -255.846641027363944
-4.682911666232772 87.302392404852213 -254.705454265664116
-3.455358756665906 85.311557750792034 -255.679725100445921
30.245362651987623 90.989424267532797 -257.425642378910936
