# This PCD file was generated using the MATLAB® pcwrite function
# from Computer Vision Toolbox®.
# .PCD v.7 - Point Cloud Data file format
VERSION .7
FIELDS x y z
SIZE 8 8 8
TYPE F F F
COUNT 1 1 1
WIDTH 813
HEIGHT 1
VIEWPOINT 0 0 0 1 0 0 0
POINTS 813
DATA ascii
-56.364223077879494 -21.493009916314016 -64.055225237112069
-45.672103737728527 -22.652624355801183 -65.445721976586498
-21.724937423022617 -19.326024196709206 -69.596953004858008
-12.034108278510955 -17.432490114401773 -69.858386567851582
76.514222141311492 -14.443110179509846 -72.207467681647771
81.264693718538325 -12.344356491409858 -70.913812669592176
-66.727103677291467 -14.079374648873637 -77.714925101054931
76.509421321365167 -15.530723684867587 -75.678511877036485
-10.184063934360356 -15.625215976305837 -75.987506179128260
-12.927550960901115 -15.547716005814207 -75.821872853612490
82.293427905456809 -11.316546566917053 -74.952785663827825
94.660564965217063 -16.002750085629529 -75.509017820845983
-65.688184523967649 -10.349549612733167 -75.078876426786550
73.615917065646741 -9.737176012932787 -79.371714556120565
67.895478792320930 -9.568507289413251 -80.835428684980229
72.408585118710647 -10.146366569969979 -78.585023606743704
83.676954834944596 -7.470391155041846 -80.128499256606986
103.068862015517468 -6.791321235169536 -84.639907607194303
68.811238350680028 -8.918338564354054 -84.920663410958539
66.686328427813578 -9.377214186510900 -84.316139138256801
89.941381430383160 -8.088331751192193 -83.942811057070870
92.967187377628619 -5.815891574922874 -83.973310009358414
97.132978385041497 -6.678949505933239 -86.347261950347473
66.681314781762254 -5.071211576963455 -87.321489878795205
-100.684788930660787 -2.028031944787278 -88.686964452007800
63.876113155312915 -4.314161929781867 -88.864432586730359
-44.149713477764351 -2.038771191083895 -92.263990364571114
65.383267466209716 0.766765420937427 -97.646120818454392
62.309827845393109 -2.929178685217905 -91.594387976762491
-55.109146746123663 -0.850600017929408 -96.864297756789796
-58.745716014102875 -2.917536868048415 -98.400473003407328
61.394683282454253 -0.087920301848071 -97.554681039637458
62.202237609376176 -2.396354699396168 -92.884888323637654
63.453909077447797 3.356460221260301 -101.979014809673657
65.817575688211477 2.461784409980697 -100.562134506107611
65.893625797071408 0.385527078702322 -103.142080647856872
64.971144600063383 4.744920657332542 -102.069590818663102
60.857457712925523 2.070423451529199 -103.280057380330561
-99.045079628697152 2.471497636234495 -106.266964360344787
64.743145858856394 4.475418781526199 -105.439221721676788
66.958831188224437 6.171228061620686 -111.158973103434278
-100.897851579763383 6.053400846420887 -109.371166301873487
61.772247542506840 5.879699994308415 -109.600030085948745
64.299637513760402 6.304416204981178 -109.095765252354440
-70.232471540729705 6.026150225814359 -109.147594364565322
71.502261191704676 8.462081912651531 -115.978047912154182
66.772122221545374 9.578566862476222 -112.736048886391714
-75.174970491620527 8.767887359447435 -114.811285592507815
67.733708646565546 8.369705368505182 -115.750976194204725
74.931327505340278 10.150226969199295 -118.052722261293837
75.487351516949019 10.728943929805183 -117.539690042262563
69.798933730255968 10.287221966637341 -116.365193587653607
84.176619488950649 11.200211310643015 -116.262654106066663
84.301955341752915 10.870915914395043 -117.241943449927717
81.780216240029830 11.614888839171577 -117.866757842098650
-84.007931489337736 12.857826586652829 -123.273028827164623
-88.337685705424732 16.247444769090986 -127.346375889022482
-93.432473828502623 18.359503597521620 -124.229869493427699
-6.203712834962548 77.640510673505545 -233.503067962391668
-4.842132292929343 80.957414975480418 -237.703324980175267
-9.177697664777499 79.197827233086016 -234.046496967481744
-0.075361277269718 80.889327462593599 -235.811186976776270
-9.877641490280400 81.134145100044449 -237.790552351710090
0.049654272967489 83.751893455716100 -242.768400270036238
-6.747430337509044 84.528768279467698 -243.877253927303428
-79.546338350380282 -19.167915778232992 -61.680493976943609
-60.300753193725107 -17.778240123713694 -62.564724962626762
-56.612910689138801 -16.229326686002032 -63.771061243319778
-84.089255690118392 -18.574058924340857 -63.701599255178593
-50.071247539777744 -17.215901460320950 -64.496805159201742
-62.111550505341654 -14.634504932858947 -68.543462284759997
-42.669888433074675 -16.539817223251024 -66.682252212590427
-61.366793244729834 -15.509207738227758 -68.809211302895392
-62.534616977166941 -16.491244718853718 -70.792764030633776
-64.637430636691775 -16.088253040570475 -73.382801115177756
72.300167479057620 -13.147651276161897 -73.316830461133620
-59.871978557028626 -11.695622999857912 -74.503396973842541
87.696423322655278 -13.522985240924216 -74.061032523658199
93.822098395779690 -13.204273159814255 -72.822421008781305
82.075810903724360 -11.253720269366333 -77.120792027715183
70.011818255134017 -14.679321186800209 -73.684120098639056
-64.136600094892515 -10.667921469286709 -79.216201925477861
94.076185579447895 -12.942832331518598 -75.246580949393234
72.472701202141607 -9.571973901077444 -77.207033394814630
64.677305922267621 -7.763176231947250 -83.554168987613409
81.379573608292759 -8.720081675731647 -80.560515510718545
66.741327374272359 -8.853229480437914 -79.702210031593523
69.561422128044327 -9.547875949775404 -80.295867161001112
68.100950871621251 -6.964739683582724 -84.295210343397642
88.624302142628267 -7.722796045248454 -81.829794206252117
66.027244979635782 -7.031054058688649 -83.739539471206996
95.855066595806193 -6.872319886358724 -82.141711988199518
90.788508777790156 -6.987529700805571 -81.500518513799761
65.746748917198815 -8.661583561394638 -82.392584576313510
101.693984740726691 -5.787023709081089 -85.668269664753339
66.954732788476065 -5.714257160412684 -86.105811329901087
-37.748793355658322 -7.881319670850073 -88.016048409671839
62.351271382156554 -2.916797542873744 -86.535989640996277
66.103269701998755 -4.669686278191755 -88.106147604920324
66.551623593577077 -3.254919192898900 -90.818289445999255
-46.924862602812127 -1.446596660463406 -93.906425464531068
60.436683366541395 -3.238904211468700 -88.405848632147809
60.025673573383635 -2.380216155569878 -91.011060334887631
-52.296455522644344 -2.769895331889479 -97.593546797591571
61.151864395751055 1.136261013255735 -95.322606210201357
63.171304856138661 -0.387111436057544 -91.776057516735236
67.130176379468992 -2.244594869389543 -94.668537764928260
63.016214609448703 2.209944599773761 -95.948429549799698
59.427024015221733 1.738106490711675 -96.229353115130124
63.246831090318537 3.983028379785501 -99.849084010878656
65.305439082745494 2.874399524221155 -101.126369888123648
64.163288211592771 3.917282851428844 -100.819533423130679
64.745370778751365 1.745334497399206 -98.271309360438735
61.879458408741918 3.905880477636762 -96.581266065045114
63.062200927730984 2.497379029403407 -99.691086208046116
65.401827761342943 2.454046277271796 -101.722331214932424
63.947925474404684 4.412356098691061 -100.916042542181870
65.008651123822290 4.953546572854528 -100.766066896914197
66.064402554673222 1.585133826604842 -101.346923759484540
68.469544909387679 3.887875367364965 -101.635430846013875
58.838077178013897 2.786144016213498 -101.072197071618675
-65.463174754612737 1.392688335124737 -106.494301764164348
60.848047216181129 2.918521559081760 -102.668764202355945
68.693983679678340 6.826071880839183 -105.110352458645451
-68.110897284938275 3.966029116740759 -107.401937885161175
62.097377407720536 4.820883829585954 -105.676115157424874
65.462489289550859 5.781165245589984 -105.339232021098923
61.249272501315446 8.766820845052894 -105.422628071451541
68.923694716684608 5.331000232385037 -107.968495305979317
-71.886517088079970 5.694682622650223 -109.381509412618641
67.875358048880031 8.567379941797356 -109.820341204213591
68.156935673971347 8.341911292992279 -109.474597448675382
67.404925393496200 7.916661804570970 -109.669808273184827
68.559652902031516 8.040923233373066 -111.052358897156907
67.702291631490851 7.899471651081863 -108.732956492913971
65.032119926543416 9.064761616471900 -109.052097806014075
65.547812400832797 5.414159497605739 -110.634803335750604
-100.706484068529775 6.549055559565264 -113.902496596091325
62.395454519233759 8.920693534359975 -111.635536357525083
68.402470821408500 8.709572208619310 -111.572950207341279
64.686445954261700 10.002760441673678 -112.029020153780465
95.388858320050929 11.607077079375095 -115.432663086657342
-79.796364565361657 16.438031850184817 -111.078131155933306
72.484076339005682 12.864520649242422 -112.688370806572522
69.194655978169564 8.839561334854027 -116.229505041847460
75.623079231185102 11.709429432388998 -115.832712835051353
-76.542829873321111 9.089647084976502 -116.527896174903532
74.421196369064717 12.784064730869050 -113.405513860442909
65.257324114671732 12.966066196688654 -115.281809483668724
74.497191757788912 13.455367824872827 -116.360063130012577
74.687120295210846 14.097470675366996 -114.830200625740872
81.000398213846282 12.731021826454901 -116.414897199191941
93.215853879301278 11.858867318956463 -119.955278300163215
-79.819874290141385 9.013905443250630 -116.957137645132917
87.405001507517838 12.312624577311562 -117.320224760491712
67.311121229975726 16.135566534220068 -117.245293805529499
-82.606556167441653 14.531428938992498 -118.787170372412106
73.340244624100137 11.614542386402988 -118.848185380914870
77.625739772806426 11.676997984735225 -116.559584996392232
95.451861969859877 14.390898552619493 -118.693906674312444
75.649559756361882 14.430752266450281 -118.092296562678555
79.839962086483908 12.284006888314794 -117.590852580737518
80.159375392331995 13.827056807344295 -118.861285611945647
84.972990174878987 14.515792681832817 -118.411617645040764
87.562680593499081 14.344167865291670 -120.574860520153592
-96.066188236897176 15.033588587256984 -119.726682314733139
-83.598931765767446 -18.770139997719070 -63.790567873371998
-44.709853900275711 -17.148641811089785 -66.417114821959814
-59.243540407663900 -14.334210604393318 -68.108417933397760
-62.659088480833034 -14.270063399919010 -67.368598541183857
-37.501795245817277 -15.549327891686819 -67.377880555324921
-29.124178929837768 -14.245451025298504 -67.730977001106993
-25.164649537534444 -14.901759230633946 -68.490123701218366
-22.762938176464086 -16.472789787350369 -68.750322988640150
-9.222501552691893 -17.543946917638554 -67.458347683624609
-65.874637354058152 -13.827055131977399 -71.374862248031889
-91.827881993447832 -12.900152563410698 -69.004887562558537
73.531024641230545 -11.630616142587218 -70.737111775991480
-96.982797439471611 -14.772362352078842 -71.685666347805110
-62.949478706919805 -12.843817864657678 -75.701703518795455
76.477405015372085 -10.518492440105382 -73.001408231691059
80.071301680908249 -12.177301361306084 -71.174925464637880
85.628406680719749 -12.364559257641163 -72.408693239816017
73.608757872444855 -11.481525467254519 -73.565588975118160
69.194627046115784 -11.380225235341896 -74.307270976246102
92.718323788941021 -10.605608574399733 -74.644184787541079
73.702360836187964 -11.728799118389402 -72.689170256274508
-98.571472967327793 -9.350250613429363 -73.180973939122467
-98.153058686862678 -11.730484819041504 -77.611326013993505
67.720726326709823 -12.883473099206338 -78.229699676653468
75.066955923068605 -10.812514271607180 -74.127233595135394
-34.904884831600576 -10.737104893667887 -80.707868868867251
97.142698087810231 -8.555376966260985 -76.811256415758109
81.509226314943191 -8.119598309135595 -78.963683660758662
80.976747892054320 -8.086668206978983 -78.839080981383887
98.539861515129346 -8.056591402104374 -77.651659563579273
71.848254992417665 -7.506829251319083 -76.800681007634878
84.108482204170130 -8.943331904330394 -77.710947796532224
-98.678354799967806 -11.325667145811165 -78.707635234316527
69.886789120033868 -10.141204098104685 -77.024216685296579
66.600654353248714 -10.121748130860563 -77.838476053034100
91.822736197596811 -7.190766358196234 -78.776355076796250
101.101833387406501 -8.591713295709557 -81.481988774662540
62.555439512262161 -7.557945893769477 -80.938746881632440
69.131618220337984 -6.097552896039398 -82.509303766404074
-38.158438475965518 -9.731835834628974 -84.482679278036159
64.483258747800775 -6.466398442003126 -81.602514901979220
69.996313349916434 -6.192498709187570 -77.316582797353405
68.584475982765795 -6.390100422508701 -82.737176385489718
66.571178646465128 -3.495337494587637 -82.842098205937333
63.096260286568018 -6.089123629681101 -86.561208598221342
60.986894695652836 -5.401500881278878 -85.228815824333978
70.197526321695207 -4.973403539798830 -82.077194329815228
67.796928953386029 -4.425152569292464 -81.622482167539701
61.312056564799292 -4.867842968033047 -85.139938032901028
69.940597543765705 -1.738183554058440 -89.234001154706718
67.686047217481686 -4.927255731365617 -85.401478790488667
67.007136217959030 -0.777574725338792 -89.925621701847746
-40.794758596028366 -1.480409473072656 -87.767181722727713
104.980046491601556 -2.717704748955447 -86.089220851177373
62.988299426858923 0.100053597478245 -92.055681183181477
-42.280686515668471 -2.500941510559568 -89.146217981168903
105.799079325481657 1.132307628118641 -94.305550646876327
76.381323849656752 -0.100172639492416 -92.132512535111914
71.060298120299890 2.139266597823443 -91.757183816642709
64.719990277552085 2.988956875702697 -97.656133506145949
79.707225475678243 3.429019528619958 -98.452051301029158
-59.896341098958914 3.980705474767331 -99.359495694925883
72.649049994806404 2.625103286931171 -97.592558574039643
63.765960403623168 4.960184103748113 -99.964519854106811
64.325460999147907 2.701701182738251 -99.887337618325063
66.196303004368545 5.802553754539523 -99.403225896113000
66.235051411435265 4.651479479683327 -102.002903757517487
74.710903417853714 4.006806113526837 -100.370623895083725
106.196767800693166 4.402876355443329 -99.473038587853765
-99.976714697211051 2.874169123452791 -96.755503723614652
63.983080033461498 7.335442285803528 -106.604817776576283
103.962272563924429 8.825483001214087 -104.331974644406145
75.459686920203140 5.520871853588493 -105.543958160472712
-67.461872293500036 4.987111837295945 -104.984168846090441
79.383199539779696 5.675597477942404 -103.200866421997432
60.654410843529263 7.049011197233751 -105.547104877252636
65.631731067676043 5.755865826792069 -104.348347162462474
62.007435378618155 9.059891696510258 -106.888225535440867
61.266060201125256 8.320526697024796 -107.693108371921795
67.594184625408019 9.334470400473000 -108.511995905706215
-99.512543163585704 8.000255704267422 -105.495739193164965
74.634550073964320 9.864661007795469 -109.125876944058390
81.878541330059022 6.115800609568920 -104.776594842005636
99.458289773124761 9.447812359933360 -110.506067608107969
83.604667362947737 10.189235938862202 -108.341208716352767
70.658470123667385 12.144152005569492 -110.242725632287090
65.186702541668822 9.108976813258662 -106.496708141755221
101.127458945130428 10.255586703380885 -109.923397088863894
67.769450914423572 10.158671685914651 -111.603807525116039
-74.298411338926968 7.715595139382083 -113.305911965383800
76.311947534013385 10.939151428509701 -108.450078229438773
72.061903181951180 11.542829073539298 -112.053129935326510
-98.924235669541403 10.907234499036925 -114.515791868188700
76.498507405038026 12.339863906938447 -115.416717812096849
-74.907868973270581 8.729861978068817 -114.945011374841172
80.689679894772695 13.280009345814799 -115.832602586115058
82.831455943697563 13.180681508280983 -114.240837393751704
97.920992749388319 9.233953363371977 -116.106745729101959
66.094464290759902 12.439179563007256 -113.382971103691432
63.145668052129189 11.521156992509004 -115.342917607342045
82.771782160811753 13.281743764082629 -115.203466773504104
92.275001755058710 12.131418275119573 -116.545160335579922
70.724264675535082 15.217623378655832 -117.448553242622410
-96.812844799831510 14.365735832457835 -118.765742424061216
79.565304868051115 13.919438151299659 -116.818449695147066
89.296793795216047 14.408104917528915 -116.441699854565144
89.046721366504158 13.849237397818300 -118.197264777485813
74.328218799668917 14.220349861811306 -118.567028203980698
72.475346643922975 14.669182056977920 -120.292690896898463
88.577323417543596 13.461811599313913 -119.280553341825637
-81.581802141578706 13.403589806184513 -120.678983738577614
-83.885942759884102 15.156815267333615 -121.198268126951149
87.464325958356284 12.854167344412824 -119.938458625009503
93.507898994931608 13.557785282918960 -120.661440522789647
-94.377464286913892 17.701383357260376 -120.939540906745250
-91.999038539223150 15.880690830678203 -125.995488593574905
-89.479662038777064 16.423315604342218 -123.926536142889873
-74.608587772926171 -18.706063684535554 -61.440595131327875
-51.818577239196301 -16.204191751447972 -62.978369375405933
-61.117979116044324 -13.516287160197891 -66.115254688804214
-60.494174991964414 -13.740768593364603 -68.200725700888086
-58.175224471645400 -12.779737755100061 -69.466009117396339
-63.332913569849978 -14.411093717189063 -68.987019468771948
-15.219210938466597 -14.068452908511336 -67.058863087031256
-61.393218355818043 -13.032080701469077 -71.476844375403147
79.787255335537736 -13.993031989761255 -71.772437259091234
-62.147476295221082 -10.500883545839123 -69.406979848472361
79.863336012294127 -12.728744659645328 -70.497097739402022
-60.680785083707185 -11.883554021771614 -68.675093279826001
-94.031133518124136 -12.496982405663656 -71.079996669840000
77.441784803247245 -12.815698743611389 -71.285683176990986
80.625754650111148 -13.478073576821062 -71.466088173825383
91.540700976886754 -12.629971713164240 -73.403384603684614
70.895517475339233 -11.394179644794709 -72.843441462866451
90.107223142277689 -11.210437813087395 -72.829422953144544
96.381426482522528 -10.826672120561840 -73.487231836134484
85.757889953142069 -10.996147089526803 -72.579032056433547
-11.833864368991081 -12.341506780885021 -74.123216731985352
-9.815097319745115 -10.597205649503186 -72.022352833026872
80.698862600884752 -10.847608733505762 -74.333631349493359
86.175571534300019 -9.687507493814294 -74.721866026960981
77.454642309146308 -10.095896991797348 -74.631638233152827
82.276918524269988 -11.306669916634572 -73.884741869075413
83.068747066475908 -9.495171731124710 -74.284199054713042
79.663935662854300 -9.596003461613542 -75.633968957758725
-23.500434724059719 -10.470825442455844 -76.155413086665789
98.770029354726631 -10.231852911752860 -76.032269347144634
-32.976035202776707 -8.637980706521391 -76.406263727163321
68.639956463561532 -9.657488335900995 -74.466596686249048
73.741303049025575 -8.364585876485718 -75.148860303221568
74.701349916755319 -6.916869367581492 -75.250354644151656
73.472809984678960 -9.390512691659090 -74.746810171022901
73.777299301728362 -8.326297048811131 -76.062452665465145
66.673160340868833 -9.515510705810970 -74.836062534894154
74.691821086648332 -9.458017062145739 -73.865593384010154
102.158565872374112 -8.527149238062186 -76.673868877534986
67.858115660630816 -8.229499251386629 -76.836477786235832
90.254138997927697 -7.390506274873411 -74.657438840869631
100.726861379002685 -9.208046940695821 -76.209137036124730
74.304617749965445 -6.302908818699554 -77.811348611405478
96.751136851863549 -6.969670111824336 -75.089926730346718
72.625860913752817 -4.441939141641464 -83.453710530896615
96.184668191018289 -5.661089337334089 -78.098684196911549
100.150215617987527 -6.934180059561417 -83.093390130122714
66.389250053523682 -5.205257768554657 -82.656553680035344
67.902996752287677 -5.344291053045180 -83.158534993417049
67.846325778433282 -4.235210121668889 -82.810531613286670
101.839785930862746 -5.758493286111942 -80.998540644416735
73.807972731739255 -3.854666790545184 -82.444210024874280
103.823346806178748 -4.290472694233312 -82.184776294830371
73.434507822841880 -2.569049929574187 -86.944212946742525
66.922697163106236 -3.243784771429258 -84.327770351430615
82.248951306867099 -2.076139710783239 -84.552220878871708
-99.927027391204689 -2.959724519136141 -92.491148871313968
102.449671832655724 -3.551501046473236 -88.964357097900418
84.409952234974313 -0.516826566554206 -86.904792210699640
77.342066206663887 -0.179205303523613 -88.843650476909943
67.162111780969752 -0.871267845170834 -89.462448885700553
106.774770647071080 -0.888255947686251 -90.683684138072493
-47.796018148062458 -0.738991330234583 -94.039357292136870
-52.802205204110862 0.651800148478583 -93.851040030470912
66.943765720994648 4.206252489397911 -97.727131563231737
106.659988078756399 1.846267145073477 -96.658685069315865
-58.263859960639387 -0.599529815173299 -99.648645819814263
79.560640366167732 1.623983178802492 -93.791618489849014
89.938652674745541 5.146385004986441 -99.480687095045369
71.279584989861263 4.680079034298809 -99.897259170873895
104.790544406892508 3.930746536842962 -99.213256190442394
-63.491833123281438 9.530272915487620 -103.559512444060530
83.552885519046100 5.563060006304618 -98.616439904467825
75.259862885348824 7.299434125667515 -102.230115150976246
105.813086197312600 8.795796376594389 -108.055255912811631
101.209474208649269 7.867110828098402 -107.941988120486329
86.958975153703804 7.633711448365006 -104.710743937916632
70.258101735186756 9.930381179943838 -107.170764845688083
80.749954724527626 7.995349607213007 -104.664272928402710
84.058761199212043 11.524534862148846 -108.549511631243206
95.239232649362677 11.980326066681133 -115.301591463918228
73.449448945822581 10.910591946391335 -110.132029275984891
81.274008856859027 13.264650224560548 -112.348023462292545
92.649216033340963 14.363934581346715 -114.961155657679257
76.620075275751347 12.412427345832967 -112.776443875749322
81.585180942646744 14.245164983862498 -114.095535145712063
89.194990973198259 15.702894128173126 -114.637585454035232
95.564298585325773 14.701446312474198 -117.930276467734231
93.508988472584420 13.667798737629182 -119.279196362794593
88.598657064064312 15.064125030452754 -116.424010511229653
94.866882364858640 14.882304148164350 -117.311844099486905
71.549917596958863 15.469406641298862 -117.565856071033139
82.569580983117987 16.563233745271877 -116.779472915222684
77.481853824777531 15.210410999659231 -117.956417681362865
83.249969129895774 14.764452068759454 -119.069903125032113
90.623405213156246 16.123065156507383 -120.060415307601062
73.426147492110886 15.795255420423699 -119.061735383789468
76.737676687552010 14.836366433576265 -120.657089675680922
78.551043397986632 17.152851236925621 -120.818635400684400
87.725366333908156 16.100242475974287 -118.187263609962130
-67.879735354139029 -17.895465776069610 -59.819029398917579
-61.834035218060478 -15.098950540698327 -61.933800088712736
-56.798039443732506 -11.656857673978834 -64.660298343425652
-40.161662987780446 -14.923174458924278 -67.352022565347710
-22.640710147981697 -12.050240223309039 -69.387064606495869
76.579846073018984 -12.251862090146350 -68.704458174574015
84.098329445820781 -9.869621277477247 -71.118478467321765
83.960092449623303 -11.803326431341437 -69.865616791693341
82.283771310455492 -11.720249249730383 -69.327065182091346
-11.037641203144426 -8.442909351360138 -68.124400744992940
-8.575555051585612 -11.587172221692962 -70.171016244345282
77.141954251279174 -11.321825731321290 -69.967022444103691
90.755823055527301 -10.911056822371714 -71.074317362844852
72.087857929851239 -11.347918565990902 -73.016107025427488
86.028360143497736 -10.866671455672440 -72.043109225734611
87.719578737235750 -9.569934999658807 -71.418924579381880
87.581437172075411 -8.036820581303155 -70.538329103269945
86.923429891149325 -10.346562150030467 -73.005949234498374
87.618709555250902 -9.983426832181371 -72.283859082110553
91.200301681165470 -9.647875851107695 -73.435898211403000
87.623990344546129 -10.418175635182811 -72.448509601610965
-16.132618133909158 -12.451826104287045 -73.716725221038374
77.759380702967022 -9.685704382342367 -73.515668179554368
-18.947784154112341 -10.670761878838455 -73.675409287507478
92.644497391116658 -12.269207724743470 -73.209434521492796
96.113700086557742 -7.669522122853749 -74.163986140266317
78.518159710121068 -9.720512717225395 -74.075365078783776
-26.680369601944349 -6.060225681349735 -75.588065167161574
84.394990163408139 -10.750084517848286 -75.943300048642897
87.758352050850831 -8.664530696334207 -76.876877924489747
94.904211695026504 -8.710442463291384 -75.246655908828586
73.293233832171524 -5.008068939139392 -75.417277103883194
77.681515507941924 -6.709840582168283 -72.445796023302222
90.306896945179901 -8.944899371162181 -74.572818272121950
73.930835090115465 -7.674655993861565 -77.074626547745765
83.497085842999553 -7.069930152145600 -76.290787267900527
104.821895750426378 -8.752598674525688 -75.168085638889480
-37.515046144697045 -5.736319118513688 -78.869663911017966
97.354658946357347 -9.136133729662642 -76.855670117580971
80.044451371355620 -5.801698215284349 -79.067287712032751
-100.095122374664683 -8.895259020154516 -82.219577075044597
79.530328810276941 -7.172483628363667 -78.455448022376714
70.998506552220519 -6.997684526395157 -78.924253256287315
76.627755073395249 -4.755625787093707 -80.900179708496324
71.949946140222025 -3.791633384805056 -82.636619955104734
-39.454070992346686 -4.510186172593232 -83.307476244946670
101.620172782509357 -5.372481299890089 -82.560219855220467
84.966099424959495 -2.302403316560778 -82.815623665387733
-40.182478597780765 -1.381489674632235 -85.679118889179321
106.054247008396359 -2.116120174713088 -85.608369875993503
73.084589031895504 -1.178150814537168 -87.673790094108540
79.946731213935564 0.253452812704541 -91.012933458015112
103.034012959562148 -0.254835836039356 -90.287467105609835
104.291436035515972 0.218968018922131 -89.908189542969538
-51.767070223063442 0.473625512771137 -93.646487510975390
106.113972319326237 2.887491823614322 -95.106757571762813
88.012964163456004 -1.157598455650027 -89.817398956777097
74.650805590214134 2.737242262692596 -95.654563615947623
-55.242157198958033 0.055834343926901 -95.329676121566322
72.890180958450756 4.468288647718915 -92.508121039019059
93.142559540558551 1.533281702015264 -89.760144590419401
104.755075544663896 2.061992630222292 -94.570325102863350
90.022983420799775 3.806567425911039 -94.954525790075621
102.987274632066217 2.052190630650702 -95.291704311550106
102.524325861925249 3.995411128999693 -96.131061627289469
95.416723588765521 3.203840703392844 -95.856864464028931
104.403518246528634 6.366888946879763 -98.739306730955548
80.359239076979094 2.332007564376567 -94.388200044234992
83.286805670488945 4.885928007034508 -98.085818397172972
-59.607749039580312 2.911290092907640 -98.944831694326851
-100.917711357418284 5.882038589023193 -104.774953190286780
82.717560496849671 6.849148799132063 -100.367230346732512
92.904584018980700 7.853080266941116 -98.089251033956273
102.196718781516324 6.367431337682826 -101.715162091591637
88.529570361127796 7.797612213940542 -104.801240302291404
89.396738212165843 8.796514215112108 -106.329912646471129
94.871256058405763 9.370095921231343 -103.226762288991296
101.483012569549672 10.099806459488656 -104.525751835519927
102.675530991802518 8.346483680983258 -104.434131589661405
80.001167867615209 10.071392936319388 -106.972968404975504
94.475892113753503 7.157208637633781 -101.781162145790063
-100.049285899143968 9.155300089862237 -108.683185652817812
78.214434521266710 11.681242805725786 -108.192080848867036
94.192509189696011 11.044341775774152 -107.694542548128311
103.259315917305656 8.153702308510196 -107.050295424082861
98.713367381610638 10.036667175460043 -105.036800149196310
-72.750646589743340 11.277823196118138 -110.860487701173710
81.348308375846045 12.217148054868886 -110.783189817848310
98.084458218019662 12.274050670507577 -109.796999173019742
87.964408096204792 12.673234769936863 -111.984367960449646
101.282429629202056 10.997975184617649 -111.156341819910395
94.306049748833544 15.033587164929953 -111.875645118483362
101.287770933997990 13.218036283717185 -111.789609491436323
100.450630096730578 12.910260251087310 -112.335030076987294
84.416939468870311 14.060639779642456 -114.324344774925223
91.178909270858640 15.958030522245179 -115.515935609164302
-95.588603505935623 17.141742017514780 -119.315030395234004
97.804104315058396 15.338931165700599 -116.352195995351295
78.681504909481930 15.678950533632355 -118.705990213767151
87.044403371688631 18.183888392868241 -120.369411268190220
81.639382901507020 16.586038515245999 -119.250364076274863
91.137592983831951 16.431668944678531 -120.177528307077807
90.186543712309245 15.105308227513081 -120.937382376983507
89.375497463217741 18.939244276021828 -118.629654515669301
-94.627132452407920 17.858466142655477 -122.552190504878297
-62.909457840575584 -15.873132685430889 -61.788901321746771
-60.865688776494025 -14.782253228969720 -65.560899318043113
-59.182799612826628 -15.409126571514708 -64.574880553484235
-53.316568493614099 -14.182566233617212 -64.607646436545707
-90.982536735395229 -11.856758566779275 -66.416300867664319
-62.256901017527071 -12.253866030143385 -65.970754678951025
-42.999870372322427 -11.696311307643295 -66.511497468000641
-33.468769621847919 -10.526048054682981 -69.067235384174850
80.439401150845583 -11.260823074577081 -67.557639641415903
89.388995656083793 -12.124644185023316 -69.090837765158355
83.447972831042662 -11.764186885923904 -66.892752035334723
85.562933982968076 -9.160517461068718 -68.409963967188602
94.732922535671008 -8.644779027122812 -68.978562823699633
93.336130261273794 -9.921992089154205 -69.980677199874293
84.215329795015592 -10.726829580277162 -71.728554277717663
92.907688508434646 -8.767458873285841 -70.624317854184369
99.292391910554301 -8.856178168902881 -71.570208455342296
85.867327308656556 -9.050428908279672 -73.931438392973405
87.984835374722081 -8.927980528841633 -70.398743264770587
95.428166990125391 -8.657638821672274 -71.564669285857605
98.017478980975497 -6.966973621555309 -73.320414286873287
81.665182446778303 -6.607109727364946 -73.859040990004502
-29.679234396096142 -8.164069391794547 -76.695214555326160
93.070986845706258 -7.056420086633188 -74.607902060430177
85.493726671457551 -6.706954416174026 -75.775201574701242
96.272720383113992 -7.129827212834344 -74.059465328201284
97.501568531788024 -9.324611974654490 -73.939334056221028
101.678953631898764 -6.261170878209288 -76.974573308607233
-98.225589640398482 -8.775285020857961 -77.331769243797140
88.889190393697390 -5.969771246229728 -76.941449453993968
86.058688595330793 -8.407375812719984 -75.932963669719086
89.125268267297088 -5.149404978183084 -77.034099968466805
100.235249760176416 -6.357828934593364 -78.393609248927291
99.437412950637366 -7.147984556068434 -76.732521413298954
76.703193305777972 -4.790733340533476 -77.402004124573097
99.957787353790678 -3.128682693233932 -80.883915907898896
77.782345181880487 -3.262854848408981 -81.060827230057029
98.508372752153704 -2.960692426093508 -81.679335917136882
100.895371091116829 -5.190166185134191 -80.673391782626126
86.916271227693073 -3.837204331763906 -81.035863920734698
91.678670129361635 -1.137962291438769 -86.682955488839369
-98.580995529613247 -2.175493027455943 -79.342631252123255
101.793854920129121 -1.040812453597960 -84.103009612910128
-37.358405897472032 -3.310762080325770 -90.798628422710266
104.579105867067923 -3.181310580471044 -83.260994184126986
-101.266403025505198 -3.654142543013902 -84.425235983420635
91.101684045298811 -4.902805126417732 -80.654346437030952
105.998606246007668 -1.113174720952375 -83.527545545432190
103.920768448384152 -1.565021294248094 -86.753521860497216
-44.816525689538587 -0.199981993608467 -88.472371532980958
85.335568275544887 1.008808379229402 -84.287101946502489
100.152148914670121 -0.216598122493311 -85.279656314708163
95.819212162471715 1.115713455856478 -87.368721920259517
88.247197573010325 2.067793835156449 -89.504955835185157
101.781042143437162 1.757004135154212 -89.867086122697060
-49.188965922845981 -0.158211837177013 -91.090503703241964
103.073244646339276 3.538784555044539 -90.110498806125534
-54.525966359381854 0.470639872519348 -91.814684358868448
101.850535842331595 2.410911488169170 -90.964905986309319
105.302291206502332 -1.027461759449813 -90.367912032272173
-45.185389980009390 2.399552638419958 -91.079525764898065
98.530514996884662 4.254650636510528 -90.751771990235312
-58.733664128698280 3.315624929446407 -91.325091894932001
104.756982397101353 4.308122391795071 -94.029933724297962
102.107707291596753 2.281218819677867 -92.750570276738145
104.348661221580699 1.809755746373259 -91.362177029003234
102.410246302606765 2.878389547823535 -91.067386119229170
103.258701791741700 2.924909330930118 -92.362206783978579
102.347162528512342 2.162063412902947 -92.832183008962858
103.619033182576530 3.710018724698320 -93.336766894669779
103.330729535211901 4.703606240391570 -92.899861503420695
102.816394631571129 4.183615495658088 -93.170757287066621
104.188136779365976 3.878409126584985 -94.289519665779935
103.168346265596483 4.561074299385846 -92.226985234141068
91.322863722896386 5.338275184320736 -95.809000120558835
104.853209373549831 4.946274865365569 -93.023604757361952
102.442037964305896 2.493355592177861 -96.109421513371373
102.053308172814965 5.698925080784437 -95.866262293753209
97.822435144927354 4.423863548745762 -92.720578693452140
102.941911935210612 6.262761282638047 -97.827003605878616
84.577475743267428 1.564666198921255 -92.628205720919240
102.834725656964309 5.101952246571785 -98.722602456407387
106.231030788024398 5.543162607334453 -99.534093472254042
101.793752453633630 5.671051836413765 -99.399640261222771
104.157556569083368 6.902550211470539 -101.774551326252961
-100.073049975543341 6.639593100660056 -100.251176793047577
-63.069639151036519 7.005523930206240 -101.515258719843473
101.684691821926819 7.695228880390096 -99.578845518464547
96.890636531372962 8.625869561990331 -101.037619870986461
106.336180342532089 9.693899149228622 -102.079308269524702
89.032867282137872 7.424971551708539 -100.136978814449833
86.613531964157161 8.663730726656945 -103.713679668947407
93.945129345747915 8.744757011402676 -103.156172836056086
99.376218323456328 6.724861796620806 -101.098285202596799
101.100068790904530 9.758629479156911 -102.148699709521964
106.624005906042655 10.999388684723144 -104.658903800865033
88.763298415065179 11.257500904748960 -102.892434016321516
99.183850709665151 10.547677262676546 -106.651349308878309
-70.456761314634363 10.613435071496854 -108.511469137426147
97.526190509907977 12.024087337845470 -106.279262583086236
-73.166516243762047 11.482613305844620 -109.368853564912541
97.371928076125627 12.992490706890887 -110.625704708446420
105.164009344802423 11.449834081810467 -107.188058850462625
101.797498699755494 11.276240634136613 -109.896477533360837
89.269743235120401 13.827276654983031 -109.821971625068855
100.822960692159910 13.320480931072954 -108.380571407340653
-98.843099054076916 13.426191646617898 -110.883752488246984
100.835940973856410 13.943090582616357 -109.115004193470611
95.605733193528906 13.025496937581199 -110.525229441633982
-99.508160027218025 13.806129628785229 -114.722400390490193
91.231798326692910 13.804917424629821 -112.746837888725324
94.418886767052044 15.905125616378296 -113.867519755890072
97.914574385077117 14.134300965084726 -113.146138273248610
99.538443640453494 15.360034895446406 -114.319603175055079
95.956678148105908 17.987055494400732 -118.135538372952183
96.904713386530872 17.075927764778072 -116.546935276499099
93.075598504000354 17.053790152911777 -119.099115920894420
-88.211169733913366 20.952939650642350 -120.576097584774715
-91.320764325334395 18.208024837970704 -124.732877684828878
-77.784473540293291 -14.593442916478025 -60.337518379910456
-80.022622888390814 -14.850767221751214 -62.220150863432785
-58.645242606640146 -11.379238560818276 -63.628731420019875
-46.835356478508096 -11.713589506931758 -65.167617069469173
87.649578852039582 -8.815417642073710 -67.716612486480543
-12.124452792516189 -6.406731495571105 -71.092208594284131
-22.784532568343263 -7.971782740966545 -74.076504756411254
100.444424921174175 -7.311624920301123 -74.107164806830980
92.966969190610612 -5.324438157847903 -74.652632823083437
87.588511291587125 -6.048447804555098 -74.627592049418766
92.232564116154890 -5.761149867088296 -75.847312250444801
95.859627808567510 -4.540409146406756 -76.763559457555715
97.503754981136069 -4.388254088507792 -74.918261218761899
102.801953124081109 -7.735332354282897 -74.492546439330383
104.015382204844528 -6.156629160505381 -73.996564395354028
101.152981364861361 -4.620813292806017 -77.096424971717184
103.764300872490736 -5.104140567933316 -77.916502066259866
-38.542929258600680 -3.442861037740641 -81.182849055247587
-97.074213888612192 -2.537159152052051 -78.352799403180796
95.627100161064348 -4.389724422561939 -77.880761594075551
98.582107306890308 -2.686450312669695 -77.792277361982173
104.566744682640191 -4.457928895398629 -80.036106055320488
104.950226578370518 -3.396884075892495 -79.445407561123162
82.813233133321646 -6.580868073849037 -78.878632241813406
102.295293088079433 -2.285646923629915 -79.971932583085774
104.547538252900480 -3.205833684260960 -81.750943699764278
87.866753016997990 -4.910736419754665 -78.001361883105716
94.184926590293330 0.346201456781355 -84.565415554221090
106.519501015425135 -1.251280735588826 -81.800291615842411
89.527757724255551 0.885643269340689 -86.966702964511953
107.137064744911640 0.151814840589154 -88.972745715264821
105.483660225521731 1.642658828576305 -87.873268303358543
102.226587026550348 -2.087748229756728 -81.965530551170502
-53.847383087552693 1.330380181827975 -87.046905720311116
-101.925064090709569 1.406204968899939 -90.965496498212659
92.672129176192414 4.246873930639484 -89.500698314871485
104.708109724112475 2.560558874726671 -88.585275984225191
104.083295594609950 0.627173301953043 -91.702394921765631
105.007730928198910 1.821974897394650 -91.831749155868792
102.260990561974637 3.352954421288382 -91.893691050033382
104.195353803537344 4.466836628564370 -91.292881312686760
106.962733631791636 3.743329621574387 -92.936088595370109
103.836731427407443 2.108167923604060 -91.807835964976846
103.420983829661779 4.275998963598401 -93.325558460151115
103.169780236478076 4.211828437356545 -92.498155751629923
105.902012179316884 2.928064223160911 -87.927550942191658
102.417010446937766 5.846067273038709 -93.410265790613082
107.569977380227087 2.600825679072247 -93.485222269789588
94.549554415933201 7.354103357197346 -95.352131705934696
102.200805267615848 4.815458930819851 -92.123888937995162
102.519195142346419 3.572015596031713 -91.645220525504598
-100.291817724849466 2.189136284800396 -93.893056118611469
106.124195319567775 7.567984986214891 -96.984664244771068
98.321803489844100 4.803292885288946 -93.520569023627189
105.640054239514328 6.748669928544714 -97.960049060924064
101.009984809700569 9.581775214013172 -99.772066645568444
105.346170390317155 9.349421949239799 -100.206908780919605
96.150876074480706 8.926066006599708 -100.421310657213894
100.244832302153043 10.222554350378642 -101.591431164673267
97.575248535761062 11.293196069307589 -102.717575573426572
104.970936021337963 12.019234501124433 -108.220287133176868
-79.613414155974368 15.249492750903876 -112.091088755725877
-86.091138754753416 18.429380126760993 -117.804987903177519
-84.616518306333845 15.226817041010143 -117.524285459364691
-64.479251795725645 -12.686402486711529 -61.100268038899408
-60.563946364822435 -12.294078890869347 -63.912269236232959
-58.758632136804572 -13.506031161821586 -63.819714853490311
-52.931456632549377 -12.310311575807829 -64.676529291135040
-91.606508338710825 -11.818068355357926 -67.956570573990732
-41.806240264585654 -9.427093768722994 -68.853104690541969
-31.847967416656839 -7.814783474322093 -67.745888564944849
-11.589026940929779 -8.809276320803974 -68.115411966771731
-20.898018549924849 -7.934737902602762 -69.342500391355557
-11.706829246905485 -6.982095781631966 -69.399367109688455
-16.325086199251256 -5.171705844571585 -73.999850422724464
-33.441224933152590 -3.890106563684880 -73.377992398175280
-36.651626845593526 -3.691302684238350 -74.450430389686375
-39.204747679736315 -1.606839505483776 -80.055751207732669
96.349894868604807 -1.021520515487968 -76.461047746068317
95.175878416630496 -2.957216901339498 -79.335739647262898
97.678333528527517 -2.301417235552936 -78.793378329712098
99.277878239787057 -1.300731654369486 -83.527205765624885
97.220480327603312 -2.487529149760707 -82.248004362664247
-55.121298062297697 0.617207871479190 -87.519167246217222
-42.126533213743635 0.234633210634972 -87.855621172534853
-99.556060474892746 0.106929789255524 -85.246871039058121
-50.374515417360186 0.674135462271291 -84.857898737584918
101.196346361488906 -0.199388029008253 -86.084104777815611
98.378152782847962 -0.223929819878437 -84.035363198781155
99.650308947747220 4.269507470466107 -88.566622235255380
-56.682635519975449 1.930056755236850 -92.417526042591476
100.558307214136661 4.734794985710752 -90.655597482314306
-98.133412960213676 7.414811807722240 -94.506618116408447
-60.499550919324548 10.117079223924891 -98.355669660884502
-76.424996166108642 12.129900916415179 -112.474409506625094
-97.189996354096252 15.357561207649521 -111.277560556741506
-77.852336258348302 -12.941752948128824 -60.866421322156974
-81.940451232551410 -14.648966692600467 -63.360032070174796
-48.023447842271864 -9.797937852349193 -66.044440319202479
-13.306004767241573 -7.435879497503955 -68.374855306507769
-19.166794156819964 -7.112450201947066 -69.082164850583979
-35.816077481501701 -6.890530698810027 -69.064832782347438
-24.356215379580885 -11.005486328857177 -68.979352080060607
-36.919903785746023 -7.956519914290011 -69.375352603510649
-11.619810768204751 -5.946132409611744 -68.709192761687262
-25.365356827929261 -5.697226115847288 -69.098225846331829
-95.924433471811369 -7.758797164490677 -70.893937232795054
-26.546761597578787 -3.585367589724539 -73.831505254750780
-96.779331497959134 -10.360620654156188 -74.800788612361245
-29.807874723979108 -4.804611464708344 -72.948844558306931
-36.081409066440330 -5.207038886284415 -74.960777873312637
-40.455816961737902 -0.592892556328772 -80.587643126027757
-53.215359847216462 1.792963602716811 -83.415801948257453
-47.237969812316642 1.596809274756583 -86.910634998068005
-58.511367494890621 1.443028268020764 -97.346678771492364
-80.981438728982155 18.694944367359568 -111.681735844786900
-83.288111372651301 15.367040395035497 -116.746206436250034
-84.731497769233243 16.782192084225002 -114.937751637087942
-95.546367168385189 20.162353661683213 -116.957455366986750
-93.642650471958561 20.672809557434743 -120.582575888433212
-69.919721252507927 -16.319899925676921 -62.855399927033965
-75.861937042466280 -10.947683089595783 -60.419527921113662
-86.527886843086847 -14.442128735546587 -64.502477548914399
-59.518873226541473 -5.878291017300890 -64.258957780713118
-48.539776570258205 -8.793886701276815 -66.718989281393249
-30.863202442184921 -6.395886688222803 -68.385050876108011
-38.201014049281149 -4.489465728185142 -70.232817860796175
-32.297388272619543 -5.427988721313920 -68.592525823358869
-32.140795050108551 -4.825709916314793 -73.668079593923906
-28.771683220805556 -5.047296091290029 -70.279134751619225
-18.900523654405983 -5.443141400678234 -73.205014142124455
-26.316784937299190 -5.013904697411045 -72.791015138090486
-17.647663292021285 -4.330114512221500 -72.227681876400325
-39.082386813005364 -3.474361621260156 -73.460045726306930
-38.326979952035259 -0.769660889089142 -76.058808271294495
-58.755175519717810 3.003380153084319 -84.117646192326404
-100.148023743594024 2.581365438084305 -87.277395564921477
-57.376989173158044 7.247957847884601 -93.992773221696865
-56.766574725656504 5.172130378664274 -97.292593753171786
-59.534177821292801 6.479888945866676 -97.843207004942073
-100.251523274891056 9.936979491304502 -102.999774334451871
-98.936821733010817 13.451900466724823 -105.023110281706025
-98.123192457252472 13.336245909235899 -106.005870352454068
-98.797299034910964 15.781359529332970 -109.404174157370946
-70.486450124055565 17.590294739029527 -106.904167689624330
-98.058794961922374 16.640838839098446 -100.621091656591148
-74.222083764428149 13.287209003370336 -109.549567609022006
-97.820705819359972 14.839224944260563 -113.834946004740146
-94.844986678109848 19.173961946660274 -114.912624229969794
-85.222329178924880 19.149438896567926 -117.389732020188049
-71.155542689895796 -12.182165043220689 -60.372956165044357
-82.502844459122002 -11.985025520389781 -61.342946361766700
-62.363705719921477 -11.276701383344633 -63.431769364292435
-52.157237876413561 -6.679615995669641 -66.970711364093447
-41.549729016503363 -6.176806998572111 -68.375957316118658
-44.808741857340507 -7.048853016031302 -65.408122390384392
-24.337075666101047 -6.254085646356394 -68.989889730434371
-14.797266327791114 -6.547689446336886 -69.913803934271471
-17.509457123695469 -5.601634464864861 -69.070206563800696
-22.237143111108168 -3.400549729506817 -67.143408447360557
-14.103502923105726 -6.466043656454483 -70.577306589042678
-28.016317287554511 -3.502782309887599 -70.856649449577361
-18.288806530021859 -3.125154932805247 -71.713787414116254
-21.882235694193749 -4.921771059954771 -70.958747066487575
-42.908786950210555 -1.774036068762976 -73.051905381528329
-98.074977677414608 -4.789826261386630 -74.428740829022900
-53.982621372696492 -0.918641301026467 -78.029004728780023
-40.538004304745563 -2.172622702702819 -75.474170293668209
-56.753399623109381 0.821642578342188 -80.259727382742426
-49.483671042980426 3.695133293877781 -82.124155146161741
-41.968754543677925 0.682931005966251 -81.985429439975533
-44.265448857328778 2.551077552298798 -81.676642610702103
-47.549677647847389 2.144702396545302 -80.752717871913973
-61.295264878654230 5.419356537233496 -97.911398031776642
-63.214524157786151 12.970149612988655 -100.412913686287794
-69.109102148433919 11.429134705179594 -104.813422859840244
-98.833110767194668 13.311078461542726 -105.575484864664787
-70.480938979315241 14.044752183297863 -107.221916764798365
-75.344279916490649 17.672610599596180 -108.455367303163499
-91.147600894058968 20.491806865710366 -117.850671951719164
-88.100266726613668 -7.204672892900333 -61.983688886615042
-46.722156347511529 -4.951834612632791 -65.773713578354943
-97.484456226590439 -3.775884932672175 -72.873825121866233
-55.288126933682264 -2.004292015008565 -75.370661509446151
-46.112420650379249 0.340138802033049 -77.171947671046212
-48.187571630987634 2.795893663140962 -79.934317735796995
-100.135457575337369 0.086947724842472 -78.078190626926883
-101.261050638189928 2.332071464394718 -80.166873103401983
-99.100946297303295 5.227440749295672 -84.699209503165292
-93.577287986269141 17.845711462676007 -113.516822244962555
-79.826456546686984 -7.126374456805972 -61.137611498127043
-75.422634097211770 -8.398021804359264 -59.214412444604122
-69.708733272057202 -4.664598995506215 -59.260325415596604
-58.882700614246986 -9.798190023240075 -63.175734956217156
-89.707237522036849 -7.374188951976023 -65.703442240570638
-51.578105768230316 -4.284816473211272 -66.421935625913235
-54.993952539996336 -2.926279100848602 -67.563724593366217
-44.884124821993403 -4.892737794047738 -69.390168845082570
-47.979246151812951 -2.744111909819172 -69.518513025768641
-51.168946656231022 -0.481950281175502 -79.030352460936115
-45.395424379305666 -0.545292242985193 -70.005159840347659
-45.475028786625288 1.642420188458224 -74.351420550641606
-50.526417571980687 0.043988697010656 -74.133456998024215
-100.371773190592805 1.511866723766708 -76.920670006121796
-56.998613799924662 2.581318457832253 -82.491447935278600
-99.756966761001735 9.179261181961134 -87.414787682636884
