# This PCD file was generated using the MATLAB® pcwrite function
# from Computer Vision Toolbox®.
# .PCD v.7 - Point Cloud Data file format
VERSION .7
FIELDS x y z
SIZE 8 8 8
TYPE F F F
COUNT 1 1 1
WIDTH 798
HEIGHT 1
VIEWPOINT 0 0 0 1 0 0 0
POINTS 798
DATA ascii
-88.323400954687102 -30.816596902092023 -92.181026429923236
80.521622128129707 -28.619623873637998 -94.774381686688017
86.133828162662951 -28.957374169636367 -95.192556164729922
76.625109792539860 -27.994393041381088 -96.721037834216958
-19.644805728810930 -26.629896311511857 -97.264593898088691
-90.171724665206114 -27.675472740860094 -100.052127736617535
-26.169445232642076 -22.967255145396596 -100.916276868100681
66.676613317791890 -19.966924090584669 -107.677288434464202
-47.584654206104382 -18.964577401931557 -110.089671782446288
63.866557576945020 -19.011881803169672 -107.874577585534155
52.587384824862909 -15.968463817669774 -113.506616322358113
55.103200593407713 -17.681118919789380 -115.692786448415646
97.749566709522639 -17.702432549041834 -115.031301127777766
49.125476557151416 -16.279883173711923 -114.422125756355399
60.529302179675682 -14.834288624921918 -113.471937481037273
-65.604554344014119 -15.200052729997624 -114.208037858207746
-63.648338942173424 -16.173197010047051 -115.549996088009507
49.759232103399398 -16.519262955231053 -118.351298519138226
71.301288834467030 -14.385445773656967 -116.955151385689220
-63.244529019852806 -16.103730863991224 -117.582893334700302
106.291786260481885 -15.244210340359167 -119.933390168350300
-66.137089795812486 -13.060687192013193 -119.440633075919081
97.643658363938073 -12.141460577028168 -120.179827357588380
45.233555541184131 -15.150746411502469 -120.527014529883530
109.808396163872331 -11.068847170827505 -122.117876226954579
-76.524343362660304 -10.613693157035659 -121.404332558674469
78.145840085418811 -12.089735769963422 -123.575384033572732
55.970151614044767 -13.046144860297590 -125.609332843670032
98.949603270587488 -12.198913853166292 -120.530903217955313
106.953144201538748 -9.276950075552858 -121.986809148883125
102.660426203429239 -11.560869380755907 -123.533746240062001
44.148271452052541 -8.467320941642171 -123.300162290949302
-95.529782520751581 -8.999125413544366 -123.850822125312760
107.996424879719370 -9.455064780784328 -126.793349141202270
41.223845712554969 -9.643337889541636 -132.411502797940017
108.514794910430226 -8.380115151634822 -127.480356412897720
48.046022957664391 -6.655421775602343 -129.267921874297826
104.266757398335130 -8.738692899207768 -126.535494438134663
-85.660920836112126 -6.698914585735793 -132.329037859748638
45.170610874564929 -6.727043539840786 -133.601861656799599
36.218435599409261 -6.879827708137484 -132.158499328398221
45.349505398385233 -5.156729815257962 -133.866138506704658
104.890451784947544 -9.108425713381292 -128.990701144665337
108.149962640552033 -6.679522154686460 -132.903005079619419
109.480255225786365 -5.487596082566414 -135.900955340226886
106.133429681559576 -1.080805234806313 -134.598091405518744
108.476618062743285 -4.484871841601473 -137.674186631905940
110.911776221296577 -3.974071741312900 -137.511971982000205
37.378745909416317 -4.106050853136224 -134.158530241998278
33.010688591368613 -2.658541828145257 -139.875679787557999
43.781004654831300 -5.132694130931647 -136.065310541874169
108.023852097801921 -1.990769133958650 -139.156542562011850
40.443819629711705 0.743898655756086 -141.565127053628458
44.625478721215146 -0.872806305736983 -140.443221896631997
108.665003844507069 -0.578028761245503 -144.890618975271394
113.206445991281356 -1.465994319494458 -144.822259152292048
33.512793772113277 -0.987637347249784 -141.068404379904166
110.320430602771978 0.514647064538368 -142.185713471229747
-76.240438052273973 4.236929438409857 -148.276962453122593
-77.014714133382284 3.797114379582393 -149.999151694040592
113.128469847721576 2.518522436273058 -146.754571089900253
112.224767728747082 5.846986623701186 -150.609839566442076
115.283274794564136 5.110866428877310 -149.592082118232696
38.163046132165825 1.735163310832908 -147.641716408830263
111.203103417588693 4.925442678666436 -149.996149157879046
-56.302526528145883 6.991180607842075 -154.135595105799297
36.505689610361628 6.541880513769159 -152.416400269339363
-71.594253699327709 5.356045983419707 -153.915191093375824
-57.486157281055576 7.865679165954317 -155.795634738422450
-48.023099565317096 6.258933584754047 -155.893248221485919
30.246822931058926 5.794802298349045 -151.222380262897985
35.802770708584944 6.880348147417831 -155.613501497938813
-76.990014652753246 7.275301267270804 -155.982808400123645
-43.423688989276840 6.284557067318545 -157.424463623098319
111.896728743627904 6.148121129289221 -153.311984464873831
-71.710375945574881 6.710243276565083 -156.402524580686446
113.645696420271975 11.481334083394579 -161.576204347903683
-73.832469945521325 9.953304635370282 -159.022548008461825
113.473322382538470 8.793307624774394 -156.623372782623079
116.323036513230491 9.227376517242453 -159.454176193357796
23.614858906250479 8.935936125925213 -160.179539246813277
-46.206659885583349 8.868490240053443 -159.713061913369671
28.425786748193744 8.219531249002976 -157.927017296058807
-69.007546353120603 13.188572684525907 -163.046814041034821
26.401194426231900 10.968345888314554 -163.369403157648065
-68.239412330738659 14.075584534648231 -167.582139096563310
23.918011596845123 12.160811847262549 -162.771290517671559
10.850965529298506 12.401839848716676 -168.023768102250955
-53.260941203220000 12.958925636297620 -165.942366832031780
11.559235955887370 14.513459655778533 -164.882663512762775
-55.363546881909237 13.401211263936732 -167.491529488418422
-49.770032284266421 13.327825188590632 -169.049755282210640
117.221751135488262 12.622584688715209 -167.031671990162778
7.520581003235908 13.983724218384301 -167.585937311522201
31.591566016429102 12.686774597601516 -167.767505788184394
110.223001268112299 16.909067442295328 -173.575993629378502
-40.951038642382336 14.099736503205236 -169.877849510713645
-72.157365514715750 14.514156599590445 -168.229494922946145
-49.513769080128363 14.839967263099526 -174.386845140062263
-48.217304773477430 17.956407622992963 -174.026522106597071
13.130612560484913 15.432895314280865 -171.164626523779958
23.300804447549741 13.990872710889830 -167.367900160439945
-65.449533910781753 17.337007835013161 -173.579644776695886
117.260558373180189 14.581789213453670 -171.029483218433512
29.374848754241896 16.909927006591751 -173.366298047097558
8.454449016121936 17.080358369480042 -172.628984882996917
15.790345476110414 17.856340297983554 -173.097393005092414
33.119189083786416 17.020750596300712 -171.381737560149588
-33.902281098040305 17.352722847047673 -174.454466027082958
2.288893916180629 16.015061333784278 -173.267439902656747
-47.986733447489790 17.855216475661084 -174.602250145284643
32.691672620025088 17.497036719257693 -176.915575151259617
-68.652703050743398 17.700687736460143 -173.110581417927591
-62.934273308794239 18.954850636209031 -175.717961901580509
29.613402821293025 17.643282621241518 -176.095835288326555
-66.578324830314628 17.073392468825272 -177.839266389731307
115.354151136272648 20.014115649887842 -175.119789631102066
-44.639431399791327 18.836239165660071 -175.900346183873722
21.326791912372215 19.825029945998878 -181.693768584394974
-65.451742224110731 20.417885440687797 -179.925018030590536
106.205925443599682 23.512860436955769 -181.283645354005756
-61.506298149719342 20.829773658582255 -179.545408428223283
-38.614897435687908 18.143041701337346 -173.193560798550095
116.833257618517010 21.487238829764873 -180.432521344896969
-40.011532155339360 21.293922453614101 -182.129406629166454
-33.615608036363682 20.435261407942644 -180.599172735573148
-28.871557513061699 23.310933427392587 -184.541703071096293
-26.548525640833795 23.534990003995020 -184.969326957467985
105.559832799888596 21.194121627454120 -186.920961599782459
111.704991108898355 21.988336331712016 -186.111281371063825
-28.879358401908963 26.907046000921902 -187.486619612336625
-37.542007539662734 25.146623095417013 -186.216734990203349
16.082903800988817 22.230123731841907 -184.735585893809997
112.329536684470582 26.149812669318258 -187.221562321457810
-147.583186447412828 25.768909139999771 -187.445688446745947
17.287132393816456 25.162890629892569 -188.180491319155266
28.815275862670646 24.748388003520464 -186.434147598025532
27.460880575739914 27.651296362670646 -189.249554461019670
-145.322653819626794 25.679573163895977 -187.652995230893652
110.845860207461214 28.443755400861832 -189.567462010579135
-24.780669622919827 26.263494734000577 -187.903159848660749
-150.807692797110633 26.119086114314044 -189.106218532235715
-142.394487184295514 26.138693697267552 -190.002399120027093
25.087547422135128 28.972462849640621 -191.965057365570971
-140.920759856463604 29.132899946208962 -192.627872700503644
-33.252116828733776 28.185909266706535 -193.582044128816847
-22.384272435344887 27.261432117590665 -193.071490974645940
-31.454052554741665 29.934419400454363 -197.225681548601358
-25.601169549335349 29.147158034941349 -192.887038325246039
14.337934855797860 27.704393285410863 -192.991157815838619
25.157721569461685 29.285601476199620 -193.194306900226564
-143.313394443666880 32.401453347165059 -197.773909410451353
-146.430743580895040 32.594680386366875 -197.499396686053416
-20.388865804007025 33.205115624865435 -194.676167353246342
25.291592747852519 30.974020165704069 -197.800836495775400
-31.597896572587185 31.996046650205287 -196.960696757892947
12.263223886480137 30.378400726531957 -195.374397995254583
-148.436962521304707 32.274795355112957 -202.514697043371598
-28.982823423695255 32.890356800007780 -199.110674825279006
-18.604319882771687 32.059469147145734 -198.798354679817720
12.150316366881807 30.811544234230965 -198.455752996614166
102.389917093670320 30.216274620945718 -193.749443622944966
22.166232086880470 33.020554716424265 -200.799693475222824
106.744159643423231 30.674657781172296 -200.022037878523548
23.978589120034631 34.829407855491148 -201.531802724305095
-15.376026356842065 31.323146353436158 -201.780655977446713
-23.845108709903759 36.683924146963044 -206.931363690355226
-152.205478179390553 36.263993934238066 -203.950443924957369
-131.601450246604486 35.034260169249073 -205.244676630866792
-124.580576176067495 34.687063162500472 -206.925849047885151
-17.573279171277076 34.361315698269657 -206.746941325564677
-156.270083416563750 35.702423198952623 -204.125826833271930
-119.867749664501446 37.804838396313500 -204.769230858029943
-23.692368902942508 37.294942740501291 -207.215948210067609
11.222859829535365 33.315269158375017 -203.610864096212026
98.093445173089776 36.389587928484282 -205.410025290799013
-148.081214061435730 36.252294742937686 -206.898734287069260
-14.536264989411880 33.364783099627914 -210.228109242532867
-154.305680144679286 36.293601134266829 -204.977157043368635
-145.993131140137081 36.837201544942197 -207.104667794156484
-15.927336825048704 39.917497593687557 -205.340141332211061
-149.420812404686899 38.979089990483388 -206.090995647025153
-123.719826930654534 38.198485627964978 -207.953740442093249
-112.112217630368207 38.853288457052109 -208.111837849248388
-156.103615459629509 38.344228681265108 -208.417763790524930
-25.725931830545438 36.481079821788640 -207.683189857424480
-147.706516696726339 38.290528765729114 -207.855777735039624
-147.428743516183175 40.125238861711537 -209.633463262844856
-121.082791364902278 35.777463387562911 -208.553148847281392
-113.298676238120819 35.812343188163929 -207.879791401899979
-15.424622177193999 34.186246837407175 -205.749209071063717
-147.918225053841724 38.873220734107676 -209.778061554437556
-22.590837734264323 37.793690740882418 -209.451403836267019
-13.533465978267207 37.539976696188582 -209.316426831643213
-160.533022490863090 36.648839394234521 -206.978297792898445
-134.540944151719629 37.685331079167227 -208.281597042030029
-140.873914644487229 38.863862111561033 -209.979236621172589
18.238627481038950 40.518890063677397 -211.585160172512872
-125.843727369106091 40.347822858927628 -210.769327433297008
-153.437528309812137 39.309817921382972 -210.829461245015978
-164.641303406381809 38.375930334287993 -212.636166483041791
-150.328222671988186 39.390125074101562 -212.064581188821251
-145.229892028942459 40.594707140766410 -214.580441986380322
11.341285938053634 38.294055744270217 -210.450525229121126
-154.560364556845485 42.746223054091814 -214.296548311522713
-20.700116248075169 40.112683824401607 -212.257213682500264
95.329222083971572 39.734971565102136 -210.366917022306239
100.500137067144180 40.299104498477277 -213.244689906558278
-157.487764421177985 43.894500352568400 -219.703644138062373
-9.378019671460278 41.732295336473982 -217.309595698346300
-163.948825987005392 43.855262320397607 -218.752888746456819
7.384253912730805 41.674804371809081 -215.995916077808999
-79.188780486256306 42.451259987776474 -218.271750759750319
17.605097647859875 41.387990123372909 -214.073712776081209
-80.024894267961230 42.664640757815619 -216.857099023729859
88.138010459066322 42.527760097098636 -216.550514843735272
-78.858462732578815 43.980182109839298 -219.090560424796763
9.484579980600003 42.984032885015154 -218.206154158337625
-4.822756164249657 45.460817308216953 -218.744762206849231
-151.050976008709370 46.012349484439369 -223.845521611108211
-94.743009250353197 44.690481146141003 -220.828305958326865
-86.455854167886145 43.537007209834542 -220.906855482387783
-6.724216914125465 43.979830515949708 -219.443719523336540
14.182566037116377 45.900107191682871 -223.004588898719419
-145.198158226766338 45.703194387741462 -223.675712941350980
-10.690522382777889 46.727401523175452 -224.460340190552387
-90.752019104750516 49.377910582155742 -224.849594101817985
-4.070551666891968 46.641275003850460 -224.906744274746501
-24.336939035380393 47.297299693426751 -223.684539460873197
-14.845137644915443 47.663150290114061 -225.869074014010238
89.238474355799909 45.762373263809913 -222.201085529713765
-22.189823192930785 46.426189979952696 -224.199086095374298
-90.866717835167222 46.324370360579564 -225.280335001820703
-28.196287667524931 46.390497008793716 -223.123812705577819
-105.375024252222573 47.090061089694935 -226.571457107867047
-18.172883507387958 50.146444961079226 -226.624009875998723
90.915420160310674 47.328526891098250 -222.802770053000899
82.364269795283306 45.882272541058398 -224.005046247612682
5.682921398369920 47.496842511730321 -225.482416124276654
-98.053677717091844 49.544972048219854 -228.365424576823983
-11.568885089631937 49.970002493444547 -230.444295093663527
83.853851937126805 48.076806871750605 -227.863126408883090
77.347289740113098 48.067222969122369 -228.178137332055542
-125.341351062886275 51.094432658741646 -228.821825460544204
-21.392829875125113 51.389760075513550 -229.483975103393050
12.197568449929477 50.191027262722088 -227.532786406470706
85.231760570799608 50.075265535548503 -226.508603217675216
-143.016916908213801 50.441753728437114 -228.856258117108695
-100.554309545439935 49.663358485503160 -228.283549544338854
-103.011109943661168 48.562458934126653 -230.375119940965533
4.451381857248920 51.182071114127965 -232.487951377363856
-165.173312615007831 49.489875999687449 -230.907050856329647
-134.341333611998806 50.326719194731716 -233.890288308230282
-5.532708085855357 51.781141724993425 -232.211621268362023
82.162737371231145 51.270441147328867 -230.840392012881267
-123.681978057989639 50.975805085773146 -231.029464769297419
16.632248918294074 51.552429134362413 -233.366503436742505
12.490299390016828 50.454462794245181 -230.314394643504272
5.643745654142482 48.616859022999968 -232.506787004987530
-115.530900537172769 51.075211341177905 -232.644658170741508
5.632969365641276 50.472215404458552 -232.621097180219863
-111.750313282660798 54.265962581657483 -233.336485789665034
-12.281019115315248 49.662604429247956 -231.419148298710439
78.309607874054947 52.731404740103493 -231.230094672837254
-10.922848483698489 52.315064761300512 -233.841357206058092
-13.241737285115647 50.609808958810369 -233.302791032894049
-3.410884169756275 52.032946230654595 -235.254955770243669
11.337462762997475 52.173390535641047 -233.825585505987647
83.280558721423745 50.705716540282218 -235.068456510047639
14.506509757616826 53.975158080284196 -238.744734860005792
-121.766934461475671 51.234246637166081 -235.045861950341987
-116.441550674656725 53.285841422291362 -234.153548923604774
79.020150222969818 50.853523671890855 -234.135409612774851
12.917821620170033 53.328616999054120 -235.948194846407631
5.197564183028345 52.589224294416447 -233.883183944952123
77.849572625180926 53.664824898969705 -236.516744351574800
-140.673464897300903 55.589290976993723 -237.131836761255329
-13.709829538054406 53.142176391372892 -237.030177582780738
-6.948694534157424 54.035055260233058 -236.412503872728990
18.128978745215949 54.112985634163365 -234.335667922425870
-6.630287657679067 54.227732796243508 -235.919695640853263
16.173421066962838 56.140316146304443 -236.166717552019179
-11.382690835547219 54.350965162740103 -237.587857206982534
72.077176322600536 56.822791636593401 -240.814160912417293
-16.064069606077947 54.482402654999930 -240.587985508756816
-11.270217891066473 54.657033913686739 -241.486244693183266
-4.312693524252031 55.184118914984055 -240.745866769234397
72.984990292303522 55.878355428549888 -237.465748645303876
-8.349895877724398 56.116954267343381 -242.046955464046420
-19.787881937713994 55.919600198059648 -241.943342732613246
19.260760932962910 56.476203081646645 -243.482139002208811
-8.930296631290906 57.336375707373129 -243.981761045182111
-2.789343983910840 58.274408841092757 -242.683343019378725
-165.054509688649603 56.577157124423820 -244.947340195346811
-19.819136128414652 56.910654675066468 -241.001624748528712
-3.979994525225713 57.142832481081939 -242.463233938364141
68.937394745828911 57.150310805524136 -241.204172432309292
65.204530058264865 57.708188474843340 -241.663745519641623
-11.139152661373718 57.198983951785863 -243.038034918736372
-6.778921330539736 59.749019171185246 -244.409817208001499
4.563307939755306 59.404508110709379 -246.192036852618429
13.831259470911109 59.134904746139171 -246.301871770174898
66.486086244428037 59.674689374098868 -245.896626100524401
-167.535928842046474 60.554223870773107 -249.192446741506359
-65.959120299200862 62.483540190476532 -248.565782813665777
-9.632601677041730 59.478237948609880 -247.000396119810603
16.759423794373120 60.104852815526073 -246.990661421488738
59.692374844131074 60.583785896873884 -248.488992320083355
-61.513959852414281 60.684682867711942 -247.781591121941034
-146.189264208931604 58.605456146480421 -245.828934442412645
-70.175209797717216 60.819298357055644 -249.606540124547507
-67.596304913297303 61.096095322889923 -249.118299818607738
-63.276939361576588 61.930253967248220 -250.199014172149901
50.853369676122085 60.167049243934919 -250.117191147095326
-80.576813091512847 61.575272563481604 -250.449095116217251
16.560161661098782 60.607113439644181 -250.735612118487921
19.187129799092116 60.389733396685870 -250.677124851577361
-63.360926133321087 60.517248808726997 -250.228624864630831
46.717929466449128 62.160808619711730 -250.148290115355451
-91.474254322522313 63.755262433095517 -253.797688951803508
-65.441957602710360 62.435784314250618 -252.728400936425146
44.107452524373784 63.113230713838881 -252.859942817928584
-15.650243968589955 62.760210335378531 -254.229964176465245
-145.369618432067711 62.716823757935288 -253.968086946655376
48.753006111460152 59.748885875627479 -251.428819075897536
-73.968895831160708 63.447331499598867 -256.437475264871068
-102.630076439955488 64.906496138194996 -255.216155545030915
-141.325675733945332 66.540299817545204 -254.931748068788721
-99.728845663395475 64.286431423614644 -257.487315471203544
-117.805951993730673 64.608934065385284 -255.410721216586296
-113.611240190089561 67.080583790513145 -259.111722401241423
-106.453220787826965 65.350022004306311 -257.484508929445440
-109.664809594973434 66.398706979273840 -257.843979950051107
-108.046563382920340 68.068660772891491 -261.036089151692920
-143.046056539052557 67.313304652162259 -261.265028095967182
-134.384352147701378 67.116494892146648 -262.660248960745264
-118.952121137231984 70.440926995294120 -262.972759994602086
-135.811383234887558 68.393978034904876 -261.979962256119109
24.310170955635748 67.811725455751258 -262.148659288130602
-133.354243749027802 71.122179152294862 -263.657689094819318
-130.987790952009533 69.596522211641144 -263.651339212549544
-13.873525789930273 72.522333215387889 -268.873925942460573
-8.993053883723981 75.360479860046055 -277.211552388258838
-167.995899927691227 77.726449320081755 -275.553178645273874
-146.436512718481481 78.722104482774725 -279.848166785322064
-133.868947770878407 78.106794329167641 -279.427176452412596
-5.897252896928324 83.719382152168976 -282.004928076138754
-167.664447532340034 77.422149540006217 -280.289504878852256
-125.183349967993863 79.967295421578655 -283.237931793344274
-98.053592791760977 80.256778417318770 -283.096485690760574
-82.585083099072307 81.056331507847105 -283.143963447424710
-63.830830564933493 81.847975644811456 -283.134173578304626
-60.391725712278678 79.201955892675954 -282.514199170126119
-107.254143269079961 83.018613826232581 -281.833960809827317
-51.054445719699338 81.070047690348702 -283.693953627353494
-43.837334692630108 80.239291002215438 -282.744438646657784
-15.449175213177586 81.265457985514928 -282.851121963614048
-157.415949206576755 82.674726802774543 -283.527294770822209
-39.184165002136680 82.289585917215291 -284.646007656294671
-38.760450656108993 81.430408962292390 -283.855079135126118
-20.815600238974898 83.182713789868231 -285.797679335013697
-28.088698472083294 82.421446994540403 -285.791621961217118
-30.728547196746419 82.373318584893752 -285.275693427870351
-15.459667440047379 83.617139652393760 -284.882892678292365
-45.820359684961382 85.363884503609810 -283.569882435592888
-40.771676690370960 82.906708691765502 -285.269920571224645
-25.055155498688979 81.769244965705795 -284.927968303871694
-14.355855436753583 81.691755998849899 -286.882650964127549
-4.990477420335413 81.746740229858474 -284.401492067733273
-56.262676274173863 81.367820612803214 -284.921958334639328
-16.720389213463310 82.188671074519434 -286.770992535096582
-69.560841838045718 82.097112217775035 -286.642526647274281
-57.818132374338454 83.664425265816718 -286.912720186325942
-49.581505904274685 82.833218335050674 -287.547693724605722
-15.530045260203620 84.534628146503081 -286.785855422722079
-15.106725322249863 81.963666824463616 -288.490234989293356
-2.502928438751986 81.983991115473685 -286.846407476112006
-3.013189424383528 82.644585941401033 -285.996268449614490
3.008442260860813 82.281711567316634 -287.155422586790849
-107.886244378581026 83.743434416842831 -290.003556061296024
-96.048191148309925 83.736988516379071 -286.671328239933928
-91.099674549969990 82.851340283517004 -287.659897431623961
-163.832750498888231 83.553701170157680 -287.273785889447595
-142.490867542416595 83.473052627213704 -289.489556992737391
-115.743629630016997 83.232481446542650 -289.619505516052641
-136.122368254347805 83.946766340291688 -289.113585892333219
-146.492721244156172 85.590635367250130 -292.584776064621337
-154.007248644019711 84.861814632495680 -293.485434203330442
-154.402584035404573 88.280110123335120 -296.829410926627077
-146.306504476163099 85.621232870248150 -294.201985947834544
-155.573912757845505 89.204786571341501 -301.684422006643786
-143.607260513711338 91.004421011930987 -296.865683544667149
35.235879539085282 -52.078261612942107 -48.973857961442619
40.541782534293141 -51.951957005962043 -51.642825115113283
49.836073113828974 -50.191374558503512 -50.854376151703498
42.087961622137499 -50.814872302912512 -52.775353601738679
21.076376450121906 -48.863671615556534 -53.733429529373325
50.786660495193267 -48.549129513250826 -56.478637713484538
44.273701405525685 -48.625170718532800 -58.023604533290197
19.613554799689172 -46.931802672092061 -61.753918413684893
47.893894341057958 -45.347128949043778 -61.765709424117588
29.570882070279513 -44.927443743881113 -66.441451460483080
42.514251822721079 -44.659422932308786 -63.755182785140065
47.977519696596794 -44.212616844652061 -65.490609426969598
44.638490322932064 -42.228449794735944 -66.574695751862492
37.457111489671099 -40.894751848758695 -71.195309341365714
-64.969803389837409 -37.579018900119685 -76.150805030424010
-58.760191999066528 -37.297812079422393 -76.823451381308473
-51.708476564815449 -36.334724832904932 -76.448080507889927
-78.541342009598935 -35.369255416926556 -78.571929663372273
-28.589872276723526 -33.326081149925635 -79.351032726911853
-17.350205423639832 -31.258641555067072 -93.338332525607854
83.237881830954294 -28.466350977392889 -94.888822511931991
85.575091515404125 -28.141509623756342 -92.566456154406225
88.365435995948772 -27.398728275468560 -93.554576562813878
-18.563702018438487 -23.726589550566491 -97.889270095001507
94.974270444625716 -24.599386239636726 -97.389549629193269
102.085121838479651 -20.611067384807480 -103.717232939559608
-41.028150795035586 -22.608572311313583 -102.469785666480547
99.953731750915267 -21.462808516937674 -107.428093023112083
100.963458538573207 -18.596420874751885 -107.440099918487547
60.257649020530529 -17.342401980623933 -111.115690542044177
67.540549830704862 -14.318303090954252 -108.865466098773695
57.693137952165273 -15.839500111579978 -116.786443634652372
51.262569574702042 -16.380857003466371 -113.094417756631529
60.148453893655123 -15.774031368739188 -113.000146795554940
99.161075268176802 -17.014672166880434 -112.036437383521061
-62.493980378151853 -14.796164074083473 -112.421198024044813
70.532608190507275 -16.288243152480430 -112.868904403506477
51.508659256725515 -15.324252518009303 -114.826951939937842
54.815113806567851 -12.124063716069370 -123.522867995067514
-70.186705012920342 -8.958840636593637 -120.894112464346790
-77.374748211217934 -13.670233869040311 -121.993920074613698
75.375036164175725 -15.116669781840681 -120.653140984918267
102.476450348401755 -12.639983228366734 -119.315831430258669
75.618468997795532 -14.266277761215090 -121.151655015449720
104.725634475816960 -11.244606601847698 -123.852829389571440
96.052628106196252 -12.693961288646662 -122.803857740389162
-80.367693681004226 -13.722075846473251 -122.108746666632868
45.594486695791076 -12.611321499165243 -120.682687513998999
53.003943340983689 -9.746952753470635 -126.787324202261132
75.778749151559410 -9.647976979803866 -122.943658225982944
87.393601185000563 -10.619061983140357 -124.237357232414581
92.511246218959258 -9.436437411253385 -125.308747270379996
-83.174123551842072 -9.955755797815163 -127.765010047841770
90.814405074974331 -8.625605637522570 -124.399380319812977
50.949712899665386 -7.866503040439498 -129.304004773649012
41.110163057394495 -10.279191735165336 -125.489843295836565
40.221155264651472 -7.332874025071584 -127.726435020427118
106.758824923466435 -8.993589061719083 -125.940136860440802
-83.310664880395478 -6.795455889575589 -128.012865313291570
106.677289316530988 -6.111884788365363 -127.956920890150542
109.124116398129900 -5.678143439398962 -133.124838021250156
36.414526122115831 -4.346097218682470 -134.902469255612772
39.097402402954010 -6.401693455937968 -131.121603515966058
41.186146561794594 -3.481362090282082 -133.781603979789168
37.522297141371190 -1.330935693780252 -136.322782668692156
-94.132628938876394 -5.683695070505006 -135.428567269568134
43.519026520232686 -3.533553014528753 -134.049393064688331
38.181587154228502 -0.424547509433540 -138.943401570126326
108.074299958213288 -2.737124419446714 -135.185616685941085
110.260659567198147 -2.762644463096714 -139.547204657825603
110.985564035419429 -4.289287619946344 -134.346225411765460
114.232353902492079 -0.875352997359762 -138.255942361083356
-82.338070477866893 -2.681950790307091 -139.202045565581614
-85.428081862763051 1.438338757443053 -142.589842578705714
111.312031294079915 0.731591381157968 -139.352310367622948
34.165744114083367 -3.080452300742980 -139.765188021639489
111.476679342232899 1.142142131949019 -142.302118923841533
39.291559381592570 1.615216156273050 -142.467533997906571
42.579282312652580 -0.976677280927560 -140.813790044713159
36.993421317357054 0.285919386591869 -140.907987877868436
31.885792628705676 2.850109105535771 -146.674356341137610
115.187771005777705 -0.182253697681846 -142.684083309664800
-79.216599680353212 1.641985172224133 -144.936917305115543
-57.118343534129473 0.949217903898153 -146.433090510131592
30.854667242863584 1.215739624844054 -141.887740445416881
-83.747573936291246 2.836606616273876 -143.075939740501553
28.841645387436174 3.303969219456873 -148.367154132776875
-80.496246644466027 2.133721938174684 -147.141648791745638
-61.518277021620236 4.776823001910058 -149.434788301063946
34.336608402273548 5.492735479410093 -149.729847613403052
-50.633662227535240 4.356589962357958 -151.782866421513347
-57.334598729356813 4.689951837133664 -150.834219075661196
38.369429421441097 4.958691023906050 -148.115620670661457
-76.921301725778704 5.500635500133737 -153.228303655686631
-62.133574932061990 5.176062728208099 -148.114895664974966
-47.686690749671421 5.990523167630124 -153.439123003914801
33.508377157115945 5.661568515521609 -148.771219605392020
-75.271822282197974 8.641955881808279 -158.241730405878741
-58.491594110091803 6.303930162092219 -152.949333296210256
-46.517694806222977 8.229979924881246 -156.384962392463393
36.172453731380322 5.576964200587413 -152.346186737161219
-73.319820886659386 6.918240914218084 -154.782341753526424
-60.954052692659396 5.819130827277819 -155.028628878755370
29.810468176906667 8.165152841646027 -154.879281769288809
109.597679498136031 6.452112322988790 -155.004173178825368
-57.888688437187000 7.434999784117015 -158.657556721902040
117.604916649613372 6.933912634210852 -156.198726767495288
-58.810253347802004 9.465395971300584 -159.464850157617946
25.782243259709713 7.222046155844546 -153.484064949341928
-70.229113099032517 8.709343452713105 -155.568826516947098
29.153114235218656 9.621863124062418 -155.787658879501919
-44.886546812476766 9.678500722098198 -157.151080100440055
110.116750597132523 15.633713676659669 -166.183885929379329
29.008136456840031 10.210645489182172 -158.523151946831547
-74.302141968694613 10.969682085272469 -158.968040744087062
-58.338422844673666 9.913747791418199 -158.668906772435292
32.529710970535909 10.488330587636291 -158.090632339162369
-75.624108745334681 11.534691872551447 -160.164552493501787
32.508894105090533 11.856448512873749 -165.649971379428621
-72.235089955012000 10.431915650700828 -157.752278428082036
-75.611402034382365 9.982416134991105 -162.875369322805824
-71.535336141531928 11.093460773949575 -164.003706354661631
117.979466672981289 12.295326797914047 -161.450688614107918
-66.525655535334550 12.571416429051315 -164.857794807379975
-40.918685650181985 13.347667052395304 -162.665096210554623
27.862455792768628 14.869081326113857 -163.439269766414242
-76.218180712352137 12.799803313003691 -164.367624432016925
14.650367192670737 12.279118836012113 -164.984969560764142
33.436295784577901 13.067456426820813 -161.789591587615604
31.437284767116552 15.039322220920925 -167.836134981060809
31.267464263583246 11.975421337009374 -165.711550910260485
14.231057855588537 13.701689878641428 -168.456239286802401
27.277488892690428 12.309844227351617 -162.380108889416988
-50.140416564098409 12.462471079839712 -164.656338609219176
-50.439500154608623 15.208337773486118 -165.585929417214317
-66.707677111101390 14.048202004022516 -164.962043071376968
116.576939309869772 16.793768525206620 -166.077752604586607
14.324297618313125 15.074792981930033 -165.410501675583191
28.189429897659231 16.392706389675364 -166.813203293543296
-40.985393278814193 16.737664461442701 -165.880345892361987
7.208247524355269 16.255334686114942 -170.957594081929130
14.223849971344453 17.041717026016901 -170.401813043852741
19.548687876036862 12.901412378858733 -164.208298927930144
15.352843821315844 15.109785797489236 -169.516325891927323
-37.285903361081317 17.523952366257106 -167.941482262687629
12.383597881441069 16.123734847470885 -172.243187864499191
-69.868661047584212 17.151836877998456 -174.746415618925710
-44.556825840921377 17.827557330786842 -167.773176867335195
-70.717375691159631 16.853380198920764 -169.097178394316813
15.500872505798871 15.451774406300277 -171.652996542046395
109.712795591686870 16.692061121839210 -170.165063554756244
-67.286301579061060 18.219070849203185 -172.430456436776552
-47.354576698828922 15.362687971937600 -167.401080044851966
13.060339821500833 19.433168214436481 -172.216020247144371
29.265687360607309 17.001959941591327 -170.723893921731161
-49.771509325858787 16.884471827567239 -171.065266910644226
23.925444367354928 17.464921993887124 -167.604048201119156
2.574956041060100 19.507814058766538 -175.167843427403483
20.653165040112594 16.910053128745098 -172.207553719158483
-42.411764824016551 19.543969932029214 -172.182655531967185
30.496374151245050 19.107450389682771 -174.517630324409282
-47.157512245024201 19.057185035145679 -176.362042151527959
-33.608585699246980 22.108921532300958 -175.424479805840974
21.012804776914120 20.687955888837671 -176.589332487777028
-40.017444593636931 19.203785447449004 -171.383375427302013
-39.860045239539758 22.647026604040800 -178.542197968407038
18.638174684224015 21.937351974757664 -177.092286805200359
27.997472244211387 18.902173258460738 -172.600293997586363
-43.029986225679671 20.396495917868169 -179.264687852037071
31.099893851341388 19.506720707341472 -179.686301562833421
27.284913334365047 22.698428668293719 -181.876503569066131
-36.737176577844245 22.829970952692911 -179.111400356829620
20.296903331374089 21.476997570566503 -180.170850567214416
30.866372975089021 25.162402375276599 -180.287592148435351
114.272495976032516 23.603438544294768 -179.137861411388485
-41.182607992844964 24.759851498622570 -183.783398341077827
-34.403369278659525 24.961587264053573 -185.663224450454948
28.764875781203518 22.899469137312686 -184.450581252165364
113.601424011496093 21.950804667241865 -184.597752573636342
-32.108264036834434 23.946303694072615 -183.243443836690744
-26.362673860430458 27.004821281917767 -185.067035695525533
106.403385732291966 26.019534592962305 -182.773519021237178
-34.755300098133247 26.813613299457764 -188.236239140674314
-36.208288962541758 27.882682066928304 -190.747303655593242
17.617715231155486 25.249354544543142 -186.459827047578557
-27.039600609888037 28.140771485494625 -189.938277353981476
17.115415795652499 27.724430239908727 -191.730885291393918
-22.158289892892149 28.972855497213011 -192.587863705940407
105.564598208888427 28.419216955716429 -190.884350919486593
-29.469407867620898 29.837019784716269 -193.412322613045063
112.469671875345043 28.444329478931039 -192.379692461556346
-29.180251111509058 30.183256922654181 -190.863214580351638
-151.324796900889027 32.404490000465472 -195.832803336619236
110.585807892212642 30.390228090956139 -195.663082196385886
-27.973080168220470 30.080018074154157 -195.566915927798163
106.933090210857060 32.299502081251845 -195.317469611416357
103.931689627771050 31.320996487498284 -195.148837822095203
22.824140205524905 34.460694425247318 -200.897366460901594
-27.600266711351971 31.595771405828099 -198.465077196767908
-23.903243876432121 32.031762861349520 -195.560473736713675
-20.677073911411828 32.464062654252388 -197.729032287955420
-148.608010164446455 30.963551270564761 -198.272450001396066
-144.755270091655859 35.589686595390191 -200.998410538992346
15.432236247482660 33.196340223223672 -197.595437760362643
21.397941042645098 36.883547720946915 -205.998896215377158
-111.411750084373821 35.252405298194340 -202.968161466512356
106.331904502205163 33.050208849970353 -200.093501446235280
100.577488270943803 36.226520676881997 -202.521633316334061
-157.061886405972103 36.547018432405494 -203.453927125359627
-25.630921825798715 32.978527789405092 -200.728846945557251
8.326652154881508 37.751714909868660 -205.455746491468119
11.940627444681644 35.611017967796315 -203.455504469269613
-123.434526909738636 35.284295701448059 -204.830057550070649
-115.569665365773176 36.197834936402302 -205.571890253013976
-134.243088379219614 36.529156355150576 -205.055779144828620
-109.574704163962394 36.736456763063082 -207.410768847887311
-18.224827372466525 35.322219535946857 -203.626984066522539
-113.020690666568925 37.231488947330838 -205.390571719095419
-111.398789315934366 37.400778648794393 -205.213872099179810
-14.246836346219135 35.675681128582767 -203.533301597525139
11.164456106180729 36.313034346502356 -209.328019538665473
96.883432253436538 43.580332732849605 -210.196376320143941
20.060402576081550 36.093246195367549 -204.899645907569607
-164.320334517239075 38.479847359450488 -208.980536972359431
-14.746419775528421 38.913323455748049 -209.754561141519616
102.427819942243801 40.318371135987434 -208.730988974876880
-137.572011591343312 38.335415128030277 -210.127224243960228
-122.274716068818350 41.084311618824898 -210.448363687003649
-23.632262842343948 40.473829208374248 -210.521004470352665
-132.101725949251886 40.638836206797848 -210.995715581964163
-131.081817661638382 40.781492771010171 -212.117054387872116
96.089689793420547 39.218312631961105 -209.223542711599436
-11.231120971257226 39.935235990831593 -214.523424572675253
8.327766872270985 43.119959390141098 -214.689585923089254
-145.154468364123261 40.127045122693808 -213.055817477604137
17.166295700663611 43.468264696996506 -215.742275028190789
90.194399668674919 43.838851336245781 -216.058251395837914
-166.407369055174087 40.326320440108226 -209.531142010386588
-6.401548758612119 43.130044474438890 -216.364940669894764
-2.461051292921439 45.401922956396405 -220.697935727927614
9.376706391479086 44.715817320720696 -219.073831795385388
13.821864797553008 47.104657934155014 -220.741002207383957
-91.947420512141761 43.997766111364363 -221.617863922216884
82.141330876418124 48.523768908251903 -221.970494491697053
-91.921661122521286 46.263800778293621 -221.343413136369918
-88.182694167897324 47.276316373619039 -222.906735136662064
5.635833486455992 45.120742181558029 -219.522819265981070
14.666534972452958 45.507281484821355 -219.469455456177542
-15.431595981467634 45.674424373087582 -221.958056485946230
-14.657425376671721 45.479366550505951 -220.167024312199175
-90.270695730101835 48.622252479398497 -224.548053885976941
-98.557172213645572 47.522120402550350 -220.843944605483586
18.361524859734381 45.871657996954767 -224.110681079274286
-101.133962016837074 48.721768721835893 -224.725071189353429
-5.272509744777429 47.892136810785729 -224.093687945621184
-15.280476261986591 48.321252725983776 -220.862773238175976
-3.493222726300136 47.588259875915050 -224.826324890737624
-165.651468742213723 47.448052679142897 -223.569222799176799
9.667949210999303 47.261521294074321 -224.735767061532158
88.260826994525800 49.276710992094742 -226.930243082297352
13.568191432938434 49.360945315555739 -226.492241359998502
-145.013763325743753 49.926022876129615 -228.819443052348134
10.924063008219264 51.383422613655185 -228.291177139545738
-128.128391300509008 50.975618797494420 -228.507441606884555
-99.057745021697244 48.940941085103077 -229.594370985302476
-9.486442350694970 47.440263531040500 -225.380014620912675
-118.285274488413151 51.963641189594874 -230.224976415074821
-22.367887174083641 49.031758607331049 -227.187425981627456
-14.407520036800914 50.504396069271785 -228.931949502675394
-133.950559941675465 49.400283741992162 -228.765403541653257
-114.936384490998407 50.821932659506295 -229.488340872827365
15.144148183085095 52.446756808582712 -231.500480020709205
74.623485251065759 50.275204986179453 -229.161285663040672
9.815179748878990 50.089019726560764 -227.014849624290633
-166.083092333908866 52.835925849135123 -232.724023491790234
3.860350861554731 53.032038172225725 -232.343152715102434
-109.000949253000016 53.145742338908256 -231.760525557145201
75.862009702038989 53.593959740529094 -232.198211871031162
79.729155205151784 53.401586716719194 -233.954338137008847
-113.183867819072589 52.036180200336396 -236.522783897274394
0.423065398325790 54.909292751380455 -236.463886781276670
-123.988642790036280 53.192121491790942 -235.575933162494863
-118.102187567721330 54.259342041413397 -235.891263532331578
-5.542422615314455 54.949761115889096 -234.323404433091554
76.042875193830540 53.509617527545124 -235.046414463014344
-9.078199772664004 54.856272072697365 -234.737410657373317
-134.482704614719609 53.223065675834917 -235.887333765746575
11.297719527936362 57.324243099444807 -236.849665862228392
73.107465474756950 53.112422437629988 -232.797713672286051
64.066464493667652 54.656740194387829 -238.699273881605194
71.953000764923715 56.784004519802949 -236.266624906777082
-130.193661725064061 54.382958933787982 -238.146220351694041
15.918917341526420 54.983372856450032 -234.883373152444250
70.059859329306292 56.124090979362293 -234.734955862401222
-6.540375583002764 53.763590893922796 -237.938974726948857
-3.399362716059761 55.073860971000428 -237.666808536475855
15.078134175535572 57.145613447584232 -239.326111130668949
70.232328923563315 57.005318607680891 -237.309220754230893
64.907274496325101 56.957089327925324 -240.012778043570620
65.878672425458376 56.874485990987075 -242.051928863069577
-165.200975213207869 56.019301329751016 -238.749570897906011
-143.788265203689207 54.236944060079324 -237.362180054627402
12.256900348290714 56.864020390305193 -237.914999592773029
0.787837494505537 56.167577329882207 -242.095675005400238
16.179188406499271 57.766382542334071 -241.581721065966605
56.583089990612592 59.899573162626446 -241.729759623853226
-3.544291880296068 58.358232960503244 -243.087639817846679
12.881448610103011 59.697422298893230 -241.578890383954359
61.943273607167448 57.450106476656273 -242.835356448849382
-18.670121407983931 58.657780777128501 -242.869349065575506
9.192750265462932 58.149278649816040 -244.605635450751009
-9.945691316115207 60.950770904147525 -243.091311218118733
2.136996573490452 59.518922049079173 -244.201813882537834
4.034030427352926 59.876098584008375 -241.907513129575932
69.214267226953439 57.763594599307083 -243.170088365217310
-8.693962368045973 60.587983437436804 -244.199052481657162
8.670610474422430 61.036781198837957 -245.404342986095088
-144.807554485480352 58.252588009854300 -243.198893572325119
-9.623782897344382 60.062277939672327 -245.811940399512594
-167.037599305444985 58.277341294025582 -242.016158693221115
58.243304695702214 58.936841907361263 -242.982064622967556
61.419733669583835 60.760463300150320 -245.037778035543511
12.452046581003140 59.525386503210122 -245.187910018723102
-168.058387188988974 63.496647129546311 -248.872429090828774
62.787816842893712 61.321767689223869 -249.203056333585778
58.344046292127928 62.373376150654558 -245.510965860038311
51.382195468976079 60.419289279705751 -246.201653949659686
-73.592892210803413 61.288880665161365 -249.389349479901938
-12.302090714866111 63.093664531780135 -248.466040346256079
58.038450233203044 62.575779926991878 -249.705068338202722
-68.090916791187809 60.741364242701565 -249.254761011419390
-73.049232065166734 62.849609901882943 -249.743179597351229
-72.661746991230316 63.051905256934830 -251.663098590793396
-87.669068288210212 66.522033607278075 -250.980166906282733
-69.943607323512580 63.727068467113227 -251.666974871426987
52.054671036780583 63.387744135971992 -250.987033598301736
-93.446241782333814 64.702561584421261 -252.481286957820942
-79.746581178273757 65.990292740149116 -253.813182778115959
-125.339625164927412 61.930164850211312 -257.223606733238967
-166.422114269440044 63.424668082234817 -254.252484652053056
-134.505331274700751 65.304083827342126 -254.832537131478432
-78.813678962583907 64.805138289811040 -255.239850028768956
42.912422254838283 64.152446007871717 -253.770276418427784
-135.236187165318796 65.555546447281230 -258.351020431860206
-110.589602569321571 68.053085781536907 -256.580940107321055
-86.387603735994972 65.576615410735513 -256.242772211257659
38.514786684440587 65.864936947887216 -255.293482120606200
-112.030495674730759 66.533835149773736 -257.143122855702018
-89.967741555338193 67.023738869593885 -256.981782788005830
-98.684603134528672 67.086852266152690 -258.386154444219358
37.716342023607865 67.448761095945372 -256.996824504656217
-16.005710174448229 70.561384792361963 -261.346739910868052
-109.425992177275162 68.592195777361752 -261.944778034160151
-141.254204032906216 69.657964077194904 -262.341614220757776
-123.603311146323747 71.552664533651750 -261.696950386748370
-157.080122776575109 71.127812014604743 -264.649278176351061
-127.850967778320992 70.382486084397783 -263.911654721197749
-168.769767463764538 68.233714051805237 -260.834136281153292
-143.718119938913844 71.105097093960836 -263.781021244809608
-152.781740551479771 72.525672355044961 -263.989477042552039
-13.701333539292225 71.004117471131764 -264.697368008673095
-169.146050909349924 71.582735903997431 -268.264538336527380
-14.392081497235548 75.699096980410147 -270.208612121279486
-157.051947449097838 75.750549277277528 -271.260536993714652
-153.949613399168754 76.232486208201593 -272.917374159286339
-169.850977632007414 76.637251709477155 -274.030912628598060
-159.985573034419559 76.661271874203379 -276.297397080938538
-11.424046796058523 75.815306953126182 -273.035070045234306
-161.033854073731504 78.094204120890467 -277.759366370510293
-153.081129448652035 77.960197825574227 -277.588375776259909
-132.240047363321651 80.203152531629840 -280.071426574357872
-158.542394024917769 81.937214871302047 -282.153058824749678
-145.184769352602359 78.333372370300353 -277.909626118334813
-135.092855128485724 79.407963561694942 -284.323123823512560
-9.735478053083661 81.137019584827996 -278.302019567382047
-125.844936284626755 81.218776604434126 -280.166334844049402
-141.086424163143818 82.429629824103841 -280.430973797904585
-135.619562702015543 80.508648473290492 -281.886295681030504
-116.389411751209806 83.252675973734824 -282.437391077785264
-97.024879283781203 81.318164693509360 -283.243391854263393
-74.701492930468007 82.110887938441749 -283.996338227327612
-76.211322530110735 82.991009282642523 -283.384758071622286
-65.800046444050068 80.283716411449063 -282.801284627439031
-63.875286572316710 82.149840460665331 -281.872206304228996
-57.115323601251944 82.232880208507737 -283.777349325602643
-6.780441102809823 81.922368372081053 -285.157433257996217
-51.237556289182749 82.873637222073711 -284.987379021853087
-52.610710709302943 83.569185355677021 -286.695781172713453
-53.520860492887081 83.300583038799374 -285.184082206735525
-70.367671265735410 85.686660795867141 -286.776637294962313
-58.558666032636388 84.814638504049853 -283.940085812757616
-64.652609205162051 83.509605590755640 -287.239762122170134
-90.723258380799095 84.442884222248040 -286.732509823636747
-80.519234984541356 83.686012991758474 -286.714517770909538
-0.738657599740355 83.396955868738033 -287.206470366476935
-99.916831388751660 86.734742239976455 -285.626530503319771
-124.744102715062610 83.765398971654378 -288.532886821306988
-160.355822330914350 84.528708710704535 -286.802705506169502
-136.906945133310387 86.215725162541688 -288.077815495689322
-160.591796907254178 83.392068859845864 -288.835301047464043
-125.209350126102649 83.574134493546850 -289.711967427220031
-126.394701001765057 84.731117848002498 -290.126688684548412
-143.933190136715922 82.392108552241837 -291.076641621772694
-155.059981378397140 87.059616246333306 -290.695017906696023
-155.684996728998414 87.935141446869338 -295.959918151154284
-155.637323518039210 90.077159998318649 -294.575675206200401
