# This PCD file was generated using the MATLAB® pcwrite function
# from Computer Vision Toolbox®.
# .PCD v.7 - Point Cloud Data file format
VERSION .7
FIELDS x y z
SIZE 8 8 8
TYPE F F F
COUNT 1 1 1
WIDTH 786
HEIGHT 1
VIEWPOINT 0 0 0 1 0 0 0
POINTS 786
DATA ascii
-144.031345983020088 -79.407077941956743 -194.258419698951542
-39.404374914836588 -78.153433516522796 -195.823218490404287
-38.928903076210482 -80.541590487674426 -202.259068377511625
-40.318173337601181 -84.008119912758758 -202.750860038054810
-44.454994389155601 -79.820929236723742 -201.225637056523908
-132.615691398929442 -82.486745166790797 -197.424935301789986
-135.510967084211558 -82.092991142940747 -201.364668329636714
-48.132113730015696 -82.049090040349995 -204.613031102333707
-59.517326784669294 -85.396094139722152 -205.528019475980585
-39.606092254044619 -82.278232979594236 -205.031784446576353
-142.468704801090183 -84.331947862564164 -206.015689569325616
-68.805650604455650 -78.277861028924690 -208.564296006437701
-35.685114678173377 -84.291784009649518 -209.560107840151886
15.666405169705754 -82.306197742180160 -207.111819874441522
-72.941857826741739 -83.393660886232936 -214.466210912243014
-29.208335368888221 -79.854322678978974 -215.027607881238623
12.609085851684766 -80.886295553914692 -220.193897550932007
-151.828038239949962 -83.532507613072056 -218.265313164103731
8.843745788916943 -81.081452301772600 -228.748221881924110
13.438953949503393 -82.304006686597262 -225.104827024225386
17.317049615745940 -79.675075487087753 -227.722056626583111
-136.836815764935125 -86.395986084102987 -227.314711767028541
-144.948900752033467 -82.054829648999942 -229.891503692616368
11.365530731034244 -82.645858315344299 -238.200982361962161
17.127947556609282 -79.661467264914904 -238.379942058725533
14.447205628051213 -80.946833243763535 -238.114496051294083
-149.147311099397939 -85.563507112633829 -241.804221078995681
-145.219095751579800 -90.214701057878273 -239.836877401385749
12.963630179392483 -82.165028868601638 -237.627427480213356
-39.240097601482091 -81.933772438875366 -245.418145251103482
18.279891992223220 -81.178076474579171 -249.220573527697582
-42.442761539112702 -83.229892692143267 -244.448876142204625
-144.907005695391632 -86.589939299313244 -257.065234021403000
17.322178773113382 -82.431772246857179 -254.147849288529983
-143.802671400936731 -85.355532131148351 -256.824368432242125
-152.902545514312607 -84.740644960354473 -257.579890410757059
15.222724757549475 -80.411131131388998 -257.467702594226182
-8.763612845158198 -78.392868146086073 -253.600358368363970
-8.459406183333160 -81.526534323240668 -264.096570469544019
-144.989816589306997 -87.726749582243457 -260.122768960494682
-155.650326623515696 -79.067290589991813 -262.156991541238710
-144.614278128857848 -85.893881969291243 -264.528126721275271
-150.742955200870824 -80.538931869573332 -269.542095972439427
-148.752893530971562 -85.293054535993775 -269.836899535371742
-8.151673821312290 -83.163804339228420 -270.084181060341848
-4.908711087803369 -81.885646243847390 -273.702202374676176
13.549350507114143 -82.131505556380574 -269.016752794341755
5.206231081853628 -82.742246383399134 -280.141788930162591
3.769806707911661 -79.993267447594718 -286.007739209346767
-138.500349239077025 -80.403867429621357 -291.190371665874409
-145.390593267579419 -83.275355652187500 -293.348227146520856
-59.216024814615508 -80.251532184253392 -65.105040403461288
-42.651662751724459 -79.444911853070494 -65.808237094798187
-46.453041495201383 -77.443747270350144 -67.450884167226832
-44.402315845434508 -78.264145467471451 -66.496506026881121
-66.027962276844050 -83.931924083304949 -67.240595640582228
-76.130128783778531 -79.574568853787639 -72.735291653860017
-35.542061974341927 -80.034916589066682 -79.237378599637864
-40.047105011969094 -82.855557265718915 -86.980825301347210
-47.379982229080959 -84.783973687124671 -89.059828268974726
-84.555112542670130 -79.601296668311448 -88.620672429387284
-73.620029092404778 -83.715362351614772 -107.660399338206943
44.574831588443793 -79.031568688006217 -109.908149799162828
-84.163777700826913 -80.813169249938852 -110.537056980638766
43.490121095552311 -80.708412113645522 -121.588110580960731
41.760212285973566 -78.805900342640058 -126.495426521667881
35.223516143665258 -78.971517232859554 -122.876057040908520
31.113774179448392 -82.506824627026106 -128.158997472880401
33.135022364604730 -79.172386751476694 -136.343948024712802
25.108221111746879 -77.390423725937779 -147.071079550922519
-46.958012972332298 -83.109801920080997 -155.866598111841597
31.963597516952024 -79.872709280588879 -145.828297389831590
25.385507279112161 -82.142555264948356 -158.851217878143615
-42.674146394320346 -82.517997037433787 -153.905590326787518
27.807824900773845 -80.386987083359344 -157.057168276237093
-46.495405341175825 -78.335914004882312 -162.496281158483583
26.223120991515366 -80.248918699589183 -167.933890905437863
-59.903653349865479 -82.054093817622288 -171.079565062557094
-4.960809345988755 -83.320073765117172 -174.966589341314318
-33.257715920227589 -80.491674844415655 -174.696591732085750
-10.892061546119361 -82.368815471539506 -174.642344016312705
-55.976097632951550 -81.088263600308380 -176.556494554273286
23.759861338295877 -81.998491178999046 -174.235325881396250
-13.445809337173310 -79.611967881393241 -184.666038187310050
-23.042208674360481 -77.367467614603299 -188.018709247860215
-52.615539055937376 -78.658007054206735 -185.315529272108137
-28.875896673809113 -81.664796191811206 -187.458337779504461
18.379678560479437 -81.988490613880344 -192.074757581696048
-148.485996622139652 -84.458828253598512 -188.755688666134944
-28.392521677409576 -81.308213253450987 -190.490662365652611
-48.227289088369773 -78.749067455531957 -191.077902997589860
-150.017402303112675 -85.735856017176445 -192.510734750758814
-141.934706596613978 -83.660395727542976 -197.412336967798382
-23.149889546175430 -80.875667575463098 -198.600979374344689
-21.207106499717803 -81.241527349890049 -196.955524211301451
-45.373183519884506 -80.202868596953493 -197.143493982281825
-19.807906721632495 -81.927443762198379 -197.858492415503548
-48.067032523793245 -81.093333500942038 -200.892222068223987
-45.686815531449177 -81.271592551303598 -199.626383268254784
-54.415521530627153 -82.659139063567750 -202.226596587814726
-19.155114600168897 -77.814946796234835 -207.489229325497320
-146.408595831970104 -83.317308596025100 -214.828244063258666
-58.800311478052166 -79.429782107834512 -209.611810121449764
-57.773094193263731 -78.907043152324746 -209.832917554320034
-32.435085021410423 -76.234130458600163 -208.381031566446779
-13.148594536224360 -78.461658813675342 -207.595392639970953
-35.577548192825823 -79.568992726846858 -209.823505061037935
-79.477205885073374 -81.220975019834157 -211.265491933020030
-143.846069450790594 -86.980585418470895 -210.795634115981699
-32.567896799126238 -81.976831433530634 -209.657061866367229
7.721430358676853 -82.608673072951376 -210.831585364189920
-65.343135394527650 -83.122858782648080 -212.614635364732550
-65.934195173853965 -81.208818310235188 -215.148214455246489
-25.392730877291172 -77.584693661128114 -216.173804499054313
-9.958202698402737 -85.400985428797753 -213.674534816604165
-25.933043197466866 -81.996044762457274 -219.341651998864592
18.090766855720499 -79.964961360802505 -217.837940595646558
-150.521953675631124 -79.995178615426624 -221.541335575587510
-10.527904030036169 -84.822118465363104 -220.546244193868660
-155.614084406632259 -84.697105548216825 -227.681744089737379
8.208863149240154 -81.641926608539791 -231.818132780885435
13.067877639694602 -77.581690197190426 -228.700362550084236
-2.291337459227758 -80.577631877985596 -224.558039662843754
16.668247646856074 -80.682425050426389 -229.742974371836681
-137.633281044258013 -86.522556645746164 -234.014825533262751
11.290712450816338 -80.799440503642757 -228.236971570336266
-153.414270882985079 -81.573914853169953 -230.160773175384321
-145.094869994717897 -83.913947338495092 -234.622985640669441
-1.150757631146657 -81.668542672830597 -223.536965485878227
19.026236676270972 -82.514207892822270 -235.827431312182995
-31.229759145130615 -78.842089626139312 -240.424686516543289
-145.376052699749891 -81.928171413148249 -240.558401120005271
-37.598548509289891 -80.282644309158883 -244.716911679867650
-45.982110664907502 -79.902662221494410 -242.764162413215132
-33.556302737868172 -79.404883759904436 -242.125988305376126
19.958863658580718 -81.033103396755479 -244.889756714868241
-49.561439308308984 -77.294366727735365 -247.077003565106253
15.708476050039840 -81.000117928976465 -247.526757759118141
11.622822890638265 -78.664487914985159 -242.375148086316216
10.004265083966532 -82.240151645021740 -250.185745548019725
-41.258129560279762 -83.328872065758304 -247.859249753630195
23.560355993758783 -82.311923993271705 -248.809949396600530
-143.768059546004793 -82.282038901954394 -248.518771871447314
20.580696182062646 -78.544453462697703 -251.446870220151709
0.910546013458544 -84.477346759464666 -251.583247944815014
10.848274293205598 -80.332891536791720 -245.955169827885868
-150.532434195956853 -78.726880800561503 -254.687723679283863
-147.066068280288818 -86.285203045114912 -259.822843305888682
-142.104287138661135 -82.931544522946069 -259.641525324778570
-152.533851862771058 -82.125261574862492 -261.863393146165947
16.576395400268019 -76.989920690705247 -266.740184383243047
-153.492048712704047 -79.232472714597492 -272.312438681265121
-6.173083404427190 -81.170394796339707 -276.307228066891525
-150.934344824043535 -83.283318914499972 -271.313444063339318
-144.952895360057369 -80.902556690219086 -280.583684481412320
-153.108764138468615 -79.730700840133238 -276.955817782283759
-154.393010222285142 -84.207478676883312 -285.790092158564732
-132.626103221464348 -84.154813064202443 -289.648897136561175
-152.547852518707970 -83.318759147403000 -289.523317926912114
-146.788522565406055 -86.077635694739257 -291.385229129494064
-146.988991262076695 -83.159259380904246 -292.432093792481623
-152.995485020166313 -83.990125765780675 -296.593035417603460
-146.251984183418188 -80.103836860945563 -294.118456171826779
-152.685889739141970 -82.542968241195155 -301.528849978747417
-147.343870143138901 -83.523416554718921 -303.197781399676671
-148.559339255097115 -79.677619910188071 -305.184183564228363
-55.044565039220842 -74.537424411851248 -62.073933963263812
-62.178215138929623 -79.422387827947574 -64.543479709473516
-46.158935131672649 -79.495064988614729 -62.935368382448758
-24.761887545994409 -80.663757893520284 -76.088190835514141
-50.892357782723899 -82.783759262868585 -90.996326269662106
-86.573639901185075 -86.704283930530266 -100.323797399342297
45.300054398678334 -79.688141272287339 -108.560948561374204
-75.470390371599521 -83.178393079401928 -103.759257915600600
43.614467385333363 -81.454055781508657 -115.672448483131745
41.453504865213979 -79.216865411349346 -123.362283809167948
40.953835552139694 -79.720907905315357 -126.716458371580117
37.579147931055537 -79.533181308415294 -136.871415981741904
32.635949654645366 -78.358168866753687 -136.910347085347439
34.797354184585522 -84.062670662852440 -137.562271028123575
31.851471900048917 -77.499873938785328 -152.086756480996712
-44.253701029769161 -77.586662759663852 -151.046142476814055
29.633835761659988 -81.306944800171749 -142.501526440293361
-65.824673891861892 -77.181171903704552 -154.880339965311606
-36.696151706631980 -82.207593175939991 -155.417710547906722
-61.196467114028778 -81.889201270631503 -165.262936532971338
-39.318004119658788 -81.109035461174585 -160.127503121667473
31.500166064621855 -79.723145466591944 -158.708259360205858
-34.875083786368130 -84.535212230316631 -161.613266043634894
-1.691377975609690 -80.920669934360092 -173.902420634355167
33.476139752417751 -75.794022326015153 -165.226832721097537
-8.947872135480148 -80.461082782013392 -171.949786829258244
-58.729939471762606 -80.383444738197653 -164.982116374498190
-35.749435662085581 -77.756707678899261 -171.254858975272981
-30.369737144382480 -77.992472716012514 -174.825470689033637
25.183147755760523 -80.806513377934039 -177.954419903400776
-53.420715536200895 -81.068878310494767 -178.357929991545859
-28.622160463402512 -77.041204517807188 -176.967099722851771
23.148537370192177 -79.422620612791064 -184.966012283550100
-50.332223786015135 -80.993972765236691 -186.773898198209849
-24.812623639175492 -76.221417555657609 -184.300800958754365
-53.445974277052642 -78.244869616615176 -185.476031628288297
-40.474017934791007 -79.985921751476667 -196.313873167135142
-28.940636817419033 -78.934697515615539 -190.620992521805647
-41.706092384431699 -81.350491653943976 -197.583304412276334
-22.735005479008699 -79.577677646495914 -193.324037338167159
-136.338630758845426 -83.012438149169213 -197.962633887585298
19.986914006133091 -79.495353439406927 -201.897842170699221
-133.077550741835779 -79.352145960798282 -199.980855549996676
-20.988803591539021 -77.710547236977447 -197.796117339248724
-19.528028811081708 -77.776310002811556 -198.565071783495114
-41.069282779304721 -80.595046428690978 -196.987637623640751
14.342545340033839 -77.844990789035393 -197.625303444646960
-15.468824188049298 -81.821160157902625 -199.965050815294006
-57.351504421320847 -81.608819952821534 -206.297178866593583
-34.479555045558755 -80.113369978756594 -205.825233154604177
-62.694017806758438 -78.137643978141540 -208.536276577417027
-68.431978041951695 -78.698324351329376 -211.892004264372702
17.366250245050342 -78.236318475129565 -211.102272051115790
-85.125385259968397 -79.965783907484052 -214.013781508452439
-28.568017398627184 -80.168555198214364 -217.116500331386533
-79.587181467375103 -81.498687336097248 -213.144523012782713
-147.164061546882209 -83.608737858994829 -216.045586018744615
-7.043274345021906 -79.615262895306756 -217.075190137013692
-8.217786736941553 -78.767560843408148 -219.625271403854555
13.014977373330714 -79.991465947825844 -218.371108989344378
13.158901540347085 -75.673130125475325 -225.935727738339494
-1.514599005287571 -80.929510971678127 -231.152458108657413
-138.848706908079578 -80.112803598621042 -223.806969982323892
-148.762115942925931 -85.790545899899456 -233.985404014995879
-151.031020536975120 -79.810421795955904 -233.076925588018184
4.758915394165851 -81.245975642292336 -237.251166513803838
2.168584256995229 -78.763320452704477 -238.318487897830664
-23.504910733860058 -83.173453862792996 -243.054954192723841
-150.263227176144795 -79.816359541501981 -240.174944259206711
10.752254281690897 -80.457505712118774 -245.914605471697712
-23.184837180911654 -76.334229745617165 -243.441058090963310
19.130938309959831 -78.857039478509193 -239.169379073017012
-53.489418295634515 -79.474068536901115 -245.293079621979331
-50.442489097473803 -80.363438766689711 -250.067338174327858
-146.198458641462963 -86.684275975199768 -246.742698845423092
-62.555581964775030 -80.696017033491842 -249.191289335685212
-3.075273086975891 -78.706039817043973 -248.286045499159457
-10.107061881181364 -78.408609087957018 -257.578599825371612
-147.247747182974166 -85.995173094608560 -258.939732609845805
-132.898585425334431 -80.339785886990768 -257.848897148787103
-135.692299487420144 -79.668905999835232 -259.954091272487403
18.218809496862114 -78.948375953368952 -261.483929291306254
-145.690685091028598 -82.964957481482315 -272.505668901370996
17.858718291341152 -80.614829569645991 -269.619088879271999
-146.352080367287869 -80.237120305978095 -274.565904997007578
2.561067517274378 -82.190818095684875 -279.321226930287651
-143.598232143754700 -82.574329107066688 -283.090705924079771
1.130858045692798 -81.373863968042940 -285.221934182809491
-152.489132366105366 -80.595913149745229 -284.257863088019064
-143.394836841478394 -79.595763042855111 -285.227270560941236
-137.088258278649818 -83.942572540856190 -287.269896949053077
-149.183569427734625 -85.846758168827591 -293.605617345906182
-20.291072219013770 -78.335121981718942 -291.636048680864178
-152.598870479028250 -81.837605724966437 -292.834537588048420
-148.426164885286852 -83.800301756428212 -295.969493853656559
-150.863335059950373 -80.940245898003354 -309.864833353858614
-55.137377085834018 -77.429957591969298 -58.612961728264168
-37.799487517811592 -81.975558973898075 -63.884294396200744
-74.565312896810639 -81.187686565948724 -67.573973865727893
-28.037356765894749 -77.541939282754072 -69.093225095234402
-24.846966619383004 -79.689162279835870 -73.359035554622579
-84.473464275078896 -80.841919530384331 -81.460272661823609
87.826226236571827 -78.860478084146138 -87.045842789440641
-34.636144592022774 -77.550057821904318 -85.882389190482229
83.316923195997418 -80.328251324099256 -88.076076063921633
79.101625867718596 -77.815369628548183 -90.525012107289001
86.448198033517926 -77.458812907838848 -90.073673755700639
85.103806474644813 -76.270589301080690 -93.674056542250213
92.060090429142306 -76.778590425269499 -95.660510913210260
-90.159817201519672 -76.916048708592911 -95.574518107042238
55.299514435258423 -78.182086303031241 -107.472431780216439
-92.926047493269380 -72.575196319084654 -114.300544215628307
45.883911511606442 -79.868499203000653 -111.303695397188719
50.730892102640588 -78.302476936819403 -115.327371896112368
41.610507057775912 -77.878268370607231 -116.994101955120954
33.743655326029312 -78.565433103334499 -137.692505256427523
27.654471286063647 -78.102143895832938 -142.324260675008730
23.411433821632389 -72.820961669135642 -145.989331142448322
33.566395458252877 -75.804388839826942 -145.615354290290981
-46.537586520747553 -81.055569484779653 -155.093411138703885
-46.803027414812512 -79.948829567667190 -152.423296206249034
-40.300862342596830 -78.509574615020455 -158.024443487104179
25.622824088423847 -77.044372372009889 -154.539249566496835
28.424834204260272 -77.519686711997252 -169.631404249252427
-32.873658933743705 -76.750678435764371 -169.242363869078105
-34.324691960990272 -75.963195106510653 -160.920161146183119
-44.651935763611824 -80.577184768541343 -159.661401516665563
3.184659241725166 -76.715943886656504 -165.389862354023649
25.186310326816180 -79.046863347670836 -154.721174623872628
33.200282722079244 -75.727240388336128 -162.233358681923477
29.148741149825465 -76.681812884641886 -171.444122075955846
-7.063798274097378 -78.239767864435890 -173.285877355216854
-2.147962716350622 -78.746441714996024 -171.658587133686495
-56.855282644162742 -78.252921948724861 -169.127097866466073
-59.869388444706672 -78.785662514775993 -171.477731081600297
-41.344574507765003 -80.150999905482934 -171.472977274280453
-37.647009362462903 -77.787233020294735 -168.818567127730915
23.135632304757053 -75.130885655455529 -174.160378887283059
-20.985886899078885 -82.189224261312347 -179.349421476367809
-31.081811353656381 -77.314751387330091 -182.199129729000987
-60.681056645357124 -81.557116352768787 -180.193154304322633
101.672290398906810 -78.003969329227232 -184.195001294918029
21.744295683475077 -80.756544319140545 -175.468872175794701
-25.445405250982986 -78.676590883341191 -181.436528612885553
-49.940314950064398 -78.642408196024178 -180.904354467934240
-19.316664618434860 -76.372199550997522 -181.740027854949233
111.995720953069593 -77.094030359094205 -182.696261971502707
-52.440699115799880 -80.914896548810134 -184.909996851733553
15.035160983764291 -79.636425168609549 -189.816902623013362
21.547153208606819 -78.113517885759990 -181.036919560159248
-55.098127841715709 -82.438492570101744 -179.377895780928611
-22.975101442701515 -77.755021558734740 -183.648774292203910
-55.048169116261874 -81.125283006919716 -177.803394776938887
-35.126103900075407 -79.178179374060022 -180.490866852693529
-28.075829183505796 -78.672212072682214 -188.530866509358589
21.640295015214448 -78.501670792361864 -189.682870012748282
-48.583567186244082 -79.898869312886944 -189.173643903573975
104.695985143251391 -76.492499489774218 -192.430332152805221
-50.703848176386103 -76.443816864352300 -190.962787447343715
9.161619710482549 -78.031074073604486 -203.577326333667742
20.921238833945090 -77.485185379853675 -200.862901541703508
-47.921270815487524 -78.657954546453198 -192.342288697079795
-17.704598359901844 -79.272791631728495 -191.042082180907357
101.809520217486451 -76.807062234541007 -197.672219365344858
98.952795344398638 -79.653338431818753 -198.178094244388404
-47.812490441455040 -78.104199258810183 -189.296580150163976
-147.917927404630916 -85.502004327838534 -199.220467247946459
-45.043067329426357 -78.876201504276480 -198.483012613859046
-144.449414596244765 -81.650336887956968 -198.320853317084726
-135.214812630365060 -77.329037255563748 -199.839875717208230
-44.533031228340455 -80.598048978733033 -198.317291608105336
11.084429140204575 -79.417101425305532 -209.499656116595844
-15.785123408555839 -76.934833149139649 -206.073443822480783
16.392022780192967 -76.466141719335269 -203.410911378809459
92.485649885250012 -79.519545443678140 -213.532029072185509
-35.486540371418869 -77.658244797829212 -203.082184612852217
-12.035852908417553 -77.678070010894260 -207.030951138820967
-13.801913570843531 -77.141246448090442 -214.175674157308919
-35.677304583744380 -78.441457925367729 -207.193665277506341
8.676650771710838 -78.052381074998493 -207.619782726013597
-77.252175203077798 -79.214948640248878 -211.337737826758257
16.311732631441171 -78.747852259055861 -215.515746637065405
-34.741723981304567 -78.173304179416590 -207.588097449988737
-144.372641591941857 -82.687720185325475 -208.852167988124904
-142.771643230352367 -76.853080220760745 -211.407355440100815
-87.011067098284130 -79.858014380701945 -213.916360039113641
-34.746375625976583 -77.060664214933894 -211.422495577900094
-17.991068652842397 -82.059312827621198 -214.094955695864996
-31.230961867845323 -79.373753482344796 -209.932030985140898
-90.875679936013924 -80.642291349286268 -217.914903840049277
-87.091070334291260 -80.536399790988753 -215.591134646238260
7.963459052422351 -81.786514283022200 -222.331589216620443
-149.459347467702457 -76.773313279952532 -214.767146453860931
-13.221143266416501 -80.982876128015306 -214.456325153445761
9.225611375804547 -83.014037812652731 -220.110318358638239
-144.234823391694249 -79.244602680593772 -219.663972480803494
-21.445871109126145 -79.983771729185861 -218.860267015550392
-0.397183119977586 -76.031568540922251 -222.354007860742996
-5.949684512863841 -79.572114665577573 -220.862798036558303
-152.215132378115186 -77.922457382313866 -224.256532281633810
-138.726037155995357 -73.866214609118202 -226.989605936368633
-4.915949790758432 -78.766647725104065 -225.854645667564000
-148.318814167894601 -85.207681337877261 -227.867941316844565
1.526685714898735 -75.227451821713601 -231.516728064587568
17.471682336347232 -77.823059769000849 -236.045811253897114
-1.132071863251652 -79.848817409404830 -232.764808635963561
-0.458778252610591 -74.556699949173662 -235.655609666830372
8.295398764127304 -77.881587580941073 -233.442077323973734
-151.397404861323395 -80.711943893805881 -238.250713487027184
-19.423771772933854 -76.983768290202050 -236.871487291438086
-34.551394586372631 -80.504445363283139 -240.282320067185935
3.596242648126944 -76.865855218242871 -235.222528995819232
1.888596294718565 -81.615029853088288 -242.104183963652702
2.817629304608409 -77.535871690176322 -235.591395141627032
-56.429914537175605 -78.237299493312406 -243.658254063990142
-148.863642276741842 -77.902773208929943 -248.282479810847747
-152.258621198744407 -80.772711214835397 -248.120175082863625
10.943569130138853 -79.727682088483704 -248.509752041052081
23.884156988411359 -79.332906776937534 -248.803114290054111
-60.623600822408520 -77.122048789976816 -248.919498381252879
-143.351938600691426 -83.462993178273820 -252.982311702714640
-153.151880008860473 -82.917799774532938 -254.901070988722665
-152.209089522124799 -84.911710657140645 -257.700742721637141
-142.562659192456636 -78.033204154332054 -262.109585784551825
-139.776904616475036 -80.367914057647027 -257.117505418476412
-8.904123210757295 -79.561088917827277 -257.950345664592930
-144.773964926685807 -81.514684045502690 -263.196280287665672
-13.199596783763768 -79.471889098321469 -267.667710459179148
-147.514646466149685 -79.367102339783457 -274.136095310536859
-147.757528008317138 -80.023091206332083 -282.815952221770488
-149.297774176675460 -79.153215468456096 -283.796831213438963
-3.733273298479254 -74.653162788490562 -286.481723024844086
-146.244775449970973 -76.322045657661704 -284.883023350994392
-28.142476234756796 -79.270398287906517 -287.876413041065518
-28.756278269918759 -76.820776953003588 -287.679209611659815
-15.364949211849121 -76.679417309446706 -293.134404493537829
-12.627663720243003 -76.328286203741698 -292.405761892638225
12.910245076538793 -79.961253724567626 -293.006446460422069
-125.348349266623828 -80.702160089771581 -290.354512074873355
-59.725582106959280 -78.937550362023131 -288.925299358719826
-40.704155586327374 -76.742483101844840 -291.066314105887500
-32.757116206849538 -79.182710722788130 -289.753697328653743
-9.219055373815612 -76.929285080428230 -293.820994147179988
5.102534062900800 -78.680480805843672 -289.904665510523614
-142.707869312085364 -81.332345598806029 -296.381190987452044
9.753290335962133 -78.430766979126531 -295.465350389855075
-153.009757210947299 -78.424840127606842 -302.333933230024797
-152.359869072432645 -83.033625895393669 -301.651805069070861
-153.371986139029758 -77.605008108606881 -312.110612255530100
-144.643987745013987 -79.358915839311948 -310.638809563782388
-48.891949445490141 -77.780256649721565 -53.724112385959081
-53.457105436309234 -80.583955384096413 -57.453049545387017
-64.380469545153446 -77.007750181054973 -56.370957847633619
-39.966136329643746 -76.868498418350413 -62.187868340886808
-34.826665893630491 -77.978006883452423 -60.608961439961845
-18.988967740890903 -77.004925872615701 -70.615431996749265
-80.546367014837969 -76.811904565062207 -69.756741787539880
85.308881670368478 -77.147307436742437 -80.527218264502054
-88.773483005781245 -77.537313304157095 -78.078931905879500
83.056848863755846 -75.786112276127881 -81.265250871496619
88.407743161580456 -73.927591962535303 -86.127716449304799
97.210897236051395 -74.516928107463968 -90.453499180044616
-58.780537369052674 -81.696841321472789 -96.853159640620305
84.039593672378203 -77.183952031489326 -97.763631133089092
79.102195991650575 -79.530360020066979 -93.838302754179935
88.120814739826969 -77.038183365705521 -92.496836800486804
-59.422396253758734 -79.862536220564465 -98.520761905906156
51.848502683095610 -75.751763120633541 -99.568698148804287
47.103837225812569 -76.951932580879344 -108.450072742273974
41.804055768852358 -77.927179818873014 -106.001747039147702
38.334498480212190 -77.546568833421503 -106.323629790756129
-90.294389315454907 -76.145451217024060 -108.125994554020849
37.069326156347614 -76.313726003744904 -119.143186339946396
-83.500839256237839 -79.251834392298207 -109.535915954704265
42.646719277689698 -78.677045069027059 -127.287834941225057
34.677025063596474 -78.182626546425666 -123.241890748300094
35.063063800827642 -72.139651602558502 -123.456910618387823
44.979289289276224 -76.114363354846432 -120.337220569310446
41.790008226161682 -79.226521855963284 -129.472974384685159
-51.130335582428479 -73.581410935464760 -136.490666072056769
38.142864032236034 -80.013943756402170 -136.591065628487826
37.041219957606863 -76.830195985515900 -144.998726566931055
-53.070435771661558 -75.918066000730391 -143.167699080183667
-45.086527590415429 -78.172418980708954 -141.608076059080076
35.983495618255233 -76.768668279391306 -144.798876236618696
111.948612638694485 -73.115533536361255 -143.665154120054069
114.003480784660141 -73.807106387937779 -146.843211493718314
27.680973758092669 -78.364757824682613 -144.422345121611585
-39.875671514965838 -79.850919177803263 -150.469905422307988
115.837081027724636 -80.441326079015425 -155.788499031885692
-37.732432972012504 -76.568351262991285 -154.257853411285112
-66.968306241974332 -78.075837166044494 -161.526493353259866
111.671517923085005 -79.099953698649074 -160.683254564922436
23.688339512058942 -77.770955733174304 -166.475073445177856
1.557001948546423 -78.517138637493360 -164.405056830418062
112.898672035096695 -76.357318854169165 -156.808365008517228
-63.243077121730444 -77.838301180782651 -166.345943159169082
-36.995016572509613 -78.229660341773865 -164.541371766262699
113.157508473404533 -76.442274560912125 -167.084996632781525
29.414140375407570 -73.942402164767884 -160.279429678259277
-61.660477546906122 -73.662554038296349 -166.387335842943770
113.010028435569907 -76.611135157605105 -168.736377203923695
-64.195027044970516 -79.828601066121962 -169.679636332617946
-49.241268270385930 -80.134040770591156 -181.646233964051476
107.174488648745267 -75.381174989248166 -173.852029213433184
-58.848419355765493 -76.677971075066949 -172.043960564313011
112.790627711101465 -75.572780034915468 -178.741599987780006
-59.775609937241754 -77.781204859766291 -176.301690021769019
-14.104735472671985 -75.908402551806773 -178.846951829143393
-10.253082283827279 -81.272704274244234 -182.383031782903259
108.791382552233188 -77.527864334845447 -171.320726275368486
22.093251931582575 -77.951518494636616 -173.424607073061622
30.604903395081692 -74.241464494928891 -171.696888773977776
-56.241917692435550 -77.273902827333927 -178.201020849955881
19.129122232266575 -76.005988381430939 -183.648306306965452
-56.747756990632560 -78.182299570250933 -176.706890367964036
-50.989783688486568 -76.841272596723343 -191.845798937185606
13.372931592471273 -75.637892044441969 -185.620429697804553
-56.197596264829322 -75.142681354895814 -181.271234056930780
107.663291020862886 -74.659136529801827 -189.311069080719932
25.625323131047455 -78.794691181748846 -183.150651434337618
-32.902890611728260 -76.037518927544596 -189.661753685546444
-41.857447915300448 -79.188453640322194 -192.119529396471734
12.011827342719332 -78.297101598725988 -194.384050371267477
-18.163513947643857 -78.660092324756874 -190.854377055088662
-47.945516115964921 -79.085708782294063 -195.771622212666642
103.568055037018439 -78.869519786593173 -185.947126248041258
13.197635707258641 -79.379439291511090 -192.194447997204776
-132.789968987754037 -82.610429011237471 -199.473986341713498
-44.985205142892973 -79.751039870635680 -195.644831642714394
96.463952127913416 -75.864993067109822 -201.153657038882443
-147.945255077932842 -84.551344608767721 -202.452722894092659
19.092628082418042 -77.450637104731328 -199.328505902973177
-42.000025803682675 -75.727741392675426 -206.695995885077650
-30.323691679440074 -79.888605729791294 -207.012285847408350
-36.424945976617515 -78.358268804771512 -204.333311328030106
-43.834730056682950 -81.631835926805564 -198.601944887160982
100.936174911979606 -76.336189970191242 -205.657586338385670
-19.710923743388129 -80.041184431522282 -202.696697816252083
-149.501314740947691 -79.300981008592089 -203.091593440338642
16.742779922159464 -78.698063167205305 -205.065506453844364
-75.975416184425470 -82.046825330066781 -207.846738332186050
-145.872745416734034 -77.832047481027701 -212.564973125790715
95.659487417207146 -77.333059460592665 -214.231462273767562
-32.141546504510430 -76.714529988173695 -208.398430288317201
-28.227234942671995 -78.023146694291114 -213.790047517066768
9.606182047466570 -78.106520587528308 -212.115786211793250
-70.742864243508890 -81.115076665590664 -210.684270117056712
-27.373163293159585 -82.721620927480700 -208.993615316315982
-6.108561996885665 -78.301267353345793 -217.384740904247224
-71.477833535723491 -79.768784730758483 -215.144589838428999
-13.674822824931917 -77.914636424118186 -218.797519546743388
8.521536661238812 -71.961262186107575 -213.964509347660339
15.099088359696523 -79.352642779164370 -222.080223625578355
-149.341825967870676 -80.380349328863332 -217.406123533211854
-7.691523134526188 -77.405458518524199 -215.926425056908045
-98.239522279932729 -75.306090830930458 -221.033872680368518
-21.220887288464855 -77.147155452849489 -221.095603838766465
90.708415509914332 -80.060281797795199 -214.155162211739679
8.419168098351671 -76.302243586074894 -227.264786168277936
19.796984734519707 -76.588729196277029 -218.196459163288637
81.426176237328548 -77.240738243251968 -219.149571783636048
1.753087194994038 -79.752267396498667 -230.068080063896900
86.374350921484208 -76.755770971818862 -219.271115208489846
-18.712505015977403 -75.186015326627455 -224.784013179868566
16.416715246936675 -75.606052910287161 -220.739924855872232
-146.662755864361117 -80.640080993612969 -221.094997545006066
-22.554062227850075 -79.031981582443848 -226.738142189038911
2.299504223281411 -76.487759322621685 -230.782803209508245
-155.117022411683934 -83.359282152987987 -226.826120493319564
-136.374312010163322 -80.542641453261069 -228.569407438019880
5.673030487123588 -77.231590857380979 -226.083390100234567
-3.389693197067464 -75.511742935456567 -229.536127612401344
-136.129554889123057 -76.702518222113383 -230.559491329791427
-146.028225060746536 -79.911427070618203 -239.637560790555000
-147.442529005296649 -79.496577594293598 -236.331748395393362
-31.767831821093225 -78.688710360820778 -238.777791229472172
-143.456392347088013 -80.993414913098150 -243.142474467196081
18.043735454030372 -77.992632823663286 -243.198222365452352
5.737218646547391 -77.267663155550338 -245.471025610758261
-149.993045383535332 -75.672226142715317 -237.567068310967471
-148.840134746004111 -79.243842670794464 -244.366205288837250
-45.919230844420454 -79.379630926747922 -245.251746336753342
-31.016228215949660 -78.698135925406433 -246.981391404991058
5.098853307229638 -78.257292456832971 -245.668092822896398
-36.895828168335370 -79.239168074076531 -246.572035012253991
22.801285108346452 -77.664114753023114 -248.519430742063378
-5.110293825024315 -79.862504019948403 -252.575031372731701
-146.330131915339678 -79.891484664894364 -253.198981341580520
-8.423488602187089 -81.516938438579388 -253.628038164007762
-147.406031197735558 -77.995476766165780 -249.402489909196277
-65.923886337526284 -79.664596170034002 -250.814663049565922
-147.665941788763092 -86.102831316394457 -259.849352445091995
-126.476616434779785 -78.719928468734111 -259.099186593533091
-151.044385317503753 -77.884826239835576 -259.058565572200450
-11.316555389255116 -75.541298570509070 -267.974463527577427
-145.649590058054372 -83.650059298910463 -269.970033787722400
-149.382123660715592 -79.748783031763907 -268.236488142252824
-10.773081495558928 -78.688280644220015 -271.834906061903155
-145.146077545225609 -79.717780213302859 -270.968594728349558
-5.073978998486328 -77.098224360412047 -279.144692642422172
-45.788837111860154 -77.650063093703807 -286.273380504044326
-134.307702520592102 -77.542961090090103 -288.937271916802501
-134.350542714473448 -78.325860637879885 -286.447761158358219
-124.302880612289485 -76.717028279533366 -284.326844163674934
-52.293074980552852 -77.395646979727076 -287.549416501685187
-113.169777251426652 -77.010546817323927 -286.290545282812843
16.237656006197522 -76.941684868593626 -292.876499845872900
-58.056752033659500 -76.779889171136830 -289.744495195581237
-141.105936582926432 -78.620592922555829 -292.581905213910602
-62.643154117032459 -77.127829574858026 -291.331441687780796
-143.705615037012478 -82.986563804967858 -293.023230424427993
-116.782061000999434 -77.097036855287485 -291.235947451739776
-46.309929337110617 -79.415271585187298 -291.531455229704193
-34.038498226930386 -78.006843238112737 -292.472329741106478
-136.084275148653575 -76.353714538456927 -294.646563449653001
-12.622416507645642 -74.361622797396905 -287.098524110315964
3.424234060553368 -77.218885834406933 -290.320433120289977
6.740718985342755 -76.384900125177381 -292.491668502266577
15.357390003178359 -78.022414648769086 -296.280027681325123
-149.523223517724546 -81.881875208117606 -297.614046476552403
-146.055853499127124 -77.570658139377628 -296.166181104949715
-66.017638438676315 -77.067612059657989 -62.279983781324091
89.908089089928666 -76.583291102000402 -75.470034209381367
80.370430972595855 -76.685927179286523 -78.802754673058899
-25.629384488725673 -79.065337160291676 -77.904369239146632
85.691080362405330 -74.566617103913046 -77.439636142895552
-35.302006270246075 -79.045947387898650 -81.200259150735135
86.343858289615099 -73.857781884797248 -82.632570212516896
96.421084440850294 -73.479962869710960 -82.806108302901762
-63.361119626155265 -71.880659910647836 -95.788346754700584
75.409754040541912 -76.300162571501971 -95.846853724432606
81.767859210642641 -74.602889112640554 -99.308484123896989
96.293835256590199 -77.547372553913618 -96.771231759990471
56.778383190991235 -77.316338191035413 -99.302707455447049
-69.077590498936672 -77.410666767530103 -102.374872722307586
-72.980402001005658 -73.798983069558574 -102.289094607492103
51.414495768127061 -77.838756185995436 -106.084818360164235
-87.596781454413843 -79.439798868531341 -104.351806498506392
47.612111994392379 -74.631808363497100 -119.308581945007688
111.973397745866507 -74.821345307481408 -121.275718982121973
113.928687340355566 -76.900662684706560 -133.143932025974010
24.432533064987243 -75.164384653539486 -139.243750360522171
111.631887389549931 -76.485666037316832 -128.828501079618889
29.167431019787244 -75.120817759502671 -135.483819358286979
114.502040109556617 -71.682485855784989 -133.099318240901113
38.997366973721732 -75.172138136336883 -136.254796379278247
-53.009002881181658 -77.804677824466097 -142.929778115906288
36.890535731317158 -78.150384263308041 -145.499805288620081
110.424926029319863 -73.854890553353101 -138.262534728896242
-46.633750769635839 -76.363722838640342 -145.316364995701520
33.283401455617863 -75.838940975111456 -150.912332319802175
-55.224530115243397 -73.741625544552932 -141.507750889134542
-55.471728890480257 -77.774404124048715 -146.925390645743335
-50.473565198375290 -79.529610382170091 -150.964050728228102
-63.437960425651646 -79.647263451495519 -157.015520303294522
114.403056413538778 -78.061471597106987 -149.960373944442210
-48.905605411651919 -81.535750563894652 -156.437115749615970
23.671903920659158 -79.754117641410005 -157.283295974029102
109.777164686653634 -76.085975592469111 -162.211424637444111
-64.846066035862634 -77.180710733325299 -156.511938331039232
-44.036761858398251 -78.295800659309606 -157.846613771845796
9.810129596191500 -74.588143180354507 -156.168374516389690
-66.700416365784903 -77.497768492727545 -157.932229195859691
-61.719883754124659 -79.147596005314824 -160.797970615877091
0.803880685155489 -76.942691304777355 -163.669128828290155
-41.829528513998277 -75.189180433984916 -168.716461889065386
30.842266231988539 -74.659021241476438 -167.729855520458159
-61.646778942407167 -75.145634542840355 -168.194980971892079
-55.463291720343676 -78.756571666488156 -168.416323080618099
18.002739532985863 -78.585877330135560 -161.964302571237681
-29.610903078779923 -76.647573929555989 -170.105808732920593
-28.253343164063971 -79.200040135938764 -168.123803505623471
16.900461614827435 -77.559547228703508 -176.144314571570362
-41.154136073346159 -79.337903525284162 -174.069721001400836
-10.104727608902062 -77.705987847267295 -173.979485696150135
-62.350271868936865 -75.224825158439359 -173.011218736303448
-5.505552002685013 -74.758860130619780 -174.262181249297754
-21.316284322282151 -77.423306767419916 -181.003188547275414
23.932798624108553 -74.636439481861174 -184.339912609967911
-37.867369905147683 -78.029065714158804 -173.392100899477612
20.844508491180239 -73.840166048175803 -178.332352452674371
-21.932294102162590 -73.899089854277378 -185.856448991836231
-31.198869625016002 -78.934780504911316 -180.731190501870032
-146.863583822199104 -76.937274355475523 -190.243953624201794
-18.585033274195361 -79.927274295667928 -186.126440137743828
-141.249615437588432 -77.442377684537178 -189.437941573007265
-151.200500051415816 -78.342103444690252 -187.678653088753606
-47.773152946687333 -75.953904611360088 -188.938693504853092
99.228302654577504 -75.116176204465262 -196.752313678295707
-143.844911143423161 -79.309275939568522 -192.090366352121350
-148.122455291222423 -77.755663129686923 -196.575813994063708
22.833596757849939 -75.442168104054446 -198.555325334202195
-136.434060066095668 -78.103351447238168 -197.423986758596754
16.607785575877013 -74.024199108224877 -200.244906809929120
-138.328043310691186 -79.604713058938074 -199.370673267953634
13.962311834979648 -74.071180035801007 -198.644717492261606
-133.112084645285279 -75.849350791333393 -198.613665268923285
6.992831662040481 -74.731926454932307 -205.688010582716203
-149.980540802551928 -78.311308077881449 -204.459137820011733
95.301902643498167 -75.510870180980163 -207.372510911254153
-15.153691889713729 -78.841813164680303 -207.138702189815888
-29.585160141398042 -76.232358795119495 -209.177477101614016
-10.354695074161192 -74.063125550017759 -206.842879824571526
-146.204120511085733 -81.164597594954330 -211.647550540755020
-34.604886271952708 -77.119207163189373 -205.589251384402445
-82.137051379368998 -79.503120543106775 -207.242300329241829
-25.978696463901166 -78.180084028552017 -210.266243653670642
17.029871888022623 -76.747531208352967 -213.404505624430612
-146.243688802445945 -77.352062780661100 -214.630208172802128
-89.184888001825712 -78.844740569201662 -217.891144077791495
-28.799526348130023 -75.946094129624271 -217.999754266008807
-25.858628672928216 -76.399474186507604 -220.882359888535206
-10.039187096550222 -77.965117102750213 -212.393429648432971
-26.607360644390511 -76.305925522244451 -211.169683833367202
-82.060181447977953 -77.677465912244628 -220.369875121439435
-87.559598639814894 -81.169967573511826 -219.676928903554057
-22.633451942540511 -76.572238344533901 -221.871384763056824
-1.252528484527748 -81.607308500568479 -224.858409714987317
-152.625637636844544 -79.595398245507056 -217.577817671053424
-1.639189595693983 -78.151164376574201 -221.596524247543982
87.071672337490639 -78.418057583115825 -227.795224344299442
-139.957794930470129 -80.495775231285535 -224.353848016171696
-5.592601814274459 -77.566273563015216 -223.681154620963071
-139.539885465388721 -79.621085501262996 -226.596925047730565
-146.302906332303365 -85.797594476803937 -226.397781295767999
-5.552414747141164 -75.600135309376157 -230.318500179790789
20.042682341867813 -76.916789849809504 -219.013262159064794
-139.148442135314014 -77.108727312534455 -229.872241437260442
-16.145451138050927 -77.809081520094907 -229.720853634753354
75.328614802682566 -76.481622764289256 -228.159755896640917
76.387601876955941 -75.762781035152784 -234.671531274064421
10.231989392630576 -77.850235547801560 -232.005861907442807
-30.348630238270076 -78.384279810105795 -237.910886303594083
-20.874874820440439 -82.194727601234092 -242.702632148673786
4.591234975025166 -75.181030707650336 -244.591190992409366
-46.662875094947580 -74.256879060363303 -243.948474262866995
-21.317983664716344 -75.754948005754471 -244.144428928847560
9.924372564129463 -74.692847602371415 -242.277071460003413
-62.722791798894775 -77.744969174783506 -246.426388616060763
-33.386827343281503 -79.942420870603058 -244.943644355302155
-39.799333588071967 -75.662064285996479 -246.387764900132794
-148.264681559752347 -77.136366411574954 -246.463527187248957
-45.134497820914078 -79.404958637683592 -248.900717719244938
-52.485322904975362 -72.949476695785080 -248.749814689472714
-65.626574313378129 -77.482463110404666 -250.565424756654750
-10.054328390388843 -79.402991320106480 -249.343337687073983
-79.295687392829777 -78.283982504206506 -254.912495844043008
-155.280265807518589 -83.418334911668012 -255.113973326619259
-140.571361198108946 -78.134755141898580 -255.324943459093106
-122.547804257159783 -79.119998518958653 -260.263452516498262
-156.019306285790719 -75.445870662512817 -261.052922393775589
20.473595716883064 -80.814088200864830 -266.654644393477497
-13.221616258825190 -78.600387191792862 -269.823875795687627
-152.642223890225893 -80.846603179155636 -273.401711977524997
-151.403283095847740 -83.418262056556443 -278.492939102953301
-144.730946497559216 -81.439080014167359 -285.621738702201071
-57.886762269821524 -73.986983043396805 -283.228048728685735
-38.237089379221757 -73.947453142706564 -286.989440980397433
-21.010330080896637 -74.788230687694096 -289.483756924712850
-10.235313793723899 -74.428114232967459 -283.361676053055476
-65.405477030858137 -79.425398711638195 -286.915137129515756
-79.785655910551526 -79.837766032920769 -287.311759258993675
-2.347603084136730 -77.528509735314572 -285.946261295408249
5.584051913524998 -77.514274151640080 -291.935576732592267
-137.767144912688877 -77.263395710143385 -288.268926689993918
-79.072214071285202 -75.514676399796855 -288.084304684996368
-146.843224499763693 -77.779521941723800 -288.400776316891950
-93.870194612743745 -82.731641834433731 -287.528370730798088
-78.151446736651849 -77.057237902796345 -288.054061214404896
-84.667755786870799 -75.509082628334909 -294.554974409142062
-61.349591896648988 -76.909340517749143 -292.266181602080849
-28.494508656171039 -72.672141865940375 -295.021505202376659
-6.114969984676377 -76.239524347604515 -292.513698818938906
-151.780155645268536 -73.711796104778671 -297.666363725816723
-149.675567834626349 -76.970338382007014 -300.804131454894105
-144.421267862315432 -77.969707647640973 -303.972384469575900
-156.289687614501503 -78.208659729331316 -306.158986446901054
-55.108428568361056 -74.582143990022985 -56.615984118080391
-45.281437746045718 -75.630832046291147 -54.063596793227859
-37.418462606699414 -77.091887302240195 -55.559318847663533
-74.860265463549382 -78.585010815075350 -61.798141509364726
-27.260927741676340 -75.381641900303947 -64.866425176669239
-31.319927159103102 -76.089119674675999 -80.650406572504252
76.600189230092170 -77.776569085094764 -83.556440813625130
76.955603135827829 -75.983355045416346 -82.218870577346394
75.198086573439085 -74.068897150509883 -85.536780389354263
100.110930634611719 -72.590186679872630 -91.959366266600568
71.999153499974355 -76.989350480566401 -91.089457426342932
51.858984168085016 -77.129798210984632 -92.151633364967424
51.710350889538233 -79.630214471328941 -102.147938029648088
-65.390737349165960 -76.024248152117451 -102.040926780975042
-71.757561802115603 -71.678531833103250 -102.929143875185105
46.482441477114286 -76.604870139386946 -104.810693759107806
-80.711371424866812 -81.399997438470450 -110.249730198483405
-91.775815713901537 -75.527336847675485 -112.042940879433488
52.526455730844916 -75.220512548349745 -108.915744420499308
108.890055756092096 -73.820898777038423 -115.332175730700115
34.184470360826559 -77.448775653797298 -124.717337581116723
45.377226757347970 -76.592955352661164 -120.302790581556096
42.470869962218714 -75.234282241194165 -125.705977217320523
31.268885207666578 -76.968130226518042 -124.984330189591859
110.459341107288395 -74.725491465752924 -122.130625908474727
40.693148785891502 -77.437528203354617 -131.766930219795512
34.045090374280527 -72.746789072298469 -133.154394462382925
-44.238584695382052 -75.956204664829215 -144.091673934192357
-69.809561524101426 -78.708571796067844 -145.240683272147265
-52.508480199736837 -75.443324712901358 -147.905609860662707
-71.769848998823633 -79.510230283175787 -146.895022504095436
-38.626647564495514 -75.613784857376828 -148.518469481942873
108.410982304977779 -74.328892056041980 -155.894599207424534
-70.600721863235776 -78.352254347791046 -156.684747241646164
24.994757808417734 -78.716292249434701 -149.131345888187298
31.693243874119613 -77.665887009348523 -152.574702114760868
113.826517746517894 -76.902537309257156 -163.061824057868904
10.527855981147800 -77.713669999243450 -160.638686973347916
33.582795655363491 -73.983379153892372 -156.904972718185803
-62.732966961347486 -77.978975058691162 -160.096526058342590
-40.674792818401698 -77.965949041778970 -172.557496982654129
21.477292623183217 -75.088252244213663 -164.686754971068780
