# This PCD file was generated using the MATLAB® pcwrite function
# from Computer Vision Toolbox®.
# .PCD v.7 - Point Cloud Data file format
VERSION .7
FIELDS x y z
SIZE 4 4 4
TYPE F F F
COUNT 1 1 1
WIDTH 1470
HEIGHT 1
VIEWPOINT 0 0 0 1 0 0 0
POINTS 1470
DATA ascii
-34.356609 -1.295687 -119.182991
-34.257706 4.106144 -119.541222
-34.480743 -0.906770 -118.107910
-34.269257 106.691795 -121.075386
-33.560524 106.783829 -118.829285
-34.684151 104.971138 -119.988640
-34.011898 6.485299 -120.932915
-33.701340 3.067042 -119.572479
-35.294926 -0.937355 -120.100967
-34.180004 1.944933 -121.356796
-34.425911 0.278787 -120.288010
-33.683079 69.648460 -121.395706
-33.953197 88.228683 -122.001823
-33.471066 74.560501 -122.509300
-34.118477 92.772491 -122.287910
-34.199657 31.097994 -122.915672
-34.182240 87.557266 -122.158630
-34.571606 78.135315 -123.329369
-32.828064 72.345680 -123.806831
-34.553772 10.111217 -121.215912
-33.680233 4.232416 -121.841057
-33.775246 74.746468 -121.950470
-35.239868 83.271118 -122.937035
-34.923042 71.566467 -123.513458
-34.606251 73.930527 -122.689575
-34.692356 8.768199 -123.797203
-33.510284 3.500691 -122.496368
-33.783569 87.105019 -124.647018
-34.900257 3.887438 -123.812584
-34.614635 12.014484 -125.426704
-35.828175 101.791183 -124.227707
-33.679295 8.742496 -123.539963
-33.539944 8.182336 -125.225578
-35.821983 96.083405 -125.918076
-33.177490 94.617950 -126.279892
-32.440811 82.604576 -126.165649
-34.167473 80.394379 -126.428528
-34.390152 92.631897 -126.762375
-33.916470 9.789294 -125.742058
-33.753910 28.986008 -127.130241
-34.195721 92.738739 -127.835213
-33.140850 88.488518 -127.848770
-34.294170 30.470957 -126.613266
-35.045704 12.094274 -129.019745
-34.324322 30.148010 -128.598434
-33.749950 29.616123 -130.414383
-33.702812 100.391182 -126.544388
-33.924702 29.973413 -136.190994
-35.077259 14.490037 -135.674393
-33.535759 100.237869 -136.393600
-34.890678 29.576298 -135.029755
-35.281448 102.121475 -137.226807
-33.984764 93.650497 -137.374161
-34.260860 86.806732 -137.296783
-33.773323 102.520386 -138.568451
-35.484959 81.779358 -138.325912
-33.739304 80.379509 -138.569901
-33.489754 82.024910 -138.489700
-33.739174 27.830391 -137.830719
-33.387440 26.580076 -140.916458
-33.384277 91.769196 -138.864685
-33.400421 81.437950 -139.379425
-36.061031 102.676537 -139.838745
-35.728020 20.389811 -139.668243
-33.979912 96.081665 -139.604248
-33.310223 80.920135 -140.672043
-33.853111 83.314651 -140.578018
-33.708248 92.745827 -138.163940
-34.553387 87.652504 -141.764450
-34.691673 21.700766 -140.584763
-35.226856 102.490768 -141.116119
-33.661873 92.863014 -141.163666
-34.974834 97.585785 -141.089493
-34.135448 99.709427 -143.987885
-34.066986 101.550858 -144.510117
-32.702724 101.984764 -148.127762
-34.410496 102.187004 -149.106400
-34.086323 97.624138 -150.828293
-33.910229 101.555328 -151.748779
-34.832161 6.242772 -0.636197
-35.331100 3.413037 -0.959148
-37.060658 3.606391 -1.770613
-35.589321 9.641362 -4.919465
-33.519398 0.407359 -7.262724
-33.122696 11.892415 -8.150644
-34.877720 -0.286915 -9.153971
-32.072067 4.168635 -11.367657
-34.918278 10.175237 -11.520309
-34.782982 7.768253 -13.277638
-33.997200 56.312263 -18.398642
-33.420746 53.165001 -17.577755
-33.916145 45.812366 -19.360868
-34.010845 62.034233 -19.099617
-33.409115 35.814682 -22.074873
-32.509636 33.459370 -22.334229
-34.782516 -18.605433 -27.156664
-33.881302 -13.899913 -26.508198
-34.756172 -13.604421 -26.897818
-32.828842 70.946838 -25.329046
-34.103367 30.597536 -28.032669
-33.602158 71.836136 -27.882544
-32.671337 -10.364146 -26.457932
-33.318424 31.076950 -29.285597
-34.580925 -23.463701 -30.478064
-33.631779 33.869228 -30.232658
-33.805561 -25.430141 -31.148582
-33.572666 37.895771 -31.031269
-33.977654 72.492180 -30.722059
-34.935631 -8.918097 -32.442272
-34.384892 44.357590 -32.806290
-34.951752 39.952473 -33.755318
-32.704857 -7.583500 -33.709805
-33.460121 -4.293180 -37.647751
-33.838703 -7.737864 -36.108768
-34.462376 74.622643 -35.651737
-34.592010 50.568649 -37.944012
-34.919884 49.761181 -37.594650
-33.094276 -7.497731 -38.710857
-34.040382 -2.453964 -37.261452
-35.551929 -25.449408 -37.360062
-34.039421 -26.520977 -38.237827
-33.373737 0.466851 -41.057758
-34.126015 -1.311646 -39.775032
-35.073112 -6.026595 -40.706314
-33.072655 -6.271692 -40.169819
-34.018684 -26.412508 -41.460011
-34.733646 -5.510107 -40.762459
-34.294949 -25.477779 -42.072617
-33.580429 -26.357183 -43.594303
-34.405209 -5.330897 -42.625099
-33.889149 -26.077574 -44.852566
-33.229393 -28.453735 -44.647560
-34.224880 -3.714095 -45.269501
-33.273434 62.916965 -44.824169
-35.926582 -11.020585 -45.298489
-34.265312 61.046448 -43.308422
-33.698757 -26.904961 -43.922916
-34.339149 -1.759613 -45.817894
-34.043011 -9.567861 -45.133686
-34.646065 2.115317 -45.800934
-32.383663 60.992119 -46.792461
-33.261505 60.138641 -44.804401
-33.834999 -28.405052 -47.437305
-34.044334 66.184128 -46.928116
-34.563953 62.901108 -46.917606
-33.142590 -2.401998 -46.951496
-33.493790 -17.318245 -47.183636
-33.954151 -28.004839 -45.412899
-33.481327 -23.122469 -47.335022
-33.910591 3.244230 -47.878510
-33.027637 -27.599857 -47.767853
-33.301163 0.405898 -47.520321
-33.546471 3.980243 -49.643414
-33.197483 0.642097 -49.883652
-33.681717 -30.629147 -49.739586
-34.262691 -29.310804 -51.238289
-33.816936 62.556801 -51.524319
-32.585476 64.523438 -48.639980
-32.437645 -28.411686 -49.498966
-34.198673 67.837715 -52.856617
-32.668217 70.631020 -53.779812
-32.813702 65.118095 -53.620480
-34.152634 68.624199 -55.527431
-32.614227 65.830917 -57.621311
-34.303093 55.750725 -58.280781
-33.993610 51.988968 -58.043270
-34.610462 68.531067 -59.599960
-34.363464 61.742134 -60.181713
-34.671513 51.803963 -60.939156
-33.936073 63.044933 -60.741287
-33.569077 66.564980 -60.166134
-34.303520 55.364861 -60.006596
-34.585777 64.021149 -61.676746
-34.840065 62.671940 -63.296280
-34.557064 65.094582 -61.972672
-32.206879 55.964256 -61.331066
-33.624058 54.274849 -63.528503
-34.181408 63.825932 -64.248116
-33.224686 60.798916 -62.306602
-33.307446 55.190323 -63.156651
-33.951569 55.781708 -64.403252
-33.359158 49.545048 -64.674667
-34.475998 55.150497 -65.443634
-33.002262 50.409233 -66.712196
-33.577366 73.527512 -65.626678
-34.727219 14.269261 -65.574326
-33.232159 13.976378 -66.486137
-33.567410 69.812172 -67.419250
-32.624500 48.300323 -66.879097
-33.839146 51.191414 -68.400040
-32.798515 14.224993 -68.337051
-32.543175 73.413216 -69.491295
-33.246391 15.864546 -71.315521
-33.450947 75.255112 -69.959503
-34.239662 19.664652 -72.493790
-33.609455 16.953871 -71.553764
-32.860687 17.013020 -73.562607
-34.271919 18.654881 -72.655739
-32.853539 71.767639 -70.252739
-33.578369 73.524117 -74.305794
-34.343899 77.484116 -75.980965
-33.423840 78.309875 -78.647049
-33.404594 75.676773 -79.577934
-33.207397 14.004305 -79.484131
-33.219398 13.051460 -79.953773
-32.586277 76.029900 -80.104248
-34.068428 99.139420 -82.457962
-34.207359 79.430946 -80.844101
-33.819847 101.541473 -83.079514
-32.620655 98.647499 -82.480774
-33.575085 15.321851 -81.954948
-33.409142 99.472565 -83.487999
-32.742348 98.035004 -83.541618
-34.063629 97.303604 -85.623764
-34.649746 14.306575 -84.366501
-33.477383 17.402811 -83.572937
-34.043266 14.739119 -82.736504
-33.694111 13.947114 -89.838135
-33.502472 100.730545 -87.967644
-33.333294 13.934339 -84.624092
-33.492954 14.370234 -85.016487
-34.372616 94.331184 -88.830765
-32.709339 82.031441 -89.295395
-34.215286 100.145668 -89.579315
-33.386818 15.185220 -87.910912
-34.168121 15.545983 -88.604599
-34.186249 16.298330 -93.302628
-34.021576 97.182037 -92.399055
-33.748196 79.014687 -93.382469
-31.996124 17.638182 -91.543602
-33.687511 15.474106 -93.435410
-33.062363 89.850266 -93.327454
-34.476128 87.813690 -91.663986
-33.717590 18.753939 -92.351341
-33.056789 102.407021 -91.527199
-34.427963 95.551987 -93.742577
-35.152237 92.176666 -92.130348
-32.953430 103.633804 -92.040390
-34.459316 105.869209 -94.128563
-33.499180 106.775696 -94.962662
-34.849804 78.395790 -93.300163
-33.992859 35.294918 -94.261734
-33.355457 16.904114 -94.751701
-33.683681 108.170479 -95.548790
-32.866428 37.174038 -92.583992
-34.034557 103.418732 -94.211189
-35.026836 31.949781 -96.057289
-33.271599 17.734251 -93.008255
-32.698032 104.840904 -95.256691
-33.382835 98.240097 -95.670547
-33.693127 79.971046 -95.103333
-32.714073 94.907280 -96.399033
-33.613987 34.897114 -96.620560
-34.877144 103.609039 -96.011658
-32.635487 102.606796 -96.075073
-34.215900 91.068726 -97.228188
-34.078751 17.596107 -95.985413
-33.218277 106.539139 -96.567070
-34.794598 85.894493 -95.582108
-33.805092 82.319527 -96.459900
-32.616783 87.316277 -96.628998
-32.504150 34.334415 -95.658676
-33.598347 33.383205 -99.419525
-32.879211 32.299706 -97.995918
-33.549622 98.506393 -97.915405
-33.404034 106.923698 -98.876984
-32.490097 100.514748 -98.015144
-34.138439 29.461348 -101.455605
-34.304245 105.327492 -100.311157
-33.509235 31.176615 -101.092545
-33.308861 106.862305 -100.137939
-33.415779 106.029678 -102.864029
-33.959698 107.220222 -101.848061
-34.081856 96.708755 -102.828926
-33.463203 31.598619 -102.799026
-32.245846 30.463909 -102.261909
-33.781296 98.468979 -106.271286
-33.527428 76.950104 -106.324875
-33.763779 27.479395 -106.571693
-32.814396 27.858515 -106.095291
-33.976181 74.348061 -105.896225
-33.253952 106.177208 -108.726250
-32.056126 87.657631 -107.306122
-34.403461 77.424187 -108.965218
-33.615299 27.662954 -107.381012
-34.407200 92.995117 -106.858635
-34.135220 106.800018 -108.253227
-32.960751 81.229980 -107.149109
-33.317322 77.782410 -107.251633
-33.740211 105.534599 -108.011818
-32.873165 79.930443 -108.938263
-32.776966 25.932146 -109.157242
-32.219048 24.408619 -108.474876
-33.106663 21.746704 -110.697067
-33.167778 81.277122 -110.634262
-34.182652 22.124454 -111.311920
-33.464794 23.691217 -110.522903
-33.153969 27.230896 -112.684044
-32.016384 26.694736 -110.564056
-33.915150 83.607201 -113.058350
-32.926662 82.906792 -111.877319
-33.835472 27.343971 -111.354630
-36.395187 87.419121 -112.433884
-33.858475 30.221905 -111.750404
-33.497440 26.683136 -113.460724
-33.382896 24.538301 -112.119141
-33.656731 -9.127006 -114.187660
-33.306366 28.304224 -112.424026
-33.968166 -10.644117 -111.112724
-33.787949 24.000708 -112.753464
-35.652546 31.593374 -114.333992
-33.548580 22.985191 -114.460548
-33.816345 19.149647 -113.542191
-32.466305 20.307465 -115.012634
-34.565567 18.966051 -115.407471
-33.324135 25.143328 -114.951004
-32.862595 -6.222968 -113.586533
-34.237568 -7.292080 -116.196419
-34.400303 18.328747 -118.214905
-32.392616 -7.481999 -116.564125
-33.714291 -3.642692 -115.953072
-34.555965 -1.129375 -117.438744
-32.771832 1.918617 -118.398323
-33.283749 5.318063 -120.877739
-33.801842 1.738188 -120.956612
-33.803196 -0.042131 -120.694809
-33.569500 9.106808 -121.454735
-33.896111 31.504612 -120.446999
-33.265217 4.400035 -121.254349
-34.057987 102.025826 -123.862709
-33.872654 90.103889 -122.774605
-33.526634 31.306896 -121.581017
-33.472271 11.375398 -123.190918
-33.884987 3.543629 -122.715538
-33.414989 83.457687 -123.762680
-34.800777 12.666636 -122.614052
-33.622997 82.424950 -124.017120
-32.960236 75.928551 -124.362808
-32.907764 9.100855 -122.810905
-32.277763 5.165838 -123.912056
-33.843143 99.631805 -123.822403
-32.108940 82.456909 -124.107048
-32.727112 77.387161 -123.884056
-33.324219 76.708969 -125.537270
-33.664787 28.742393 -125.045403
-34.035671 98.227898 -125.310249
-34.013157 8.194144 -123.297867
-33.955147 82.233566 -123.612679
-33.071625 77.787628 -125.285759
-33.310295 5.789763 -124.886002
-33.207024 83.955887 -124.929573
-32.823021 78.557510 -125.073914
-33.686775 11.940506 -124.844910
-33.822575 8.761962 -126.106674
-33.443485 99.850540 -124.921791
-32.929977 91.867188 -125.199356
-32.773582 81.526756 -125.014069
-33.377346 81.868004 -124.579659
-33.012486 83.023560 -125.806305
-33.108215 92.997513 -127.135178
-33.070824 11.653665 -125.882599
-34.095501 96.472816 -126.768677
-34.387669 88.411980 -125.972687
-32.492924 92.920288 -128.476181
-32.921360 83.586105 -127.140923
-33.173958 27.705317 -128.218155
-33.510853 97.872833 -128.709274
-33.514664 26.505646 -127.779678
-34.225315 27.138796 -131.155594
-33.126869 26.871119 -130.812119
-32.969646 101.091774 -132.523529
-34.956863 13.390169 -130.843826
-34.339306 100.639374 -135.126083
-34.651035 96.711914 -137.739578
-33.853161 28.723055 -136.442047
-32.509445 28.026056 -138.457565
-34.095818 18.710384 -137.528229
-34.472263 90.798622 -137.983948
-34.130959 88.072845 -137.244400
-33.121338 91.714241 -138.837418
-33.821709 29.309654 -137.770691
-33.756386 92.018936 -138.787674
-32.714218 87.374809 -138.275360
-32.641125 83.120232 -139.512650
-33.383198 82.733559 -141.225296
-31.006330 19.104055 -140.690598
-34.209949 94.412727 -140.668076
-34.372295 24.245914 -142.064529
-32.803120 90.457954 -143.626053
-34.562298 87.617790 -141.572189
-34.167938 102.117302 -142.188110
-32.833282 101.145004 -144.972687
-32.947399 99.104782 -144.672577
-33.813026 101.397568 -145.553116
-33.560860 97.556923 -144.915787
-33.832970 100.820221 -149.896652
-33.295490 98.916824 -146.618240
-33.175598 98.492142 -148.614944
-33.059204 98.729401 -151.047012
-33.503445 100.604599 -150.708710
-32.312645 100.772270 -149.907394
-33.904781 99.564667 -152.149826
-35.199741 1.796238 -3.253374
-34.736362 2.891918 -6.847520
-35.403324 14.755244 -10.201873
-32.895203 2.338491 -10.644450
-33.688469 11.823374 -10.705792
-34.436733 1.220256 -11.584827
-35.790142 6.649871 -13.067101
-34.992962 11.975904 -12.697144
-31.564009 10.216308 -14.172922
-34.529675 7.660333 -16.322016
-32.264977 8.043297 -15.251467
-32.613289 59.350601 -16.712715
-33.605595 46.124767 -18.876013
-33.885609 64.155273 -20.432793
-33.107712 40.976345 -18.961353
-32.467754 37.649555 -20.214523
-34.239784 33.246708 -23.271141
-33.192371 -16.563774 -25.181314
-33.232315 -17.173250 -27.097210
-33.355137 -13.601892 -26.082851
-32.584919 -8.842053 -30.173258
-33.382618 -25.181946 -30.172405
-32.615402 73.654800 -29.787720
-34.583233 -24.954487 -31.699856
-33.785328 -25.977242 -32.807419
-33.770435 45.036736 -34.357368
-33.724884 41.685604 -34.401653
-33.436562 46.929134 -34.687363
-34.875648 -7.748452 -33.503471
-34.498196 47.459587 -35.356308
-32.524921 -6.873479 -36.240952
-32.523285 50.461937 -37.472855
-32.103161 -7.600568 -37.868176
-32.175873 73.754616 -36.147552
-34.133793 0.310283 -39.876190
-31.857862 55.172020 -39.065086
-34.246292 -26.699825 -39.557728
-32.091614 -0.983814 -39.460819
-33.495182 -8.702404 -41.096298
-32.421688 -7.028553 -41.950764
-33.252594 -3.114481 -44.693256
-32.446438 74.625748 -42.749012
-33.478828 -0.108404 -44.661846
-33.890450 1.338301 -44.032135
-32.174347 -2.204251 -43.901070
-32.923805 -0.388042 -44.689095
-33.010929 -4.076597 -43.966370
-33.394855 -27.223980 -43.445908
-33.453960 -25.335491 -46.475025
-33.122116 64.223961 -45.406517
-32.685673 -1.830003 -44.568890
-32.653061 61.028782 -44.743755
-33.241825 -10.670356 -46.740471
-34.334003 -24.501528 -45.887367
-33.270615 63.193016 -47.047306
-32.657009 1.065613 -46.635330
-33.128464 67.600891 -49.745819
-32.943981 59.821724 -46.114002
-34.881409 -13.803085 -47.044975
-34.661072 -20.398302 -48.485733
-33.534103 64.962631 -49.594799
-34.175499 68.946991 -49.060734
-33.967697 62.480835 -52.451244
-35.637516 69.704224 -51.129002
-32.305161 73.891510 -52.851723
-33.196869 66.452477 -53.760708
-33.031601 66.265045 -52.300644
-33.736279 63.812687 -53.362541
-31.984348 54.315800 -55.047741
-32.758648 55.297253 -53.328079
-33.100780 64.546623 -56.502335
-34.910191 54.220619 -56.578259
-32.792839 67.372993 -54.891331
-33.507896 71.293243 -56.747120
-33.860302 63.080173 -57.444351
-33.835335 64.426811 -57.038254
-31.932056 62.091583 -58.655655
-33.113396 56.068817 -59.106083
-33.163033 52.626225 -57.924942
-33.560040 63.311516 -58.406887
-33.472252 54.603062 -58.862991
-33.544830 64.539970 -59.059921
-33.158260 69.359886 -58.014282
-34.110355 52.946270 -59.192585
-32.674629 62.688171 -61.435425
-33.015659 66.760506 -58.867107
-33.362949 51.089355 -60.396217
-34.105171 55.875004 -61.984760
-34.696114 69.814209 -60.497356
-33.563824 66.992607 -62.906105
-33.596256 62.075127 -60.180099
-34.082531 48.755989 -61.577660
-32.852715 49.299820 -62.745594
-32.721390 51.821705 -62.101418
-33.034664 70.553116 -62.742374
-33.461658 70.298325 -64.297966
-33.858505 60.193348 -64.362724
-34.101753 69.190956 -66.171646
-32.901493 62.718895 -65.419441
-32.694233 53.402897 -65.044609
-33.434856 52.183865 -64.752281
-33.209957 63.022137 -65.973312
-32.799107 13.386718 -64.880234
-33.134201 49.063049 -65.030273
-33.772530 53.371002 -67.099243
-33.631535 14.068031 -64.697296
-33.659145 53.332047 -66.276802
-32.897816 49.643684 -67.354485
-31.602970 19.410362 -71.318253
-32.726315 17.136436 -70.767754
-32.509407 72.168808 -71.976418
-33.806011 76.422173 -72.293213
-34.139679 75.674866 -74.043221
-32.424454 97.744629 -82.848724
-33.131142 80.542244 -83.857910
-33.173008 77.419876 -87.370667
-33.544247 81.497253 -86.554977
-33.008057 95.371201 -87.064751
-32.815010 78.814873 -89.858780
-33.720837 100.491241 -91.813690
-33.586231 80.705063 -91.614960
-33.078072 101.810570 -92.452858
-34.035721 95.859451 -94.456291
-33.001217 82.206573 -93.632095
-33.280235 99.593491 -94.638771
-32.647358 98.960770 -95.229736
-34.155998 100.882263 -97.451660
-32.646694 97.946220 -100.458557
-33.179565 100.457748 -102.041237
-32.729580 98.107178 -106.518433
-34.417297 100.192291 -106.572807
-33.425117 77.823181 -106.727646
-33.959515 88.132027 -107.880051
-33.129009 80.886139 -107.154579
-33.629772 76.860359 -108.119743
-34.165314 86.723557 -107.597458
-32.142525 80.154297 -108.429619
-33.474129 95.080360 -109.309425
-34.503559 102.403870 -109.571609
-32.961189 23.905825 -110.600693
-34.037338 95.559944 -111.814079
-32.416321 92.243683 -110.347610
-32.770748 22.438057 -111.284218
-33.709282 101.424286 -111.624741
-33.237640 93.341263 -112.010948
-33.496799 82.838867 -112.036079
-32.680779 91.631294 -111.939072
-32.798859 87.308121 -112.817726
-33.565697 23.429609 -112.762848
-35.522476 31.276581 -114.095886
-32.314415 20.911663 -113.827690
-33.774746 31.298098 -114.813461
-34.408092 30.463013 -115.749069
-33.649910 20.557894 -117.218941
-33.091446 20.114502 -115.815582
-33.327065 18.707529 -116.393852
-33.267841 31.485899 -117.926582
-33.979088 100.707581 -118.389130
-33.209507 -3.404236 -116.989159
-32.858509 -6.142958 -115.105927
-33.456371 15.156268 -118.421265
-32.800190 -0.958972 -117.843369
-32.544720 -3.488281 -117.928802
-33.112057 -3.347591 -117.832397
-34.668892 14.752333 -119.254066
-33.060806 1.125999 -118.242905
-32.628754 -4.039156 -120.048386
-32.739594 101.073845 -120.329788
-33.612003 30.243969 -119.271622
-32.655415 -0.335275 -120.251541
-32.629383 5.557300 -120.930359
-35.042229 101.014709 -121.461670
-34.390995 97.845917 -121.451981
-33.600315 2.631480 -121.708687
-33.587612 88.092766 -122.928284
-34.321301 11.841258 -123.638863
-33.658970 6.302178 -122.586617
-32.872871 4.448537 -122.444717
-34.550171 97.148682 -122.955032
-31.825005 92.549179 -122.526886
-33.457958 89.447586 -123.893700
-32.899769 28.528278 -122.191727
-33.464066 6.826014 -123.405983
-32.852573 8.355056 -124.166916
-33.533276 92.278244 -122.639435
-33.753578 95.979004 -122.413208
-33.134182 95.210068 -124.259834
-32.058285 88.632286 -123.109406
-33.689026 28.431650 -124.572464
-33.228725 87.819321 -124.336784
-32.894527 9.669531 -124.404594
-32.700253 92.661995 -124.118881
-32.905571 26.568512 -124.950157
-33.775547 99.116859 -125.635757
-32.906178 8.259100 -124.664513
-32.649097 96.210793 -125.646507
-32.748398 87.390648 -125.199348
-32.413589 87.532936 -127.574997
-31.715933 84.437141 -127.117477
-32.652287 88.920906 -126.968559
-32.834553 87.489746 -126.373451
-32.962532 84.210449 -127.082191
-33.147430 85.133194 -127.601631
-33.133224 26.601942 -127.589424
-34.513821 11.663414 -126.038963
-33.559071 12.548152 -129.012024
-33.328911 98.788689 -127.577667
-33.282948 13.385246 -127.374451
-33.265980 26.692062 -129.895386
-33.300331 26.749794 -133.038620
-32.117012 26.027208 -128.462326
-32.705036 27.426304 -135.766586
-34.613907 16.019625 -136.983368
-33.112663 91.290253 -139.351791
-33.007603 88.809761 -138.356216
-34.286705 95.966171 -138.716064
-33.832317 87.235733 -139.665543
-31.390535 88.048759 -139.706970
-32.778477 87.478256 -137.914581
-32.673740 93.220009 -138.945770
-31.348253 102.785721 -140.407974
-33.664291 98.065857 -139.033508
-32.878860 83.569679 -139.301620
-32.532997 103.255600 -141.390457
-34.195782 98.621574 -140.799744
-32.268517 87.035179 -139.427475
-32.494717 91.543785 -140.841599
-32.660645 88.301971 -139.817047
-33.937420 86.366028 -139.199936
-32.718529 85.333427 -140.353500
-32.277435 101.123016 -140.164520
-33.178471 88.668098 -141.454269
-33.179508 26.560938 -141.244400
-34.543640 97.789726 -142.081009
-31.532167 6.510478 -1.080501
-35.656860 12.186058 -1.873181
-33.798294 7.749225 -3.507038
-35.957890 6.302974 -3.922283
-35.839844 14.883850 -5.410482
-34.252716 -0.277156 -7.075675
-30.094994 0.672754 -7.761733
-34.527622 11.554192 -10.158886
-35.648899 14.078528 -12.552451
-35.690243 1.852450 -13.796985
-33.250439 4.485125 -15.462687
-34.595573 4.817642 -14.996107
-34.638931 5.605908 -15.051608
-32.420990 50.217640 -18.223423
-32.173206 61.133183 -18.097605
-33.871914 42.621506 -17.618486
-30.983198 66.513527 -19.615728
-31.779541 66.773422 -21.041739
-33.656021 32.980080 -23.165173
-33.664566 69.172096 -24.251385
-32.370853 -13.676805 -26.470829
-33.903561 -18.899153 -25.986124
-33.545776 30.121035 -26.475283
-33.178394 -16.769556 -25.774778
-33.194763 -19.351353 -26.968552
-32.740776 -10.295278 -28.041790
-33.332073 -25.184368 -30.347383
-32.109070 36.338230 -28.647409
-32.106853 32.635654 -30.156094
-32.763931 -7.635825 -32.252544
-33.603001 -7.490737 -36.065536
-31.472404 -6.577629 -35.602177
-32.821110 -5.187744 -35.872986
-33.231541 -4.975687 -36.766983
-34.408974 -26.015438 -37.092049
-32.566170 51.808414 -38.806553
-32.096554 52.869751 -39.321583
-33.526833 -1.858690 -41.214306
-33.004539 -0.685944 -42.010918
-32.142914 -4.142277 -43.486019
-33.452309 56.387707 -41.904778
-33.527897 1.225894 -40.672184
-32.182411 -26.266895 -42.560852
-32.151268 56.981567 -42.779572
-32.029011 73.263077 -42.234688
-32.220345 57.728371 -45.150570
-32.061230 74.048180 -45.386620
-33.583233 61.756275 -45.430458
-33.109642 1.553871 -45.967300
-32.203350 59.712090 -45.958923
-33.427753 0.859553 -46.342270
-32.425003 62.704681 -45.428829
-33.099827 -23.429037 -46.813442
-32.158180 63.901756 -47.539249
-32.882408 -21.596586 -49.065460
-32.599388 61.562607 -50.524170
-32.131729 62.798405 -52.469383
-33.127655 66.876450 -51.883072
-33.970493 55.984367 -54.715267
-32.260586 63.045105 -55.262703
-33.724243 73.725464 -55.581886
-31.863543 63.275726 -57.680988
-33.630253 70.722275 -57.060791
-32.782887 56.240833 -55.004105
-31.921457 56.410500 -56.405621
-32.260254 54.352947 -56.335247
-31.708241 67.377037 -56.530205
-33.777885 56.578640 -58.742039
-31.030382 64.522842 -56.919388
-33.348595 66.942802 -58.261589
-31.036757 67.479652 -57.669441
-33.279816 51.384560 -60.518948
-33.258091 67.617622 -60.277088
-31.050182 54.776630 -60.337997
-33.077839 60.850006 -62.325130
-32.128033 57.676765 -59.638599
-34.055878 65.527550 -62.076656
-32.349403 71.312408 -61.848854
-33.450722 63.009876 -62.844063
-34.395813 56.468868 -62.193283
-30.814537 64.293015 -63.192158
-32.760426 55.782360 -63.743477
-32.749748 63.664501 -64.916466
-31.350075 69.287964 -63.107033
-32.538429 52.870621 -63.958546
-32.892132 12.559636 -63.163445
-31.870428 72.740768 -64.064293
-33.242859 72.421265 -64.933685
-33.547474 68.336075 -64.032280
-32.743996 11.923153 -64.971802
-31.293896 49.326336 -64.408188
-32.003380 17.844282 -66.277802
-33.317081 70.334984 -66.456032
-33.251095 18.773161 -68.385796
-32.793835 14.491677 -68.996277
-32.487968 75.991272 -69.953735
-32.791363 18.604052 -70.209930
-31.622375 16.216757 -70.113495
-32.243603 15.714672 -71.604836
-32.102924 73.741104 -73.366890
-33.168884 77.299118 -73.886139
-32.990128 73.965469 -76.672623
-31.925007 77.061333 -79.937263
-32.277340 76.153320 -79.303802
-33.159546 77.871910 -78.185440
-32.821949 77.213524 -82.633934
-32.649746 96.589058 -83.154060
-32.888718 76.622826 -84.190224
-32.885189 101.465805 -85.314819
-33.001945 81.036964 -82.626648
-32.385078 95.128685 -82.339172
-32.358673 95.656151 -88.941170
-31.067905 99.962700 -89.543884
-32.651196 79.221786 -88.985100
-32.770630 81.597527 -88.061913
-32.140820 79.252449 -92.517990
-32.983856 96.487167 -92.407692
-32.531422 87.124008 -93.220352
-32.016953 81.268059 -91.001915
-32.202831 92.094002 -94.273605
-31.901848 81.367630 -92.735336
-32.356461 81.161591 -93.200607
-32.061043 98.530365 -93.990242
-32.712646 95.238396 -93.442909
-32.702694 86.192062 -93.177147
-33.438026 101.488846 -95.104622
-32.621834 81.334976 -94.237862
-31.973145 98.109985 -95.997307
-31.924372 83.696304 -94.631088
-32.950581 86.133911 -96.094063
-32.549084 93.036156 -97.153046
-32.910336 82.850250 -96.077003
-33.501011 97.408638 -96.956177
-33.498642 89.629997 -96.946640
-32.718937 88.844131 -97.046402
-33.109680 86.480270 -96.991028
-32.453926 83.050621 -97.667160
-33.140793 97.333260 -104.542564
-33.791012 100.645134 -107.121025
-34.620083 96.886749 -106.998993
-32.910236 89.780807 -107.470711
-33.669239 102.589211 -107.283020
-32.608360 91.798500 -108.493469
-33.437443 103.163651 -109.360939
-32.068089 91.967987 -109.183365
-32.803455 81.682983 -108.376091
-32.514473 83.119202 -109.334648
-34.037868 97.245338 -109.062904
-31.954037 81.939743 -110.272690
-33.120445 85.075447 -109.817497
-32.311783 83.050148 -109.854988
-33.070965 83.486549 -111.546577
-32.728271 86.411499 -109.158607
-33.515598 87.762657 -111.080795
-32.198338 91.816460 -111.281502
-33.264175 87.267830 -112.501534
-33.041565 87.926758 -111.584450
-31.729479 83.656891 -112.745193
-33.033978 96.445213 -112.346779
-34.134842 101.544121 -112.202797
-33.822258 23.485931 -111.552254
-32.874756 100.907211 -113.146996
-33.731117 97.881302 -113.264610
-33.229153 20.566544 -113.270905
-33.297199 22.452257 -112.543755
-32.242073 24.274862 -115.287849
-31.724678 24.513535 -113.180092
-32.505806 19.559305 -115.926239
-32.589211 17.222601 -115.539772
-33.169010 96.996796 -114.197281
-32.624458 27.362535 -117.534317
-32.941414 15.817241 -116.252792
-34.075649 97.750031 -118.285172
-32.062218 -1.510178 -117.257072
-32.598743 0.637537 -119.368896
-33.744827 2.142648 -118.994377
-33.890408 98.552643 -120.804581
-32.967178 -0.083828 -121.839027
-32.510559 27.909428 -121.304413
-32.816799 6.453314 -119.800247
-33.029606 3.765051 -122.412331
-33.127800 12.576923 -124.506821
-31.545572 88.365341 -124.211174
-31.617962 25.866249 -122.567375
-32.456329 91.902977 -125.394730
-32.544525 92.142021 -124.001137
-31.762423 87.849678 -125.334518
-33.580162 92.971115 -125.994629
-31.697191 89.824722 -125.284546
-33.211224 11.861929 -125.147705
-33.153721 91.980446 -125.774277
-31.564056 5.680144 -124.527817
-32.943218 11.835112 -126.118462
-32.812702 12.477077 -124.995621
-33.612820 11.345492 -125.647293
-33.468456 10.634151 -125.802025
-33.325455 100.964165 -129.418198
-32.677776 26.012491 -127.250916
-32.064266 99.198891 -131.716171
-32.481304 26.034849 -131.867706
-32.553699 25.425026 -135.732407
-33.492893 102.540459 -138.522308
-33.045235 26.373507 -137.181366
-33.621132 99.193008 -138.401260
-31.715210 100.501389 -138.101685
-33.513947 28.695736 -137.989120
-32.218227 101.003151 -140.049988
-33.349949 96.883430 -140.269669
-34.347271 20.656248 -139.964645
-32.480495 22.955229 -141.335709
-32.606358 101.318375 -142.378418
-32.704697 9.522410 -0.845751
-31.471069 4.147026 -1.404704
-34.303864 9.571143 -4.176204
-33.303497 4.775105 -4.740550
-30.384501 3.930040 -4.030143
-33.960926 11.462829 -5.561301
-31.445623 14.907863 -6.854978
-33.124584 2.451031 -8.240123
-34.013676 3.864527 -11.625525
-35.398960 6.787042 -14.985695
-32.455067 56.936226 -17.320290
-32.372524 59.403622 -17.146008
-32.610058 64.760323 -17.706734
-31.590496 37.829624 -18.604303
-31.923632 34.422081 -21.006563
-32.010632 -21.807215 -26.015244
-33.138256 -21.857481 -26.687126
-32.660412 73.096458 -28.515961
-31.287933 32.252728 -26.759470
-32.706806 37.544315 -30.006802
-32.284622 -7.552115 -30.918165
-32.461056 -25.902092 -30.113737
-34.388752 37.725567 -31.995794
-32.270058 74.339912 -33.823242
-32.589581 -6.633454 -34.800457
-32.868576 48.385925 -36.192184
-32.726345 50.679295 -37.175152
-31.733562 49.571186 -36.815563
-33.299198 -2.612697 -37.776115
-31.869421 52.682194 -38.316395
-32.156616 73.676422 -37.060272
-33.078407 -1.152194 -40.134632
-32.397034 -7.623129 -40.990917
-32.871475 -26.734264 -39.965000
-32.360355 -4.775378 -40.610729
-34.274509 -7.150299 -42.450436
-31.661028 75.103806 -43.431877
-31.902519 -1.083269 -42.050575
-32.363178 -1.104878 -42.531067
-33.088203 1.874653 -44.116165
-32.570179 58.622597 -44.841637
-31.738886 -26.759825 -44.283333
-31.695366 63.693188 -46.448528
-31.960770 -8.923471 -46.343327
-32.994083 65.685623 -46.825222
-32.309811 -11.462944 -47.173450
-33.403610 60.158398 -46.854179
-31.693636 61.456627 -47.787601
-33.902493 74.455986 -45.801723
-33.836254 60.756966 -48.368111
-33.620281 -11.689365 -48.129150
-33.449127 -13.688788 -49.174477
-31.164564 64.785622 -47.982059
-32.708897 64.875252 -51.522755
-32.012760 65.450912 -51.462570
-31.681227 74.522247 -50.900097
-33.025829 68.309975 -50.447937
-31.339865 73.837517 -53.463352
-33.045277 63.191090 -51.846664
-32.767429 62.803612 -53.536011
-31.258667 66.774292 -54.930515
-30.368048 71.180031 -56.838989
-32.294056 54.391510 -55.730289
-32.339775 64.742355 -58.032116
-32.886250 64.113953 -57.549801
-32.697330 51.712589 -58.380821
-31.430742 62.870495 -58.967419
-31.853172 55.813145 -59.600468
-32.444874 69.969009 -60.749847
-32.693153 65.969933 -59.824997
-31.703920 69.509628 -60.010677
-31.397392 62.203564 -60.647629
-30.753107 66.039383 -58.042862
-31.205816 67.634460 -61.176804
-32.043301 69.172646 -62.122955
-31.911304 56.166218 -63.026012
-32.230347 9.961413 -62.393776
-31.637787 69.681122 -63.384747
-33.381100 13.330539 -63.312164
-31.448982 50.806328 -62.520237
-31.585484 9.826696 -62.744255
-32.884548 52.511196 -63.303082
-33.289402 11.402095 -63.446133
-31.048590 14.094844 -63.127407
-31.162846 54.017075 -65.333282
-32.944416 52.316967 -66.059753
-31.319195 70.718643 -64.727516
-31.835047 69.872704 -67.632599
-31.863180 16.485006 -67.282928
-32.251057 74.949226 -68.068657
-33.016594 14.958876 -70.476822
-31.481882 15.698462 -71.256783
-31.949007 16.992279 -71.049431
-31.457975 74.792732 -69.445557
-33.155334 72.887718 -69.652481
-30.741430 72.443901 -70.595406
-31.731251 76.033180 -73.462608
-31.478561 73.889557 -74.849457
-32.887455 77.888176 -78.953255
-31.695986 77.179489 -82.975929
-32.436855 99.657494 -82.187737
-32.057178 77.566086 -83.851089
-31.392475 101.468857 -82.862732
-31.748007 79.783981 -84.262901
-32.881954 78.557526 -85.250877
-30.835003 96.854607 -83.847534
-31.245598 79.584915 -86.705635
-31.073343 78.752945 -87.206337
-33.219299 99.675461 -89.067505
-32.096775 80.744965 -91.048286
-31.878187 98.163208 -89.089088
-31.386181 79.810608 -89.464127
-32.970100 100.033508 -92.073288
-32.714985 96.395348 -93.160851
-32.765011 92.309166 -93.376831
-32.166180 78.956261 -94.766777
-32.089294 80.232147 -94.594208
-32.793354 82.632805 -95.009338
-31.377733 93.305763 -94.526443
-33.933098 78.751038 -93.990326
-31.600037 83.677345 -94.775002
-32.023258 81.235481 -95.051247
-31.754669 86.495079 -95.189316
-31.530220 81.953514 -95.078835
-31.860704 91.850525 -94.699829
-31.908445 80.915382 -95.799141
-32.161549 92.054909 -96.659187
-31.632395 91.566429 -97.722366
-31.490320 87.111885 -96.175224
-33.259491 88.757446 -97.096306
-32.165817 86.001793 -96.457359
-34.100147 81.270767 -96.373573
-30.357986 83.441124 -97.129715
-32.495285 97.425125 -100.465065
-33.224274 100.509506 -106.900902
-32.292778 101.938835 -107.042007
-33.643982 95.908035 -108.200035
-29.761398 102.467720 -108.310127
-31.813957 88.993835 -108.140137
-32.955490 90.614326 -108.135620
-33.226341 86.428452 -107.359253
-32.302345 96.876022 -108.963821
-33.021881 100.122139 -108.537163
-31.711088 87.543739 -108.867104
-30.838047 91.238670 -109.551636
-32.762753 92.536087 -109.721359
-32.220730 91.136650 -109.015762
-33.814083 99.400711 -110.175842
-31.475470 91.413506 -111.360397
-31.975021 87.696541 -109.053345
-33.383820 28.050255 -113.347542
-32.558483 28.848280 -114.058517
-31.625267 23.027849 -114.405533
-32.603664 18.414429 -115.666451
-32.117649 27.362957 -115.742035
-33.090878 19.009598 -116.938858
-30.320362 15.383414 -116.158913
-31.717770 30.912611 -116.777832
-31.362501 30.103470 -118.815605
-32.047184 3.753848 -122.015770
-34.041653 13.674861 -121.207809
-31.655413 3.283355 -121.191330
-32.740162 7.187842 -121.857796
-32.447956 2.706639 -121.743912
-32.355843 99.161827 -121.431541
-31.390337 96.248428 -122.720291
-31.213923 102.973686 -122.768112
-31.782804 5.814967 -123.693581
-31.950291 8.998140 -122.811058
-32.775005 103.064575 -123.452225
-33.298443 100.112526 -124.285774
-34.122787 97.993294 -123.996025
-31.852835 103.717323 -125.247665
-31.483297 100.557549 -125.578262
-31.181974 10.276871 -127.293640
-31.505091 25.138968 -126.784195
-31.922043 102.524536 -125.068001
-32.021870 101.985710 -126.483833
-30.696407 100.458229 -125.473434
-31.956783 97.020500 -127.430252
-30.728333 100.720123 -128.318695
-31.007654 12.315695 -129.352554
-33.310650 99.683670 -126.243019
-32.461029 24.816793 -130.257568
-33.328545 99.451401 -133.943146
-32.944862 98.037590 -136.650665
-31.664906 102.029366 -135.745407
-32.308979 101.349625 -137.072266
-31.435177 97.561333 -137.417801
-32.615631 99.710861 -137.433350
-32.028320 97.198296 -137.794754
-32.067032 102.452003 -138.831772
-32.096828 98.381142 -138.696259
-31.103071 102.222351 -139.044617
-32.012318 100.895035 -138.626404
-32.188221 99.524620 -138.943298
-31.085094 99.960342 -139.249283
-30.633654 26.146336 -140.318405
-30.927282 98.870781 -138.234756
-32.560020 96.389587 -139.465881
-33.546871 19.345665 -140.295258
-32.387196 101.701767 -139.252380
-31.921192 97.254715 -139.023071
-32.002193 101.356499 -140.647629
-32.307495 98.606674 -140.010086
-32.360081 98.122887 -140.366135
-30.171383 97.038170 -141.158493
-32.608585 103.212105 -140.815674
-30.883858 101.972305 -140.964706
-30.636171 101.766571 -142.540268
-31.648325 101.128906 -141.129318
-32.515427 99.781532 -140.257492
-32.238853 99.156860 -141.247269
-31.921305 24.898346 -142.003525
-31.974613 97.828575 -141.074677
-30.885380 98.856514 -141.542038
-33.249256 98.339325 -143.863266
-30.685312 98.550224 -141.688202
-31.644394 99.920494 -143.274857
-32.659805 1.271199 -3.714601
-31.751257 13.328878 -3.273515
-30.795597 10.950141 -4.864473
-32.119976 3.937807 -5.121559
-32.179146 4.321336 -6.463733
-35.814625 12.606261 -7.191954
-33.077778 3.861494 -6.609016
-32.254841 2.537264 -9.154428
-36.366459 16.018297 -10.611947
-31.636913 11.335460 -12.452292
-33.478252 5.431514 -13.545162
-29.212019 6.190616 -13.642793
-36.340664 12.947335 -12.730032
-30.686069 54.086784 -16.293808
-32.128395 52.063446 -17.039024
-31.991526 63.076035 -17.140690
-32.223289 41.068478 -18.185726
-33.008862 30.068413 -24.375111
-32.374466 -18.369123 -25.188213
-31.297728 72.183823 -26.314554
-31.348179 31.057035 -27.044270
-33.503082 -23.193153 -28.176744
-31.270601 -8.418068 -28.395309
-30.810656 41.981659 -33.076572
-31.820923 -26.469450 -33.536930
-31.203691 -6.067463 -33.100727
-34.274490 -7.178278 -32.923695
-33.176334 -26.510948 -34.731953
-32.151363 45.928638 -34.635311
-31.259443 43.582386 -34.522915
-30.770571 75.325417 -34.052147
-30.750883 -6.686516 -35.687710
-31.799210 52.654758 -37.688137
-31.389391 -6.338865 -37.628059
-32.601513 -3.873548 -37.602371
-31.931704 -27.150272 -37.230701
-32.613178 -7.934232 -38.239990
-31.868353 55.466499 -38.496235
-31.277811 73.538979 -37.907990
-32.596680 56.982876 -39.898354
-31.817869 -0.989559 -39.327129
-30.716667 56.765915 -39.168774
-31.479536 -2.058451 -40.648514
-32.492065 -7.697660 -41.183788
-31.158258 57.391949 -41.597012
-32.325741 -3.592409 -42.675465
-31.368656 -1.929366 -42.481400
-32.268433 -0.531538 -44.502144
-33.568539 -8.043429 -44.284435
-31.233210 -25.699242 -46.038895
-31.995424 74.391823 -45.772396
-31.239983 65.790466 -47.417583
-31.465931 -12.093022 -48.548042
-32.113407 -17.821550 -48.493935
-31.847551 -22.556015 -48.092377
-31.681843 65.582672 -48.544949
-32.478794 62.625927 -48.125969
-30.706203 62.093132 -48.621910
-32.101604 -14.734048 -50.612411
-29.493511 -20.175972 -48.892834
-33.445988 -20.054733 -48.343639
-30.852448 61.938793 -50.938351
-31.945669 64.212250 -49.328358
-31.894735 66.141800 -50.675438
-31.569595 67.196831 -53.090076
-32.538059 58.108170 -54.498272
-31.723864 65.226181 -53.068626
-33.184113 68.585617 -51.716164
-32.826469 57.200829 -53.612621
-30.398693 54.996796 -53.399830
-32.177753 65.239296 -54.111015
-31.915268 71.225227 -54.625854
-32.163017 64.593704 -55.869759
-31.997162 52.014648 -56.833229
-31.919460 56.362762 -59.179577
-32.362328 51.975105 -60.152817
-30.856550 65.408066 -59.217789
-31.925138 64.270912 -60.272007
-32.530987 54.317253 -62.669601
-30.039865 53.007839 -61.406414
-30.179037 11.550992 -62.134167
-32.065456 70.126419 -64.412018
-30.767464 51.304829 -63.458927
-31.333992 52.158234 -64.089569
-31.650146 10.026547 -63.890141
-32.085510 14.776778 -65.063866
-31.468393 69.941689 -64.930481
-32.869030 13.342161 -67.217369
-30.976711 72.010979 -64.359818
-30.942657 71.103714 -67.640846
-31.364857 70.583054 -65.344734
-31.360359 14.785258 -68.275032
-32.312397 15.274661 -68.480774
-32.057663 70.846390 -69.571960
-30.373585 71.476036 -70.184082
-30.182035 72.509056 -69.708649
-31.465298 72.178345 -67.697327
-31.640980 15.368911 -69.871872
-31.602140 73.947716 -68.259117
-31.430384 15.398224 -71.329750
-30.696199 73.245682 -71.969460
-31.323935 75.105293 -73.463585
-31.303885 73.866074 -72.141968
-30.268265 75.111076 -73.856041
-32.324894 77.384460 -75.617935
-31.972046 74.173981 -75.747787
-31.007650 75.589134 -76.835579
-30.731325 77.841988 -79.223274
-31.561811 76.578201 -79.647163
-32.101501 78.607002 -81.200592
-31.742310 77.823082 -79.755470
-31.795902 79.432076 -82.945961
-31.099691 78.597359 -81.207748
-31.970093 97.222145 -83.697212
-31.787155 78.182358 -86.614288
-31.622515 100.476768 -83.915337
-31.142015 96.108780 -86.869026
-30.196800 98.671333 -85.742775
-31.202385 98.207291 -87.248764
-31.334124 96.659073 -87.527000
-31.803572 99.855469 -88.524544
-32.454288 98.484184 -88.971527
-30.884857 99.520317 -92.897942
-31.182461 87.833115 -93.477226
-30.224762 91.795708 -94.201996
-31.701689 87.544258 -93.056915
-30.883747 90.924210 -93.534134
-32.066505 87.262459 -94.262146
-31.645247 95.765244 -95.693848
-32.778118 96.208656 -96.479805
-30.612829 86.203354 -97.096596
-31.548025 99.486000 -98.491920
-32.762535 97.663811 -98.593369
-31.278028 101.001785 -100.443619
-32.768692 100.130447 -100.245804
-30.894749 98.880806 -108.098701
-30.628027 102.637955 -109.268616
-33.117496 95.203812 -109.787834
-30.495640 98.544930 -110.436813
-31.227907 88.001503 -111.244385
-32.194180 102.856247 -110.802917
-30.644073 101.570862 -111.513947
-29.970697 26.102942 -113.607269
-31.981260 25.693092 -114.453415
-32.018005 98.066902 -113.376640
-32.969456 97.859818 -115.107704
-33.110771 21.601620 -115.920227
-31.062803 18.136215 -116.014786
-32.229977 28.380642 -116.114899
-31.056765 16.502886 -115.827278
-32.322365 98.296616 -117.032066
-30.882168 100.626381 -116.207039
-30.925632 27.835600 -118.346245
-31.747511 14.471444 -119.693466
-31.622358 98.525208 -122.130417
-29.838400 28.421774 -118.924835
-32.049976 100.352753 -120.341789
-33.223843 12.737335 -121.708366
-32.083591 102.132820 -121.431396
-31.409958 101.300194 -121.309486
-30.429466 98.095802 -122.727844
-31.527117 8.064674 -122.073746
-31.085115 102.308228 -123.554588
-31.477491 99.440353 -123.369667
-30.679510 99.469200 -123.774231
-32.703106 100.249733 -123.970573
-32.629677 4.506182 -122.492447
-31.248671 102.366928 -122.892731
-31.545208 99.337624 -122.750214
-31.335022 24.367254 -124.596298
-31.632845 102.869362 -123.290619
-30.687979 12.633288 -125.279861
-31.457531 10.385992 -125.553261
-31.531496 98.749504 -124.245804
-31.452932 98.306221 -122.573936
-30.079666 96.815804 -125.570724
-30.785030 100.885696 -125.541397
-30.955631 96.605881 -125.586365
-30.616964 101.012695 -124.347359
-30.022047 97.486839 -125.508339
-30.478340 101.453674 -124.961731
-31.052694 102.250999 -125.853271
-31.174028 99.896034 -126.867149
-30.606747 96.799629 -125.351151
-32.354263 12.496602 -126.133286
-31.443403 9.795161 -127.771622
-30.849436 99.144547 -125.867485
-31.519962 97.647461 -126.256149
-31.410158 102.295235 -126.589645
-31.752138 99.868584 -126.951004
-31.339928 98.316307 -125.747475
-32.476837 98.866295 -127.147263
-31.331625 100.167274 -127.881920
-32.410240 23.143213 -127.918457
-30.937456 21.681803 -130.447754
-31.642241 98.489532 -127.172417
-31.422716 100.067131 -136.191437
-30.550339 21.645538 -131.337662
-31.845417 100.092789 -136.583435
-31.789476 99.938179 -136.094803
-31.858427 15.937764 -136.637344
-31.818478 98.343819 -136.342026
-29.686518 101.982994 -136.725647
-31.354704 97.396263 -136.016678
-32.276737 25.473576 -136.713074
-32.324108 18.452681 -140.053680
-31.197632 20.396633 -141.967560
-31.876476 101.786469 -142.498428
-32.372025 10.494061 -1.523288
-30.882393 5.583169 -5.196664
-31.977528 0.561268 -6.213052
-34.955570 11.173085 -7.031248
-30.557705 -0.222319 -9.906981
-29.334852 2.861890 -9.691701
-34.996075 -0.148113 -11.380752
-32.738365 3.399441 -11.678163
-30.988806 13.204803 -13.571412
-32.840088 12.768909 -13.747510
-36.015285 2.280795 -14.309635
-30.261099 8.269108 -15.820465
-31.157541 48.747147 -18.144346
-33.031055 45.845020 -19.315060
-31.638699 69.312767 -21.178648
-30.392139 68.939003 -21.099432
-32.986950 69.609749 -22.562046
-30.614370 28.635086 -24.801975
-32.302277 -14.878349 -25.105984
-31.553749 -13.282388 -25.177788
-32.902584 -20.509632 -25.825329
-30.621786 -12.186984 -25.045485
-32.007034 -11.552172 -26.668636
-32.448662 -10.750722 -27.502436
-32.729450 31.058596 -27.930319
-31.067556 74.072746 -29.116896
-32.378521 -7.645885 -29.243484
-31.968739 -7.696055 -29.723272
-32.994095 39.635708 -32.452976
-31.868568 40.925095 -33.647526
-31.162437 51.283192 -33.533825
-31.812298 52.502213 -34.285255
-31.526434 53.835251 -37.398991
-30.740753 50.686359 -34.899593
-32.374557 -27.749912 -36.241100
-32.321804 -7.185548 -36.868370
-32.075253 -7.516030 -36.632435
-31.492596 -26.483334 -39.212093
-30.735956 55.719276 -38.681938
-31.414736 -26.466076 -39.585979
-32.271564 -6.489905 -41.199886
-30.598774 -7.469545 -40.307152
-32.382053 -3.422177 -42.573612
-30.181866 -5.155171 -41.386227
-32.391724 -5.720331 -40.394550
-33.466412 -26.147505 -42.887650
-32.159821 -0.853398 -41.866467
-30.463121 59.240635 -42.426056
-31.362831 -2.816173 -42.433208
-31.776098 60.035160 -45.502563
-31.409966 60.036453 -46.259579
-32.587860 -8.819055 -44.802826
-31.453791 -10.444927 -46.152737
-32.173946 60.904289 -48.450230
-30.944319 74.085403 -48.088108
-31.404095 -18.662991 -48.761654
-31.718027 57.549919 -50.774410
-31.282675 56.318390 -51.953182
-30.443844 61.166550 -52.088535
-32.316666 66.054214 -50.992054
-32.578770 58.870468 -51.149895
-31.324762 67.161858 -51.444588
-31.121778 65.786537 -51.284576
-30.716333 55.037079 -50.973804
-31.990206 58.766624 -52.029148
-31.135612 65.454048 -54.829025
-32.113991 63.813545 -53.469440
-31.709953 65.959633 -55.003422
-32.311260 59.255150 -56.178631
-31.761089 63.211838 -53.275768
-32.967712 53.673367 -56.075027
-29.502687 70.736359 -55.481091
-30.918381 58.468807 -55.259914
-31.395067 66.606804 -56.789799
-31.437733 63.441128 -56.668125
-31.759544 57.922066 -56.828503
-32.721886 52.715115 -57.631409
-31.378767 8.049142 -58.549698
-33.094143 56.045109 -60.722851
-30.961813 51.386330 -58.920208
-31.354362 9.326041 -60.107105
-32.140060 9.489570 -61.169125
-30.672045 7.830419 -60.236233
-32.103912 9.434727 -61.001217
-31.444407 56.235916 -61.312965
-31.164858 51.889164 -62.179840
-31.328655 54.506573 -62.918335
-30.173515 10.031159 -64.175980
-30.523956 13.549144 -65.232483
-30.788040 14.447003 -64.502365
-32.103611 16.326775 -67.585709
-29.781097 13.296311 -65.857498
-31.537560 12.563071 -67.153206
-30.000452 16.583126 -67.793671
-31.707197 98.200264 -83.274132
-30.954288 97.265762 -83.176544
-30.611650 99.801094 -82.877777
-30.064714 98.276237 -83.567635
-30.819168 99.840363 -83.990311
-32.917675 99.898285 -86.050789
-29.591312 98.702034 -85.842438
-30.436684 98.309669 -87.816429
-32.286106 98.656029 -92.135918
-32.585667 97.780571 -91.515518
-31.654312 98.449776 -94.048218
-30.886526 98.861900 -95.334373
-31.038042 88.435829 -94.889832
-31.029192 89.885902 -93.987129
-31.321472 86.007095 -96.117111
-32.188683 86.309280 -94.704132
-31.571341 95.703049 -95.218422
-31.151943 96.747551 -96.635941
-30.211599 100.656731 -96.305626
-30.537380 100.253914 -97.640968
-31.017193 99.045494 -100.074928
-30.696037 98.060822 -104.235504
-31.807343 102.069984 -105.246300
-30.098043 97.494850 -106.949112
-31.062580 99.618729 -107.328491
-31.702068 100.284981 -108.659981
-30.113016 100.151932 -108.797356
-30.812510 98.770119 -109.962440
-30.460342 101.669662 -107.988808
-30.969000 95.800514 -109.715630
-30.494991 101.449173 -110.088760
-32.383896 100.032959 -109.672348
-31.174816 97.551781 -111.930565
-30.250507 101.641342 -111.261269
-30.344372 98.685211 -110.489105
-31.855570 102.835022 -110.802299
-31.073822 95.620682 -110.263176
-30.856653 101.242691 -111.295624
-30.395468 98.211380 -111.225037
-31.015329 99.744904 -111.617798
-30.939501 98.549156 -111.742104
-29.937788 96.506882 -111.094894
-31.967537 101.069206 -112.315193
-31.100748 22.091276 -115.711372
-31.535036 28.666256 -115.944206
-31.076328 98.019814 -113.148445
-32.194424 99.821968 -112.660492
-31.292471 21.191349 -116.428192
-30.233566 100.216019 -113.109329
-32.577892 18.894218 -117.671364
-30.836906 100.196007 -118.746849
-30.634218 99.937424 -118.825867
-30.606823 99.382568 -117.344315
-29.959213 99.197746 -122.307755
-31.099749 26.103916 -120.538742
-30.495481 101.010719 -120.891556
-30.661074 98.489037 -122.141899
-29.514997 100.238815 -121.810852
-30.163168 98.518188 -121.944092
-31.295795 97.597595 -122.698769
-33.040306 11.995729 -124.280098
-30.680487 96.914101 -123.818649
-30.264315 98.769691 -126.141815
-30.649672 97.006927 -123.934402
-31.843090 12.480557 -125.035072
-31.876236 99.466141 -127.132156
-33.489929 11.744781 -129.401550
-31.091640 12.823050 -132.330215
-30.415512 22.207901 -134.907867
-32.185127 13.820511 -134.861786
-33.782352 16.308332 -134.537384
-32.383602 16.678377 -138.443588
-34.264973 17.161268 -139.590897
-30.813488 25.764027 -139.554657
-30.767818 21.379223 -141.432098
-32.341171 6.076699 -1.812994
-31.180084 9.345212 -3.966462
-31.709465 3.447488 -4.785594
-34.364594 12.185711 -5.458354
-31.653622 11.832255 -7.425782
-31.415962 12.469487 -7.737349
-35.545158 -0.708297 -11.391977
-29.426409 1.815697 -10.694843
-30.835777 1.744345 -13.398829
-35.272022 14.555116 -12.822254
-33.558086 1.784694 -13.883992
-31.264656 2.489262 -12.925403
-34.876549 7.316700 -13.642848
-30.263618 8.206069 -14.834335
-35.097427 7.658325 -14.782046
-31.411690 61.620461 -18.353497
-30.723522 45.999153 -17.946894
-31.114529 43.576859 -18.419212
-30.176006 70.077499 -21.855562
-29.711382 71.828476 -22.876297
-30.731018 -16.696173 -24.868040
-31.355345 30.234537 -27.127243
-31.988623 33.216862 -28.899916
-30.465559 -8.595504 -27.718426
-31.146568 -24.506626 -27.262405
-31.830719 -25.652403 -29.814407
-30.777498 -25.657948 -32.819485
