# This PCD file was generated using the MATLAB® pcwrite function
# from Computer Vision Toolbox®.
# .PCD v.7 - Point Cloud Data file format
VERSION .7
FIELDS x y z
SIZE 4 4 4
TYPE F F F
COUNT 1 1 1
WIDTH 1460
HEIGHT 1
VIEWPOINT 0 0 0 1 0 0 0
POINTS 1460
DATA ascii
-38.869717 99.439621 -142.684372
-37.889351 100.226021 -144.383682
-37.797131 95.844894 -143.986526
-38.055359 100.783943 -145.993423
-39.158657 100.426506 -147.663712
-41.028744 97.746132 -148.646194
-37.675762 46.081230 -21.280804
-39.478355 57.722134 -24.105734
-37.875713 59.229965 -24.587505
-39.202713 58.625080 -24.344748
-36.961998 44.312275 -23.613016
-37.441856 62.481998 -25.455942
-38.831966 38.793892 -26.426147
-38.691261 36.659191 -29.265900
-34.734680 68.556015 -30.146563
-36.988071 69.762039 -31.824654
-37.443359 -18.001198 -29.893064
-38.780548 -20.189112 -33.597580
-36.084732 -15.377273 -31.571669
-37.530605 -15.605797 -32.445061
-37.492538 -18.593679 -33.669975
-39.480793 36.843212 -36.324234
-39.138897 -17.411440 -33.772629
-38.112347 42.048878 -35.018562
-36.447704 -20.846525 -35.870152
-38.527756 -12.618070 -35.327198
-37.433971 -22.414968 -38.760624
-39.539455 69.056732 -35.952679
-39.133884 48.944714 -39.617092
-36.038979 -21.527302 -40.333115
-35.711433 55.966213 -41.243614
-37.747997 -22.070509 -43.103191
-37.594692 -12.824853 -41.528206
-37.530682 57.014660 -42.365364
-36.193130 -21.693756 -43.210659
-38.496525 -15.268849 -42.182728
-40.046844 -17.538868 -43.824432
-37.655056 -15.726534 -43.112644
-37.237652 -21.675837 -43.746853
-39.272156 -3.390887 -43.847233
-37.298702 61.519264 -45.902493
-38.708992 65.357819 -44.873165
-37.905136 1.372653 -44.351460
-39.621368 62.327469 -45.363728
-36.612949 -2.906168 -45.532806
-38.638817 70.147278 -44.336975
-38.169094 -0.936025 -44.907658
-38.905136 5.660079 -48.861115
-38.803356 67.435959 -52.509087
-38.911480 69.128075 -46.062042
-38.124508 5.377120 -52.424999
-38.944382 69.353241 -53.404060
-36.754799 3.352989 -54.789352
-37.843170 -30.317209 -60.066608
-37.751415 9.050431 -55.277470
-36.580376 7.579239 -58.292862
-38.704929 -31.865410 -54.384243
-36.640415 -31.446615 -59.463123
-37.912907 -31.357544 -62.571785
-39.107937 5.806324 -60.127991
-37.723518 10.590055 -61.794849
-35.582497 -29.931866 -59.500622
-38.164585 8.212735 -59.143742
-38.063530 -31.234655 -62.305813
-39.028774 54.770802 -63.221371
-36.458488 7.232869 -62.596672
-37.968594 52.599495 -67.389732
-38.184143 5.883512 -65.372803
-39.513622 49.156013 -63.605431
-37.692760 -29.924551 -64.611404
-37.059742 50.354179 -69.327309
-38.974689 6.110065 -67.309898
-39.248833 54.689701 -64.150543
-38.851692 50.930145 -68.418930
-36.192558 -32.997478 -67.871941
-40.204926 52.839684 -68.514893
-37.071392 6.910517 -68.947502
-38.362385 61.250175 -69.356735
-38.202168 51.416851 -67.741135
-37.464626 7.691370 -70.485237
-38.129078 47.047649 -70.601746
-38.286976 58.308525 -70.459785
-38.007118 -31.823933 -71.560150
-37.206028 43.860512 -73.147324
-39.191776 51.382187 -72.515259
-39.095470 48.066471 -71.987083
-37.861965 -29.756186 -70.919113
-39.768158 49.667999 -73.245781
-36.943428 15.731945 -72.397636
-39.039948 -28.147131 -75.929695
-35.790268 57.573803 -74.969505
-37.863670 58.065121 -75.713127
-38.277042 48.079590 -73.815460
-37.429146 22.605974 -73.945206
-38.847824 56.147034 -76.376282
-39.608166 9.081723 -77.894890
-38.834297 -30.233509 -73.387238
-38.094044 54.633980 -75.766052
-37.534821 47.519855 -75.757828
-38.851383 28.945784 -79.334198
-38.548649 47.885914 -77.740913
-40.403160 45.732269 -77.230118
-38.794628 15.161422 -76.196434
-38.409573 40.648155 -75.100853
-38.258640 7.925324 -76.339111
-36.447227 56.281624 -76.838730
-38.541275 54.387108 -80.026093
-39.335373 16.006016 -79.444977
-37.216892 55.586853 -77.992805
-37.277279 41.031364 -80.423073
-37.638248 29.684841 -80.304703
-40.113739 36.932629 -80.068756
-36.446518 44.487579 -80.212639
-37.983616 55.263420 -82.492081
-38.932964 14.548471 -80.429924
-39.422001 45.321495 -82.366280
-39.706150 33.601845 -82.277222
-38.119602 52.114990 -80.238571
-36.369003 26.855892 -82.970932
-38.553806 -31.742476 -82.088402
-34.236710 15.774400 -85.242180
-35.481056 15.851230 -80.537598
-35.839745 -30.020493 -83.143456
-38.047722 55.524063 -84.794601
-38.958076 36.033535 -84.858803
-39.862610 13.529623 -83.884087
-35.948200 40.708458 -84.746597
-38.458950 -29.866825 -84.843933
-35.260433 13.567962 -89.430962
-37.287846 37.765926 -86.407143
-38.571159 49.403622 -86.862640
-36.758854 38.574856 -86.070938
-36.508518 54.654068 -85.723167
-37.074284 94.875031 -87.356247
-37.969009 37.676418 -87.321167
-37.554447 98.983994 -88.709755
-40.373554 34.038826 -88.386909
-36.935452 97.620895 -87.180077
-38.730042 102.396362 -88.620697
-36.366371 46.115776 -90.023544
-37.898102 -27.956081 -89.485924
-36.970589 -25.450636 -91.665100
-37.469402 16.804585 -92.338081
-37.778931 93.296738 -91.554596
-38.514969 95.366882 -92.519958
-36.931084 95.169342 -93.055382
-38.796974 101.357231 -93.297218
-40.285069 17.487059 -92.990288
-37.345848 13.545459 -90.366638
-36.555237 93.788826 -92.794464
-38.576393 93.523567 -92.218468
-38.344841 37.317974 -93.213699
-37.919872 -24.596846 -93.914520
-37.282890 14.907528 -91.187500
-34.416489 95.984306 -93.336693
-37.694878 -22.603420 -92.490494
-37.237938 44.828636 -96.666885
-37.761139 17.333109 -95.548958
-34.875675 94.224052 -94.975616
-37.186047 91.941170 -94.456215
-37.476803 30.629642 -97.380066
-39.686764 47.293900 -98.124008
-38.121616 34.024971 -95.422386
-35.695587 20.727728 -97.990524
-38.344749 99.172302 -98.215912
-38.845192 -20.977135 -97.173882
-37.688206 29.187241 -96.772873
-36.842419 -24.708364 -97.182365
-37.531815 40.935913 -97.227913
-37.974487 32.406422 -99.718605
-38.845051 28.314348 -98.776772
-36.056709 66.163971 -99.833801
-40.433720 100.223694 -101.701973
-39.292381 65.172783 -99.022697
-35.562496 41.094379 -97.473160
-37.482330 33.962753 -99.397598
-38.264233 20.752537 -97.584343
-37.412735 64.659981 -100.865440
-35.196056 65.928497 -100.709290
-38.543495 21.085752 -100.694038
-39.301346 100.586624 -99.851120
-37.569241 40.715466 -101.298767
-36.753265 70.069473 -102.022141
-37.868217 40.677090 -101.317436
-38.115974 37.053406 -101.389595
-36.950890 62.221325 -101.667007
-38.660072 15.912958 -99.413734
-38.829067 14.410053 -101.471016
-39.823574 98.934692 -101.570747
-39.877846 67.951614 -102.196289
-37.419147 39.106422 -103.353683
-38.819721 36.861355 -103.753487
-39.274708 31.896809 -104.652611
-40.107140 64.685616 -101.794540
-39.151588 38.098827 -103.298561
-39.232761 66.283516 -102.894920
-37.606518 20.271082 -101.759193
-37.133820 70.471489 -101.491310
-37.939785 73.102097 -104.938965
-36.968624 39.484562 -104.866074
-37.194115 35.754620 -105.952805
-38.557812 26.000677 -106.345894
-36.977131 100.656044 -103.097343
-36.728703 24.232937 -105.163712
-36.444485 18.111303 -105.785988
-37.321339 35.269409 -104.555824
-40.641060 24.334076 -104.370071
-39.426212 -17.700649 -108.487968
-38.042103 33.865143 -105.112831
-39.580624 97.392273 -107.044739
-38.600853 28.473295 -107.201714
-39.388363 -14.820714 -108.691704
-38.086288 96.298927 -106.932838
-37.641384 30.725765 -108.467422
-38.443195 14.700392 -108.654205
-39.117687 97.672813 -108.918228
-37.537521 24.510288 -109.254967
-38.152958 28.313351 -106.958771
-37.150845 -16.694750 -108.910004
-39.225819 96.244873 -111.539055
-38.537693 21.757942 -109.158730
-38.141609 16.617411 -108.669891
-38.013515 94.681099 -109.329300
-39.575699 33.944546 -109.577026
-40.477539 -11.485018 -111.432610
-39.239624 28.391113 -112.754631
-35.739258 -11.298018 -110.203140
-38.051102 101.109520 -112.132011
-38.116600 22.407242 -113.733719
-37.746426 20.617659 -112.818092
-38.979393 -10.249983 -114.130379
-39.441563 16.813787 -111.183372
-38.653683 36.786964 -113.398163
-36.915478 98.260811 -116.526489
-38.257404 35.432861 -116.437508
-34.387280 46.892097 -115.076607
-36.400295 32.356136 -115.830704
-37.538673 22.717218 -116.164627
-37.939362 19.146183 -114.160362
-39.377426 49.382931 -116.787132
-41.098755 37.028809 -117.045746
-40.864307 22.371670 -116.850357
-36.836868 52.115673 -117.606171
-38.630924 36.613773 -116.036911
-40.440208 54.339390 -116.016884
-39.067833 42.334293 -118.246895
-38.431812 23.698051 -116.071907
-36.849419 19.656509 -117.673073
-36.143265 57.674061 -118.756302
-36.705753 44.505154 -116.920692
-36.760227 47.269287 -118.706558
-38.498627 100.463768 -118.845634
-37.646893 48.410213 -117.422279
-36.989159 61.068348 -117.945206
-36.778038 51.533436 -120.952515
-37.757935 59.051109 -122.146362
-38.199390 30.881136 -118.325409
-39.495003 62.681503 -118.618919
-36.150799 63.193432 -121.311775
-38.284794 65.892303 -119.012520
-38.592175 64.446098 -122.681412
-37.028557 63.801514 -121.688911
-40.328995 102.703560 -121.500031
-39.043839 95.430153 -123.353363
-37.559917 101.208885 -123.049377
-38.889763 31.874311 -125.777222
-37.983185 96.294060 -122.910721
-36.354721 93.156616 -125.822258
-36.946075 88.784882 -124.069160
-36.699760 102.871353 -127.556038
-36.605339 13.229414 -130.206635
-37.696938 30.203201 -127.946625
-38.509029 98.797577 -129.345169
-39.131374 100.588959 -133.990784
-38.042561 97.622803 -135.559586
-36.400261 18.186062 -138.153824
-36.726551 42.311939 -137.381485
-36.810177 103.479919 -139.453232
-38.157486 50.113449 -138.534225
-37.538776 44.147583 -140.096695
-37.908382 40.786198 -137.358627
-36.568920 30.570932 -140.004440
-38.143562 60.473583 -138.186600
-35.330875 25.477280 -139.310272
-37.270470 62.461552 -138.825226
-38.054913 26.980154 -137.842163
-36.416622 66.686226 -136.320663
-39.130291 25.664553 -137.062759
-39.985207 21.989582 -138.964661
-37.348106 98.687675 -137.225266
-36.804062 92.746513 -139.965988
-36.928730 86.921944 -140.277618
-38.065624 67.796028 -140.898117
-37.759533 63.393341 -140.251755
-39.022129 99.494438 -139.731430
-36.385731 103.473335 -140.170105
-35.719578 63.805359 -139.512604
-37.468918 18.493202 -140.199677
-38.380562 73.084564 -138.365677
-36.377953 61.774475 -139.503403
-38.655918 71.543602 -141.344711
-38.006454 92.996628 -139.344833
-37.345806 65.599167 -142.328003
-39.126331 57.459480 -140.486420
-36.506004 47.104572 -140.530136
-37.289387 96.071220 -140.760452
-39.415714 38.783455 -141.595642
-38.333538 34.864399 -140.188690
-38.907925 31.539001 -140.955292
-37.767887 27.665045 -141.290222
-38.016571 102.965950 -143.141281
-38.306965 102.479973 -142.898026
-39.047676 103.425117 -146.832031
-38.359184 99.773766 -143.794327
-38.275925 97.946625 -145.148315
-39.318020 103.063263 -148.846649
-37.878857 53.460407 -23.704956
-38.104008 50.738537 -22.564278
-35.507057 58.400646 -23.614183
-36.843262 59.559071 -22.333763
-35.282711 48.072838 -22.796215
-37.628841 47.810318 -23.433451
-35.583820 42.883228 -21.455158
-36.527485 61.227386 -23.302809
-37.198261 41.533245 -25.300768
-39.210571 41.702705 -24.698807
-38.668392 36.945480 -27.881550
-37.399925 33.097755 -30.379131
-35.831032 34.201736 -33.055988
-35.926918 -10.953601 -30.776525
-36.518848 -17.936277 -33.772377
-36.658405 -18.031792 -32.645302
-37.322933 42.245586 -35.729141
-39.424099 -11.158020 -32.933079
-36.361366 -24.398254 -35.511002
-39.516968 -11.704936 -36.326885
-39.242519 -15.315839 -35.879883
-37.581692 -22.722382 -38.140633
-40.420437 -12.612328 -39.914486
-38.426941 0.213990 -40.383385
-37.288368 -2.082858 -41.826603
-39.162575 -0.462645 -42.668839
-38.799587 -1.157180 -42.231930
-37.083515 58.198139 -43.274311
-36.894321 58.288612 -46.328808
-34.242340 62.067204 -46.581661
-37.327019 0.392720 -44.531773
-38.354031 -1.513636 -47.526730
-39.746002 67.872742 -49.301159
-37.631016 -0.142213 -48.666176
-38.257233 70.262970 -50.402130
-36.392700 -28.721210 -49.590351
-38.429756 65.046890 -51.105743
-38.503025 -0.589290 -50.493927
-37.038570 -0.261855 -50.382877
-37.876102 -27.663897 -54.097759
-38.419296 -28.887823 -49.016624
-38.682026 0.489634 -53.587864
-38.488983 9.513267 -52.635994
-36.594604 -28.959097 -52.981236
-37.689739 0.570154 -53.141365
-39.540363 2.425877 -57.023350
-39.042557 9.596848 -58.179390
-38.011497 -31.821486 -55.174084
-38.501034 -28.430540 -57.555481
-37.723907 4.570271 -55.804508
-37.771126 4.670578 -61.434383
-35.195683 52.943352 -60.346531
-37.980251 7.724700 -60.029713
-37.367714 -30.736961 -63.112144
-37.538483 -33.100319 -62.563690
-39.973392 47.487560 -63.044144
-39.436726 11.475546 -66.629044
-34.574619 62.137020 -64.403732
-36.577831 62.939930 -65.856689
-36.112904 -33.807304 -66.831589
-37.404655 59.702873 -67.014275
-39.422401 53.169224 -65.404892
-37.566380 12.014465 -66.966118
-37.608295 48.709908 -67.112328
-36.883472 44.863857 -71.245293
-36.636143 59.175327 -69.591469
-36.337921 60.829395 -69.543655
-37.793541 42.880245 -69.494202
-37.635128 59.474846 -70.753860
-37.591442 4.792890 -71.540771
-36.890629 -29.837685 -70.361633
-37.381973 13.832294 -71.924522
-39.107910 12.628385 -70.707001
-38.204430 60.140034 -73.349854
-38.775364 -31.671144 -75.621628
-36.735458 10.955770 -71.463577
-38.338444 44.201984 -73.220230
-36.662624 -32.100861 -71.796715
-38.757652 20.074036 -72.108902
-37.256561 7.449838 -72.642471
-37.580070 56.278996 -75.989929
-36.127590 55.666042 -74.089256
-37.681950 -35.199749 -73.414658
-37.088051 58.868813 -73.373222
-37.580547 20.719778 -75.725731
-37.820927 9.369373 -73.090897
-37.029762 57.667160 -76.139740
-37.773594 57.525002 -75.633850
-38.712734 48.749870 -76.505585
-37.340279 55.601681 -78.066338
-36.988956 11.233836 -75.618988
-39.258858 60.250988 -76.222427
-37.963070 26.171286 -77.143463
-35.266472 14.318453 -76.704674
-37.293278 17.243259 -78.841141
-35.936218 -27.939009 -75.343369
-37.451782 54.579655 -76.745628
-39.661751 57.254837 -81.129074
-37.537807 39.904179 -78.139763
-36.878525 -32.497494 -78.068840
-37.035252 -26.529629 -80.055290
-38.530106 30.017275 -79.444221
-37.947842 27.418083 -78.637520
-37.720345 -30.802221 -81.062492
-37.675533 27.851366 -80.553795
-35.183708 38.824245 -81.807556
-40.438854 57.211063 -81.508148
-37.363483 37.896271 -81.192513
-36.588188 51.900074 -83.402748
-37.247227 51.027267 -83.215759
-38.829338 12.066486 -81.474220
-38.965656 -28.224766 -79.637825
-36.172340 -29.299704 -82.488815
-38.578804 -29.618505 -85.284683
-36.766815 16.647797 -83.592491
-38.098797 15.837850 -83.545532
-37.869404 44.706203 -87.000824
-38.221329 52.274628 -83.556862
-37.980698 -26.344151 -84.850739
-39.218563 32.531860 -85.724609
-38.291496 11.939317 -88.122765
-39.728207 -28.633125 -86.352165
-38.828167 -31.568197 -85.110313
-37.231186 99.789848 -88.881111
-37.131630 -26.300642 -87.627823
-37.751732 49.835747 -89.577240
-36.422321 49.583988 -89.684265
-36.820213 11.599996 -86.783554
-34.829872 52.200729 -87.946770
-36.214138 40.634682 -88.478745
-38.738403 51.459190 -88.659325
-37.110054 33.725903 -87.580772
-38.607021 49.756283 -91.552643
-37.863289 -25.814823 -90.412186
-36.357841 99.185295 -90.326599
-36.456387 45.011532 -90.538383
-37.135380 94.444794 -91.628250
-36.575481 49.692703 -93.352921
-37.569809 33.286049 -90.540863
-38.331409 -25.944706 -89.700851
-39.473129 45.981632 -90.040642
-37.416405 35.700932 -92.844048
-37.218365 12.460026 -89.779434
-36.821270 94.242233 -96.937569
-36.818142 48.021404 -93.932899
-38.860447 32.835392 -92.518990
-40.388447 -28.767334 -92.289871
-38.780224 -25.132179 -88.773201
-36.292583 46.758846 -92.415009
-37.731197 38.463234 -92.875580
-38.775238 -22.786383 -95.503067
-38.688206 99.192177 -94.972145
-36.979774 36.965405 -96.275345
-36.447716 -24.926693 -93.720451
-37.923702 103.713951 -96.414268
-38.426655 16.241022 -96.441811
-38.339314 30.631418 -95.858276
-40.359890 21.521978 -93.859543
-38.836369 101.092323 -95.328949
-38.438366 44.624474 -95.421089
-39.076397 95.164024 -96.517578
-38.142120 42.572239 -95.340111
-36.612408 -23.279888 -95.762657
-38.105442 44.899143 -96.717850
-37.512939 -21.681128 -96.425972
-37.521896 43.346779 -96.560966
-38.370567 96.926460 -96.718475
-37.116890 14.937850 -96.338058
-38.306969 43.383610 -98.592316
-38.836716 33.378017 -102.359741
-38.870148 -23.321709 -100.244034
-38.079945 -17.603876 -100.051506
-35.845119 -20.863838 -97.187119
-37.766975 28.104921 -101.497055
-38.116413 -25.377508 -103.351936
-37.942268 43.076504 -101.291451
-37.798122 65.955742 -101.324463
-38.743523 14.468921 -97.863426
-38.104813 62.241539 -102.465240
-38.719627 23.818287 -102.965271
-39.283985 26.204086 -102.191338
-37.547813 71.251381 -104.299896
-35.790878 36.668915 -102.471840
-36.729477 99.618179 -101.593826
-36.510925 38.054146 -106.328239
-39.262383 -18.029875 -102.872383
-38.757282 -19.063000 -106.231026
-38.062054 39.208702 -103.165337
-35.959892 -21.713820 -105.347221
-38.296352 27.241760 -107.922562
-38.177170 -15.848971 -106.554970
-37.232887 -18.272165 -103.089783
-36.071747 74.786339 -105.606529
-36.213345 34.158966 -104.457787
-36.470493 34.109425 -106.238487
-36.125519 31.572844 -106.021774
-38.942097 102.034042 -105.777283
-38.894527 98.854401 -107.231544
-34.966942 31.815174 -106.810310
-37.422058 -11.127731 -105.589035
-37.183781 38.380608 -104.645935
-37.118156 31.408890 -111.130638
-37.658047 28.293659 -112.004326
-40.075428 100.371460 -108.321243
-36.564148 88.547783 -107.710487
-37.362377 36.557865 -107.415550
-36.851238 88.398949 -109.149940
-39.136147 91.649094 -108.839828
-38.534740 29.165146 -107.275574
-37.180016 24.357664 -110.261467
-38.800098 17.281477 -106.594559
-36.746418 90.062157 -109.632805
-36.056816 28.843735 -110.435661
-36.945011 14.663156 -111.584633
-35.945179 90.492989 -107.486725
-36.920494 16.933153 -109.802963
-38.162823 101.581291 -109.888748
-36.630917 89.401550 -111.524139
-37.761368 -12.178414 -110.865837
-37.510044 27.449640 -111.662567
-36.973995 25.964497 -110.552650
-37.914482 29.837711 -111.989540
-38.365509 25.817085 -111.435410
-37.566605 27.009047 -115.027367
-38.929546 -5.970756 -114.663940
-35.140873 -12.773603 -112.850929
-38.105522 26.054388 -114.515999
-37.317631 15.882676 -115.194618
-39.448826 39.923782 -112.415154
-38.096535 38.990086 -112.317780
-37.734627 41.928616 -114.758972
-38.640858 22.727194 -116.165092
-37.414314 46.021187 -115.213928
-38.623501 41.839939 -118.227310
-37.998283 42.042732 -115.415222
-37.953300 35.942200 -117.731522
-36.704792 49.928741 -114.640518
-36.383160 24.011131 -117.000206
-40.114922 20.198589 -116.589180
-36.958939 54.348881 -115.917191
-37.029194 44.181679 -116.483879
-36.352592 24.586267 -115.494644
-36.844669 53.573387 -116.272003
-35.688225 46.839760 -117.702667
-38.497631 58.323433 -117.781937
-36.032890 16.452681 -119.060608
-39.998550 60.215229 -118.585114
-38.122349 14.801955 -115.747246
-40.139599 97.786880 -115.258484
-37.666565 104.097855 -122.361176
-39.419041 61.760273 -119.380745
-39.098099 16.566854 -116.644478
-37.025013 105.646553 -118.884659
-37.309589 67.591064 -119.241501
-40.628407 16.238470 -121.253105
-38.604214 68.948257 -119.597603
-36.885174 63.507259 -121.410149
-36.361282 71.972542 -123.536888
-37.125183 64.200150 -121.336380
-37.313435 14.015368 -124.603386
-38.083500 72.322235 -121.332649
-36.033848 86.305931 -121.689423
-37.950020 95.290497 -122.865417
-39.044243 99.134789 -123.334999
-36.647182 86.825844 -122.427872
-36.862507 14.444509 -122.609749
-36.952778 97.884453 -124.247131
-36.122570 93.140060 -124.806213
-37.056351 93.941185 -125.156784
-39.364719 89.694458 -124.441437
-36.214676 31.672443 -125.388535
-35.768513 102.457191 -123.431213
-36.929722 90.283997 -124.038353
-36.369846 97.681046 -125.466484
-36.157028 96.404442 -122.909462
-39.456310 92.072441 -125.285088
-37.165211 91.476532 -122.963852
-38.876251 88.658684 -127.163315
-35.429161 106.064514 -124.415260
-37.506546 88.494415 -130.054550
-35.994030 13.093502 -128.306259
-39.214802 88.867050 -127.229965
-38.512299 108.899338 -124.657738
-37.595596 107.827194 -125.746086
-37.092667 103.170143 -127.806419
-38.805130 104.953690 -127.608315
-37.886951 99.768593 -130.156815
-36.368637 103.290573 -130.664154
-37.887234 99.120125 -127.647934
-37.497089 108.399590 -130.014282
-40.306164 15.899636 -133.798401
-36.393299 108.323723 -132.929062
-36.663746 100.688164 -132.131195
-36.391232 29.038628 -133.432327
-36.599812 104.170357 -132.170090
-35.403019 97.855392 -136.159882
-35.274139 101.546646 -133.734329
-38.805080 28.199694 -136.773712
-37.820709 18.532074 -133.996231
-38.044758 100.727356 -136.459167
-38.056118 109.935501 -135.094696
-38.437576 99.315193 -136.532852
-35.201702 32.389805 -136.287979
-36.655239 97.350945 -135.606049
-37.684273 100.860565 -137.940750
-37.617374 106.771812 -137.601852
-36.585842 107.080948 -135.811905
-36.322788 102.666443 -138.412811
-36.901672 107.815170 -136.596924
-37.941154 93.986473 -138.392151
-38.185406 57.639771 -139.440964
-39.771683 39.960594 -138.406418
-38.697166 39.645088 -138.341873
-36.673401 28.542019 -137.664459
-38.319214 26.906990 -138.726471
-35.110565 25.731110 -138.859222
-39.258137 21.085985 -138.637344
-37.782074 74.248741 -140.179398
-40.232292 22.461847 -138.550781
-35.349091 84.629860 -138.885269
-39.269585 79.711700 -138.152176
-36.120281 99.923325 -137.014084
-38.520782 99.844215 -137.906464
-39.800735 19.281399 -140.173828
-37.700516 75.366508 -140.258057
-36.454250 98.984665 -140.105194
-38.876381 98.378799 -142.190567
-39.766144 88.238396 -142.262985
-39.057838 80.878914 -142.653137
-36.924862 65.367821 -139.276672
-36.401218 59.071484 -142.434158
-38.043530 105.380554 -140.001343
-36.755859 106.531090 -139.026657
-37.584774 86.281059 -140.277008
-38.597424 44.593788 -140.062042
-40.595055 18.967651 -139.594513
-36.333035 102.356667 -140.548096
-37.461033 40.106232 -141.925430
-35.647675 91.977615 -142.671829
-37.684715 30.655409 -140.922394
-38.326092 24.086174 -140.904465
-38.985939 87.551086 -140.157196
-35.885452 20.041943 -142.759491
-35.065144 17.004101 -142.938736
-37.362385 91.953789 -142.439072
-39.165127 97.584709 -142.594452
-37.164875 96.817055 -144.287964
-36.517769 100.757484 -154.220612
-37.641880 97.967964 -150.210098
-34.372040 60.630394 -19.220760
-37.462025 58.288979 -23.376398
-37.029446 45.900738 -21.571396
-40.349453 42.041805 -25.992706
-34.169209 37.078178 -22.676203
-33.921989 38.793636 -26.452824
-34.730736 35.078102 -24.756588
-35.287571 69.935394 -28.585529
-35.653076 35.394539 -27.478971
-36.964382 -17.392714 -31.679892
-37.873417 -14.578905 -29.475418
-37.947441 -19.879896 -31.170067
-39.219406 36.770851 -32.617687
-36.795189 -12.969649 -32.998486
-38.833885 -21.412228 -33.669914
-37.780048 43.243935 -34.481647
-37.539314 -12.667443 -33.123764
-36.668629 -21.166277 -34.247471
-38.679489 -9.824888 -35.281746
-36.021137 -8.750428 -38.292355
-39.926262 48.787445 -38.198536
-36.821407 -13.210070 -40.033432
-35.001942 72.107002 -38.098858
-32.058895 -4.130965 -40.701458
-37.519989 -9.535478 -40.403755
-36.287483 71.193924 -39.310940
-35.865818 -4.188794 -40.730221
-36.439617 0.191126 -43.090515
-36.045849 -9.914639 -45.303467
-36.986008 -21.667389 -41.374874
-36.752373 -0.869655 -43.469025
-34.547012 70.990738 -41.159954
-39.847389 -18.167297 -43.792953
-40.179325 -20.945158 -43.427341
-35.342857 -13.752054 -42.437096
-38.421688 -21.390223 -43.692219
-35.794746 -14.281306 -45.653801
-34.261688 -17.925219 -45.011410
-38.457275 -16.965544 -42.425762
-37.876373 -16.763872 -42.788906
-38.174873 2.518350 -46.647141
-38.205986 4.140796 -46.115524
-37.292454 -25.848736 -44.836449
-35.191059 66.004562 -47.863846
-37.782444 70.431053 -45.946213
-37.112232 4.896698 -47.655830
-37.094364 -27.936716 -49.170776
-36.959305 -27.466385 -49.585266
-38.370575 -31.342566 -49.824978
-36.468456 7.691104 -50.658989
-34.273308 1.400796 -55.390579
-35.055561 10.588193 -54.472321
-38.060150 3.490844 -52.018909
-37.753788 -26.632576 -53.558998
-38.517277 -29.963268 -55.973007
-38.033176 -30.522787 -60.533119
-38.738079 -33.274651 -60.888321
-35.323696 51.496887 -63.018269
-35.683399 54.233360 -61.254284
-34.898155 50.996159 -62.667183
-36.633648 9.541343 -60.148144
-37.375118 5.489950 -61.306763
-38.399273 -30.025171 -59.614067
-38.480160 12.848790 -61.390514
-37.648373 46.394623 -65.569550
-38.559002 6.382914 -65.780205
-38.689220 -29.315567 -64.775703
-36.970276 61.100975 -64.029015
-36.916786 11.112027 -68.464699
-37.307068 61.549141 -66.146767
-37.823666 12.943256 -66.762283
-36.518848 60.158760 -68.830658
-35.470581 50.578045 -67.113731
-35.076466 44.270782 -66.226631
-35.929417 -32.685055 -64.844025
-36.839668 -30.727127 -64.609215
-39.152462 -29.531338 -67.259727
-38.352180 6.867296 -68.975937
-40.636929 51.019829 -68.845078
-38.433071 63.113274 -66.766350
-39.215168 44.633896 -70.273354
-36.895172 61.482994 -71.788895
-36.488628 14.222540 -69.531891
-36.811359 59.902737 -71.764694
-37.335461 57.668453 -71.761490
-36.127827 -30.235123 -69.465492
-36.061432 48.804348 -71.902901
-38.208633 58.719193 -71.812973
-37.858555 43.311779 -70.310272
-37.369198 8.570765 -73.791801
-39.522999 61.765339 -74.860191
-36.527935 -27.182459 -74.528145
-35.821011 15.184127 -73.874428
-38.705379 -32.933422 -69.837120
-37.216034 -31.368254 -76.308197
-35.321930 61.254097 -72.093704
-36.171486 47.641270 -71.866951
-35.122303 20.813850 -73.449120
-38.617439 58.808567 -76.000572
-36.146393 60.818695 -76.455956
-38.537045 59.811089 -76.979897
-35.222713 11.877645 -75.709808
-34.706497 55.083645 -77.166672
-38.428421 40.725819 -74.374817
-35.281948 23.455740 -75.898590
-36.708893 -29.387486 -74.506569
-36.409447 -29.625690 -74.859245
-36.120041 -31.066105 -75.219978
-37.217274 22.928688 -79.263481
-36.459713 42.383198 -79.306267
-34.651340 25.041777 -78.974464
-36.699833 -30.312197 -76.706329
-37.771347 23.948586 -78.819710
-37.740875 9.639302 -81.509300
-37.746399 -28.810030 -78.543076
-37.591515 46.418175 -79.855392
-36.796986 -32.699696 -77.855095
-36.036163 46.010242 -81.400238
-37.700321 38.744320 -79.793106
-37.251755 15.809076 -80.348167
-35.255878 9.386171 -80.634529
-38.057583 -32.103279 -78.299782
-37.255348 51.734268 -80.631851
-37.773014 45.810062 -82.146690
-35.705887 39.308784 -81.629189
-36.737801 57.528679 -81.108215
-35.449490 -29.632236 -83.572311
-38.706631 -26.800636 -83.665756
-39.209286 55.422558 -81.937546
-35.770153 11.204583 -80.817009
-38.746834 -28.181110 -81.408951
-36.710400 53.427547 -84.010864
-37.168407 40.963669 -86.559792
-37.419838 35.649075 -86.450668
-37.288021 -28.890041 -86.632469
-36.181084 97.061546 -81.709076
-38.082146 55.781357 -87.481888
-36.985821 36.275032 -84.480415
-36.661011 -30.606941 -84.908554
-38.879532 97.382736 -86.193291
-36.405907 54.108036 -84.520020
-36.274719 45.691597 -86.411560
-37.629177 34.784985 -85.558609
-36.335567 100.020309 -84.622475
-38.803833 95.619843 -87.333832
-36.854034 43.451344 -85.132706
-37.742329 18.338087 -87.770729
-36.616016 98.118843 -86.649460
-38.410423 17.557444 -86.216064
-36.733791 95.846481 -88.079079
-38.238888 40.357815 -86.865303
-37.995399 16.758209 -88.548088
-36.219925 19.666613 -88.980240
-37.487968 13.815787 -90.132133
-36.519688 -29.189869 -87.806831
-39.561790 40.033680 -92.317909
-37.204849 18.987486 -90.798019
-36.323875 -24.350035 -88.563797
-38.690720 16.147732 -92.903084
-38.730888 98.040001 -93.268341
-35.881397 -28.029560 -92.727058
-35.556377 34.507713 -91.184105
-37.736637 -27.662685 -88.718857
-36.361454 16.507320 -93.440567
-35.852142 89.879128 -93.907982
-37.809792 -24.349922 -93.874359
-38.159489 96.622757 -93.268753
-37.371696 92.516205 -96.127525
-40.609997 99.794548 -96.317261
-36.104450 95.934441 -93.784241
-37.478710 101.877052 -95.821541
-36.120468 35.346287 -97.884903
-34.850609 31.891962 -96.160301
-39.226208 15.970846 -99.235367
-36.593601 45.736294 -95.635338
-37.052769 15.263634 -96.032425
-35.379742 -24.401659 -95.933281
-36.012436 -25.704159 -97.076996
-38.963497 30.763672 -97.803932
-38.439846 33.381252 -97.850121
-37.883987 19.348442 -95.313118
-36.006241 43.301617 -98.572754
-35.368240 99.069466 -96.984955
-37.877914 96.604790 -95.880882
-36.801678 -23.207977 -96.784363
-37.160187 61.648151 -102.666374
-36.978413 38.926197 -96.609901
-35.608505 17.066698 -99.205765
-36.756332 37.450443 -100.868484
-35.707706 65.349899 -100.852814
-37.033573 63.578438 -99.749603
-38.228264 98.823349 -100.015205
-35.881878 64.482086 -102.971649
-38.389320 34.467319 -101.359406
-35.718494 20.981531 -100.477783
-37.362587 39.631084 -101.830902
-35.946571 27.152817 -101.273315
-36.878868 -22.055143 -100.459137
-38.089272 69.268959 -100.884331
-36.579033 65.645721 -102.385674
-36.698704 35.538429 -103.386063
-36.014366 -23.309862 -101.937065
-35.896946 26.626379 -102.635994
-39.631886 72.699898 -101.811790
-39.407650 96.977394 -103.654816
-39.853840 -22.705219 -101.635277
-39.234589 -21.178490 -103.911743
-37.330753 63.181377 -101.489418
-38.554615 32.042629 -101.640381
-37.528320 35.400196 -103.452049
-34.355267 14.767619 -100.478065
-37.258511 27.914022 -104.825180
-37.975204 68.168129 -103.685669
-36.646137 39.270485 -104.992950
-36.860947 -17.435572 -102.131088
-35.501396 -19.674294 -102.646378
-37.020550 33.556931 -103.746529
-36.260941 72.376511 -102.661049
-35.325199 100.629448 -104.232193
-35.223801 35.163624 -106.801613
-37.192921 17.073540 -102.819328
-38.203945 16.064844 -103.353607
-37.423317 74.380524 -105.802109
-37.012238 36.781124 -106.149734
-36.095161 21.955545 -105.065903
-35.110241 19.971851 -104.539467
-37.554581 71.331757 -104.622391
-35.690365 33.510132 -105.178986
-38.815910 -16.595592 -104.834160
-36.110447 99.391998 -104.497025
-37.597485 23.697153 -106.839859
-37.391205 35.433968 -104.850471
-36.208454 30.452030 -105.638855
-35.472958 15.652383 -107.973068
-36.151363 -19.945513 -106.030090
-36.753704 33.469982 -107.276146
-36.822968 90.600716 -107.531425
-37.340973 88.868851 -107.826515
-38.199070 30.425915 -106.574509
-39.866882 15.923181 -104.930710
-37.610786 92.137871 -109.003670
-36.781872 95.000259 -109.255402
-36.916317 88.778191 -107.143677
-37.428600 35.123360 -108.042740
-37.063721 96.756676 -110.589088
-36.558281 34.802219 -111.378944
-36.156445 -11.324298 -108.661667
-35.029633 93.210327 -108.996635
-35.852985 21.586607 -110.856201
-34.345310 93.091248 -111.121567
-37.081718 32.137360 -110.594566
-36.650661 -9.395808 -109.564934
-35.580254 -15.713118 -109.457855
-36.174603 93.334213 -111.820152
-35.968655 -11.306604 -110.636688
-36.704979 34.925907 -108.246391
-37.040291 97.840660 -110.493134
-36.754063 22.453411 -112.386398
-36.790855 92.698433 -110.796165
-37.162357 -11.963037 -110.173729
-35.133801 87.475006 -112.319855
-38.725269 21.176010 -110.662621
-36.819160 -14.045776 -109.657829
-37.195766 97.953438 -112.242775
-36.243294 100.049835 -112.254776
-36.456066 28.377934 -111.717384
-37.130821 106.150551 -113.360107
-36.420044 104.569450 -112.784508
-36.141907 15.694729 -109.919296
-36.702232 108.019516 -110.411186
-35.258381 26.150007 -114.157112
-37.801170 15.610094 -113.402061
-39.055454 34.320282 -115.613289
-40.299984 38.176037 -113.669090
-35.894886 26.396614 -113.411400
-36.136299 98.339554 -112.314949
-36.317028 25.905214 -111.567741
-36.885723 105.920662 -111.127525
-36.012547 19.956392 -114.825043
-37.370300 106.973122 -113.521248
-37.700672 32.901917 -112.790092
-37.972195 -10.633273 -113.320267
-36.821121 38.882641 -111.135727
-37.491882 31.528687 -118.661705
-36.478733 106.249901 -116.074936
-35.818535 39.642090 -115.333908
-38.237701 -3.579870 -112.487442
-38.808716 36.974361 -116.533882
-37.144485 -7.843608 -114.715378
-35.738831 36.985817 -116.276741
-37.578381 16.653112 -115.557983
-35.591415 34.538734 -115.119576
-36.995415 27.852198 -115.517731
-36.301071 21.472483 -118.043228
-37.714149 24.556013 -116.689903
-36.547398 20.265980 -116.667747
-35.742184 97.767609 -117.690048
-37.013813 19.224312 -117.380920
-35.986839 -6.217357 -116.723473
-37.583549 99.779388 -117.467995
-37.403572 54.738194 -119.038300
-37.643177 51.349689 -119.950653
-36.726849 26.754286 -117.755760
-36.031918 16.141113 -116.142677
-38.095131 16.494818 -116.290970
-37.037392 105.718178 -114.818542
-36.693638 103.729904 -118.651741
-35.709934 51.219231 -117.252495
-37.766113 28.080637 -120.235329
-36.766518 101.301659 -119.079063
-37.824326 48.366631 -118.117195
-34.901741 17.028700 -120.417076
-37.473988 52.302097 -119.678665
-35.225170 27.706751 -117.929413
-39.874977 15.573010 -117.073959
-37.491871 59.476589 -118.127960
-35.556477 101.913994 -119.080177
-35.628723 105.912415 -119.455894
-36.737045 62.917892 -118.155838
-35.511673 28.984777 -118.147896
-38.015076 16.443331 -118.961830
-38.314747 50.810989 -119.671463
-37.522751 64.997040 -118.809883
-39.660244 56.708382 -117.694130
-36.413647 105.620033 -118.323769
-37.802608 100.275024 -120.978493
-37.217319 56.278061 -119.909554
-34.444870 107.025093 -121.936798
-36.985580 98.361679 -120.934761
-37.382080 66.822601 -121.337685
-40.129181 61.422398 -120.297173
-36.688873 102.960632 -120.744804
-38.488583 106.014847 -120.974747
-35.385834 102.362595 -123.265953
-38.265694 60.971310 -121.770660
-36.900360 72.226601 -121.297699
-35.986305 13.713070 -121.326508
-37.550205 107.165543 -121.414001
-35.752720 72.527603 -121.402435
-37.052898 72.747887 -120.776489
-38.295250 67.549232 -123.228996
-38.723148 109.257141 -122.637062
-37.152107 100.386734 -122.139671
-35.486153 95.402679 -123.340927
-37.963730 64.686142 -122.342255
-36.376862 104.677498 -120.333923
-36.389420 96.932587 -121.960457
-36.888084 87.401222 -121.478134
-36.094391 66.931877 -123.326584
-37.505665 74.503235 -122.093567
-37.393379 95.018806 -121.028229
-37.302448 81.456200 -124.137726
-37.086105 70.440506 -123.901215
-35.201778 69.726616 -122.977844
-36.130367 70.277336 -123.558525
-38.435997 98.766808 -122.566109
-36.760269 75.298004 -123.589455
-37.342419 73.096680 -121.691643
-33.886875 100.065964 -125.071449
-35.081135 78.965851 -123.772026
-35.819416 78.077866 -123.188583
-35.728447 104.174614 -122.569145
-37.231136 103.648453 -124.260452
-36.229656 99.555138 -124.644135
-36.675449 81.487045 -125.824707
-36.181892 86.830078 -122.986725
-35.525387 78.444862 -124.926247
-36.267773 99.375931 -123.864136
-37.102116 97.047295 -126.621147
-37.413742 83.977242 -125.740509
-36.082371 33.622116 -125.451050
-38.064705 105.177757 -125.376144
-36.708958 98.389023 -127.033325
-36.979916 87.347878 -125.217918
-36.023270 91.944122 -124.223663
-36.444630 102.273438 -123.812592
-37.266815 102.640099 -126.059616
-36.546474 13.144944 -127.285027
-37.439617 102.131767 -127.088173
-37.031822 32.495392 -128.485229
-36.774570 15.063799 -130.326370
-36.631718 101.212227 -132.582382
-35.367607 108.029686 -129.428680
-36.273357 31.175308 -132.861420
-38.938343 30.050714 -135.134445
-36.801586 14.588582 -132.968246
-36.232883 99.240044 -136.211594
-35.359493 27.356091 -137.499481
-38.028778 18.558174 -138.287094
-36.972969 98.707390 -138.996201
-34.809750 92.452049 -138.456039
-36.660713 56.909142 -135.675705
-36.693932 59.583435 -135.996735
-37.809494 44.574329 -138.623672
-36.951420 38.752956 -137.600220
-36.602798 65.842102 -139.313538
-35.836945 40.519070 -138.614441
-36.470543 38.110325 -139.327133
-36.907253 87.305565 -140.082260
-40.674408 85.321732 -136.938065
-36.655003 83.036461 -137.636795
-36.762112 71.050491 -139.541870
-35.456623 67.715721 -140.788116
-39.105747 76.425682 -140.141678
-36.119202 108.738029 -139.325516
-36.611744 81.572128 -138.852066
-35.316517 79.961349 -137.712860
-37.119144 109.152046 -137.957962
-37.612213 53.278198 -139.839752
-35.705669 72.076118 -140.459839
-37.158012 71.674690 -142.312469
-39.246498 65.466522 -140.022919
-36.307461 47.292576 -143.185013
-34.756145 83.148773 -142.204483
-39.062637 82.697578 -141.049515
-38.251266 80.510300 -140.995270
-38.653343 39.269058 -141.438919
-36.763031 87.519112 -140.227600
-36.586800 84.423164 -140.598297
-37.436108 78.780777 -140.983627
-36.627583 33.647873 -141.559418
-35.076374 86.906464 -140.857162
-37.247307 96.871017 -141.919113
-36.636936 21.162594 -140.250854
-37.169918 17.125517 -140.831024
-34.456612 104.760956 -141.411392
-36.863743 104.679352 -142.578918
-36.291756 88.750877 -141.906158
-37.922318 103.545860 -144.103287
-37.242477 102.749352 -142.106171
-34.522335 96.906487 -145.871643
-34.936356 102.037827 -146.219894
-36.441364 96.662750 -149.399857
-35.651409 105.617226 -149.516708
-36.750984 99.064720 -149.945099
-37.022182 100.061409 -151.189194
-35.881840 99.725647 -150.718201
-37.677574 11.587800 -2.651803
-38.434795 13.583681 -5.001369
-36.748051 13.450022 -4.694160
-36.996342 14.406270 -7.058321
-36.618431 15.451271 -8.637563
-37.453613 11.746246 -6.647878
-39.029488 14.904519 -11.555065
-39.099644 13.706241 -11.432192
-36.651711 13.674773 -13.320142
-35.518547 8.992403 -16.043833
-34.943321 55.279507 -20.238146
-34.107861 52.227276 -18.691891
-36.036011 52.807369 -23.062666
-34.683315 55.851238 -19.752539
-35.659271 47.947327 -20.387228
-35.136543 44.277199 -21.398857
-34.348480 61.660736 -21.730587
-35.313602 40.613724 -21.304663
-36.869736 65.674271 -23.224855
-36.275444 35.353874 -29.778423
-37.983303 -16.573517 -30.004457
-35.949574 33.111420 -30.151970
-38.096279 -19.713926 -30.243681
-38.208660 -20.617752 -30.772141
-38.015255 -13.220103 -31.117056
-36.810673 71.399155 -33.720505
-35.670948 -8.563205 -33.001114
-35.670345 37.216358 -35.003681
-38.396072 42.170288 -34.736118
-34.868832 40.178356 -32.109833
-35.774246 45.041119 -34.214699
-37.114872 -23.136810 -32.161114
-36.413452 -22.297457 -34.000500
-37.904583 71.569923 -34.018196
-36.237267 -23.146509 -34.752499
-36.335976 -10.328591 -34.206192
-35.121323 44.247902 -36.027500
-36.915928 73.264069 -37.141087
-36.050129 -23.617960 -39.292576
-37.847481 46.573738 -37.837509
-37.946609 51.815220 -43.178642
-37.396095 -26.256338 -39.517216
-38.477272 -3.543594 -39.915028
-37.970783 -25.718904 -40.539227
-36.228470 55.007858 -39.391960
-36.214008 -12.045024 -40.143078
-39.013519 -23.070459 -41.758095
-37.470615 -5.172376 -43.381599
-38.281124 -1.789155 -46.653328
-35.430679 -10.042916 -40.877338
-37.525513 1.717837 -44.825424
-36.783737 -28.554468 -44.488853
-36.865120 65.074219 -45.831257
-36.317295 -24.473434 -42.421818
-38.400158 -28.064793 -46.017902
-35.051796 -19.069330 -44.759037
-36.574234 -20.274679 -44.257504
-36.473328 -17.891987 -45.368313
-38.535694 -26.231449 -46.854549
-37.650162 -30.938555 -49.501080
-37.144970 5.405711 -47.686543
-36.264408 1.139687 -50.294682
-39.006401 6.607486 -49.648102
-36.552334 1.770486 -50.577396
-38.297199 69.162064 -51.826057
-38.372646 4.543233 -52.379364
-35.979927 -31.705875 -52.482803
-33.809299 68.751175 -55.067936
-35.255310 -28.578148 -49.884907
-36.289799 72.369568 -53.505829
-35.999115 7.872557 -57.335129
-35.935513 -28.197582 -55.349915
-35.213005 -30.030037 -53.978367
-37.206367 -31.511841 -51.859940
-37.376720 4.169166 -56.220703
-36.997227 -31.910049 -56.678638
-35.973141 10.290808 -57.366722
-37.296783 2.603827 -57.785595
-34.537056 8.028389 -61.133350
-39.494198 4.215757 -58.933620
-37.125465 -32.918659 -60.244827
-39.008392 -28.918875 -57.910465
-37.424961 6.303478 -59.352604
-36.130062 -32.739868 -62.981140
-37.218044 5.923090 -61.374096
-38.249321 52.512932 -58.757153
-38.006180 -32.829121 -59.550106
-36.767246 12.269794 -62.460575
-35.430584 -31.207577 -59.786526
-35.459236 51.608803 -61.738480
-35.870594 50.587666 -62.248505
-38.124317 62.213787 -63.625210
-35.327419 49.684521 -63.347122
-34.799606 53.913467 -64.074883
-36.575665 -31.270531 -61.254498
-38.008919 7.077003 -63.224609
-35.693607 -32.315891 -63.453213
-35.896023 -30.111446 -64.715530
-34.921181 -29.863848 -65.132019
-35.850853 13.305794 -64.917847
-36.974247 59.844448 -65.426819
-34.596310 60.961609 -68.833733
-37.162819 54.052380 -65.372826
-34.347919 6.980155 -66.585800
-36.390804 -31.242489 -66.095016
-37.217018 46.725208 -67.313416
-35.785858 14.058363 -67.388100
-35.146709 57.840645 -68.833672
-36.641289 60.166172 -69.417290
-34.951420 47.212791 -69.853699
-38.592426 64.880646 -65.685768
-36.890022 7.070322 -66.712936
-38.835056 13.852369 -68.191467
-37.254383 -32.693108 -68.917404
-37.950531 61.397671 -68.658028
-38.162670 60.330944 -67.423706
-36.714180 50.973019 -71.841064
-37.266598 58.089111 -71.367447
-38.102188 -32.535545 -69.189026
-38.611549 59.019115 -69.139229
-37.300556 -30.248070 -70.549026
-35.179585 48.088413 -71.172981
-36.033932 -30.473450 -71.729019
-37.916824 19.664242 -73.108307
-36.625893 16.224764 -72.945152
-37.393520 19.238611 -71.544182
-35.519485 -34.312595 -72.202126
-36.856201 45.893684 -73.086807
-35.750217 60.350346 -73.334450
-36.232510 24.570595 -74.563545
-38.377796 62.126682 -74.334610
-37.382076 9.851762 -72.806412
-35.495518 -29.299028 -72.277634
-37.282833 24.799250 -74.600731
-37.047894 -29.911299 -72.995445
-36.910114 -30.934507 -73.428108
-37.247650 42.327763 -73.319969
-36.817226 -30.673841 -74.360283
-37.514435 57.400272 -72.872910
-37.559978 43.921654 -74.292374
-38.546803 -32.035988 -71.947174
-38.155354 48.148651 -74.174316
-37.738892 13.955826 -75.156242
-37.501328 21.784857 -77.214325
-35.414185 23.220793 -78.312737
-34.604702 57.920818 -76.339645
-38.193180 47.257076 -78.773605
-34.839638 23.078888 -75.396149
-36.464287 -28.879156 -76.129845
-36.436115 25.786081 -77.855621
-37.365067 23.233112 -78.194458
-38.247105 57.437580 -79.255417
-36.427486 41.428905 -78.500053
-37.491570 -30.935183 -75.908134
-36.496391 -28.767544 -78.562798
-34.907169 42.766529 -76.198059
-34.172401 48.666534 -79.290405
-35.768227 54.782047 -77.639122
-34.706635 54.900696 -80.081154
-36.949326 -27.930412 -79.258743
-36.659752 43.232559 -80.312477
-35.792217 44.250114 -81.117973
-35.326252 41.177620 -82.220375
-37.834217 -31.464584 -83.696854
-35.960354 -31.655336 -80.536369
-36.936596 45.406090 -85.579590
-37.975559 14.199220 -82.717690
-36.225304 -26.748644 -83.729469
-38.566902 98.818153 -82.485497
-37.306183 10.560047 -86.310768
-37.192638 -27.121412 -84.525604
-36.267570 99.748482 -86.431412
-36.706879 38.541592 -84.502434
-36.252945 36.715809 -84.810524
-37.404160 13.902446 -82.899864
-37.119453 13.942437 -86.737518
-35.560894 15.933111 -85.038002
-35.910652 10.840860 -85.039268
-35.613247 -28.556845 -86.251732
-36.322334 -29.577183 -86.231194
-38.750507 99.654556 -90.441322
-37.454067 36.042564 -88.454453
-38.910336 -29.655800 -87.827652
-38.281136 -26.383257 -89.084099
-37.521336 -25.768988 -91.469826
-34.000912 -26.120726 -86.113556
-37.304897 100.447220 -87.827682
-37.134224 34.949718 -89.903976
-37.373737 -24.328835 -90.029778
-34.528454 40.155281 -92.185188
-38.769066 36.827969 -92.459908
-34.356209 99.747162 -92.402893
-36.407436 17.759556 -86.911629
-36.887554 100.569199 -94.711426
-34.930145 -27.644056 -90.207176
-37.020985 -27.148838 -90.188423
-36.902817 -28.314238 -92.618828
-34.671745 38.028191 -93.873665
-38.235680 -27.642366 -89.581444
-37.906788 89.365105 -93.552208
-35.524418 38.920879 -90.775993
-35.980732 99.915512 -92.198761
-34.151108 94.645699 -94.503136
-37.628513 -22.653603 -94.385658
-37.205059 21.026695 -91.876175
-37.207279 12.477693 -91.471436
-34.420288 94.463219 -92.635292
-37.469074 37.209476 -93.849869
-34.537086 92.081429 -93.623474
-37.054249 87.225243 -94.275780
-37.253601 99.735977 -94.193771
-36.872715 94.117371 -93.303253
-37.449116 -25.564770 -96.599968
-35.424309 -28.543421 -94.474365
-36.558296 19.427338 -94.626419
-35.605255 31.687231 -95.679382
-35.727768 88.919022 -97.961952
-34.900345 87.045517 -97.976112
-37.024712 14.162569 -95.731750
-35.055698 14.437667 -96.213982
-34.677490 95.473572 -95.075546
-34.991669 28.980484 -96.028336
-34.274792 20.341112 -95.961205
-36.592300 34.874805 -97.519279
-35.294472 12.521646 -94.498375
-36.906361 30.376797 -99.327034
-36.424515 19.275101 -98.336922
-35.188992 -18.565351 -98.254631
-35.299309 99.670853 -99.312080
-37.479774 32.598480 -99.920898
-37.993671 36.229412 -100.184959
-36.328094 -20.257357 -99.654442
-37.258575 -23.115528 -97.903656
-36.836685 100.364998 -103.377037
-37.819447 -24.320889 -100.301025
-36.864227 109.092804 -98.912231
-37.721386 64.226868 -100.303848
-36.545216 21.755642 -99.734734
-36.791595 -18.486973 -102.083412
-36.976376 35.227463 -100.819252
-37.308636 20.674086 -100.561172
-36.326702 39.460178 -100.163521
-36.065357 67.990959 -101.078819
-38.633442 67.038628 -102.923409
-37.598915 96.727783 -103.871964
-37.916443 40.791634 -98.895370
-35.270264 38.313419 -102.173119
-35.618729 102.600838 -101.412910
-36.080746 37.086716 -104.392357
-36.429989 39.098717 -104.232086
-36.599426 -15.164113 -102.110199
-37.440304 -19.747597 -102.566238
-36.458168 -17.158495 -102.006477
-37.779900 64.780655 -103.354614
-36.187172 26.457438 -103.879303
-37.217213 75.360359 -101.762627
-37.407005 41.173412 -101.885651
-36.354176 101.761810 -101.438499
-35.120201 68.432877 -101.371712
-36.529305 -18.300673 -105.625336
-35.191990 26.024916 -102.623756
-36.761955 -19.987635 -105.485428
-36.515896 106.341789 -102.295250
-35.320774 30.562723 -103.987907
-36.943157 73.865639 -105.226669
-36.454247 17.770199 -106.547890
-36.938690 -18.322397 -108.602737
-37.299011 18.990761 -104.109482
-36.277931 99.755730 -107.978371
-36.541958 -17.982063 -107.174759
-37.135490 106.824844 -104.358475
-36.917992 104.595802 -105.263725
-35.116188 102.487114 -105.897392
-35.799938 76.180168 -106.681145
-37.373573 36.288082 -108.154053
-33.992081 100.405273 -108.688919
-35.328735 78.914925 -106.382301
-34.255310 27.392813 -107.080421
-34.684734 76.376556 -107.356224
-38.141628 30.470133 -107.850029
-36.013992 20.274982 -106.148712
-33.553085 108.380600 -105.726021
-38.346630 31.451488 -108.540825
-36.859314 105.826118 -108.008415
-38.019550 -18.173323 -106.339203
-36.109276 23.295080 -108.662521
-38.313606 15.359752 -106.909492
-37.133766 100.159218 -109.931679
-32.009987 94.475365 -110.157829
-35.451298 86.879799 -106.998970
-35.198650 77.053703 -109.082268
-36.325356 34.013271 -107.241043
-33.823795 79.422752 -107.955292
-37.559845 105.800476 -107.453423
-36.570690 95.412315 -109.602684
-35.331726 79.313232 -109.500046
-37.261921 76.585182 -104.754005
-36.986504 31.382711 -108.022522
-37.728813 21.970875 -108.576126
-36.957230 -14.773628 -109.230125
-34.806602 106.720772 -108.870911
-37.941246 104.412315 -110.107025
-33.620106 96.588562 -107.093643
-35.889534 87.052284 -108.611320
-36.031330 -18.240742 -107.657593
-36.461704 81.653976 -110.625603
-37.489254 100.808472 -110.729729
-38.077438 103.034943 -110.651253
-35.948292 96.940125 -109.493172
-35.500580 85.740349 -110.734940
-36.625607 27.847242 -109.864258
-33.590927 102.746506 -110.135811
-37.361893 86.756851 -111.003235
-35.934235 30.920309 -110.058937
-37.157887 107.831108 -110.233002
-37.682358 96.217194 -110.552979
-37.669949 91.729942 -111.815468
-36.863552 101.562233 -111.525558
-36.805389 90.373070 -112.813522
-34.593861 85.081062 -112.366135
-36.783901 100.614616 -111.361694
-34.756111 97.682877 -108.867050
-36.606411 101.720703 -109.409241
-37.342537 -10.645425 -108.740585
-35.579151 -11.449436 -112.854813
-36.615818 103.518700 -114.043175
-35.558918 99.879326 -111.690315
-35.056660 -9.108296 -112.959618
-37.473309 33.102184 -114.744522
-36.533936 27.819979 -111.155815
-37.245739 20.124680 -113.061890
-36.594963 20.876995 -114.459526
-36.311043 109.881035 -109.416298
-36.023483 102.030617 -118.793030
-35.900642 18.092373 -115.577217
-36.507244 -6.452229 -114.876755
-35.542339 18.526848 -115.017868
-36.067207 17.978069 -115.253197
-38.703461 20.067389 -114.295212
-36.667889 -6.615324 -114.808151
-37.603222 29.242273 -118.095856
-35.995605 34.952477 -114.674675
-37.914402 33.688618 -116.353401
-38.626606 33.502052 -115.765152
-35.554070 26.079550 -115.901810
-36.907734 25.120792 -116.066956
-36.566948 24.067360 -116.852692
-37.486568 -2.934091 -117.733727
-37.465294 15.015425 -115.729431
-34.408813 52.873505 -120.119644
-34.899181 14.051526 -117.356483
-36.695496 -3.740313 -118.792053
-37.588192 54.886906 -115.514809
-35.193974 16.505236 -119.498299
-37.688789 63.752323 -118.729324
-38.392544 54.119156 -118.843605
-36.383415 0.462848 -120.870964
-33.777225 31.296068 -121.251328
