-62.896640777588 -81.007850646973 -161.075759887695 1.264059543610
-40.782325744629 -81.057380676270 -155.802139282227 2.147397518158
29.795362472534 -81.297996520996 -152.928558349609 2.050569295883
-38.484981536865 -86.448486328125 -153.522140502930 6.731228351593
-1.997974991798 -80.934097290039 -171.753677368164 2.870212793350
33.632286071777 -72.967002868652 -161.480178833008 1.502182126045
-12.618721961975 -80.635093688965 -168.241653442383 3.391898393631
-60.077751159668 -78.584571838379 -160.744430541992 1.935465097427
-39.759300231934 -75.178619384766 -168.479980468750 2.398369073868
-34.712139129639 -75.621223449707 -172.230895996094 2.908745288849
21.913125991821 -82.993301391602 -173.585739135742 4.244064331055
-54.622432708740 -81.258666992188 -173.956069946289 2.163311719894
-28.311841964722 -73.998222351074 -172.226333618164 0.913755238056
21.019657135010 -80.412963867188 -182.002822875977 2.312616348267
-53.362075805664 -81.490951538086 -183.848312377930 2.333586692810
-25.968004226685 -73.049568176270 -176.827560424805 1.209654211998
-56.173683166504 -75.836997985840 -183.218414306641 1.575521826744
-42.312438964844 -79.095123291016 -193.225738525391 1.786915898323
-30.200325012207 -78.453399658203 -187.474731445313 0.600313067436
-41.683807373047 -82.878326416016 -193.293563842773 1.337338685989
-23.610006332397 -79.923271179199 -189.874114990234 1.737892746925
-139.440444946289 -80.275032043457 -197.637863159180 2.751590251923
20.939825057983 -81.270614624023 -197.326217651367 2.824856996536
-134.270767211914 -77.771148681641 -199.968032836914 1.760598778725
-21.279329299927 -77.288444519043 -193.426818847656 2.469204902649
-21.898469924927 -77.446662902832 -193.940383911133 1.729353666306
-43.469135284424 -81.248962402344 -191.419006347656 1.936762332916
9.982280731201 -77.849311828613 -195.755996704102 2.642742633820
-17.494638442993 -84.777862548828 -195.260665893555 4.821360111237
-54.804477691650 -82.817710876465 -203.097610473633 2.194804906845
-35.293594360352 -81.259262084961 -200.765106201172 2.131872892380
-59.797462463379 -77.390937805176 -205.178390502930 2.117211580276
-68.780540466309 -79.463798522949 -209.875411987305 2.904594421387
16.201929092407 -79.490196228027 -205.627456665039 1.900723695755
-87.235748291016 -79.022041320801 -210.398666381836 2.540549039841
-28.342908859253 -82.009330749512 -212.432250976563 2.720022916794
-81.127151489258 -81.514930725098 -207.558807373047 4.542034149170
-150.541290283203 -80.608963012695 -214.034317016602 3.100210428238
-7.320991992950 -82.267204284668 -210.974517822266 4.847949028015
-5.422974109650 -79.821456909180 -214.710113525391 1.965135455132
12.406912803650 -83.387870788574 -213.629959106445 3.046031951904
12.505224227905 -74.867454528809 -223.723907470703 2.769305944443
-0.746647000313 -84.679458618164 -224.094940185547 5.030551910400
-144.173812866211 -78.995635986328 -219.045013427734 1.967252016068
-149.634628295898 -85.892448425293 -236.386062622070 2.462877511978
-154.825134277344 -77.004882812500 -234.867446899414 3.565492391586
-0.262250989676 -86.457687377930 -233.238967895508 7.956000804901
3.298715114594 -80.899047851563 -234.048263549805 2.656555652618
-23.606111526489 -89.007270812988 -239.899093627930 10.017724990845
-150.102371215820 -78.519790649414 -239.465728759766 2.018712759018
10.376049995422 -85.313514709473 -238.833129882813 3.231664419174
-22.158956527710 -75.916915893555 -238.551025390625 2.441862344742
19.475904464722 -83.208755493164 -230.954421997070 3.180385589600
-51.708511352539 -81.092552185059 -241.252441406250 3.036628246307
-49.517528533936 -83.036827087402 -248.152404785156 4.174321651459
-146.448516845703 -87.512519836426 -246.128616333008 3.146936178207
-60.886203765869 -84.352638244629 -246.808868408203 6.123722076416
-1.672515988350 -83.435920715332 -242.423736572266 6.875166893005
-9.437315940857 -80.073890686035 -250.337463378906 2.937410593033
-145.882263183594 -86.845283508301 -260.238800048828 1.198585987091
-130.265197753906 -80.062530517578 -256.253112792969 4.240157127380
-134.086166381836 -79.903663635254 -257.436065673828 0.875427007675
17.644424438477 -82.788871765137 -253.155761718750 3.049459695816
-144.236877441406 -84.575134277344 -273.051483154297 3.657744407654
19.267690658569 -85.538772583008 -261.118133544922 3.727307081223
-141.537673950195 -80.773429870605 -276.331207275391 5.606867790222
4.653049945831 -87.115089416504 -273.201507568359 2.890222549438
-139.300827026367 -84.011772155762 -282.397491455078 4.549834728241
-0.338932007551 -88.511840820313 -279.328277587891 7.210711956024
-151.486328125000 -80.266288757324 -285.884704589844 2.501977920532
-142.173385620117 -79.617980957031 -283.300048828125 2.726127147675
-134.092102050781 -89.019485473633 -286.304138183594 2.943610906601
-147.428344726563 -85.929008483887 -295.725616455078 1.025848031044
-19.180395126343 -82.576255798340 -287.343780517578 3.579376459122
-148.409851074219 -82.350158691406 -292.851409912109 2.263709545135
-144.189758300781 -88.523681640625 -295.721405029297 3.438087463379
-149.623611450195 -83.230018615723 -307.793273925781 4.175300598145
-60.764575958252 -69.791748046875 -55.142623901367 6.010139942169
-44.467418670654 -79.732383728027 -60.802288055420 2.622811079025
-80.272682189941 -76.897743225098 -67.481536865234 1.762987732887
-36.481796264648 -71.351333618164 -64.086380004883 6.257281780243
-32.218856811523 -75.299560546875 -67.547119140625 2.899036169052
-91.676368713379 -74.216613769531 -78.002899169922 3.330851793289
80.008972167969 -78.844261169434 -78.140792846680 2.926968574524
-38.702507019043 -71.594093322754 -83.695343017578 3.840945243835
77.973945617676 -81.276130676270 -79.805458068848 4.708697319031
75.341835021973 -77.329132080078 -83.043289184570 2.265751838684
80.759376525879 -76.136634826660 -79.044555664063 0.143707975745
82.831321716309 -73.752304077148 -84.561965942383 4.717033386230
85.754333496094 -75.577644348145 -88.653808593750 3.340036153793
-94.643173217773 -70.314971923828 -92.655845642090 2.467326164246
53.320301055908 -77.078773498535 -99.980895996094 1.367095351219
-100.958953857422 -62.120170593262 -111.176841735840 3.359086275101
44.359901428223 -79.978607177734 -101.447219848633 3.249636411667
47.083816528320 -78.317848205566 -107.772323608398 2.121285915375
34.353263854980 -75.523315429688 -109.543190002441 2.530102729797
32.240306854248 -78.440063476563 -133.747192382813 0.817463636398
24.631334304810 -76.850257873535 -136.513992309570 2.275226116180
19.404230117798 -69.940246582031 -139.431610107422 4.084271430969
30.341617584229 -73.080207824707 -137.920059204102 1.743280053139
-47.885723114014 -80.442695617676 -151.422058105469 2.919227838516
-51.957054138184 -78.691413879395 -148.792022705078 1.893340587616
-42.444919586182 -76.415603637695 -156.283554077148 2.367552518845
20.477844238281 -75.429283142090 -150.803543090820 2.126585006714
29.659240722656 -77.495567321777 -163.467025756836 1.984990477562
-34.345058441162 -73.858718872070 -167.002990722656 1.566490530968
-37.253364562988 -71.352813720703 -156.189956665039 1.278352022171
-47.775978088379 -80.391136169434 -157.106140136719 2.674942731857
-0.104818999767 -74.804443359375 -159.484573364258 1.999050498009
23.003385543823 -78.796768188477 -145.565322875977 2.874686002731
31.808746337891 -73.813957214355 -154.448806762695 1.997175216675
28.164197921753 -76.609535217285 -166.287185668945 2.005334138870
-6.544503211975 -77.791961669922 -169.398681640625 2.132444381714
-7.072041988373 -79.685020446777 -166.914459228516 1.703644633293
-60.119022369385 -75.047462463379 -164.073715209961 1.904323339462
-62.277404785156 -77.135314941406 -169.569244384766 2.219896078110
-46.343109130859 -79.345306396484 -166.720077514648 2.308358669281
-39.164760589600 -75.559280395508 -165.031723022461 3.104211568832
19.916055679321 -72.738067626953 -166.462265014648 1.198169112206
-25.035928726196 -83.486694335938 -175.074829101563 4.454724788666
-30.509019851685 -74.671684265137 -179.108825683594 3.317955017090
-64.445167541504 -82.306495666504 -177.235656738281 5.849895477295
95.172172546387 -82.022109985352 -175.290069580078 11.945194244385
19.946435928345 -83.138832092285 -171.496749877930 4.732049942017
-26.716753005981 -78.211204528809 -176.657623291016 1.756513953209
-53.307220458984 -78.213890075684 -175.294860839844 0.946628272533
-23.309471130371 -74.452026367188 -177.879043579102 0.772961199284
112.355072021484 -80.588264465332 -175.483856201172 2.914012193680
-58.039443969727 -80.741859436035 -183.538146972656 3.228274106979
10.571076393127 -81.804550170898 -187.174636840820 5.760316848755
14.722714424133 -78.826591491699 -173.993392944336 4.192153453827
-57.383205413818 -84.699890136719 -173.911834716797 4.572340011597
-26.143890380859 -76.849761962891 -179.730514526367 1.695555925369
-57.244857788086 -82.211921691895 -175.220642089844 2.923226356506
-38.034706115723 -80.712127685547 -173.430816650391 3.595882177353
-30.005657196045 -78.748527526855 -184.614685058594 1.670085430145
18.119382858276 -79.949302673340 -184.421707153320 1.967497825623
-48.465480804443 -80.701339721680 -186.241989135742 1.376685976982
102.379867553711 -79.353851318359 -183.409469604492 2.663907766342
-51.348888397217 -74.439941406250 -187.061294555664 1.179656624794
5.490996837616 -79.070785522461 -199.256958007813 4.380272865295
20.649940490723 -78.355773925781 -193.604873657227 2.274613380432
-50.781616210938 -78.972137451172 -189.384063720703 2.521240949631
-16.238016128540 -80.048103332520 -185.552459716797 3.259663820267
98.145820617676 -80.474571228027 -187.812103271484 5.947479724884
94.249809265137 -85.577293395996 -187.925964355469 12.107400894165
-51.655876159668 -76.893661499023 -183.976104736328 1.485386371613
-150.830215454102 -85.109489440918 -200.568237304688 2.037252426147
-46.197834014893 -78.582969665527 -193.095428466797 1.009798288345
-145.575668334961 -78.857872009277 -197.018218994141 1.349098086357
-135.358001708984 -73.166137695313 -196.861343383789 0.822858810425
-48.269931793213 -82.623191833496 -192.906356811523 3.130556106567
8.940241813660 -82.342308044434 -202.409957885742 3.800469875336
-16.200164794922 -76.466545104980 -201.840469360352 1.717228055000
15.575085639954 -76.777839660645 -196.550537109375 1.063424825668
91.053359985352 -86.405456542969 -206.892639160156 10.044829368591
-34.919555664063 -77.287048339844 -199.905227661133 1.353219747543
-15.758239746094 -76.986289978027 -199.525421142578 1.748101234436
-17.481834411621 -77.196899414063 -211.454421997070 0.748592436314
-35.190723419189 -77.888053894043 -200.587982177734 1.281971454620
4.594257831573 -80.472000122070 -202.354690551758 5.310269355774
-80.709075927734 -81.124481201172 -209.257766723633 3.068320989609
16.316038131714 -81.825912475586 -210.788833618164 2.190076589584
-35.559192657471 -78.324516296387 -202.499954223633 0.578176140785
-145.915420532227 -83.343566894531 -206.616333007813 1.986865282059
-141.089477539063 -74.270393371582 -210.249053955078 4.568793773651
-89.041603088379 -80.007072448730 -211.379364013672 3.009767770767
-35.269165039063 -77.093284606934 -205.915527343750 1.175629258156
-12.797663688660 -86.044609069824 -208.305969238281 5.159003734589
-34.927192687988 -80.824890136719 -201.510238647461 1.533157467842
-90.866989135742 -82.775756835938 -215.649459838867 5.462953090668
-86.955345153809 -81.596336364746 -211.482376098633 3.398387670517
5.352383136749 -87.617713928223 -216.183151245117 8.574417114258
-149.686569213867 -71.855957031250 -212.875396728516 0.955146074295
-15.684673309326 -84.847267150879 -208.599960327148 4.844550132751
9.000629425049 -88.543945312500 -214.554641723633 8.628826141357
-144.288864135742 -77.286453247070 -220.896804809570 2.594981193542
-24.216848373413 -81.997978210449 -211.700775146484 3.707409858704
1.937741041183 -75.269500732422 -215.509124755859 4.282848834991
-9.669757843018 -81.526245117188 -216.182769775391 1.409151077271
-152.552688598633 -73.883712768555 -223.813140869141 2.206390142441
-140.384414672852 -67.206329345703 -226.920043945313 2.424268245697
-3.574435949326 -81.177757263184 -222.655349731445 2.164614915848
-148.137039184570 -84.791893005371 -226.684951782227 1.665231227875
0.962216973305 -75.419738769531 -225.304489135742 1.499283552170
18.158283233643 -80.425521850586 -231.774856567383 0.196945250034
-2.538369894028 -84.287513732910 -224.837554931641 5.023098468781
-2.409362077713 -74.356292724609 -227.976837158203 2.792273044586
9.014101028442 -79.169685363770 -227.529632568359 2.825994491577
-152.347976684570 -80.505256652832 -240.889205932617 3.198413133621
-19.612028121948 -77.994964599609 -229.268066406250 1.202251076698
-34.145538330078 -83.607948303223 -235.444076538086 5.597608566284
0.882842004299 -79.741683959961 -231.341888427734 1.423712134361
4.344571113586 -88.010719299316 -239.645172119141 9.046656608582
1.223422050476 -78.931488037109 -228.810073852539 1.134402036667
-58.977874755859 -80.204307556152 -239.881439208984 5.453651428223
-147.984573364258 -75.488800048828 -250.377868652344 2.845914125443
-153.073410034180 -79.548171997070 -247.848724365234 2.160609483719
12.934135437012 -83.953895568848 -242.747787475586 2.205698966980
26.683906555176 -84.703575134277 -240.811279296875 7.918023109436
-60.995967864990 -77.161010742188 -244.987426757813 1.217102646828
-140.957504272461 -85.479454040527 -251.988082885742 5.372873783112
-152.660385131836 -84.068916320801 -254.953781127930 1.870611071587
-154.118057250977 -84.149848937988 -257.176757812500 2.211889028549
-142.151687622070 -77.081253051758 -262.808685302734 0.813649535179
-141.873489379883 -81.505744934082 -256.602691650391 1.487762212753
-5.025918960571 -84.194641113281 -251.994171142578 2.402055978775
-144.858734130859 -81.942794799805 -262.033233642578 1.696793913841
-13.767366409302 -83.473968505859 -265.353118896484 5.735796928406
-146.308654785156 -79.128555297852 -271.077423095703 0.829105079174
-146.525787353516 -80.517883300781 -282.629943847656 1.451959371567
-145.933151245117 -79.032691955566 -284.939910888672 2.182983160019
-1.967345952988 -77.990074157715 -281.490356445313 1.571056008339
-147.960891723633 -76.644073486328 -282.855194091797 1.374389410019
-22.686050415039 -85.016098022461 -282.501342773438 8.853259086609
-23.099935531616 -79.380470275879 -281.239562988281 5.695249557495
-10.791577339172 -80.165939331055 -291.164031982422 2.975276470184
-13.214219093323 -79.679687500000 -290.489410400391 2.577668190002
13.151576995850 -86.579627990723 -286.440093994141 8.700651168823
-123.026550292969 -84.262802124023 -289.841400146484 7.615447044373
-61.080112457275 -83.112953186035 -284.418273925781 7.917438030243
-40.634876251221 -79.087249755859 -287.908020019531 3.155382871628
-31.848705291748 -83.607139587402 -284.023468017578 6.815878868103
-6.401024818420 -80.930664062500 -290.915130615234 3.395945072174
7.487495899200 -84.811241149902 -283.285156250000 6.115551471710
-139.114456176758 -82.258247375488 -299.059783935547 6.379565715790
13.360628128052 -84.411262512207 -292.428314208984 6.531772613525
-151.774108886719 -78.696662902832 -303.770751953125 2.987693786621
-152.957565307617 -87.095184326172 -301.628021240234 3.185928106308
-150.973541259766 -77.249771118164 -313.320007324219 1.964178442955
-139.633178710938 -81.193519592285 -309.352569580078 6.826258659363
-56.530899047852 -71.726150512695 -46.900421142578 1.581782698631
-58.507312774658 -76.909370422363 -53.763576507568 1.028949975967
-73.575126647949 -69.458198547363 -52.657817840576 2.111502647400
-44.629032135010 -69.922073364258 -60.642528533936 6.544918060303
-40.331447601318 -72.859992980957 -56.562709808350 1.352924108505
-23.189853668213 -72.305519104004 -67.639640808105 4.109917640686
-85.872352600098 -68.704521179199 -68.226325988770 4.796730041504
81.491043090820 -75.600631713867 -71.831069946289 1.376387715340
-95.744796752930 -69.994247436523 -71.011016845703 1.322416305542
75.208404541016 -72.008712768555 -69.998519897461 0.857721686363
84.548988342285 -69.568374633789 -78.141090393066 4.714563846588
94.819374084473 -72.132957458496 -83.884254455566 3.670740127563
-65.517578125000 -76.287666320801 -94.536590576172 2.051330804825
77.822708129883 -77.644897460938 -90.422378540039 2.844110965729
71.865859985352 -80.915252685547 -83.964813232422 5.079706192017
82.126609802246 -75.130012512207 -83.893684387207 3.585209131241
-62.003540039063 -73.352333068848 -95.328033447266 2.523006200790
43.938606262207 -72.698448181152 -93.008850097656 3.824931144714
42.088321685791 -74.535606384277 -101.222938537598 2.949147462845
35.404888153076 -76.198272705078 -98.088203430176 8.935643196106
31.655094146729 -75.588523864746 -95.207534790039 13.298272132874
-95.830413818359 -68.056304931641 -101.094512939453 2.148496389389
31.935422897339 -73.497451782227 -112.321472167969 1.781461477280
-88.480537414551 -73.813606262207 -105.027236938477 4.312885284424
36.727832794189 -77.551963806152 -123.044578552246 1.673931837082
29.039655685425 -76.904464721680 -115.330162048340 5.104335784912
31.245450973511 -66.746398925781 -116.659828186035 5.948729515076
41.673732757568 -73.108161926270 -111.575592041016 2.543758869171
38.915252685547 -79.618751525879 -123.141433715820 1.435318946838
-53.358871459961 -67.962051391602 -132.750335693359 2.245369911194
35.114017486572 -81.703842163086 -128.356933593750 3.073968887329
33.082767486572 -76.520820617676 -139.502609252930 2.152795791626
-59.041370391846 -73.412033081055 -142.543563842773 1.694821238518
-46.769603729248 -75.830223083496 -137.259353637695 0.173727020621
32.608104705811 -74.539573669434 -137.162796020508 2.634442090988
107.684020996094 -71.748161315918 -133.067047119141 2.480342149734
109.697456359863 -73.427024841309 -140.152709960938 1.297612071037
23.896589279175 -78.224914550781 -135.857971191406 3.627721786499
-42.052146911621 -79.274719238281 -146.830963134766 2.783321619034
115.560981750488 -86.556892395020 -143.989852905273 10.041967391968
-38.593479156494 -73.575378417969 -149.391021728516 2.281210422516
-69.518173217773 -74.742523193359 -161.302230834961 1.510907649994
108.351921081543 -83.515144348145 -146.660614013672 7.054162025452
20.892488479614 -78.857887268066 -162.166137695313 2.263285636902
-0.694239020348 -77.728057861328 -158.465026855469 3.346695899963
108.560127258301 -78.103302001953 -144.135955810547 4.495899200439
-65.864334106445 -75.712265014648 -164.543869018555 2.001760482788
-40.840850830078 -78.265754699707 -163.647140502930 1.976672530174
109.192207336426 -79.809066772461 -157.386123657227 3.057503700256
25.294616699219 -70.841728210449 -153.822509765625 1.347241640091
-62.971893310547 -68.480239868164 -161.991500854492 3.939095973969
111.302009582520 -78.948341369629 -157.950393676758 1.941462993622
-67.237022399902 -77.832077026367 -166.803604125977 1.544959545135
-49.483234405518 -80.567443847656 -180.430603027344 0.981067717075
104.508033752441 -78.168907165527 -163.719696044922 5.641861915588
-60.940261840820 -74.784156799316 -170.696319580078 0.775070488453
111.534263610840 -77.849967956543 -171.104797363281 2.678324460983
-62.996181488037 -75.368995666504 -174.684860229492 0.964742243290
-17.667266845703 -74.179443359375 -173.922546386719 4.388111114502
-10.548251152039 -83.908233642578 -179.047653198242 2.390963077545
105.828994750977 -80.801872253418 -157.824035644531 5.912707328796
20.082916259766 -79.192642211914 -166.179336547852 4.019580841064
29.655136108398 -71.566368103027 -163.856399536133 2.499362707138
-59.771942138672 -75.600334167480 -175.325469970703 2.142549276352
15.776824951172 -75.516334533691 -177.035644531250 2.303691387177
-58.885700225830 -77.579971313477 -171.797302246094 1.811478376389
-53.472209930420 -75.681503295898 -193.063659667969 3.234453201294
8.924032211304 -75.142745971680 -180.864974975586 5.913746833801
-56.609821319580 -70.824256896973 -176.814224243164 2.840637683868
104.889938354492 -76.245986938477 -181.981094360352 0.978123247623
25.233585357666 -81.610839843750 -177.049804687500 2.864545345306
-36.807125091553 -74.496444702148 -185.195648193359 2.775295734406
-44.282787322998 -80.505264282227 -186.243988037109 2.168775320053
10.291152954102 -81.095153808594 -186.251525878906 5.639701366425
-21.255689620972 -78.941413879395 -183.611465454102 1.704284429550
-47.685729980469 -79.278182983398 -193.144882202148 2.026665687561
100.115760803223 -84.030975341797 -174.588500976563 10.761139869690
7.237845897675 -82.503372192383 -185.454269409180 9.008347511292
-132.622680664063 -84.219261169434 -200.241333007813 3.477798938751
-50.935390472412 -80.114860534668 -193.313018798828 1.506886720657
93.220687866211 -78.533935546875 -191.600555419922 7.599518299103
-150.706298828125 -82.968765258789 -202.939941406250 1.632678151131
17.680898666382 -79.388511657715 -196.808746337891 1.853456854820
-44.190143585205 -74.364715576172 -203.573944091797 2.790184736252
-30.189483642578 -82.080253601074 -204.371643066406 3.912663459778
-37.942016601563 -79.469238281250 -197.467788696289 2.277791261673
-47.054233551025 -85.574211120605 -195.177276611328 2.472919940948
100.372055053711 -79.773307800293 -197.926956176758 2.385799169540
-22.272399902344 -83.167907714844 -195.831359863281 3.520910501480
-150.875228881836 -76.565376281738 -200.640258789063 2.303007125854
14.994411468506 -81.947334289551 -195.787704467773 3.266680717468
-78.041709899902 -82.605255126953 -202.969375610352 5.710510253906
-142.668151855469 -74.543899536133 -215.084014892578 3.795812368393
92.949150085449 -83.547103881836 -207.269592285156 7.224136352539
-33.549156188965 -76.652748107910 -203.843017578125 1.672339677811
-29.252487182617 -79.438133239746 -206.873703002930 1.428370952606
9.985363960266 -79.634994506836 -205.057739257813 2.173615932465
-72.451843261719 -82.954307556152 -204.443634033203 5.114602565765
-27.322204589844 -87.985771179199 -201.041275024414 10.356114387512
-9.176710128784 -81.156356811523 -213.476257324219 2.195435523987
-69.467475891113 -79.225852966309 -211.823379516602 1.750145316124
-14.048780441284 -79.812332153320 -213.748321533203 1.718653202057
7.357653141022 -69.362663269043 -206.785751342773 2.782520055771
11.618722915649 -83.145477294922 -216.896194458008 3.229385852814
-152.441543579102 -79.750022888184 -218.675140380859 3.279847383499
-9.719566345215 -79.082817077637 -210.103118896484 1.088289141655
-103.160896301270 -74.142021179199 -219.142196655273 2.396492958069
-22.142063140869 -78.831977844238 -215.730682373047 1.131174206734
87.490837097168 -87.159133911133 -204.917602539063 11.743963241577
9.957572937012 -77.416503906250 -219.555023193359 1.603469491005
22.162826538086 -79.484008789063 -211.297775268555 6.150348186493
79.193473815918 -82.227760314941 -205.615554809570 12.821934700012
1.586946964264 -85.414520263672 -226.066604614258 5.771668910980
84.848953247070 -81.069892883301 -209.594802856445 7.040793895721
-21.855518341064 -74.275291442871 -221.729232788086 1.257164359093
16.719264984131 -75.535049438477 -213.363906860352 1.503130912781
-149.317871093750 -79.123107910156 -218.260742187500 1.758604526520
-27.297031402588 -81.108070373535 -223.177108764648 4.385018348694
2.405117988586 -76.565681457520 -227.526535034180 2.039228439331
-156.670928955078 -84.028961181641 -225.267593383789 4.904087543488
-137.584915161133 -82.112030029297 -227.738555908203 1.664003610611
2.158946037292 -79.279693603516 -218.470336914063 4.154437541962
-3.524230003357 -75.265480041504 -219.624130249023 1.418759822845
-137.145767211914 -73.913825988770 -228.996520996094 2.519577503204
-146.872558593750 -78.975685119629 -243.896392822266 2.035917997360
-148.890762329102 -79.237899780273 -236.037826538086 2.019270658493
-30.901744842529 -81.461769104004 -233.007522583008 5.890717506409
-140.567260742188 -82.990386962891 -243.628723144531 4.435083866119
14.878012657166 -82.615547180176 -236.437774658203 1.229275465012
6.705912113190 -80.260253906250 -240.705718994141 2.087428092957
-150.249374389648 -71.885131835938 -239.561752319336 3.204773902893
-148.993316650391 -78.131332397461 -245.856567382813 0.852678537369
-44.326969146729 -82.619308471680 -243.752304077148 2.342413663864
-30.799900054932 -81.125732421875 -244.342727661133 2.299890756607
4.489654064178 -80.102981567383 -237.360626220703 2.039024829865
-34.783176422119 -82.696655273438 -242.116363525391 2.708778381348
22.512010574341 -81.204429626465 -241.201980590820 3.197877645493
-5.179125785828 -83.522926330566 -249.387741088867 2.691570281982
-142.045516967773 -80.628448486328 -253.330627441406 1.577671051025
-9.542299270630 -86.963546752930 -249.183547973633 6.586504936218
-147.846923828125 -76.102737426758 -246.437423706055 1.540284037590
-63.789176940918 -82.651763916016 -248.081024169922 4.617814064026
-145.028198242188 -87.179084777832 -258.887634277344 2.398385524750
-126.599182128906 -79.915115356445 -257.750091552734 2.181427955627
-152.556930541992 -79.622032165527 -256.940124511719 1.810500860214
-8.363530158997 -78.777496337891 -263.853485107422 2.905071496964
-143.817977905273 -87.547775268555 -273.957427978516 4.757260322571
-147.271774291992 -80.476066589355 -270.627899169922 1.759886741638
-10.578124046326 -81.917633056641 -267.092071533203 2.614987373352
-141.982559204102 -80.321922302246 -270.065246582031 4.607174873352
-5.167259216309 -80.241653442383 -271.865020751953 1.635936617851
-43.348011016846 -80.974426269531 -280.362335205078 6.858569145203
-132.773788452148 -77.804176330566 -288.512969970703 1.094063401222
-133.973739624023 -80.379684448242 -285.804443359375 3.874110460281
-120.312568664551 -76.746917724609 -280.377227783203 6.047751903534
-49.215232849121 -80.973731994629 -283.486083984375 4.352840900421
-109.017822265625 -79.742324829102 -281.983398437500 8.785424232483
19.125858306885 -82.205841064453 -288.282501220703 5.663108825684
-53.805400848389 -79.499725341797 -285.982971191406 3.114866733551
-137.996139526367 -81.002586364746 -294.121185302734 2.447924137115
-61.125297546387 -80.440658569336 -288.304718017578 4.342653274536
-142.695251464844 -87.250556945801 -294.213348388672 3.455177783966
-113.671173095703 -78.184165954590 -290.696105957031 4.588413715363
-43.150737762451 -85.425834655762 -287.202819824219 7.914043903351
-30.538925170898 -82.235916137695 -288.416748046875 3.173500776291
-136.042022705078 -75.839393615723 -297.720489501953 4.227473735809
-12.680187225342 -75.309608459473 -276.864593505859 0.934775054455
8.043755531311 -81.913200378418 -281.879577636719 4.044076919556
9.288588523865 -80.556015014648 -285.525817871094 3.163039445877
18.015237808228 -84.171218872070 -291.043090820313 7.184407234192
-147.025115966797 -86.633239746094 -298.872192382813 2.500961065292
-141.541656494141 -78.127243041992 -292.051666259766 1.593953490257
-70.415428161621 -68.991104125977 -60.933536529541 7.496511936188
84.743095397949 -75.969863891602 -64.836830139160 4.473095893860
74.456253051758 -75.356025695801 -71.001274108887 2.966879606247
-32.668827056885 -75.431304931641 -73.046501159668 4.711730480194
78.948867797852 -71.979270935059 -67.369735717773 1.403511762619
-42.912700653076 -75.602264404297 -76.744010925293 4.613743305206
77.361663818359 -69.263870239258 -76.259147644043 4.631220817566
92.714996337891 -69.375106811523 -72.317436218262 3.317792415619
-68.000160217285 -66.350402832031 -94.870407104492 3.196333169937
68.208213806152 -75.274398803711 -87.954650878906 3.081950187683
76.073661804199 -72.128349304199 -91.233078002930 3.097612857819
93.945259094238 -78.386993408203 -87.987617492676 2.455871343613
51.550407409668 -76.708503723145 -90.648918151855 2.778556585312
-68.420562744141 -69.292877197266 -99.461914062500 0.954286694527
-77.242675781250 -69.023399353027 -99.379737854004 1.540432572365
47.449657440186 -77.047706604004 -97.122245788574 3.007762432098
-90.467628479004 -74.054855346680 -100.170051574707 3.701887845993
44.810466766357 -71.359504699707 -112.736152648926 1.609826087952
107.680229187012 -75.320541381836 -112.523292541504 1.152400374413
110.434906005859 -79.102874755859 -121.942070007324 4.076041221619
16.812429428101 -73.071250915527 -131.912597656250 10.637050628662
107.440551757813 -78.636154174805 -118.936981201172 3.393376350403
26.669818878174 -72.209022521973 -128.042434692383 3.955238342285
110.123908996582 -69.680732727051 -125.428825378418 1.018062591553
34.257930755615 -72.686386108398 -129.360076904297 2.302335262299
-59.827049255371 -73.660957336426 -137.472579956055 2.928389310837
34.351337432861 -81.131782531738 -140.512237548828 1.719936013222
106.046699523926 -74.363677978516 -126.257331848145 3.793846607208
-47.126033782959 -72.698844909668 -140.988616943359 1.613510012627
30.038705825806 -74.452766418457 -145.547149658203 3.752826690674
-59.031703948975 -68.000114440918 -139.661499023438 1.663515210152
-62.731582641602 -74.106277465820 -141.678024291992 4.021947860718
-55.143505096436 -78.780410766602 -147.529159545898 1.905779123306
-66.084274291992 -78.454444885254 -153.366699218750 1.861312866211
108.966148376465 -82.281051635742 -138.684677124023 6.410296916962
-51.580005645752 -83.077522277832 -152.351333618164 5.712043762207
21.548501968384 -82.321647644043 -151.567474365234 4.576155185699
105.622200012207 -78.776275634766 -155.593688964844 5.821898460388
-66.849990844727 -75.180618286133 -152.156921386719 1.443900227547
-44.314395904541 -76.853309631348 -154.709625244141 2.510570764542
7.398331165314 -73.493164062500 -149.818756103516 3.015271902084
-70.451316833496 -75.742912292480 -151.856689453125 2.214854717255
-66.435249328613 -78.525833129883 -155.615112304688 1.570875287056
-0.870993971825 -76.468788146973 -158.125961303711 3.611398220062
-45.858001708984 -71.327583312988 -165.429611206055 1.693569660187
27.117074966431 -74.435317993164 -163.048599243164 1.038714528084
-64.799720764160 -70.842094421387 -166.908416748047 2.082700490952
-57.140819549561 -78.226997375488 -163.622680664063 3.188035488129
12.029029846191 -80.302223205566 -154.735244750977 6.098454475403
-31.365003585815 -74.713966369629 -165.005859375000 2.788120985031
-29.715202331543 -79.115776062012 -162.886520385742 3.515363454819
13.373384475708 -78.777679443359 -169.827789306641 4.824276447296
-45.561450958252 -79.649475097656 -169.998626708984 3.844888925552
-11.469303131104 -78.464866638184 -168.125350952148 1.661190509796
-68.088752746582 -71.973083496094 -169.366744995117 3.629916191101
-9.114480018616 -74.009277343750 -170.767379760742 1.245148539543
-22.370817184448 -76.893188476563 -176.243682861328 2.343801021576
21.180681228638 -74.147628784180 -179.792373657227 3.097771644592
-40.094554901123 -78.508628845215 -169.289169311523 0.915019273758
20.443693161011 -72.465240478516 -170.350769042969 2.941972494125
-23.537769317627 -72.956794738770 -182.791259765625 1.386304616928
-33.170635223389 -79.585289001465 -173.617340087891 1.666464805603
-148.940200805664 -72.310325622559 -194.272155761719 2.184575080872
-18.031007766724 -82.336524963379 -179.391616821289 1.898038268089
-140.490371704102 -73.892974853516 -190.281372070313 3.554124593735
-155.383270263672 -76.083412170410 -188.045944213867 6.194832801819
-50.841697692871 -74.830139160156 -186.492614746094 1.249885439873
97.802619934082 -78.374252319336 -187.380676269531 5.150103092194
-145.650939941406 -77.243789672852 -190.447189331055 2.337987184525
-145.195220947266 -73.388572692871 -196.208038330078 1.382429242134
22.445055007935 -75.942306518555 -190.983383178711 0.977002203465
-139.546142578125 -76.783325195313 -195.974258422852 2.255226135254
12.176117897034 -73.570610046387 -194.770095825195 1.277091979980
-138.013732910156 -79.963287353516 -200.023056030273 2.707638025284
12.833539962769 -73.441711425781 -193.368316650391 2.193941593170
-132.958602905273 -72.172988891602 -195.078842163086 0.633519113064
4.399549007416 -73.865211486816 -197.146179199219 5.245217323303
-152.633804321289 -76.238265991211 -202.480529785156 1.592532038689
95.502395629883 -79.580497741699 -199.475524902344 3.319806814194
-17.345462799072 -81.101409912109 -205.541549682617 2.318085432053
-30.575599670410 -76.716659545898 -205.898818969727 1.257001876831
-12.646933555603 -71.976585388184 -201.487182617188 1.038594245911
-144.715255737305 -82.056427001953 -210.631652832031 1.288939595222
-35.777984619141 -77.614982604980 -199.530975341797 1.940897822380
-84.856544494629 -79.280693054199 -200.555007934570 10.987738609314
-26.977964401245 -79.647865295410 -204.497390747070 3.364364862442
13.934922218323 -79.474594116211 -209.610168457031 1.353256583214
-145.873840332031 -74.000869750977 -216.179153442383 1.757068872452
-88.442649841309 -80.613143920898 -218.257232666016 3.644980907440
-28.777971267700 -77.153167724609 -217.357666015625 0.643089354038
-27.321157455444 -78.627784729004 -217.624603271484 1.898898839951
-7.387318134308 -80.261367797852 -204.226715087891 5.661485195160
-27.412227630615 -77.009140014648 -203.649948120117 3.631081342697
-84.261123657227 -78.344757080078 -221.045043945313 4.538402557373
-90.280273437500 -84.063796997070 -218.358963012695 7.127859115601
-22.271135330200 -77.746780395508 -218.565933227539 0.861768245697
-1.549615025520 -89.012420654297 -220.871582031250 8.573998451233
-157.177139282227 -79.470512390137 -218.001296997070 7.263810157776
-2.095163106918 -80.657386779785 -217.725906372070 2.812365770340
88.811958312988 -85.594993591309 -220.729492187500 9.119002342224
-138.326492309570 -80.117233276367 -222.809875488281 4.226900100708
-2.557915925980 -79.427093505859 -216.408859252930 1.944229364395
-138.345657348633 -79.234718322754 -225.642044067383 1.821772456169
-146.721160888672 -85.991767883301 -224.792648315430 2.184917688370
-4.950812816620 -78.050361633301 -223.752792358398 2.170295476913
22.777687072754 -80.210929870605 -207.745895385742 5.067647457123
-137.781280517578 -75.315628051758 -229.568542480469 2.516606569290
-17.806045532227 -81.071830749512 -223.558273315430 2.952727079391
71.312881469727 -81.241043090820 -218.124816894531 11.013857841492
75.193649291992 -81.012031555176 -227.538269042969 5.735490322113
11.616410255432 -81.981880187988 -224.798461914063 2.400224208832
-34.551624298096 -80.416389465332 -232.106842041016 6.856716632843
-23.877960205078 -88.689437866211 -238.682998657227 9.795566558838
3.227530956268 -78.121040344238 -238.776565551758 0.677953958511
-45.269920349121 -74.051124572754 -241.223968505859 2.169718265533
-19.279617309570 -77.125373840332 -239.255508422852 0.766410946846
11.716371536255 -76.037399291992 -233.264984130859 2.588533401489
-61.858764648438 -79.857765197754 -243.176849365234 3.967173814774
-36.156463623047 -85.427803039551 -240.457168579102 5.781075000763
-36.356273651123 -78.268417358398 -242.362487792969 0.709671139717
-146.107940673828 -75.377891540527 -246.340759277344 1.260283708572
-43.153217315674 -83.155265808105 -245.577758789063 3.249145984650
-50.928821563721 -70.378211975098 -244.726440429688 2.636733055115
-64.114242553711 -78.991561889648 -246.189575195313 1.614763975143
-9.292490959167 -85.186431884766 -240.502120971680 10.751836776733
-76.894401550293 -81.334358215332 -253.718383789063 5.295344352722
-155.455902099609 -85.306922912598 -253.154708862305 2.209135532379
-138.581054687500 -76.788322448730 -253.120697021484 2.483892202377
-118.898864746094 -81.157447814941 -257.340606689453 7.186002731323
-157.769363403320 -74.801811218262 -258.052246093750 2.501432657242
20.445678710938 -89.092613220215 -261.706512451172 7.476330757141
-13.012688636780 -83.629417419434 -264.859313964844 5.224535465240
-153.528839111328 -82.525405883789 -275.249572753906 3.414746284485
-150.822769165039 -87.242279052734 -278.959289550781 1.825443387032
-143.568374633789 -82.271751403809 -286.018157958984 2.079358339310
-56.384143829346 -75.311363220215 -276.288818359375 8.256397247314
-36.115913391113 -74.974357604980 -282.290008544922 4.630046844482
-14.326465606689 -79.115234375000 -286.136016845703 3.298653364182
-6.132328033447 -76.476455688477 -273.254913330078 3.136318922043
-63.754467010498 -84.705970764160 -282.116516113281 10.080802917480
-78.798255920410 -86.140510559082 -283.672760009766 10.461975097656
0.819674015045 -82.705841064453 -276.921936035156 1.792435765266
4.853845119476 -83.968185424805 -288.240264892578 6.490886688232
-137.907180786133 -78.290412902832 -285.329742431641 2.354305028915
-78.431114196777 -76.714828491211 -283.681701660156 4.250700473785
-144.134140014648 -78.566200256348 -287.543151855469 2.887073278427
-92.186119079590 -91.185386657715 -282.791931152344 16.517059326172
-76.143295288086 -80.060035705566 -282.934906005859 6.279109954834
-83.368141174316 -77.937583923340 -295.076751708984 4.707940101624
-60.810089111328 -80.744644165039 -289.571716308594 4.097725391388
-28.361661911011 -74.145507812500 -292.707855224609 1.948596000671
-6.617588996887 -81.299789428711 -285.905883789063 5.112011432648
-147.158615112305 -72.410690307617 -300.908874511719 1.758306145668
-144.835632324219 -77.733070373535 -301.391052246094 1.776096582413
-139.989212036133 -78.949058532715 -306.169494628906 3.825960874557
-155.050277709961 -79.962478637695 -304.947296142578 2.757186651230
-61.184307098389 -65.736465454102 -54.297660827637 7.238052368164
-54.065685272217 -69.475250244141 -50.315704345703 2.014968872070
-44.919494628906 -72.193733215332 -50.346130371094 1.649837374687
-82.496849060059 -73.398338317871 -61.442626953125 1.617168903351
-34.172145843506 -69.069053649902 -62.211494445801 6.432627201080
-39.746871948242 -70.391426086426 -76.924453735352 0.953372657299
69.861305236816 -77.786849975586 -76.707260131836 3.659852981567
70.716415405273 -72.861625671387 -72.240539550781 2.452830076218
67.805572509766 -69.750000000000 -76.784172058105 0.713361084461
97.129661560059 -69.462882995605 -83.032707214355 2.907265424728
63.309272766113 -75.905471801758 -82.367576599121 6.274003982544
42.831104278564 -76.491264343262 -82.049293518066 11.447710037231
49.125286102295 -80.086776733398 -95.498619079590 4.656084537506
-69.656906127930 -69.874641418457 -100.735519409180 1.432889103889
-77.991203308105 -67.028747558594 -101.159004211426 0.997265756130
41.318885803223 -74.992607116699 -97.207847595215 3.857223510742
-85.263771057129 -78.275352478027 -108.686782836914 2.955477476120
-95.859458923340 -69.810615539551 -109.007102966309 2.454310417175
48.016006469727 -73.857658386230 -103.135604858398 3.208279848099
104.287620544434 -73.733963012695 -109.121688842773 0.647697091103
30.574291229248 -76.579505920410 -121.280891418457 1.831556320190
39.002868652344 -76.035774230957 -112.795021057129 1.713476061821
36.711830139160 -72.267196655273 -116.877731323242 1.792956352234
27.265218734741 -76.030830383301 -116.108924865723 5.904941082001
106.445953369141 -75.286308288574 -113.637527465820 0.696570754051
36.596527099609 -78.255325317383 -126.425559997559 2.165636301041
33.208915710449 -69.853385925293 -127.564598083496 1.308098316193
-46.021488189697 -72.353652954102 -138.768890380859 1.233743071556
-71.848205566406 -77.666885375977 -140.546386718750 2.790099859238
-54.441204071045 -73.199752807617 -147.525222778320 1.901122331619
-77.590019226074 -79.410461425781 -143.868164062500 6.471107482910
-39.754760742188 -74.276565551758 -145.002761840820 3.938355445862
103.789642333984 -77.893440246582 -149.883712768555 6.310649394989
-73.373626708984 -77.088317871094 -154.681167602539 2.899639368057
21.136125564575 -81.413658142090 -140.322921752930 4.648561477661
25.527259826660 -78.454360961914 -143.531387329102 1.740637302399
108.837272644043 -81.103828430176 -155.218719482422 5.261014938354
8.233809471130 -79.744979858398 -154.451614379883 4.595671653748
31.902359008789 -72.700637817383 -150.153457641602 1.901426672935
-64.101058959961 -77.835777282715 -157.164550781250 1.213569402695
-40.747253417969 -78.266754150391 -171.671279907227 1.648779988289
20.601776123047 -76.230346679688 -158.129531860352 0.736843824387
-67.278068542480 -73.374114990234 -153.116638183594 1.159495711327
-71.954551696777 -74.804084777832 -163.841629028320 3.568222999573
113.939804077148 -79.979148864746 -157.829498291016 3.309019088745
-9.989941596985 -77.617187500000 -160.231430053711 7.085410594940
-67.608078002930 -73.143844604492 -168.893859863281 3.218088388443
-37.646339416504 -77.828628540039 -162.928985595703 1.814203143120
-55.256725311279 -74.032722473145 -168.792404174805 4.615646839142
30.025436401367 -75.696006774902 -171.057540893555 1.664662957191
110.479782104492 -74.370201110840 -164.776947021484 1.590661287308
101.188446044922 -75.976181030273 -175.629623413086 4.749353885651
103.529472351074 -77.566139221191 -181.410644531250 1.033839344978
105.272666931152 -74.513717651367 -167.860671997070 1.699146986008
-51.269779205322 -74.668716430664 -190.470108032227 1.795420169830
-47.729587554932 -71.990180969238 -180.794204711914 4.855468750000
26.901206970215 -76.547126770020 -178.567764282227 1.852276802063
-48.275669097900 -74.677520751953 -182.281951904297 1.956308245659
-21.823322296143 -76.519142150879 -179.909576416016 2.012062549591
-51.795467376709 -80.022949218750 -188.548339843750 2.494178056717
-152.913543701172 -73.750404357910 -193.200576782227 3.198111772537
100.193161010742 -81.160575866699 -184.271575927734 5.487496376038
-44.632656097412 -73.167480468750 -192.486663818359 1.721689462662
-11.904936790466 -78.995193481445 -195.473083496094 4.861650943756
-139.795578002930 -74.223739624023 -192.305282592773 4.238842964172
-41.023868560791 -73.860397338867 -196.431808471680 2.420852184296
100.115028381348 -76.641075134277 -188.456329345703 2.320485115051
107.169593811035 -75.488319396973 -176.619232177734 1.928256392479
-42.922431945801 -76.174278259277 -192.155242919922 1.267067193985
-22.547994613647 -85.893432617188 -195.818756103516 6.140057086945
-147.108673095703 -78.400794982910 -200.782180786133 3.221993207932
-25.650835037231 -76.105743408203 -191.263778686523 1.152017235756
-161.263259887695 -75.454315185547 -197.313278198242 4.293640613556
-152.923355102539 -84.278610229492 -206.081787109375 4.788617134094
-145.701217651367 -78.042335510254 -202.176620483398 2.676513671875
-38.948669433594 -77.891281127930 -198.211471557617 1.616909027100
101.695404052734 -80.373268127441 -195.959548950195 3.430906534195
-43.011077880859 -74.440933227539 -197.058898925781 2.348268032074
-142.206542968750 -79.967575073242 -204.953338623047 1.910948276520
-37.313697814941 -72.261886596680 -202.213256835938 2.040971994400
-22.960529327393 -84.096038818359 -205.902511596680 6.536350727081
97.821937561035 -82.498741149902 -198.049148559570 5.351490497589
89.801345825195 -81.359642028809 -207.817001342773 6.164153099060
-38.075405120850 -75.272598266602 -214.132659912109 5.044520378113
-88.707801818848 -78.564529418945 -208.074737548828 4.995110511780
-75.781211853027 -78.496261596680 -209.674835205078 2.248995304108
-19.738264083862 -77.554504394531 -204.450149536133 1.056036472321
-150.437576293945 -78.591209411621 -200.626449584961 0.625106871128
92.223159790039 -78.193367004395 -206.643020629883 2.681850194931
88.463691711426 -74.837509155273 -210.527496337891 1.838506340981
89.872886657715 -80.260581970215 -213.515747070313 3.383019208908
-102.806526184082 -78.562705993652 -216.712722778320 6.751597881317
-155.063934326172 -79.094390869141 -221.103439331055 4.576575279236
-20.050413131714 -75.703781127930 -220.746215820313 1.974135756493
81.555351257324 -75.122688293457 -220.975402832031 1.699469447136
-150.322830200195 -81.292549133301 -221.139862060547 3.152245521545
-29.628986358643 -79.605178833008 -212.850570678711 1.927135944366
-133.864318847656 -75.099220275879 -233.772964477539 1.720422863960
-10.390191078186 -81.931716918945 -228.079315185547 3.908511161804
17.569467544556 -77.357475280762 -225.331024169922 1.791365504265
20.992786407471 -80.123924255371 -228.492843627930 2.693726778030
-155.080841064453 -80.318962097168 -236.528350830078 5.279369354248
-126.137924194336 -72.634559631348 -232.609817504883 2.317345380783
-7.646719932556 -78.567390441895 -231.606399536133 2.793513536453
0.961980998516 -77.885208129883 -233.533996582031 2.674658298492
69.524330139160 -79.225769042969 -223.577133178711 8.854512214661
69.429542541504 -75.661865234375 -233.149307250977 1.748066902161
0.631258010864 -76.030021667480 -235.909255981445 1.186166048050
16.684110641479 -74.118301391602 -235.474243164063 0.830784559250
-30.945840835571 -68.878295898438 -238.890441894531 6.278212070465
-31.117862701416 -90.038749694824 -238.765106201172 9.630455017090
-49.061912536621 -78.484039306641 -231.911010742188 9.154666900635
-40.312072753906 -75.962936401367 -236.397857666016 4.531308174133
-15.051612854004 -80.495208740234 -239.130310058594 4.129360675812
-50.675617218018 -76.333076477051 -241.890274047852 1.812428355217
2.584551095963 -80.197715759277 -240.852828979492 2.569316148758
-67.706832885742 -81.691001892090 -239.802612304688 8.146625518799
22.873668670654 -81.423355102539 -242.032745361328 2.901386976242
-140.594345092773 -80.684799194336 -243.484375000000 4.351987838745
-72.013603210449 -82.147949218750 -252.374847412109 4.999170303345
18.075412750244 -80.568588256836 -245.379791259766 1.682258009911
-159.862609863281 -76.405914306641 -250.116149902344 1.648346543312
13.276805877686 -85.017593383789 -249.182250976563 3.262028932571
-79.392944335938 -70.999221801758 -249.466629028320 1.133433341980
-75.002098083496 -79.121665954590 -248.250717163086 4.318955421448
19.086606979370 -82.395637512207 -248.629791259766 1.838157296181
-88.553695678711 -77.853843688965 -248.786132812500 4.392869949341
-124.570602416992 -73.714759826660 -254.042327880859 1.067676067352
-130.381347656250 -83.763961791992 -260.575531005859 4.894033432007
-135.660949707031 -82.041618347168 -251.214828491211 5.680675029755
-145.263229370117 -81.420211791992 -262.132385253906 1.896276354790
-145.801620483398 -73.745063781738 -251.459976196289 0.713653504848
-132.339874267578 -76.716804504395 -261.682800292969 2.046844244003
-160.284973144531 -73.719993591309 -261.118377685547 1.904872775078
-126.937438964844 -79.374031066895 -267.527770996094 6.611000061035
-135.357101440430 -71.637786865234 -263.435699462891 1.270137310028
-159.868209838867 -74.807968139648 -272.463348388672 2.766268014908
-153.369430541992 -75.257423400879 -265.493408203125 2.384332180023
-145.752593994141 -76.427124023438 -266.252838134766 1.638514280319
-147.610107421875 -79.714797973633 -266.026458740234 1.850602626801
19.496017456055 -83.675956726074 -274.116851806641 4.114121437073
-165.020568847656 -78.655342102051 -265.978942871094 3.017463684082
-149.386291503906 -81.306518554688 -273.733184814453 2.154659509659
-3.034451007843 -89.767387390137 -267.682647705078 4.929099559784
-151.832855224609 -75.921073913574 -277.126159667969 1.248294115067
13.949716567993 -84.959968566895 -279.151794433594 5.290431022644
-150.843353271484 -78.639373779297 -281.712493896484 1.568922042847
-164.442199707031 -81.257766723633 -289.904022216797 6.045375823975
-153.788894653320 -82.888191223145 -277.079193115234 3.647884845734
-161.768783569336 -76.437774658203 -290.795776367188 1.460284829140
2.259691953659 -85.832641601563 -282.226593017578 5.716510295868
9.222656250000 -87.338638305664 -275.756378173828 3.738682031631
-104.419418334961 -77.698287963867 -292.783813476563 4.994747161865
-155.118331909180 -87.779777526855 -287.991973876953 3.739650487900
-145.610641479492 -76.376136779785 -285.020935058594 2.452936172485
-102.721961975098 -78.896842956543 -291.581207275391 5.169049263000
-151.322296142578 -84.088951110840 -293.943572998047 1.107580542564
-145.938491821289 -85.306549072266 -288.306671142578 1.426570653915
-74.155792236328 -85.291496276855 -291.699493408203 8.653573036194
