37.915760040283 -68.638999938965 -111.155509948730 1.771840214729
103.965354919434 -71.463241577148 -119.551239013672 2.285038709641
41.424377441406 -66.768150329590 -120.202064514160 3.897098302841
109.975967407227 -67.347518920898 -132.165451049805 1.938806891441
109.217727661133 -67.153388977051 -130.418853759766 1.018698096275
33.307743072510 -65.565269470215 -117.144165039063 5.860988140106
-78.981430053711 -72.193534851074 -121.942314147949 3.359970808029
111.434242248535 -64.231506347656 -132.632781982422 4.781715869904
-52.472728729248 -71.642471313477 -138.575286865234 2.487281799316
34.280044555664 -71.234954833984 -133.242340087891 2.610908508301
-73.976119995117 -71.826446533203 -132.798568725586 1.901408195496
24.593324661255 -74.503852844238 -128.265975952148 4.047461032867
-81.764823913574 -73.419593811035 -144.496520996094 4.843040943146
-45.585193634033 -75.365646362305 -141.674163818359 1.047373056412
-76.430068969727 -75.136566162109 -138.827178955078 2.132445335388
108.369102478027 -68.026618957520 -134.704452514648 2.105547189713
121.136299133301 -66.112159729004 -140.151641845703 7.901951789856
119.576026916504 -74.064987182617 -147.175552368164 3.181399583817
-82.447280883789 -72.464904785156 -143.121551513672 5.438908100128
5.718190193176 -65.860397338867 -150.433380126953 5.507005691528
-50.082393646240 -72.375396728516 -146.767578125000 3.254315137863
-52.632080078125 -73.848541259766 -154.382858276367 2.410339593887
105.402809143066 -71.562156677246 -163.184906005859 3.120898008347
-40.512592315674 -75.170417785645 -147.289031982422 2.587929248810
14.648760795593 -67.500785827637 -158.378189086914 2.423669099808
22.492235183716 -74.383583068848 -156.312942504883 2.495211601257
114.177436828613 -67.856498718262 -164.493499755859 3.013537645340
30.513895034790 -70.086387634277 -167.497344970703 3.234404563904
-0.803516983986 -74.038925170898 -163.388351440430 0.539883255959
31.899610519409 -72.069252014160 -159.262878417969 1.462736964226
-67.734100341797 -70.878959655762 -155.241760253906 0.805357933044
-67.118896484375 -72.899833679199 -158.888534545898 1.352384567261
-70.332969665527 -69.819923400879 -166.663543701172 4.340104103088
114.146278381348 -64.843750000000 -161.086151123047 5.411597251892
-44.953247070313 -73.233390808105 -162.741943359375 1.109539031982
15.265625000000 -71.616004943848 -164.140518188477 3.279237985611
-63.971233367920 -70.716041564941 -169.964950561523 2.920306444168
-65.701393127441 -69.558593750000 -171.668350219727 3.886366367340
-44.187858581543 -74.696128845215 -160.735519409180 2.353065967560
-35.451805114746 -77.112525939941 -166.578125000000 1.930655837059
116.236701965332 -74.280647277832 -170.291305541992 2.667942047119
-37.707099914551 -64.650657653809 -183.011215209961 7.178317546844
11.468979835510 -73.326499938965 -171.190063476563 5.443309783936
110.480133056641 -75.364044189453 -185.741760253906 2.795136213303
-146.996124267578 -76.797256469727 -176.160690307617 3.832554817200
-146.761199951172 -73.054100036621 -171.285140991211 4.247986793518
-146.042449951172 -71.588386535645 -182.785018920898 2.786162853241
-141.904373168945 -78.070762634277 -185.008071899414 2.452855825424
-33.391181945801 -70.852539062500 -184.108367919922 1.427656054497
-23.500795364380 -74.055587768555 -184.673110961914 2.279671907425
23.720621109009 -66.008773803711 -192.627105712891 4.367399692535
-140.343505859375 -73.646209716797 -186.628387451172 2.212442159653
-148.295104980469 -75.582015991211 -189.109146118164 2.074190139771
-22.587936401367 -70.602394104004 -184.370452880859 1.830247879028
8.581518173218 -71.865242004395 -182.022323608398 5.712918758392
-150.729782104492 -74.862411499023 -196.386779785156 2.320003509521
-31.676092147827 -72.958801269531 -189.626525878906 1.572330117226
99.572120666504 -72.127281188965 -187.048782348633 4.120541095734
104.592575073242 -68.742759704590 -188.697402954102 1.041154503822
25.261131286621 -65.581771850586 -192.921112060547 4.952536106110
-8.730662345886 -72.667572021484 -187.831695556641 8.335209846497
-29.166637420654 -75.948120117188 -191.804672241211 1.617500305176
-156.818222045898 -78.456604003906 -202.508148193359 4.467005729675
-133.037826538086 -76.317535400391 -196.707748413086 1.252444863319
-126.096961975098 -70.376762390137 -194.624649047852 1.474768638611
-127.031188964844 -73.199203491211 -197.404586791992 2.356501817703
-21.680690765381 -67.652053833008 -194.119338989258 1.462615847588
15.065261840820 -76.486785888672 -190.966995239258 1.092242002487
90.973884582520 -79.775077819824 -199.847839355469 5.896075248718
-152.224472045898 -69.005844116211 -194.018722534180 2.632751941681
-143.886032104492 -71.051856994629 -199.276580810547 2.164721727371
-152.290115356445 -75.647895812988 -201.768096923828 2.058900594711
-154.850418090820 -71.741477966309 -196.069335937500 1.142212748528
-23.530975341797 -71.896034240723 -199.266708374023 1.600342154503
-7.151088237762 -67.884635925293 -194.168960571289 7.554952144623
-144.197830200195 -68.339179992676 -203.773620605469 1.311846613884
-21.119981765747 -72.611061096191 -202.600769042969 0.645829319954
-160.238418579102 -74.812889099121 -202.852233886719 3.522748470306
-134.795806884766 -74.456085205078 -199.093688964844 1.467181444168
14.669942855835 -78.036247253418 -205.880355834961 2.382744312286
-158.685272216797 -69.844062805176 -204.934219360352 1.388292431831
-146.459335327148 -78.441650390625 -206.850021362305 1.931930899620
5.964858055115 -70.227012634277 -204.771270751953 3.816044807434
-154.614898681641 -71.244659423828 -202.446395874023 2.762006998062
-25.945190429688 -72.101310729980 -202.950515747070 2.390979528427
92.188987731934 -73.833534240723 -197.558547973633 3.489680051804
-160.778900146484 -77.948173522949 -209.625473022461 6.231619834900
-164.136001586914 -81.638000488281 -205.492568969727 9.743144035339
-75.114311218262 -71.264083862305 -205.505340576172 4.732609748840
90.621147155762 -71.635566711426 -206.466415405273 2.742682695389
-3.815872907639 -73.351982116699 -220.118148803711 1.853467226028
-157.723526000977 -74.155548095703 -212.995437622070 1.966096639633
-86.862762451172 -76.163963317871 -211.968795776367 0.978421211243
-10.145786285400 -78.618560791016 -209.930847167969 0.636225938797
16.425088882446 -73.037117004395 -216.421508789063 1.113055706024
-143.511703491211 -76.807273864746 -221.597396850586 2.523910284042
-4.026566028595 -81.557449340820 -219.899917602539 3.199779033661
-16.297649383545 -77.574058532715 -214.701431274414 2.490380764008
-14.470614433289 -70.444206237793 -221.649078369141 1.260138988495
92.398811340332 -73.374641418457 -221.273910522461 2.961090326309
-19.448202133179 -72.382667541504 -215.154006958008 2.658643484116
-34.554244995117 -73.669372558594 -218.116668701172 4.058898448944
-107.893569946289 -67.799377441406 -226.486419677734 1.009637117386
-16.679800033569 -72.112083435059 -223.856689453125 1.928249359131
94.988960266113 -70.465362548828 -217.880584716797 3.989294528961
73.875480651855 -75.240692138672 -221.258026123047 5.213352680206
9.370453834534 -75.666259765625 -217.468429565430 1.796848773956
-11.653599739075 -69.667976379395 -225.347595214844 2.090848684311
79.512069702148 -73.250122070313 -220.434646606445 2.650837898254
-120.631027221680 -82.333442687988 -225.272369384766 8.281105995178
-16.511451721191 -71.659263610840 -223.571823120117 1.802087306976
-94.440750122070 -75.100814819336 -223.135971069336 1.759767532349
-99.582427978516 -75.712638854980 -222.026733398438 2.284868955612
-128.062011718750 -79.131118774414 -229.754562377930 4.649602413177
81.131576538086 -74.412742614746 -221.893905639648 1.721934914589
-122.227111816406 -77.478965759277 -227.568817138672 3.266128063202
4.029770851135 -73.093513488770 -229.136459350586 1.591969728470
82.485382080078 -71.436920166016 -223.974945068359 1.951617598534
-16.726980209351 -77.020576477051 -234.938110351563 3.857865810394
-14.764599800110 -75.783493041992 -223.613723754883 1.152811169624
1.524070024490 -83.570533752441 -229.174011230469 4.494152069092
12.592874526978 -78.149780273438 -227.256072998047 1.067666769028
92.096984863281 -75.654373168945 -227.271148681641 6.065378665924
9.025553703308 -72.353187561035 -230.385818481445 2.197660446167
7.932528972626 -72.865699768066 -229.514312744141 0.992354094982
-8.851013183594 -75.711334228516 -231.934097290039 1.771358251572
-6.472246170044 -76.813400268555 -226.314071655273 1.988696455956
21.088172912598 -73.046417236328 -233.385253906250 2.901732683182
-12.470152854919 -70.385353088379 -232.425704956055 1.635655641556
71.024536132813 -75.098449707031 -240.676254272461 3.735292673111
-9.937974929810 -73.790893554688 -239.664764404297 2.191170454025
19.789749145508 -75.648086547852 -235.076538085938 1.533628344536
-159.104492187500 -73.819679260254 -239.635925292969 1.335034012794
-6.084446907043 -71.259941101074 -234.837173461914 0.751983523369
-6.476202011108 -78.181358337402 -237.970504760742 4.805830478668
-167.004028320313 -79.490318298340 -250.225250244141 4.945310115814
-10.996766090393 -72.152725219727 -243.410964965820 0.647573113441
14.536126136780 -70.895088195801 -244.231719970703 1.857748866081
-148.341201782227 -79.571250915527 -251.799163818359 1.484828233719
-77.320739746094 -77.100921630859 -252.833099365234 2.260154485703
-62.267005920410 -78.516845703125 -247.185302734375 1.394768595695
50.882232666016 -70.380569458008 -246.429855346680 2.099748373032
-71.803161621094 -75.431427001953 -245.524581909180 2.928337812424
15.720358848572 -75.715919494629 -249.472213745117 1.785924553871
-72.305282592773 -78.625083923340 -250.156112670898 2.813400745392
-16.048847198486 -71.726287841797 -240.765686035156 1.413883924484
-144.837951660156 -82.043090820313 -252.496734619141 1.504722714424
44.624847412109 -68.883239746094 -251.149063110352 0.457011073828
-81.195350646973 -82.311401367188 -257.307586669922 7.021310806274
-103.317466735840 -72.162124633789 -255.685638427734 0.974178552628
-100.740997314453 -78.880416870117 -254.052825927734 5.815907478333
-122.155548095703 -72.291625976563 -250.879302978516 4.772944927216
-106.165412902832 -71.563987731934 -257.659057617188 1.599666357040
-104.425247192383 -75.684715270996 -257.022064208984 1.457877635956
20.831707000732 -69.223068237305 -256.506652832031 3.250327587128
-131.022567749023 -73.964591979980 -265.539947509766 1.572547197342
-16.119371414185 -77.837211608887 -274.267211914063 4.854051113129
-149.403366088867 -74.212379455566 -285.195709228516 2.023673295975
-168.507781982422 -82.219467163086 -287.634216308594 8.284825325012
-124.899177551270 -80.016311645508 -282.184600830078 4.752645492554
-114.057647705078 -73.866714477539 -286.968597412109 1.269996047020
-75.734397888184 -72.043266296387 -281.985443115234 3.511105537415
-57.992668151855 -80.417831420898 -286.420043945313 4.306289672852
-40.701095581055 -75.747390747070 -285.317718505859 2.327452182770
-15.491080284119 -83.805366516113 -291.341857910156 5.734957218170
-13.609471321106 -74.100532531738 -294.252990722656 1.913698911667
-38.950523376465 -82.426383972168 -291.013000488281 5.490219116211
-34.574661254883 -78.029655456543 -288.453430175781 1.301512956619
-19.594461441040 -72.419044494629 -288.352508544922 3.489093780518
-74.287338256836 -77.174835205078 -295.051086425781 6.364365577698
-56.990283966064 -77.132476806641 -291.437500000000 2.644307374954
-19.875871658325 -71.994003295898 -292.048919677734 2.790085792542
-13.958908081055 -80.510009765625 -287.993865966797 4.641461849213
-3.517761945724 -77.024955749512 -293.857421875000 2.809424877167
2.595398902893 -71.577499389648 -293.231170654297 0.966628730297
-94.764907836914 -78.591270446777 -294.035522460938 4.194125652313
-137.201354980469 -83.574356079102 -297.171875000000 6.188305854797
-114.961784362793 -80.114936828613 -292.850341796875 5.421224594116
-153.430938720703 -75.373596191406 -293.189392089844 1.601030945778
-149.548858642578 -81.062767028809 -299.563659667969 1.809250950813
-147.880081176758 -75.389205932617 -300.816192626953 1.721123933792
41.793895721436 -59.527400970459 -23.374391555786 2.965835571289
19.489692687988 -69.696777343750 -22.791816711426 3.033102512360
49.411575317383 -58.368965148926 -23.057287216187 1.654196977615
46.413703918457 -65.904853820801 -35.573696136475 1.961930990219
88.075012207031 -65.044357299805 -72.066406250000 6.396769523621
95.711204528809 -68.181747436523 -74.110427856445 3.922116279602
101.050750732422 -66.199157714844 -74.876747131348 1.146178841591
97.723854064941 -65.313873291016 -84.064552307129 3.870094060898
54.502628326416 -67.997116088867 -90.035690307617 1.293406367302
42.132858276367 -75.129837036133 -87.734207153320 8.372660636902
62.954391479492 -65.466148376465 -90.383979797363 2.174905061722
-66.332901000977 -66.894897460938 -94.688278198242 2.285316467285
71.998992919922 -63.831295013428 -86.441215515137 6.343207836151
98.739463806152 -55.566276550293 -99.843299865723 1.419465541840
73.915000915527 -66.689002990723 -101.907798767090 2.389306068420
92.168640136719 -64.931335449219 -103.395195007324 3.495508909225
-88.730766296387 -70.317398071289 -106.322891235352 4.083862304688
45.795352935791 -64.593467712402 -94.167945861816 3.429491758347
-89.417037963867 -71.136001586914 -98.824493408203 5.192645549774
51.599685668945 -68.588485717773 -109.412475585938 1.087522149086
35.475742340088 -77.364494323730 -101.830589294434 6.196125030518
97.479736328125 -65.153198242188 -102.662391662598 1.317161798477
35.745735168457 -67.971862792969 -103.086128234863 5.571913242340
45.764610290527 -71.422996520996 -121.742797851563 2.487116098404
41.716255187988 -68.902122497559 -112.553947448730 0.677994668484
111.988792419434 -64.963554382324 -110.054603576660 2.149629592896
-80.400741577148 -78.211051940918 -122.047882080078 7.446632862091
113.062011718750 -74.216423034668 -120.601142883301 1.773099780083
42.231391906738 -62.252174377441 -125.501617431641 3.247768163681
39.131832122803 -68.462699890137 -119.225563049316 2.298804044724
33.473285675049 -69.619506835938 -118.717987060547 3.182009220123
-54.825523376465 -77.389022827148 -128.936065673828 5.204448223114
28.903102874756 -66.969337463379 -122.710243225098 4.608583927155
-78.823631286621 -65.772712707520 -139.291046142578 1.509670495987
-55.114486694336 -76.380737304688 -132.014801025391 3.365613937378
-80.003173828125 -67.256446838379 -135.223495483398 1.396068692207
37.151290893555 -66.049896240234 -132.493850708008 3.717113256454
-60.628044128418 -73.336143493652 -133.151382446289 2.993421792984
34.958492279053 -68.222961425781 -132.254882812500 1.174094796181
-71.219100952148 -67.924324035645 -139.880416870117 1.196228146553
-59.832599639893 -64.488685607910 -143.743591308594 2.760337352753
22.027057647705 -71.628623962402 -145.311065673828 3.083423376083
112.259445190430 -71.945007324219 -141.808914184570 1.667625665665
114.147079467773 -61.663871765137 -137.452835083008 6.940685749054
29.749206542969 -70.469535827637 -143.236160278320 1.585094928741
-51.355773925781 -74.238586425781 -139.150238037109 0.464696556330
103.483169555664 -65.422462463379 -152.455474853516 7.065243244171
-77.567230224609 -70.828895568848 -142.074035644531 0.317934125662
-58.922328948975 -70.465744018555 -141.982238769531 1.030347228050
31.261421203613 -61.546981811523 -145.055374145508 6.665493011475
-79.239036560059 -73.622940063477 -145.750045776367 3.105769634247
-70.569076538086 -70.248321533203 -149.546844482422 1.686063647270
112.895072937012 -75.429458618164 -148.086334228516 1.026749610901
-64.845794677734 -68.794883728027 -156.183502197266 2.848414659500
-40.228321075439 -65.586967468262 -151.349319458008 5.020146369934
23.185020446777 -67.892822265625 -143.300918579102 1.014613509178
-71.796875000000 -71.928627014160 -142.678909301758 2.160084009171
11.962214469910 -68.092765808105 -147.934066772461 1.332737684250
31.488016128540 -69.824066162109 -159.014938354492 0.907550692558
31.088380813599 -66.137756347656 -152.691574096680 3.664056777954
18.288528442383 -76.185997009277 -152.657882690430 3.992907524109
-51.722118377686 -74.593322753906 -152.573455810547 2.173749685287
21.502273559570 -74.155929565430 -152.604034423828 0.712057352066
-48.070430755615 -69.804931640625 -151.752197265625 0.722397029400
2.013999938965 -70.515922546387 -154.102737426758 4.273374557495
18.109241485596 -68.710876464844 -149.721343994141 0.875927388668
-66.549354553223 -69.839622497559 -159.314666748047 1.405611872673
-48.369949340820 -67.062263488770 -154.294097900391 3.430282592773
-69.379440307617 -71.469375610352 -150.756942749023 1.842027664185
21.102005004883 -68.531951904297 -158.520721435547 2.506962060928
22.671928405762 -68.780807495117 -149.823043823242 2.271626472473
1.991476058960 -71.181907653809 -167.597122192383 3.589482545853
21.734012603760 -68.095985412598 -150.808074951172 2.747614622116
30.085859298706 -69.063652038574 -169.575836181641 2.651713609695
-47.637222290039 -72.404235839844 -164.634735107422 1.616613030434
-40.033058166504 -82.825019836426 -164.714126586914 3.628270387650
-42.727111816406 -73.351615905762 -161.200622558594 2.026388168335
27.144800186157 -71.238258361816 -156.377471923828 2.427864551544
-45.440143585205 -67.701965332031 -166.029769897461 4.605921745300
-39.521812438965 -69.498329162598 -170.465759277344 0.897721171379
21.530551910400 -67.981246948242 -164.828491210938 2.714768886566
-40.033451080322 -72.764846801758 -177.154922485352 2.099454164505
26.315965652466 -64.044670104980 -170.023651123047 4.057395458221
108.840133666992 -63.579746246338 -161.994506835938 6.694094181061
-35.351306915283 -71.992942810059 -172.233108520508 1.923948764801
97.826210021973 -66.001411437988 -173.193054199219 9.728657722473
-35.154651641846 -71.536994934082 -178.184402465820 2.002072095871
-38.820392608643 -77.037322998047 -182.323837280273 5.011951923370
23.472932815552 -75.056678771973 -178.681198120117 3.060152053833
106.513496398926 -71.391395568848 -181.231948852539 1.717655062675
-34.771709442139 -69.446914672852 -181.153411865234 2.545852422714
-37.196716308594 -71.890861511230 -180.967544555664 1.132928371429
-22.866104125977 -79.386177062988 -187.468887329102 1.669931173325
-149.786300659180 -74.234443664551 -190.366302490234 1.678193330765
9.437729835510 -70.718307495117 -183.188339233398 4.945325851440
102.905387878418 -68.604560852051 -192.536773681641 4.028450489044
-162.731704711914 -73.935012817383 -192.254119873047 5.302911758423
-20.125514984131 -66.113327026367 -187.298263549805 3.782805204391
-116.145042419434 -77.038375854492 -198.461563110352 5.266835212708
-128.107986450195 -76.459053039551 -194.067504882813 4.218356132507
-106.185401916504 -75.691467285156 -200.554611206055 7.083123207092
-116.192543029785 -72.276329040527 -200.487838745117 3.755845069885
-10.826440811157 -74.067687988281 -196.047866821289 2.699036836624
19.070909500122 -68.474006652832 -195.619552612305 1.371519684792
-16.520704269409 -67.046943664551 -202.302352905273 2.643377065659
-129.927841186523 -74.384414672852 -206.965286254883 4.836427688599
-20.665912628174 -66.506225585938 -200.014785766602 1.527331471443
-127.569595336914 -70.906257629395 -203.341064453125 2.408651828766
-18.007558822632 -71.874839782715 -197.466537475586 2.145230770111
-148.418762207031 -72.617454528809 -200.992980957031 1.231895208359
91.193901062012 -64.366149902344 -205.353134155273 6.650786876678
-164.550262451172 -65.383186340332 -201.769607543945 2.001273870468
-1.718616962433 -73.880470275879 -221.822143554688 1.768566608429
12.404085159302 -75.043296813965 -210.229064941406 2.343520402908
9.835748672485 -77.744354248047 -216.950317382813 0.883609235287
81.717712402344 -71.927116394043 -214.952194213867 2.988977670670
9.819654464722 -74.297950744629 -213.264297485352 1.751366376877
10.110485076904 -71.213203430176 -215.064468383789 1.871920466423
-16.095890045166 -76.918533325195 -214.647384643555 2.395806789398
-90.673637390137 -75.761764526367 -211.669357299805 2.069394588470
-99.262008666992 -74.362228393555 -216.998519897461 2.168757200241
3.603847980499 -71.937698364258 -217.167144775391 3.779656887054
-166.946838378906 -79.027191162109 -221.006805419922 6.653759956360
16.647619247437 -68.848060607910 -216.824096679688 2.122436523438
-145.199996948242 -74.256362915039 -219.701538085938 2.142976045609
13.872532844543 -73.887023925781 -224.535491943359 2.136939048767
-136.018524169922 -77.936882019043 -225.287490844727 1.971355438232
-115.254737854004 -76.463333129883 -229.416412353516 2.175981998444
17.386329650879 -71.998786926270 -219.427642822266 1.817285776138
80.020462036133 -71.985679626465 -217.556793212891 1.967620491982
5.570030212402 -74.364425659180 -223.501892089844 1.021876454353
-108.351203918457 -73.306411743164 -232.134384155273 4.061816215515
67.566024780273 -74.243141174316 -226.574157714844 4.811507225037
86.500259399414 -74.245193481445 -228.612930297852 3.168365716934
-127.354125976563 -75.074630737305 -238.426773071289 4.614508152008
-120.321960449219 -74.669593811035 -229.928482055664 3.006488084793
-9.116682052612 -67.345657348633 -224.849456787109 2.786743164063
71.880493164063 -73.189010620117 -233.427658081055 1.830381274223
64.329910278320 -73.168128967285 -230.995132446289 4.966555118561
71.114608764648 -71.635330200195 -227.143600463867 1.632410407066
-137.622741699219 -69.888168334961 -234.201766967773 2.172183275223
68.239059448242 -74.320632934570 -228.730316162109 3.033060312271
65.163940429688 -68.655944824219 -234.348876953125 2.588478565216
-166.085800170898 -72.766960144043 -232.806625366211 2.639345407486
2.544141054153 -84.075645446777 -242.399612426758 6.333672523499
21.501213073730 -75.720596313477 -238.271774291992 1.757001161575
-6.396824836731 -69.594589233398 -242.147933959961 2.943537235260
17.629232406616 -64.842094421387 -239.294738769531 2.565780401230
67.723999023438 -74.023529052734 -236.787078857422 1.138897776604
6.293342113495 -70.472938537598 -245.527984619141 3.420630216599
-12.326498031616 -65.813217163086 -239.958038330078 0.857088863850
-2.909624099731 -68.843231201172 -234.102783203125 1.825485467911
64.651222229004 -73.415466308594 -241.262237548828 1.240741610527
0.188858002424 -73.477020263672 -242.078521728516 1.913856625557
-5.506214141846 -75.029914855957 -242.855163574219 2.673375129700
14.869009971619 -78.243705749512 -240.664123535156 2.057805299759
-167.722167968750 -80.115242004395 -241.444946289063 6.062103271484
52.969192504883 -75.386825561523 -246.426452636719 2.522248268127
47.612121582031 -63.987995147705 -254.204086303711 2.172885656357
60.622474670410 -73.822486877441 -242.740432739258 2.158972978592
-12.484049797058 -70.679275512695 -247.892639160156 0.963398039341
56.784889221191 -71.856979370117 -243.915710449219 1.277297377586
-75.118103027344 -75.090118408203 -251.769256591797 1.220648407936
49.747554779053 -73.910484313965 -247.166793823242 1.953842997551
-86.801406860352 -74.247978210449 -253.423706054688 1.393152356148
-120.930114746094 -77.190315246582 -259.366638183594 4.836927890778
-131.716506958008 -76.627914428711 -252.108795166016 4.801331996918
48.185329437256 -76.233795166016 -250.500854492188 3.859891653061
-129.406234741211 -80.163269042969 -250.856002807617 7.564469337463
-108.063285827637 -71.750419616699 -253.684997558594 3.576542854309
-118.630859375000 -73.280754089355 -258.591766357422 1.573644638062
-84.956184387207 -75.715690612793 -254.382827758789 1.850423097610
-110.378646850586 -71.337722778320 -257.902679443359 0.689148962498
-124.272361755371 -81.526184082031 -262.980010986328 5.803967475891
-147.939590454102 -73.598640441895 -269.812438964844 2.844079732895
-15.281631469727 -72.519050598145 -269.150207519531 2.124293804169
-174.881591796875 -81.474517822266 -265.533935546875 10.772927284241
-15.155883789063 -73.533348083496 -275.599365234375 3.595162153244
-158.473297119141 -71.919723510742 -267.806701660156 1.955879569054
-152.765594482422 -78.763900756836 -272.022399902344 1.798048615456
-171.628677368164 -77.517196655273 -278.346099853516 5.395069599152
-15.824925422668 -76.890975952148 -283.479248046875 2.458857774734
-126.620010375977 -80.861068725586 -282.685180664063 5.080822944641
-156.285003662109 -77.546157836914 -286.899810791016 2.101788282394
-142.578689575195 -75.768775939941 -280.636077880859 4.055516719818
-134.865844726563 -80.054374694824 -276.534149169922 9.802937507629
-8.367053031921 -65.997337341309 -284.084045410156 2.626775264740
-126.317092895508 -81.214187622070 -282.624023437500 5.395993232727
-140.597763061523 -72.823249816895 -286.633361816406 0.671758949757
-114.938484191895 -82.878044128418 -285.416778564453 6.740360260010
-82.409889221191 -72.818473815918 -290.039031982422 1.896617889404
-58.976444244385 -78.653411865234 -286.678741455078 2.997745275497
-8.585685729980 -77.541709899902 -287.287292480469 2.492822170258
-55.124614715576 -74.243423461914 -282.228546142578 3.698000431061
-56.543449401855 -72.810050964355 -288.788177490234 0.714932262897
-71.970893859863 -74.299110412598 -290.416229248047 2.341051816940
-89.626075744629 -74.761108398438 -296.492431640625 5.008312225342
-92.029479980469 -74.690391540527 -287.348663330078 0.621886014938
-158.585891723633 -77.772773742676 -292.144805908203 3.768445253372
-159.638656616211 -78.982749938965 -295.741851806641 6.037459373474
-123.642333984375 -81.864265441895 -293.165496826172 5.771121025085
-144.166656494141 -77.188720703125 -294.388854980469 2.484181642532
-150.422821044922 -81.566589355469 -306.821533203125 3.027453422546
-153.508010864258 -83.319938659668 -311.372955322266 4.622141361237
47.457683563232 -61.201240539551 -11.549230575562 4.071691513062
12.654571533203 -66.874618530273 -32.439842224121 8.390352249146
41.602085113525 -57.636112213135 -35.558269500732 1.945535898209
-14.893243789673 -70.142456054688 -65.675285339355 1.919331312180
80.438301086426 -61.782165527344 -64.568344116211 4.877696514130
90.619277954102 -58.400878906250 -65.752113342285 5.817852020264
78.367683410645 -71.444099426270 -64.059684753418 3.679929256439
70.720275878906 -67.781684875488 -69.723686218262 1.409788370132
89.919456481934 -66.797149658203 -76.215095520020 7.743610858917
-99.593330383301 -62.938278198242 -70.828010559082 2.399976253510
64.065277099609 -65.358749389648 -74.535110473633 1.535350084305
-37.075881958008 -70.991088867188 -77.893508911133 1.781717300415
96.823715209961 -64.310417175293 -84.562721252441 5.264239788055
62.241333007813 -60.764862060547 -90.425750732422 1.582952857018
107.331787109375 -72.368461608887 -90.430519104004 5.836691856384
97.477195739746 -72.472068786621 -98.339195251465 1.528460502625
73.325180053711 -66.499435424805 -101.594085693359 2.703408718109
-83.910339355469 -64.239845275879 -104.231201171875 2.408605575562
53.672302246094 -65.005104064941 -106.663391113281 4.373075008392
108.044044494629 -60.704364776611 -106.894081115723 6.395875453949
44.419906616211 -66.213317871094 -114.853408813477 3.168130159378
78.529930114746 -64.406059265137 -106.475944519043 2.152445316315
40.362171173096 -66.238891601563 -108.251945495605 2.406733751297
100.686637878418 -65.619972229004 -102.505836486816 1.440026998520
46.427093505859 -66.630249023438 -107.664886474609 2.661839723587
104.434677124023 -74.756988525391 -107.778137207031 1.289905309677
110.407409667969 -71.592597961426 -108.226058959961 2.242397308350
-81.545463562012 -65.561798095703 -114.896743774414 1.954000830650
-84.496475219727 -66.056671142578 -121.776062011719 1.962262749672
42.754081726074 -71.425964355469 -118.940422058105 2.333650112152
112.667053222656 -68.649085998535 -123.429519653320 2.003251314163
112.210433959961 -66.687294006348 -122.812736511230 1.569426774979
-91.086036682129 -68.207481384277 -126.958549499512 2.833142995834
103.654586791992 -70.142639160156 -127.379798889160 4.986546516418
-60.672657012939 -76.416534423828 -132.009368896484 5.024685382843
-87.169952392578 -70.570671081543 -128.715240478516 2.149642467499
-70.547492980957 -70.772987365723 -126.628273010254 4.904458522797
-61.838935852051 -64.613571166992 -127.314880371094 1.468813776970
31.349536895752 -67.977706909180 -131.144226074219 3.359054565430
44.358642578125 -63.093601226807 -136.596801757813 8.917187690735
-71.346725463867 -69.379074096680 -136.288879394531 1.431090354919
27.848566055298 -63.874877929688 -129.152450561523 4.041111946106
112.638160705566 -66.972351074219 -145.502639770508 1.789648890495
-37.853015899658 -70.374320983887 -150.461975097656 3.224415302277
34.374172210693 -72.091758728027 -149.590820312500 2.137583971024
111.702270507813 -64.757217407227 -149.417221069336 5.013828277588
35.530815124512 -69.473205566406 -141.848083496094 0.409232348204
108.487472534180 -65.338851928711 -138.400421142578 5.656564712524
-52.204273223877 -69.160652160645 -150.128936767578 1.933388113976
-75.743873596191 -65.890586853027 -152.462692260742 4.501788616180
-59.852855682373 -70.656372070313 -150.249023437500 5.599287033081
-43.659206390381 -76.832298278809 -164.956466674805 1.250923991203
2.037961959839 -72.909606933594 -155.404815673828 3.714198589325
107.365402221680 -68.585533142090 -152.074035644531 3.634668350220
107.240089416504 -67.506446838379 -161.018325805664 4.654028415680
10.717527389526 -69.323188781738 -156.284835815430 1.638250112534
0.345331996679 -68.092277526855 -159.968780517578 4.700894832611
21.618377685547 -65.961204528809 -153.414443969727 2.367189884186
25.409204483032 -66.878440856934 -155.521743774414 2.830415248871
105.607765197754 -67.830238342285 -164.614685058594 4.228212833405
111.045265197754 -72.779876708984 -166.631439208984 1.773143172264
23.323955535889 -65.988220214844 -177.135528564453 0.859814524651
23.020938873291 -73.800323486328 -165.532669067383 1.790581703186
110.217735290527 -64.519676208496 -161.764511108398 5.814743518829
-31.132211685181 -68.820243835449 -180.138870239258 2.182246446609
110.055381774902 -68.782516479492 -166.515686035156 1.332214951515
17.280755996704 -69.573661804199 -163.207199096680 3.429288148880
20.432331085205 -69.685821533203 -169.858001708984 2.231402397156
106.893554687500 -69.048675537109 -171.673492431641 1.225492954254
27.125812530518 -68.100494384766 -169.579681396484 1.953308701515
113.863761901855 -66.375236511230 -185.322586059570 6.379737377167
-39.555545806885 -70.472381591797 -180.728118896484 3.634937763214
22.559217453003 -69.583992004395 -168.157150268555 1.732483267784
107.369743347168 -68.692413330078 -184.629043579102 2.020124197006
21.571178436279 -71.249809265137 -175.840896606445 2.648017168045
-151.696258544922 -70.501640319824 -186.474700927734 2.341609001160
-28.502052307129 -66.762916564941 -190.619262695313 1.481149792671
23.137193679810 -66.201858520508 -185.365783691406 2.395329236984
-117.094200134277 -75.672668457031 -192.864807128906 4.519768714905
-113.209564208984 -68.433151245117 -194.158569335938 2.065362453461
24.995338439941 -71.161888122559 -187.079223632813 1.531134247780
9.461716651917 -65.876853942871 -184.484878540039 6.599330902100
-27.899854660034 -65.993469238281 -190.940673828125 2.315273046494
-29.110841751099 -77.675369262695 -189.147003173828 0.735640823841
-30.152326583862 -71.857543945313 -188.908660888672 1.767343163490
11.006266593933 -66.424552917480 -180.195983886719 5.762794971466
-151.355133056641 -73.227706909180 -197.083328247070 3.027917623520
-147.603271484375 -72.087219238281 -192.485961914063 0.449687421322
-148.287353515625 -78.843299865723 -200.416351318359 2.128101348877
-24.771121978760 -69.692878723145 -191.585662841797 1.088613510132
14.191325187683 -66.579483032227 -199.844879150391 1.969291448593
97.473754882813 -66.964920043945 -191.618560791016 5.445202827454
-114.103103637695 -70.444778442383 -198.981628417969 1.641821980476
20.630552291870 -76.516632080078 -197.006256103516 2.792139768600
-13.442051887512 -69.075096130371 -194.424880981445 2.789121389389
-17.577175140381 -71.208251953125 -198.365020751953 2.342552185059
101.242156982422 -67.084815979004 -200.093612670898 4.699638366699
6.027392864227 -74.545104980469 -197.276504516602 4.060375213623
-22.991353988647 -68.938667297363 -197.008148193359 2.019722700119
-120.644561767578 -77.580749511719 -205.314712524414 5.670438289642
-135.223999023438 -74.076721191406 -203.596023559570 2.423559427261
-115.139839172363 -65.170875549316 -207.437744140625 3.691576719284
-142.751510620117 -78.403823852539 -203.363693237305 1.293288350105
15.706044197083 -70.200431823730 -197.835632324219 1.791830778122
91.381332397461 -72.150520324707 -198.105316162109 4.065845489502
-165.865081787109 -66.257682800293 -200.179000854492 1.431374311447
99.625732421875 -68.044967651367 -200.556930541992 3.622482776642
-24.815864562988 -78.359573364258 -204.567581176758 3.891748189926
94.121780395508 -64.793151855469 -208.141815185547 5.227985382080
87.863059997559 -73.010803222656 -207.670974731445 3.289613962173
9.172851562500 -74.429588317871 -201.331802368164 1.454789400101
20.799121856689 -69.323066711426 -213.384963989258 3.239436864853
13.076777458191 -65.952148437500 -208.633529663086 1.515942931175
-11.329815864563 -72.118972778320 -224.355117797852 1.339236378670
-93.806137084961 -77.561241149902 -220.547607421875 2.107790708542
-13.703738212585 -75.154747009277 -210.385910034180 2.811652183533
86.771553039551 -71.240432739258 -217.602294921875 1.320540428162
-95.293739318848 -77.266128540039 -215.939224243164 2.865152597427
-99.644004821777 -68.549125671387 -223.056869506836 1.053033351898
-97.701843261719 -72.028823852539 -219.110839843750 2.075628757477
89.375000000000 -74.006767272949 -222.137893676758 2.198454618454
-136.525115966797 -75.467086791992 -225.651748657227 2.480062723160
-130.663009643555 -82.883232116699 -228.441024780273 3.966504573822
-116.781089782715 -74.320281982422 -225.011581420898 2.041641950607
-114.031425476074 -69.981262207031 -220.983398437500 4.936989307404
-132.800155639648 -70.888641357422 -228.949676513672 3.017823934555
-114.396446228027 -85.019142150879 -228.610870361328 10.651161193848
-111.117996215820 -72.599548339844 -229.036666870117 1.682588458061
-7.492825984955 -77.977035522461 -223.116714477539 1.880385994911
-15.051969528198 -76.528732299805 -222.916809082031 0.726880311966
-1.156154036522 -68.247489929199 -229.477600097656 1.808555841446
-10.318517684937 -67.287567138672 -226.868286132813 1.104191899300
15.604084014893 -73.530235290527 -234.137054443359 1.225250482559
-21.617898941040 -69.423210144043 -229.748580932617 5.037921905518
-167.291320800781 -72.450340270996 -220.434143066406 2.003535270691
-6.458432197571 -73.756881713867 -233.889465332031 1.196432352066
80.786125183105 -65.729469299316 -232.584228515625 5.579396247864
12.341964721680 -75.147590637207 -232.693557739258 2.430094957352
-5.390961170197 -71.653854370117 -235.684097290039 1.007167100906
-157.625061035156 -71.873756408691 -236.174621582031 1.062222123146
-144.286819458008 -71.982086181641 -227.989852905273 2.461757421494
59.728790283203 -70.200019836426 -236.649383544922 1.833579301834
-5.842185974121 -73.380569458008 -232.461364746094 2.141661882401
11.831689834595 -75.183464050293 -227.914230346680 3.135123014450
69.325675964355 -75.259590148926 -225.000106811523 5.989289760590
76.486114501953 -70.457817077637 -234.356201171875 2.032384872437
71.796890258789 -73.285949707031 -242.524566650391 3.684644937515
-2.362675905228 -77.482292175293 -233.815917968750 1.615220665932
58.537345886230 -68.152328491211 -235.659179687500 3.816644668579
-19.720134735107 -77.430610656738 -240.221603393555 0.472049862146
-14.156449317932 -68.094161987305 -239.512634277344 1.571768045425
7.251926898956 -72.131668090820 -237.772857666016 3.140599012375
63.301761627197 -77.003196716309 -235.250549316406 4.724195480347
68.377288818359 -68.869621276855 -241.580871582031 2.438400268555
47.880031585693 -72.852485656738 -245.031616210938 3.053125381470
60.669307708740 -76.865890502930 -241.849075317383 2.866547107697
-15.235058784485 -81.493095397949 -248.116073608398 7.425398826599
-84.337432861328 -69.835632324219 -258.508361816406 3.171231746674
-77.220191955566 -71.239257812500 -254.393722534180 2.729646444321
43.737701416016 -76.895240783691 -245.900024414063 6.904772758484
-153.686447143555 -78.170928955078 -249.706344604492 3.123780012131
34.676219940186 -72.033027648926 -257.213684082031 3.602843284607
-92.628448486328 -81.595924377441 -251.820800781250 6.934207439423
-158.093643188477 -69.345100402832 -254.366012573242 2.586751461029
-139.942901611328 -63.710613250732 -252.185714721680 3.472234249115
41.952327728271 -71.397331237793 -254.081893920898 1.221611618996
-126.152023315430 -70.333312988281 -259.453613281250 2.614756107330
-118.356048583984 -77.053955078125 -254.404739379883 3.406847000122
-91.479240417480 -68.544670104980 -256.804260253906 1.669550895691
-13.035975456238 -66.733551025391 -246.536727905273 1.919144749641
32.043571472168 -71.935295104980 -255.421859741211 1.219705581665
24.781290054321 -68.648376464844 -258.451080322266 0.638341605663
-161.132675170898 -67.880264282227 -262.172393798828 2.084024429321
-114.543754577637 -78.903282165527 -262.824401855469 5.593660354614
-13.347825050354 -73.670669555664 -262.105804443359 2.382759332657
-131.556121826172 -75.049270629883 -266.381713867188 3.020872116089
-14.949700355530 -72.316070556641 -270.097564697266 1.441451430321
-162.982391357422 -75.787200927734 -270.914428710938 2.752145051956
-5.338140964508 -75.291854858398 -277.444183349609 1.842861890793
-159.476577758789 -78.444656372070 -287.796234130859 4.197784900665
-165.485046386719 -81.550582885742 -278.502929687500 7.661417484283
-142.149185180664 -77.556434631348 -285.233917236328 2.535242557526
-172.644714355469 -80.664207458496 -284.685760498047 7.171380043030
14.753282546997 -78.687484741211 -288.716796875000 0.721608817577
-103.145050048828 -77.876701354980 -286.348876953125 3.739197254181
-88.167968750000 -67.892768859863 -285.494934082031 3.252952814102
-169.359115600586 -72.523925781250 -284.290954589844 2.033404111862
-93.152694702148 -84.442131042480 -280.078948974609 11.598800659180
-157.112442016602 -78.415733337402 -289.678985595703 1.981842160225
-78.083580017090 -78.810562133789 -298.595214843750 8.871496200562
-73.143714904785 -74.654777526855 -288.824493408203 3.433828115463
-83.857437133789 -78.797576904297 -292.163024902344 3.505871295929
-3.457566022873 -72.568962097168 -287.249084472656 1.076105356216
-91.711380004883 -75.804130554199 -286.414306640625 0.946981787682
-99.385322570801 -79.370559692383 -290.036926269531 4.479357719421
-119.706527709961 -76.811553955078 -293.186737060547 3.611910581589
-116.934890747070 -71.489311218262 -293.442962646484 2.156492710114
-134.228591918945 -77.816825866699 -290.820220947266 0.506844758987
-142.092926025391 -76.519279479980 -300.873138427734 3.762587308884
-144.687911987305 -79.336952209473 -312.412506103516 3.259920835495
22.940679550171 -57.753826141357 -13.855102539063 1.531067490578
32.510963439941 -61.393787384033 -15.168523788452 1.567884683609
28.801900863647 -65.582527160645 -17.218296051025 1.867814898491
43.784366607666 -57.545829772949 -18.752136230469 1.500745892525
21.981470108032 -62.010711669922 -31.466156005859 1.752094388008
-75.770034790039 -63.915683746338 -46.405132293701 1.148122191429
88.403923034668 -56.800746917725 -66.728485107422 6.941680431366
-21.082551956177 -60.298286437988 -66.617774963379 1.818294644356
104.217247009277 -63.378608703613 -73.341720581055 1.414941430092
92.245933532715 -68.946563720703 -74.812911987305 5.032219409943
67.259445190430 -65.007560729980 -78.555450439453 2.565392494202
72.266815185547 -69.673973083496 -80.982246398926 3.371700286865
-44.940490722656 -70.474357604980 -81.337158203125 3.069697856903
59.688373565674 -71.312751770020 -79.710868835449 4.732833862305
-93.723884582520 -67.577102661133 -89.441619873047 2.730095624924
-47.604396820068 -63.030754089355 -83.935264587402 1.772473812103
-57.314514160156 -73.615974426270 -83.374176025391 7.451486110687
102.746681213379 -73.186653137207 -98.040306091309 1.265393376350
59.875816345215 -69.152030944824 -88.828140258789 2.392162084579
67.349266052246 -63.925552368164 -90.177322387695 1.706087112427
-94.797492980957 -59.050827026367 -97.848892211914 5.009780406952
107.461967468262 -66.733474731445 -89.199066162109 3.190848112106
40.898567199707 -63.429553985596 -98.998039245605 5.115694046021
102.021972656250 -64.012496948242 -97.693527221680 1.591776371002
106.806221008301 -60.859977722168 -106.056930541992 6.156760692596
98.913192749023 -65.220458984375 -102.383583068848 1.746328830719
73.832962036133 -69.773033142090 -97.368423461914 1.414280414581
86.188186645508 -68.136230468750 -107.793701171875 1.636131286621
49.982418060303 -63.720508575439 -110.645729064941 3.122411012650
109.831710815430 -59.001781463623 -101.006278991699 6.487372398376
47.774494171143 -71.157150268555 -102.920028686523 2.883300781250
36.816833496094 -63.885173797607 -101.837417602539 6.792819023132
113.250907897949 -66.100181579590 -109.706344604492 3.087170362473
-78.712043762207 -62.309200286865 -108.586242675781 1.495571017265
44.747753143311 -64.224662780762 -112.196815490723 3.483280658722
31.936233520508 -70.412033081055 -115.868377685547 3.435616731644
105.671600341797 -61.745750427246 -110.228927612305 4.645374774933
35.844635009766 -62.701248168945 -111.217674255371 7.560609817505
-87.309005737305 -67.610321044922 -110.182899475098 1.221238017082
-95.545173645020 -62.651947021484 -114.237998962402 2.162833929062
100.699356079102 -72.434181213379 -119.241394042969 5.392530441284
-95.444480895996 -68.667678833008 -118.845016479492 1.388929843903
39.326713562012 -71.378944396973 -119.933143615723 1.079307556152
35.898231506348 -67.041267395020 -122.951583862305 3.144632816315
-86.243751525879 -68.287689208984 -123.530380249023 1.278682351112
33.292121887207 -64.586616516113 -133.181640625000 1.205848455429
112.462493896484 -67.348754882813 -130.488662719727 2.214719057083
-53.917007446289 -68.446273803711 -139.369705200195 2.063340425491
-88.201133728027 -66.459228515625 -133.819046020508 2.470774888992
38.138633728027 -72.719772338867 -128.926910400391 1.605399012566
-86.212150573730 -62.509239196777 -137.003112792969 2.855753183365
-88.032089233398 -73.178710937500 -141.098144531250 5.689404964447
-50.845481872559 -68.143630981445 -135.705917358398 1.422390580177
-71.643493652344 -65.179565429688 -138.491592407227 2.809765338898
-51.134922027588 -67.368919372559 -131.701583862305 0.312314569950
117.597457885742 -61.744724273682 -135.517791748047 6.980433464050
-71.625312805176 -71.227157592773 -133.130065917969 2.207262277603
37.643356323242 -68.464874267578 -129.534942626953 1.048410415649
-78.881088256836 -65.918685913086 -141.481658935547 3.024287700653
-72.222457885742 -68.930046081543 -134.820053100586 1.160890460014
-95.596595764160 -66.249290466309 -142.999786376953 1.061066269875
-56.302146911621 -63.635845184326 -144.826110839844 3.051113367081
31.120084762573 -60.959880828857 -145.797454833984 7.558335781097
26.846399307251 -65.938865661621 -148.218673706055 2.678054809570
20.331794738770 -59.815429687500 -144.338928222656 2.790887117386
111.928016662598 -65.537620544434 -145.281158447266 3.344595909119
-90.416213989258 -67.050155639648 -151.106643676758 2.324937582016
9.754356384277 -69.664451599121 -151.788101196289 2.417820215225
-71.851539611816 -68.372497558594 -155.517807006836 2.901985883713
23.508756637573 -65.412780761719 -148.379760742188 3.599306583405
-49.814273834229 -67.141860961914 -155.178161621094 3.461239814758
9.627870559692 -66.148788452148 -153.803070068359 1.554352402687
17.370973587036 -72.087417602539 -158.787811279297 2.155032396317
16.511213302612 -75.313301086426 -163.019088745117 3.016146898270
-52.029159545898 -72.536483764648 -163.540527343750 4.645306110382
-38.602752685547 -66.517562866211 -155.502395629883 3.126565456390
-48.200958251953 -70.688095092773 -162.468414306641 1.474984645844
-103.247138977051 -71.578498840332 -173.400299072266 3.037984371185
21.721471786499 -71.105987548828 -174.703430175781 2.567451000214
-33.424118041992 -69.933158874512 -178.774261474609 2.623496055603
15.420259475708 -75.412506103516 -177.585327148438 2.280535936356
-142.100173950195 -69.807861328125 -176.552947998047 1.297324776649
-31.527841567993 -64.427276611328 -172.230163574219 3.257464170456
-157.079895019531 -80.188652038574 -178.381195068359 10.246635437012
25.050397872925 -61.069599151611 -181.386550903320 7.125104904175
-34.879631042480 -71.791206359863 -169.470169067383 3.691807985306
-106.738876342773 -66.774841308594 -175.236328125000 2.902554035187
-106.922660827637 -78.468040466309 -184.383529663086 9.197278022766
-31.206014633179 -62.251819610596 -186.132080078125 6.665107727051
-24.657922744751 -76.267623901367 -180.940689086914 1.626454353333
11.557733535767 -67.849990844727 -188.550582885742 4.488018512726
15.363377571106 -65.324546813965 -199.397979736328 1.266347289085
12.780076026917 -70.190185546875 -187.215530395508 2.839046001434
-142.641036987305 -68.328308105469 -186.904571533203 1.558964133263
24.977682113647 -63.224468231201 -189.412933349609 6.121271133423
4.738733768463 -68.444038391113 -196.463500976563 4.340498447418
-134.289352416992 -68.972702026367 -193.255615234375 2.029102087021
-112.149505615234 -70.338432312012 -195.424835205078 2.206436157227
14.848561286926 -67.016860961914 -204.667327880859 2.090120553970
-119.808830261230 -68.823257446289 -197.241928100586 1.317088246346
-107.829948425293 -61.982902526855 -193.163742065430 4.755763530731
-167.506164550781 -74.037490844727 -202.778732299805 3.003849744797
-24.602855682373 -67.751365661621 -199.724197387695 1.476967215538
9.644066810608 -66.993629455566 -199.134963989258 1.627885818481
-146.026489257813 -73.023887634277 -204.610443115234 2.271312952042
-138.644500732422 -76.727432250977 -207.809494018555 5.259917259216
-22.679883956909 -67.510116577148 -208.101119995117 3.428055524826
-12.759587287903 -71.105148315430 -205.467346191406 1.140456438065
-13.421113967896 -72.089042663574 -205.477996826172 2.063807964325
-137.757553100586 -78.041893005371 -202.061553955078 2.385190963745
-17.813528060913 -69.932609558105 -212.664505004883 2.142562150955
-8.417394638062 -77.910491943359 -214.143096923828 1.964581847191
18.142532348633 -65.395469665527 -211.154586791992 3.104545831680
-18.058353424072 -77.399414062500 -211.422973632813 1.026159882545
10.132964134216 -71.793754577637 -208.219268798828 0.735505580902
-11.542563438416 -72.651390075684 -214.637298583984 3.479343891144
-24.675378799438 -65.524490356445 -211.453643798828 6.709752559662
11.300933837891 -79.141693115234 -219.843902587891 1.476537108421
-2.838803052902 -78.465652465820 -218.228775024414 1.074839353561
10.951569557190 -64.593177795410 -219.962020874023 3.748425245285
-6.730332851410 -75.265480041504 -228.586318969727 2.160243034363
-161.230361938477 -75.271301269531 -227.830398559570 2.306524515152
80.367378234863 -73.446731567383 -218.484222412109 3.117626905441
-136.083145141602 -69.432502746582 -224.170654296875 2.269971370697
-135.441055297852 -76.214355468750 -221.425537109375 4.206665515900
-7.850048065186 -72.031761169434 -224.733596801758 0.909881651402
5.714175224304 -70.492317199707 -235.779647827148 1.566401362419
-158.954757690430 -73.382316589355 -232.717636108398 2.492638111115
90.090492248535 -66.905853271484 -219.441223144531 2.769268989563
-1.374945044518 -68.937240600586 -226.581222534180 1.304646968842
0.706991016865 -71.269989013672 -220.212051391602 1.137923479080
73.967201232910 -74.494781494141 -230.856414794922 1.090589404106
-0.016332000494 -67.318992614746 -236.875213623047 1.669050216675
-13.381298065186 -72.636352539063 -223.579666137695 1.503464579582
