9.002463340759 -75.616752624512 -202.571777343750 1.588036179543
-18.385818481445 -82.704994201660 -200.877792358398 4.026574611664
-56.076725006104 -80.591819763184 -206.553451538086 1.578900575638
-36.471237182617 -79.036872863770 -205.230331420898 1.396584391594
-61.192043304443 -75.103569030762 -208.109756469727 3.214467287064
-70.414939880371 -77.011024475098 -212.393920898438 1.235190033913
14.672158241272 -76.780754089355 -212.834426879883 1.512647271156
-88.872039794922 -76.643356323242 -211.880386352539 2.856581449509
-30.173240661621 -79.226631164551 -217.284210205078 1.375692486763
-82.609062194824 -79.228866577148 -209.496170043945 3.128839015961
-152.277069091797 -78.398712158203 -212.094650268555 2.783904552460
-9.102277755737 -79.438995361328 -216.998611450195 1.507166743279
-7.420205116272 -76.818305969238 -220.719024658203 1.950885891914
10.451964378357 -80.335708618164 -220.783416748047 2.093693256378
9.969144821167 -71.370994567871 -230.473403930664 2.936563253403
-3.255659103394 -81.226074218750 -230.556259155273 2.697988033295
-146.200469970703 -76.528923034668 -217.370391845703 1.828498482704
-152.591140747070 -82.670120239258 -234.677719116211 3.053653240204
-157.714584350586 -73.886985778809 -232.476959228516 3.349651813507
-3.271903038025 -82.590065002441 -239.783889770508 5.568113327026
0.223479002714 -76.982078552246 -240.536697387695 2.484617710114
-26.940677642822 -84.961311340332 -245.257415771484 6.153726577759
-153.248703002930 -75.169387817383 -237.391723632813 2.271653413773
7.038091182709 -81.140327453613 -245.897781372070 2.076251506805
-25.457706451416 -71.937110900879 -243.402709960938 2.320333957672
16.553161621094 -79.343009948730 -238.444961547852 1.673199415207
-55.096824645996 -77.141822814941 -244.704345703125 1.446200966835
-53.284729003906 -78.763298034668 -251.794998168945 4.244683742523
-149.943283081055 -83.835060119629 -244.643920898438 2.323059320450
-64.558181762695 -80.197799682617 -249.888534545898 1.661579608917
-5.195506095886 -79.167083740234 -248.731689453125 1.400301456451
-13.394695281982 -75.494598388672 -256.046630859375 1.510415554047
-150.158782958984 -82.533027648926 -258.719482421875 1.516891479492
-134.364410400391 -75.853698730469 -255.297744750977 1.762355685234
-138.245300292969 -75.662063598633 -256.260284423828 2.488341331482
13.497575759888 -77.938011169434 -260.470397949219 5.352438449860
-149.229614257813 -79.682212829590 -271.488006591797 0.668881714344
14.686401367188 -80.319648742676 -268.625823974609 1.989712595940
-146.726181030273 -75.723159790039 -274.736694335938 1.904199242592
-0.568626999855 -81.429603576660 -279.945343017578 0.808095514774
-144.818664550781 -78.674522399902 -281.056610107422 2.765467882156
-5.887351036072 -82.576560974121 -285.844818115234 5.922117710114
-157.188491821289 -74.840637207031 -283.695678710938 2.390021800995
-147.748886108398 -74.259857177734 -281.600860595703 2.038543224335
-139.819686889648 -83.474609375000 -285.465576171875 2.986881017685
-153.664276123047 -80.035118103027 -293.990112304688 1.664931297302
-25.159036636353 -76.386840820313 -292.535858154297 1.927189350128
-154.495559692383 -76.593917846680 -290.907928466797 1.689595103264
-150.423202514648 -82.610290527344 -294.281005859375 2.535814762115
-156.529953002930 -76.809486389160 -305.784820556641 2.228425264359
-53.895317077637 -74.242614746094 -58.058292388916 1.572252750397
-37.907913208008 -83.833694458008 -65.048248291016 5.596892833710
-74.035064697266 -80.890899658203 -69.612556457520 1.034048914909
-30.139123916626 -75.271965026855 -68.385925292969 3.065564870834
-26.062793731689 -79.038619995117 -72.250343322754 2.891309022903
-86.009651184082 -77.800872802734 -79.358970642090 2.836564302444
85.418373107910 -81.514457702637 -89.152687072754 1.919145345688
-33.438377380371 -74.647178649902 -87.833976745605 7.105144977570
83.301307678223 -83.879928588867 -90.810699462891 3.934123754501
80.483482360840 -79.805664062500 -93.717689514160 2.091534614563
86.110198974609 -78.765129089355 -89.973487854004 1.250272035599
87.867721557617 -76.125007629395 -95.483535766602 2.195293188095
90.565429687500 -77.749694824219 -99.808097839355 3.321717023849
-89.791755676270 -73.261985778809 -93.635803222656 4.080127716064
57.559810638428 -78.912178039551 -109.389305114746 7.033582210541
-97.143203735352 -64.278556823730 -111.393196105957 1.682715892792
48.540225982666 -81.790458679199 -110.489463806152 4.631311893463
50.906143188477 -79.833541870117 -116.873634338379 4.595550060272
38.089523315430 -77.029449462891 -117.813591003418 1.492558479309
34.651599884033 -78.869377136230 -141.971435546875 1.961416125298
26.897090911865 -77.197204589844 -144.240890502930 1.441688418388
21.497686386108 -70.190948486328 -146.552200317383 2.778449296951
32.510528564453 -73.337928771973 -145.787796020508 1.915977835655
-46.322139739990 -80.499206542969 -155.282485961914 0.631914019585
-50.246910095215 -78.889015197754 -152.356185913086 1.553414463997
-41.169261932373 -76.229667663574 -160.249664306641 1.423582673073
21.957073211670 -75.158988952637 -158.201690673828 2.007924079895
30.431022644043 -76.607223510742 -171.431427001953 2.046487808228
-33.680721282959 -73.152282714844 -171.272506713867 2.837270259857
-35.994556427002 -71.148925781250 -160.213928222656 0.964086711407
-46.526527404785 -80.192321777344 -160.955886840820 3.634326934814
0.924874007702 -74.253936767578 -165.699935913086 2.566875457764
24.777318954468 -78.744560241699 -153.267410278320 0.996054947376
33.064899444580 -73.322303771973 -162.388488769531 1.260682106018
28.780101776123 -75.603546142578 -174.122268676758 1.772468686104
-6.044013023376 -76.827880859375 -175.369155883789 1.931171536446
-6.428328037262 -78.833145141602 -172.947479248047 2.752906322479
-59.250232696533 -74.606704711914 -166.985885620117 0.623745322227
-61.702915191650 -76.457443237305 -172.442764282227 1.534089565277
-45.629547119141 -78.709075927734 -170.577224731445 3.775724411011
-38.379486083984 -74.964828491211 -169.117614746094 1.925012230873
20.524143218994 -71.771568298340 -173.668624877930 1.618150830269
-24.804702758789 -82.359649658203 -180.269897460938 3.134640216827
-30.516653060913 -73.401588439941 -183.595413208008 2.699675798416
-64.276245117188 -81.291114807129 -180.203430175781 5.870276927948
95.203590393066 -80.254539489746 -187.033584594727 8.159482955933
20.305442810059 -81.935897827148 -179.160552978516 4.440930843353
-26.585012435913 -77.027427673340 -181.518539428711 1.230227708817
-53.059566497803 -77.231079101563 -178.696105957031 0.102927163243
-23.260829925537 -73.199409484863 -182.755035400391 1.330245018005
112.345520019531 -78.723083496094 -188.107849121094 3.727086067200
-58.232635498047 -79.411857604980 -186.771987915039 2.448618650436
10.075134277344 -79.949523925781 -194.222717285156 4.438634395599
14.939880371094 -77.543617248535 -181.169158935547 2.726775646210
-57.034927368164 -83.793907165527 -177.384460449219 3.829458475113
-26.186466217041 -75.526618957520 -184.553848266602 3.420603036880
-56.975963592529 -81.249076843262 -178.585479736328 3.576285600662
-37.700550079346 -79.729988098145 -177.789764404297 2.057446241379
-30.306703567505 -77.224830627441 -189.298690795898 1.709987521172
17.758726119995 -78.179862976074 -191.808563232422 1.421529650688
-48.822708129883 -79.199813842773 -189.994003295898 2.174294233322
101.944572448730 -77.187133789063 -195.408859252930 0.736844420433
-51.764347076416 -72.923240661621 -190.370498657227 2.896075248718
4.328155994415 -76.703681945801 -205.871765136719 3.014420747757
19.773979187012 -76.163002014160 -201.035964965820 0.507608771324
-51.313579559326 -77.343719482422 -192.922775268555 2.022625923157
-16.608278274536 -78.408622741699 -191.050247192383 2.627935171127
97.477050781250 -78.131629943848 -199.617843627930 0.978412985802
93.594894409180 -83.244544982910 -199.746887207031 7.356588363647
-51.893711090088 -75.514366149902 -187.386779785156 1.897560954094
-151.809585571289 -83.499794006348 -198.849517822266 2.311937808990
-46.942798614502 -76.764465332031 -196.859451293945 1.183414578438
-146.384460449219 -77.386039733887 -195.316009521484 2.455802440643
-136.189575195313 -71.653388977051 -195.465408325195 2.807788848877
-48.990051269531 -80.819946289063 -196.738845825195 1.986853957176
7.607144832611 -79.812385559082 -209.353958129883 2.616982221603
-17.479707717896 -74.100395202637 -207.137756347656 2.099502325058
14.539868354797 -74.481338500977 -203.623809814453 2.674548864365
89.358482360840 -83.238494873047 -218.526947021484 6.779517650604
-36.061344146729 -75.105285644531 -204.214279174805 2.328872919083
-16.909198760986 -74.721061706543 -204.876312255859 2.227528572083
-19.288173675537 -74.405792236328 -216.689758300781 2.372815608978
-36.368118286133 -75.676498413086 -204.907440185547 1.686226487160
3.265659093857 -77.969329833984 -208.975433349609 4.113226413727
-82.286514282227 -78.760452270508 -211.196243286133 2.324272871017
14.507626533508 -78.882133483887 -218.094238281250 1.664839625359
-36.840370178223 -76.028747558594 -206.813964843750 1.465767502785
-147.241119384766 -81.438705444336 -205.073196411133 1.841889023781
-142.648361206055 -72.186553955078 -208.553558349609 3.658283472061
-90.726531982422 -77.592918395996 -212.803588867188 3.228336572647
-36.742782592773 -74.644142150879 -210.181381225586 2.892052888870
-14.412737846375 -83.360984802246 -214.205596923828 5.064522743225
-36.147739410400 -78.567611694336 -205.974182128906 1.428760290146
-92.777191162109 -80.176971435547 -217.087158203125 3.280164003372
-88.644737243652 -79.164962768555 -213.092742919922 1.865681052208
3.279022932053 -84.483901977539 -223.132492065430 6.093727111816
-151.384017944336 -69.702079772949 -210.591415405273 3.030476093292
-17.314893722534 -82.166862487793 -214.286041259766 4.421860694885
7.014174938202 -85.462997436523 -221.750595092773 4.443388938904
-146.422332763672 -74.739082336426 -219.134155273438 1.744119167328
-26.013137817383 -79.226371765137 -216.781127929688 1.785017490387
-0.127518996596 -72.196449279785 -221.716003417969 1.608271837234
-11.737059593201 -78.477684020996 -222.031051635742 2.592473030090
-154.843978881836 -71.252555847168 -221.435089111328 2.480442285538
-142.884414672852 -64.378700256348 -224.902938842773 2.009600400925
-6.009380817413 -77.807350158691 -228.806961059570 1.307828307152
-150.563308715820 -81.997665405273 -225.033996582031 1.222025990486
-1.641934990883 -71.912590026855 -231.439651489258 2.223832368851
15.184519767761 -76.532768249512 -239.065414428711 2.317421913147
-5.086731910706 -80.810668945313 -231.180740356445 2.087074279785
-5.158855915070 -70.748176574707 -233.871810913086 0.792083442211
6.285210132599 -75.516609191895 -234.271179199219 1.493094205856
-155.563934326172 -77.100837707520 -238.777481079102 3.762762784958
-22.396383285522 -74.415756225586 -234.377029418945 3.953873634338
-37.233036041260 -79.822631835938 -239.990478515625 1.443150043488
-2.042498111725 -75.959922790527 -237.652099609375 0.971471846104
0.978505015373 -83.830116271973 -246.497344970703 4.039373874664
-1.564910054207 -75.262245178223 -235.108947753906 2.509635925293
-62.281845092773 -76.354187011719 -242.896774291992 2.933055400848
-151.745040893555 -71.641204833984 -248.256240844727 2.758365154266
-156.675155639648 -75.836578369141 -245.636337280273 3.263677597046
9.372355461121 -79.593162536621 -249.882049560547 2.638373374939
23.210096359253 -80.356552124023 -248.740844726563 1.988443374634
-64.587219238281 -73.095726013184 -247.741683959961 2.298130273819
-144.789825439453 -81.512527465820 -250.699142456055 2.139617204666
-156.642471313477 -80.032058715820 -252.949783325195 3.006308794022
-158.220428466797 -80.020927429199 -255.090560913086 3.582998752594
-146.602935791016 -72.644134521484 -261.048309326172 1.969875216484
-145.970245361328 -77.340835571289 -255.072631835938 3.464559793472
-9.070055007935 -79.513671875000 -258.127532958984 1.308523774147
-149.249526977539 -77.549720764160 -260.344848632813 2.810830593109
-18.537685394287 -78.240898132324 -270.939147949219 5.684764385223
-151.204391479492 -74.340568542480 -269.159576416016 0.561783552170
-152.055145263672 -75.211776733398 -280.733459472656 2.041667699814
-151.595077514648 -73.621437072754 -283.003295898438 1.268185734749
-7.661899089813 -71.977157592773 -287.437866210938 2.100255489349
-153.511260986328 -71.339370727539 -280.704681396484 0.650791406631
-28.385194778442 -79.059700012207 -287.622650146484 3.471724748611
-28.744455337524 -73.488555908203 -286.087402343750 0.423352330923
-17.000669479370 -73.763603210449 -296.699462890625 4.347615242004
-19.383712768555 -73.320831298828 -295.871337890625 4.813925743103
7.184507846832 -80.256553649902 -293.593994140625 3.917908668518
-128.979568481445 -78.506004333496 -289.388519287109 2.817603826523
-66.831657409668 -77.274543762207 -287.336181640625 1.073158144951
-46.621559143066 -72.988960266113 -291.760864257813 2.520541667938
-37.621791839600 -77.632148742676 -288.573242187500 0.649914264679
-12.600962638855 -74.515609741211 -296.727264404297 4.495982170105
1.698358058929 -78.661186218262 -290.055694580078 1.479191184044
-145.557403564453 -76.174903869629 -297.607971191406 2.527647972107
7.056601047516 -77.820877075195 -299.480865478516 6.518684864044
-158.467666625977 -72.472373962402 -301.449951171875 2.621421337128
-159.507675170898 -80.964607238770 -299.625823974609 6.750824451447
-158.199569702148 -70.594703674316 -310.953887939453 1.583555102348
-146.646545410156 -74.652610778809 -307.798187255859 3.546094417572
-49.207683563232 -76.522239685059 -50.157070159912 4.158526897430
-51.545578002930 -81.402931213379 -57.127582550049 3.608058214188
-66.550010681152 -74.088180541992 -54.859798431396 1.653373479843
-38.087738037109 -74.041397094727 -64.438072204590 4.341548919678
-33.563312530518 -77.136589050293 -60.737419128418 2.601727008820
-17.061035156250 -75.995986938477 -72.704620361328 2.200254201889
-79.690071105957 -72.702102661133 -69.678230285645 4.826588153839
87.237510681152 -78.549171447754 -82.794380187988 2.093121528625
-89.697570800781 -73.917625427246 -71.970703125000 0.496483504772
81.055671691895 -75.076110839844 -80.458930969238 1.888543605804
89.925636291504 -72.224128723145 -88.984970092773 4.604226589203
99.870353698730 -74.474624633789 -95.394287109375 2.879046440125
-60.797935485840 -78.991073608398 -97.383590698242 2.473418474197
82.554046630859 -79.777290344238 -101.228843688965 5.535059928894
76.971923828125 -83.365112304688 -94.607147216797 6.017973899841
87.204818725586 -77.534973144531 -94.840225219727 1.658128499985
-57.341125488281 -76.004768371582 -98.234176635742 6.415798664093
48.565212249756 -74.898193359375 -101.721328735352 2.821256160736
46.269363403320 -76.375015258789 -109.895553588867 1.078969240189
39.773845672607 -78.211654663086 -106.475875854492 0.874074995518
36.187133789063 -77.751380920410 -103.368682861328 4.597458362579
-91.449363708496 -70.633605957031 -101.886024475098 4.197121143341
35.516357421875 -74.893829345703 -120.360519409180 1.128059029579
-84.311843872070 -76.170089721680 -106.472595214844 2.797262907028
39.720687866211 -78.438331604004 -131.502853393555 0.825617551804
32.468379974365 -78.177734375000 -123.355720520020 0.907010257244
34.569149017334 -67.958816528320 -124.345809936523 1.512931227684
45.279872894287 -74.487136840820 -120.134887695313 1.896725177765
41.905162811279 -80.487159729004 -131.812927246094 3.269159555435
-50.790756225586 -68.897041320801 -135.794631958008 1.608928322792
37.827590942383 -82.356338500977 -136.899963378906 3.370730400085
35.169677734375 -76.689674377441 -147.672164916992 2.384357929230
-56.990093231201 -73.932373046875 -145.495880126953 1.988090395927
-44.438629150391 -76.520408630371 -141.009277343750 1.962619662285
34.819416046143 -74.817825317383 -145.222915649414 3.464635133743
109.998870849609 -71.817909240723 -145.143173217773 1.947636365891
111.622703552246 -73.166854858398 -152.397323608398 0.234201937914
26.203510284424 -78.603729248047 -143.608032226563 1.265830516815
-40.247261047363 -79.507522583008 -150.971420288086 1.853801369667
117.301910400391 -86.080490112305 -157.138870239258 9.544857025146
-36.951072692871 -73.681037902832 -153.458587646484 1.685000538826
-68.482841491699 -74.475753784180 -163.690444946289 1.548649430275
109.947967529297 -82.960052490234 -159.269134521484 5.834686279297
21.753288269043 -78.072586059570 -169.712783813477 1.108228206635
0.400772988796 -77.223373413086 -164.782241821289 1.269856452942
110.280197143555 -77.665794372559 -156.518539428711 1.903161406517
-65.010864257813 -75.279975891113 -167.168640136719 0.748829424381
-39.969043731689 -77.739425659180 -167.766220092773 1.099470257759
110.184509277344 -78.772560119629 -169.846771240234 1.899103283882
26.587045669556 -70.415443420410 -161.271408081055 1.837651848793
-62.002044677734 -68.154518127441 -164.456115722656 3.122168302536
112.257537841797 -77.876312255859 -170.486953735352 2.424361228943
-66.500320434570 -77.303558349609 -169.442596435547 1.451807856560
-49.518428802490 -79.331909179688 -184.135299682617 1.116703510284
105.153259277344 -76.874809265137 -175.832672119141 2.613337516785
-60.436584472656 -74.051132202148 -173.534667968750 1.947306632996
111.760124206543 -76.188186645508 -183.571350097656 1.522027254105
-62.707939147949 -74.467399597168 -177.426315307617 3.309369564056
-17.409574508667 -73.074768066406 -179.106765747070 3.435819864273
-10.557352066040 -82.526466369629 -185.048904418945 6.327126502991
106.805023193359 -79.762413024902 -170.143234252930 3.322850465775
20.724315643311 -78.231369018555 -173.686355590820 1.262459158897
30.388938903809 -70.666641235352 -171.552505493164 2.210981130600
-59.523357391357 -74.652824401855 -178.253158569336 2.193834066391
15.815210342407 -74.094818115234 -184.112594604492 2.128921270370
-58.438175201416 -76.783935546875 -174.871871948242 1.555613040924
-54.212360382080 -73.905647277832 -196.296752929688 6.593604087830
8.760442733765 -73.586006164551 -187.538299560547 4.112605571747
-56.461547851563 -69.798240661621 -179.697006225586 4.134615898132
104.521018981934 -74.133255004883 -193.982223510742 0.630720734596
25.273670196533 -80.132728576660 -184.921676635742 3.647944688797
-37.141666412354 -72.986816406250 -189.312362670898 5.127028465271
-44.647064208984 -78.981849670410 -190.217346191406 1.937867760658
9.844631195068 -79.283706665039 -193.254592895508 4.450065612793
-21.514192581177 -77.416458129883 -188.788192749023 0.580728948116
-48.429214477539 -77.464584350586 -196.858230590820 1.397112131119
100.183937072754 -82.266799926758 -186.696319580078 5.926077842712
6.843925952911 -80.742286682129 -192.354766845703 7.355653762817
-133.614318847656 -82.529342651367 -199.485275268555 1.671384096146
-51.680862426758 -78.309967041016 -196.884796142578 3.356488466263
92.344886779785 -76.049072265625 -203.038253784180 1.863620400429
-151.822738647461 -81.254280090332 -201.125595092773 0.943938016891
16.635463714600 -77.066703796387 -204.114852905273 1.520721793175
-45.528427124023 -72.070243835449 -207.231903076172 6.705236911774
-31.571765899658 -79.668518066406 -209.145599365234 1.758191227913
-38.938541412354 -77.410408020020 -201.714996337891 1.007092714310
-47.893386840820 -83.659767150879 -199.203842163086 1.499034285545
99.139480590820 -76.965972900391 -209.798004150391 3.472871541977
-23.192256927490 -81.096237182617 -201.111587524414 2.452173709869
-151.882247924805 -74.961395263672 -198.533981323242 3.006560564041
14.016571998596 -79.682807922363 -203.063827514648 0.544609308243
-79.271926879883 -80.507560729980 -205.137252807617 4.030455589294
-144.490798950195 -72.251358032227 -213.301742553711 2.608451843262
91.222618103027 -80.356185913086 -218.878494262695 4.091282367706
-34.912208557129 -74.287902832031 -208.188934326172 0.783411324024
-30.781690597534 -76.912002563477 -211.573852539063 0.586057484150
8.496956825256 -76.983650207520 -211.930587768555 0.684256494045
-73.771034240723 -80.760772705078 -206.931106567383 2.729456663132
-28.508583068848 -85.702209472656 -206.247467041016 7.183990478516
-11.096366882324 -78.226898193359 -219.341857910156 1.884076595306
-71.209037780762 -76.689613342285 -214.288436889648 1.981805801392
-15.979743957520 -76.897682189941 -219.284576416016 2.511080741882
5.749298095703 -66.658157348633 -213.046890258789 3.985843181610
9.483976364136 -79.951293945313 -223.987091064453 2.351913928986
-154.433029174805 -77.342613220215 -216.580474853516 4.406469345093
-11.457927703857 -76.309532165527 -215.853973388672 1.458207607269
-105.269126892090 -71.460151672363 -219.505599975586 1.435898423195
-24.172821044922 -75.872039794922 -220.772384643555 2.174787044525
85.912551879883 -84.098678588867 -216.394805908203 7.745023250580
7.662642002106 -74.117721557617 -226.289703369141 2.181300878525
20.310861587524 -76.489044189453 -218.818130493164 2.488986492157
77.575622558594 -79.184692382813 -216.412261962891 6.769251823425
-1.032446026802 -81.859733581543 -232.684463500977 4.015469551086
82.999542236328 -77.819885253906 -220.640487670898 2.514059543610
-24.230564117432 -71.049606323242 -226.566253662109 3.326583862305
14.750575065613 -72.480125427246 -220.401596069336 2.161098957062
-151.292999267578 -76.718482971191 -216.310775756836 1.934102773666
-29.724693298340 -77.839141845703 -228.018814086914 6.171132564545
-0.320733994246 -72.950164794922 -233.787109375000 0.748268842697
-159.008026123047 -81.343933105469 -223.116241455078 5.857234954834
-140.092941284180 -79.217788696289 -226.544891357422 1.627162218094
-0.058990001678 -76.068656921387 -224.862548828125 1.393566489220
-5.808337211609 -72.036712646484 -225.519836425781 1.837513089180
-139.746704101563 -70.969245910645 -227.454528808594 3.025473117828
-150.267181396484 -75.409217834473 -242.009445190430 1.719612717628
-151.847686767578 -76.034042358398 -234.071533203125 1.612781763077
-33.865650177002 -77.770797729492 -237.641921997070 1.968686938286
-143.945587158203 -79.398658752441 -242.270278930664 2.564487695694
11.657915115356 -78.528800964355 -243.634689331055 2.433308124542
3.256129980087 -76.027587890625 -247.336013793945 2.947950839996
-153.419235229492 -68.537956237793 -237.180541992188 2.402884244919
-152.495254516602 -74.489013671875 -243.809921264648 2.194204330444
-47.860343933105 -78.516136169434 -247.672866821289 1.877639055252
-34.390712738037 -76.926460266113 -248.938903808594 4.912302017212
1.227506995201 -76.032081604004 -243.870346069336 1.092184782028
-38.240612030029 -78.616531372070 -246.569732666016 2.136498928070
19.013280868530 -76.865402221680 -248.743362426758 2.264390945435
-9.080993652344 -78.960281372070 -255.489013671875 1.951604604721
-145.963790893555 -76.612007141113 -251.759872436523 0.268574744463
-13.416652679443 -82.429496765137 -255.200210571289 4.076078414917
-151.388336181641 -72.430419921875 -244.361007690430 1.820969343185
-67.531684875488 -78.456901550293 -250.921096801758 2.407025575638
-149.230499267578 -82.922569274902 -257.433776855469 0.824710845947
-130.787063598633 -75.620040893555 -256.986022949219 2.900830268860
-156.661209106445 -75.500122070313 -254.736465454102 2.691603899002
-13.072377204895 -73.588012695313 -269.529113769531 1.379430890083
-148.853103637695 -82.609008789063 -272.548614501953 2.643508911133
-152.137466430664 -75.711921691895 -268.718902587891 1.951441884041
-15.453655242920 -76.591423034668 -272.779083251953 3.887200117111
-146.825698852539 -75.555335998535 -268.441802978516 1.879080176353
-10.319241523743 -74.674736022949 -277.762237548828 2.696233272552
-48.908699035645 -75.226722717285 -284.169982910156 0.872969269753
-138.656509399414 -72.164779663086 -287.236114501953 2.236867666245
-139.697937011719 -74.865386962891 -284.584472656250 2.639108896255
-125.768119812012 -71.407737731934 -279.759124755859 4.811955451965
-54.939411163330 -75.116867065430 -286.962921142578 2.105885267258
-114.570999145508 -74.268676757813 -282.117675781250 4.560587882996
13.035771369934 -75.773208618164 -295.563446044922 1.219873785973
-59.664508819580 -73.556587219238 -289.134521484375 2.880176544189
-144.171615600586 -75.136016845703 -292.686859130859 1.302210450172
-67.098777770996 -74.430999755859 -291.089935302734 1.126966834068
-148.851257324219 -81.398208618164 -292.801666259766 3.068422079086
-119.702590942383 -72.346038818359 -290.482055664063 1.997042775154
-49.077011108398 -79.365928649902 -291.204528808594 4.227667808533
-36.560379028320 -76.058502197266 -292.965698242188 3.291200399399
-142.433563232422 -69.806465148926 -296.152008056641 1.810817003250
-18.110420227051 -69.563140869141 -282.113555908203 7.130149841309
2.323312044144 -75.826179504395 -288.553710937500 1.730635643005
3.361157894135 -74.300384521484 -292.198089599609 1.268537282944
11.779902458191 -77.618682861328 -298.344482421875 4.714973449707
-153.433441162109 -80.595466613770 -297.182617187500 1.258240818977
-147.605438232422 -72.375022888184 -290.297943115234 2.905356168747
-63.853355407715 -73.233985900879 -63.267398834229 6.033379554749
90.871772766113 -79.214439392090 -76.013442993164 3.691112518311
80.258613586426 -78.379013061523 -81.568550109863 1.333481669426
-26.815334320068 -78.926086425781 -77.716972351074 3.068976879120
84.935470581055 -75.144859313965 -78.041313171387 1.823554396629
-37.247203826904 -78.985008239746 -80.849113464355 1.508627653122
82.852355957031 -72.042098999023 -86.698562622070 6.348101615906
98.400138854980 -72.249145507813 -83.616714477539 1.872530460358
-63.322776794434 -69.062034606934 -97.132308959961 3.038375139236
73.083908081055 -77.570404052734 -98.131500244141 3.437162637711
80.747573852539 -74.239219665527 -101.692733764648 2.731059789658
98.788429260254 -80.542953491211 -99.720886230469 6.573355197906
56.306816101074 -78.969902038574 -99.966880798340 2.113345384598
-63.987854003906 -71.797904968262 -101.821601867676 4.819650173187
-72.792686462402 -71.578788757324 -101.242019653320 0.896992087364
51.855884552002 -79.040161132813 -106.213439941406 1.095216035843
-86.027053833008 -76.639266967773 -101.529228210449 4.547543525696
48.342868804932 -72.671737670898 -121.386344909668 2.424124479294
111.139244079590 -76.307548522949 -124.812133789063 1.732781052589
113.380210876465 -79.649337768555 -134.529037475586 2.109743833542
19.333681106567 -73.669433593750 -139.050643920898 5.611986637115
110.555053710938 -79.333549499512 -131.345764160156 3.994982481003
29.387268066406 -72.929718017578 -135.693878173828 1.243625164032
112.850990295410 -70.082138061523 -137.565414428711 1.560831546783
36.892356872559 -73.307609558105 -137.447250366211 1.839818954468
-57.493911743164 -74.412483215332 -140.405700683594 1.434094786644
36.393386840820 -81.244003295898 -148.956771850586 3.635422945023
108.747291564941 -74.744621276855 -138.378402709961 1.639912247658
-45.009117126465 -73.226928710938 -144.568420410156 1.152536988258
31.790803909302 -74.368797302246 -153.440734863281 1.145051121712
-56.836372375488 -68.655105590820 -142.377838134766 1.968309044838
-60.624946594238 -74.684120178223 -144.460723876953 3.895109653473
-53.358520507813 -79.051292419434 -150.925155639648 3.205174922943
-64.605758666992 -78.521545410156 -156.131179809570 0.741475343704
110.998176574707 -82.081504821777 -151.291610717773 5.568275451660
-50.054752349854 -83.109115600586 -156.124816894531 4.949510574341
23.003082275391 -82.004455566406 -159.333084106445 3.783791542053
106.716049194336 -77.839942932129 -167.815917968750 3.277137517929
-65.312606811523 -75.309310913086 -154.734848022461 1.615470170975
-42.947765350342 -76.747322082520 -158.596557617188 1.695585012436
8.946552276611 -73.337791442871 -156.412429809570 2.281971454620
-68.890289306641 -75.903434753418 -154.262542724609 1.907770872116
-65.080123901367 -78.493919372559 -158.357818603516 1.626052141190
0.239507004619 -75.981513977051 -164.377593994141 2.415823936462
-45.096225738525 -70.754814147949 -168.955551147461 3.153632402420
27.907337188721 -73.582229614258 -170.736312866211 1.575247049332
-64.091972351074 -70.303176879883 -169.366394042969 3.049849987030
-56.242839813232 -77.787551879883 -166.843093872070 1.932402014732
13.317661285400 -79.895172119141 -161.878021240234 6.985978603363
-30.592584609985 -74.080505371094 -169.482955932617 2.546972274780
-28.816057205200 -78.564147949219 -167.658050537109 2.026513099670
13.822460174561 -77.688575744629 -176.937652587891 3.868753433228
-45.029247283936 -78.861854553223 -173.904190063477 4.600237369537
-10.889109611511 -77.583084106445 -173.858367919922 1.382014870644
-67.508552551270 -71.340126037598 -171.688446044922 3.265267133713
-8.696144104004 -73.001220703125 -176.422561645508 3.265155553818
-22.226533889771 -75.706443786621 -181.285430908203 1.083479642868
21.054798126221 -72.575508117676 -187.098068237305 1.738592147827
-39.534713745117 -77.725219726563 -173.445983886719 0.758185923100
20.835531234741 -71.321937561035 -177.564025878906 1.754692554474
-23.764141082764 -71.486709594727 -187.574905395508 1.634308934212
-32.857349395752 -78.570350646973 -178.192703247070 2.040689945221
-149.610427856445 -70.985961914063 -192.096801757813 2.363560199738
-18.052024841309 -80.980300903320 -184.909423828125 2.558211326599
-140.948791503906 -72.701431274414 -188.652420043945 1.734743237495
-155.689422607422 -75.068183898926 -185.701766967773 5.476538658142
-51.225452423096 -73.335861206055 -189.848754882813 2.605232238770
97.152351379395 -76.054603576660 -199.074005126953 1.486668586731
-146.101318359375 -76.068542480469 -188.684768676758 1.734210371971
-145.975067138672 -71.956626892090 -194.282440185547 2.317000150681
21.704370498657 -73.860069274902 -198.411163330078 1.436074376106
-140.312286376953 -75.328681945801 -194.513046264648 2.450935840607
11.235479354858 -71.375068664551 -201.516357421875 0.561575889587
-138.996902465820 -78.315849304199 -198.779174804688 2.374669075012
11.968930244446 -71.305671691895 -200.148498535156 1.072827816010
-133.698196411133 -70.728523254395 -193.774719238281 2.683101415634
3.340439081192 -71.603767395020 -203.471771240234 3.678839445114
-153.740646362305 -74.561378479004 -200.258071899414 2.048207283020
94.191238403320 -76.729560852051 -211.065994262695 1.597139835358
-18.814702987671 -78.570655822754 -210.975234985352 2.474744319916
-32.056522369385 -74.243957519531 -210.406036376953 1.666428565979
-13.924891471863 -69.612152099609 -206.778656005859 2.176990032196
-146.268051147461 -79.966575622559 -209.086410522461 2.285304307938
-36.896884918213 -75.454177856445 -203.808502197266 2.860028028488
-85.952285766602 -77.330467224121 -202.204223632813 9.360547065735
-28.378864288330 -77.216079711914 -209.338180541992 2.126989126205
12.188688278198 -76.598564147949 -216.681610107422 1.995223999023
-147.753540039063 -71.676658630371 -214.193237304688 1.761045813560
-90.506538391113 -77.886917114258 -219.724304199219 3.076308727264
-30.893074035645 -74.156921386719 -221.954467773438 4.348495960236
-29.449125289917 -75.610404968262 -222.367324829102 2.313095092773
-8.801531791687 -77.738021850586 -210.173889160156 1.779295563698
-28.773014068604 -74.620307922363 -208.350112915039 1.441315293312
-86.491630554199 -75.473884582520 -222.632995605469 4.209131717682
-92.337379455566 -81.339164733887 -219.880096435547 5.661420822144
-24.461246490479 -74.661537170410 -223.544479370117 0.422851800919
-3.867388963699 -85.703338623047 -227.492065429688 6.822344779968
-159.124954223633 -77.118507385254 -215.635147094727 5.499757766724
-4.261662006378 -77.500694274902 -223.947952270508 2.183585166931
86.354324340820 -81.820411682129 -232.168914794922 8.903628349304
-140.566818237305 -77.449851989746 -221.498016357422 2.635751724243
-4.654414176941 -76.333129882813 -222.553375244141 1.632913470268
-140.744766235352 -76.441390991211 -224.282211303711 1.438867926598
-149.041778564453 -83.273681640625 -223.278442382813 1.352426409721
-7.452938079834 -74.641189575195 -229.684997558594 2.287690877914
21.122901916504 -77.371208190918 -215.341842651367 3.488258600235
-140.408950805664 -72.347320556641 -228.053283691406 1.589002013206
-20.269369125366 -77.735923767090 -228.919662475586 1.512554168701
69.013710021973 -77.679702758789 -228.411743164063 5.026133060455
72.368186950684 -77.008544921875 -238.004608154297 4.197276592255
9.042146682739 -78.434677124023 -231.816818237305 2.014122962952
-37.463127136230 -76.786048889160 -236.495590209961 3.118483543396
-27.145853042603 -84.699745178223 -244.015121459961 5.290707588196
-0.116369999945 -73.995323181152 -245.123962402344 1.764143347740
-48.686084747314 -70.074981689453 -244.713058471680 2.528781890869
-22.618305206299 -73.097610473633 -244.318313598633 2.649659633636
8.657988548279 -72.116218566895 -239.999618530273 1.630051255226
-65.341232299805 -75.875434875488 -246.009704589844 1.807200431824
-39.512599945068 -81.426490783691 -244.962203979492 1.317295908928
-39.837203979492 -74.190055847168 -246.529190063477 2.046931743622
-149.648696899414 -71.701499938965 -244.327636718750 2.030259847641
-46.787677764893 -78.963546752930 -249.582427978516 3.519738197327
-54.539916992188 -66.278587341309 -247.729797363281 6.033179759979
-67.762001037598 -74.886932373047 -248.851669311523 2.148693323135
-12.692865371704 -81.042030334473 -246.474472045898 6.954073429108
-80.931770324707 -76.957092285156 -255.763671875000 2.107980012894
-159.330947875977 -81.364151000977 -251.057189941406 6.198502063751
-142.503723144531 -72.766983032227 -251.568145751953 2.746547460556
-123.072456359863 -76.838958740234 -257.057250976563 2.845058917999
-161.940460205078 -70.662384033203 -255.341796875000 3.046377658844
15.839985847473 -83.837303161621 -269.437591552734 2.451152086258
-17.756465911865 -78.414352416992 -270.495147705078 5.112617492676
-158.634429931641 -77.584922790527 -273.076873779297 3.260195732117
-156.124191284180 -82.116455078125 -277.138580322266 5.323900699615
-149.284423828125 -76.796417236328 -284.354858398438 2.294954538345
-61.715740203857 -69.820602416992 -279.134307861328 6.875841617584
-41.810771942139 -69.108314514160 -286.220458984375 2.104490995407
-20.255475997925 -72.957946777344 -291.442321777344 1.941435456276
-11.370038986206 -70.856155395508 -278.925872802734 1.495449185371
-69.370414733887 -78.983184814453 -284.964874267578 2.617169618607
-84.473129272461 -80.425643920898 -285.753936767578 5.303420543671
-4.613807201385 -76.878242492676 -283.246795654297 2.232374906540
-1.207180976868 -77.610725402832 -294.815338134766 3.700842857361
-143.604949951172 -72.820213317871 -283.800384521484 1.545487046242
-84.133255004883 -71.007240295410 -285.358459472656 3.110387802124
-149.943832397461 -73.029266357422 -285.677947998047 1.975948929787
-97.777854919434 -85.575286865234 -284.365875244141 11.026029586792
-81.798393249512 -74.370475769043 -284.890136718750 1.415232419968
-89.688446044922 -71.743927001953 -296.508056640625 4.269553184509
-66.853157043457 -74.676223754883 -292.384765625000 2.156243085861
-34.645854949951 -67.772537231445 -297.001281738281 7.108335494995
-12.539608955383 -75.110038757324 -291.735412597656 0.376649796963
-153.718719482422 -66.296813964844 -298.566131591797 2.745332241058
-151.411102294922 -71.579940795898 -299.414642333984 2.286154985428
-146.832550048828 -72.554992675781 -304.502502441406 3.032718658447
-161.800277709961 -73.701400756836 -302.500213623047 6.151206493378
-54.279029846191 -70.231552124023 -57.009693145752 5.219308376312
-46.941055297852 -74.107574462891 -53.597972869873 2.274676084518
-37.802974700928 -76.773811340332 -54.254085540771 2.988620996475
-75.932144165039 -77.677459716797 -63.308906555176 1.741230964661
-27.735839843750 -73.063911437988 -66.540077209473 3.784719705582
-34.110664367676 -73.754745483398 -80.968574523926 3.303910732269
75.362426757813 -80.575759887695 -87.116729736328 4.378064632416
76.449142456055 -75.851280212402 -82.486511230469 1.596411705017
73.283248901367 -72.554473876953 -86.718284606934 3.288744449615
102.216697692871 -71.833290100098 -94.551750183105 2.847542285919
68.502677917480 -78.477043151855 -92.317413330078 5.085328102112
48.075027465820 -79.184234619141 -90.899421691895 6.079397678375
53.627044677734 -82.140106201172 -104.823036193848 3.705256938934
-65.291007995605 -72.328491210938 -103.050155639648 4.626335620880
-73.643844604492 -69.510353088379 -102.885742187500 2.658727407455
45.724052429199 -77.015571594238 -105.868881225586 1.359001636505
-81.289634704590 -80.446327209473 -110.500885009766 3.418618440628
-91.910339355469 -72.031593322754 -109.856010437012 2.565441131592
52.080497741699 -75.580833435059 -112.099044799805 3.008676290512
107.935211181641 -74.892921447754 -121.160980224609 1.252207636833
33.671226501465 -77.578292846680 -129.361190795898 2.441256523132
42.553909301758 -77.371154785156 -121.336135864258 1.876856565475
40.030487060547 -73.435462951660 -125.112670898438 1.873722553253
30.651233673096 -77.279418945313 -123.995513916016 1.829226851463
109.845245361328 -76.229896545410 -125.854087829590 0.638213932514
39.404872894287 -78.990112304688 -134.899734497070 2.707060337067
35.936195373535 -70.563499450684 -135.470977783203 0.937287867069
-43.784671783447 -72.975776672363 -142.399551391602 1.751833796501
-69.655242919922 -78.339782714844 -142.990661621094 3.978827238083
-52.672592163086 -73.472801208496 -150.708496093750 0.725413799286
-75.566825866699 -79.962882995605 -146.066604614258 4.980391025543
-37.866352081299 -74.584335327148 -149.049102783203 3.463825464249
105.199089050293 -77.223602294922 -161.979782104492 4.441675186157
-71.960327148438 -77.136230468750 -156.979660034180 2.316913366318
23.209625244141 -81.603607177734 -148.053405761719 3.965874910355
27.408676147461 -78.480400085449 -151.362075805664 0.938075959682
109.953376770020 -80.165016174316 -167.723663330078 2.614407062531
9.542355537415 -79.371170043945 -161.361145019531 4.348978519440
33.392421722412 -72.402168273926 -158.059005737305 0.964067876339
-62.836967468262 -77.722831726074 -160.000686645508 2.029559135437
-40.318603515625 -77.380241394043 -175.775253295898 1.882685422897
21.678575515747 -75.630195617676 -165.552047729492 2.004798650742
-65.798042297363 -73.463882446289 -155.587203979492 1.134234189987
-71.055526733398 -74.436241149902 -166.092132568359 4.294884204865
114.900840759277 -78.897613525391 -170.557952880859 2.520614147186
-8.978543281555 -77.082336425781 -166.027648925781 2.350555896759
-66.999244689941 -72.528366088867 -171.295959472656 2.156531572342
-36.740985870361 -77.318130493164 -167.205993652344 2.169316053391
-54.658714294434 -73.355903625488 -171.914489746094 2.923759698868
30.372581481934 -74.467323303223 -178.941818237305 2.747663736343
111.046943664551 -73.001159667969 -177.044738769531 0.833465993404
101.175102233887 -74.167907714844 -187.430999755859 2.622024059296
103.197799682617 -75.484794616699 -193.397827148438 1.551227331161
105.677940368652 -73.033691406250 -179.840591430664 1.933710575104
-51.872924804688 -72.998565673828 -193.785354614258 4.522041320801
-47.811389923096 -70.737869262695 -184.208099365234 4.206051349640
26.840856552124 -74.997360229492 -186.299453735352 1.258116126060
-48.431301116943 -73.358650207520 -185.783081054688 2.180071115494
-21.883312225342 -75.165580749512 -184.955337524414 1.850303888321
-52.276817321777 -78.436248779297 -192.080703735352 2.467544317245
-153.514541625977 -72.493499755859 -190.874160766602 2.890410184860
99.718635559082 -78.964874267578 -196.229843139648 3.107604265213
-45.361461639404 -71.373558044434 -196.094421386719 4.427688598633
-12.832473754883 -76.889289855957 -201.136779785156 1.747880339622
-140.365875244141 -72.937477111816 -190.724334716797 3.782660245895
-41.974075317383 -71.869934082031 -200.259368896484 2.727758407593
99.397010803223 -74.262809753418 -200.196105957031 0.753902614117
107.091110229492 -73.604721069336 -188.725265502930 2.413979768753
-43.627193450928 -74.383140563965 -195.993392944336 2.556616544724
-23.459156036377 -83.820991516113 -201.206634521484 4.773574352264
-148.124191284180 -76.768768310547 -198.965484619141 0.713967084885
-26.332986831665 -74.263786315918 -196.051544189453 2.322818517685
-162.073806762695 -74.055252075195 -194.593719482422 3.852039575577
-154.206237792969 -82.433624267578 -204.196487426758 3.254709482193
-146.796875000000 -76.340766906738 -200.417709350586 2.491825103760
-39.989097595215 -75.806022644043 -202.330307006836 1.528973460197
100.571098327637 -77.646553039551 -207.935424804688 2.993290185928
-43.991256713867 -72.432220458984 -200.801666259766 1.325598120689
-143.455505371094 -78.121192932129 -203.466445922852 1.014430165291
-38.593219757080 -69.994377136230 -206.158340454102 3.380605459213
-24.432785034180 -81.575599670410 -211.161193847656 3.116125822067
96.594093322754 -79.696563720703 -209.902328491211 3.671723127365
88.043319702148 -78.162971496582 -219.152770996094 3.004404306412
-40.003463745117 -72.471740722656 -218.141265869141 8.771717071533
-90.214813232422 -76.298217773438 -209.460708618164 4.150989055634
-77.396522521973 -76.090293884277 -211.765045166016 1.264471411705
-21.153450012207 -75.088882446289 -209.595153808594 0.726443171501
-151.438873291016 -76.983482360840 -198.635559082031 2.572906970978
90.517440795898 -75.039810180664 -217.972396850586 1.127993941307
86.539924621582 -71.533020019531 -221.488983154297 1.052672386169
87.797065734863 -76.809211730957 -224.791519165039 2.664551973343
-104.768882751465 -75.983367919922 -217.300918579102 4.686662673950
-157.187301635742 -76.592597961426 -218.828781127930 5.606824398041
-22.369976043701 -72.511199951172 -225.749404907227 1.196512818336
79.066116333008 -71.385925292969 -231.543121337891 1.783633232117
-152.449356079102 -78.761940002441 -219.225021362305 3.189152956009
-31.487133026123 -76.812942504883 -217.522415161133 1.558887004852
-136.730697631836 -71.922058105469 -232.452850341797 1.915263772011
-13.112072944641 -78.353271484375 -233.876083374023 4.367143154144
14.943838119507 -73.759796142578 -232.467300415039 2.580568075180
18.195049285889 -76.363685607910 -235.934112548828 1.580709576607
-158.052383422852 -77.124588012695 -234.268875122070 4.346355438232
-128.958755493164 -69.471405029297 -231.606811523438 3.906342983246
-10.576883316040 -74.819839477539 -237.393661499023 2.267490863800
-2.089668989182 -74.006660461426 -239.759384155273 1.061077117920
66.921272277832 -75.431488037109 -233.661041259766 2.776531696320
66.288238525391 -71.442642211914 -243.043228149414 2.162065029144
-2.556183099747 -72.048629760742 -242.026870727539 1.296749711037
13.490818977356 -70.073905944824 -242.390213012695 0.529347777367
-34.269462585449 -64.936668395996 -242.940673828125 9.213383674622
-34.375465393066 -86.082084655762 -243.759399414063 6.239992618561
-51.945781707764 -74.940780639648 -235.414703369141 6.731258392334
-43.464057922363 -72.175094604492 -240.258117675781 2.336535692215
-18.380485534668 -76.447380065918 -244.577880859375 2.318876028061
-54.113956451416 -72.353179931641 -245.183013916016 0.814171731472
-0.867223024368 -75.980194091797 -247.253143310547 0.961887359619
-70.988960266113 -77.888809204102 -242.404769897461 5.100719928741
19.329128265381 -77.044967651367 -249.601776123047 2.475221872330
-143.971069335938 -77.102027893066 -242.020950317383 3.472361326218
-75.981986999512 -77.804397583008 -254.728775024414 3.656938076019
14.351044654846 -76.066284179688 -252.637802124023 3.759904861450
-163.587905883789 -72.631599426270 -247.382873535156 1.388191223145
9.362212181091 -80.365547180176 -256.367004394531 4.515870094299
-83.220481872559 -66.836212158203 -250.919616699219 3.005291700363
-78.746635437012 -74.981788635254 -250.314300537109 1.531015157700
15.186339378357 -77.740463256836 -256.017517089844 4.128619670868
-92.310600280762 -73.762542724609 -250.045516967773 1.925659656525
-128.574127197266 -69.581535339355 -253.119964599609 1.399241805077
-134.708740234375 -79.358215332031 -259.769561767578 1.048174738884
-139.468246459961 -78.084991455078 -250.064437866211 5.435733795166
-149.660324096680 -77.025352478027 -260.397949218750 2.411530733109
-149.630020141602 -69.839256286621 -249.377182006836 2.958507299423
-136.744995117188 -72.278907775879 -260.448791503906 2.976735830307
-164.624511718750 -69.457458496094 -258.212982177734 1.611880302429
-131.666137695313 -74.643005371094 -266.695953369141 2.982372999191
-139.868499755859 -67.142364501953 -261.802398681641 0.461885124445
-164.831726074219 -70.033592224121 -269.601196289063 2.718639612198
-157.956832885742 -70.760826110840 -263.026763916016 1.481460809708
-150.390304565430 -71.855224609375 -264.256134033203 2.422823429108
-152.223342895508 -75.159469604492 -264.076202392578 1.399198770523
14.191539764404 -77.874862670898 -281.520263671875 2.487622022629
-169.607498168945 -74.194808959961 -263.022979736328 3.371958255768
-154.417877197266 -76.413459777832 -271.737365722656 3.659411668777
-7.932298183441 -84.367019653320 -274.136901855469 4.554961204529
-157.063003540039 -70.894279479980 -274.744537353516 2.724578380585
8.379311561584 -78.961044311523 -286.295104980469 1.330680012703
-156.320678710938 -73.399017333984 -279.496154785156 4.155816555023
-170.343688964844 -75.719093322754 -287.036560058594 2.947139263153
-158.994079589844 -77.866691589355 -274.903869628906 2.638887643814
-167.736999511719 -70.849975585938 -287.856018066406 1.850104570389
-3.460166931152 -79.756500244141 -288.758117675781 2.647042036057
3.853557109833 -81.514358520508 -282.755310058594 2.907994747162
-110.581604003906 -71.718399047852 -293.051727294922 1.738070487976
-160.910385131836 -82.271118164063 -285.936218261719 6.817465782166
-151.284927368164 -70.962265014648 -282.982208251953 3.129245758057
-108.817008972168 -72.960708618164 -291.999542236328 2.183881759644
-157.459014892578 -78.297302246094 -291.915405273438 2.657665967941
-151.768829345703 -79.738006591797 -286.643859863281 2.084668159485
-80.283287048340 -79.193267822266 -293.977569580078 4.978588104248
-172.622558593750 -76.968696594238 -286.424438476563 4.705463886261
-125.767829895020 -69.569038391113 -290.538879394531 1.927736639977
-46.160549163818 -80.632278442383 -285.479705810547 4.550162792206
-153.704544067383 -73.634109497070 -285.521820068359 2.670610666275
-134.051315307617 -68.108901977539 -292.631072998047 2.011000871658
-24.498655319214 -72.035057067871 -296.756286621094 5.922574996948
-133.248641967773 -68.958877563477 -291.663482666016 1.537846684456
2.804636001587 -76.716461181641 -297.523040771484 4.617383003235
11.482289314270 -71.958152770996 -294.625488281250 2.908465623856
-136.653778076172 -68.527572631836 -289.087066650391 1.788752317429
-149.116027832031 -76.610458374023 -297.842285156250 1.270867228508
-160.504638671875 -78.722511291504 -314.325866699219 7.968520641327
-69.377380371094 -68.258255004883 -53.348091125488 3.803171396255
-19.650203704834 -66.784126281738 -68.661605834961 4.405603885651
-17.260631561279 -78.102325439453 -66.653533935547 4.163592815399
71.892761230469 -72.062652587891 -83.229148864746 2.461974620819
91.505966186523 -74.050697326660 -80.135536193848 2.732409477234
-34.371128082275 -74.244285583496 -81.709014892578 3.040610790253
77.981216430664 -73.646110534668 -85.465270996094 2.917958259583
91.870628356934 -79.482261657715 -87.528739929199 2.411497116089
66.691253662109 -75.426116943359 -88.342117309570 4.337090015411
74.795684814453 -73.092758178711 -95.587791442871 2.364665031433
-48.883285522461 -74.232757568359 -85.274223327637 2.119970798492
-90.550064086914 -76.941398620605 -90.106315612793 1.806749820709
60.794616699219 -78.745330810547 -97.569419860840 6.006055831909
51.495903015137 -77.904197692871 -104.089889526367 1.482802271843
93.294113159180 -70.074157714844 -106.970169067383 1.384303331375
-88.993148803711 -66.925003051758 -101.603546142578 5.231154441833
