-72.152267456055 -70.321212768555 -88.269996643066 9.483772277832
-59.522735595703 -65.812347412109 -99.541435241699 6.201251029968
43.406810760498 -69.599586486816 -96.527488708496 2.371242523193
76.337104797363 -67.538345336914 -95.745239257813 4.971338272095
54.649940490723 -81.769714355469 -103.942512512207 4.155766963959
100.991378784180 -69.766258239746 -93.184585571289 1.456747651100
-95.326698303223 -75.112930297852 -107.856285095215 2.651609659195
41.431545257568 -69.795310974121 -107.831520080566 1.903382062912
106.849243164063 -72.476951599121 -108.301269531250 1.063806653023
48.810569763184 -71.174491882324 -110.530609130859 1.518209099770
99.020217895508 -72.838539123535 -109.945075988770 3.890038251877
-85.165817260742 -70.200607299805 -118.604782104492 0.779907763004
34.509437561035 -75.553077697754 -112.191963195801 3.081527233124
106.922264099121 -68.133407592773 -115.075233459473 1.483066201210
103.884536743164 -66.966987609863 -114.930107116699 2.699962615967
102.202819824219 -71.454597473145 -113.476188659668 2.546863079071
110.634407043457 -68.575164794922 -111.905845642090 2.405042648315
40.919513702393 -75.109710693359 -105.800148010254 1.718892216682
31.709465026855 -64.846084594727 -113.970474243164 6.922144412994
37.340316772461 -70.282600402832 -110.500312805176 1.785279750824
103.394844055176 -73.677978515625 -118.641937255859 3.330343484879
40.905761718750 -68.368118286133 -119.515464782715 2.450228452682
109.499259948730 -69.512435913086 -131.194595336914 1.709317803383
108.735450744629 -69.325996398926 -129.449584960938 1.693646073341
32.788127899170 -67.112586975098 -116.481475830078 5.199719905853
-79.538475036621 -72.604484558105 -121.809761047363 3.364763498306
110.989723205566 -66.406875610352 -131.628768920898 2.486516952515
-52.954460144043 -72.168449401855 -138.325546264648 1.999122262001
33.774478912354 -72.652481079102 -132.623931884766 2.321398735046
-74.483245849609 -72.192626953125 -132.641235351563 2.187861204147
24.035184860229 -75.869590759277 -127.716903686523 4.116444110870
-82.236732482910 -73.608879089355 -144.385253906250 5.328289508820
-46.090152740479 -75.931724548340 -141.427505493164 1.616508007050
-76.943298339844 -75.426574707031 -138.708587646484 2.657069444656
107.896804809570 -70.153930664063 -133.746139526367 1.513191819191
120.705268859863 -68.317108154297 -139.122711181641 5.643846035004
119.098037719727 -76.193504333496 -146.221755981445 4.316254615784
-82.915786743164 -72.659469604492 -143.004959106445 5.922619342804
5.340266227722 -66.851799011230 -149.887893676758 5.344823837280
-50.536186218262 -72.853981018066 -146.513732910156 3.868447542191
-53.067317962646 -74.236503601074 -154.152145385742 2.678760051727
105.018699645996 -73.414726257324 -162.268386840820 3.198069095612
-40.991825103760 -75.737548828125 -147.019058227539 2.602868318558
14.288537025452 -68.510597229004 -157.808929443359 1.714375257492
22.055868148804 -75.487060546875 -155.770370483398 2.632462263107
113.834426879883 -69.783622741699 -163.507858276367 2.107924699783
30.166849136353 -71.171989440918 -166.883255004883 2.836015224457
-1.204833030701 -74.854385375977 -162.940582275391 1.208503961563
31.497858047485 -73.239189147949 -158.660507202148 1.224559187889
-68.135963439941 -71.112571716309 -155.048904418945 1.281323432922
-67.524757385254 -73.107833862305 -158.710418701172 1.105712294579
-70.675338745117 -69.929832458496 -166.471923828125 4.435958385468
113.817886352539 -66.800201416016 -160.074707031250 3.272836685181
-45.347034454346 -73.624183654785 -162.473175048828 1.115158915520
14.890162467957 -72.581802368164 -163.604049682617 3.883088111877
-64.308479309082 -70.859413146973 -169.754150390625 2.758710145950
-66.019981384277 -69.670516967773 -171.454727172852 3.806505680084
-44.604515075684 -75.111557006836 -160.476303100586 2.676142454147
-35.867313385010 -77.562530517578 -166.302764892578 2.374374389648
115.856109619141 -76.177314758301 -169.352371215820 1.399605154991
-37.930885314941 -64.938056945801 -182.636642456055 7.037047386169
11.107406616211 -74.194374084473 -170.684082031250 5.785254001617
110.155723571777 -77.071319580078 -184.835739135742 3.281020402908
-147.361145019531 -76.077499389648 -176.351959228516 3.123099327087
-147.110824584961 -72.378974914551 -171.443222045898 4.082858562469
-146.328475952148 -70.821250915527 -182.926849365234 3.501813650131
-142.244033813477 -77.324249267578 -185.188522338867 1.849562406540
-33.670715332031 -71.172019958496 -183.769302368164 1.620820164680
-23.809560775757 -74.466331481934 -184.320098876953 2.841975212097
23.521501541138 -66.811874389648 -192.005126953125 3.842823505402
-140.633316040039 -72.901306152344 -186.763854980469 1.668181061745
-148.592620849609 -74.738067626953 -189.294754028320 1.855004429817
-22.864522933960 -71.024932861328 -183.983703613281 1.692610383034
8.280829429626 -72.611709594727 -181.515350341797 6.095326423645
-150.988906860352 -73.932044982910 -196.576065063477 3.202363491058
-31.952468872070 -73.247253417969 -189.298217773438 1.903330445290
99.285362243652 -73.717239379883 -186.160598754883 4.150890350342
104.345474243164 -70.367729187012 -187.758682250977 0.893047630787
25.067335128784 -66.397384643555 -192.288940429688 4.301497459412
-9.013212203979 -73.195159912109 -187.404296875000 8.326216697693
-29.462823867798 -76.241996765137 -191.491577148438 2.022095918655
-157.085601806641 -77.413825988770 -202.753936767578 4.606967449188
-133.310699462891 -75.556724548340 -196.835113525391 1.730366110802
-126.321487426758 -69.702056884766 -194.671417236328 1.397189259529
-127.271125793457 -72.491188049316 -197.479614257813 2.990549564362
-21.886800765991 -67.999641418457 -193.702743530273 1.820501327515
14.757759094238 -77.218948364258 -190.472320556641 0.844601392746
90.668334960938 -81.170249938965 -199.061523437500 7.358576774597
-152.436813354492 -68.081825256348 -194.163681030273 1.984110832214
-144.096130371094 -70.163604736328 -199.403915405273 2.605139493942
-152.533660888672 -74.655868530273 -201.970520019531 1.564703702927
-155.080368041992 -70.773956298828 -196.248962402344 1.455153226852
-23.756076812744 -72.180847167969 -198.894439697266 1.181406259537
-7.360061168671 -68.373390197754 -193.693191528320 7.381668090820
-144.362258911133 -67.409355163574 -203.878555297852 1.519449949265
-21.337841033936 -72.890571594238 -202.224395751953 0.587915539742
-160.468750000000 -73.734123229980 -203.080841064453 2.427581548691
-135.040252685547 -73.657722473145 -199.212219238281 1.676735520363
14.411482810974 -78.635856628418 -205.400085449219 2.137353181839
-158.858505249023 -68.762901306152 -205.113159179688 1.100172758102
-146.708511352539 -77.462402343750 -207.051849365234 1.596339464188
5.777948856354 -70.751998901367 -204.260055541992 3.400743961334
-154.812637329102 -70.224502563477 -202.620422363281 2.179075479507
-26.156324386597 -72.330818176270 -202.590026855469 2.462825298309
91.931228637695 -75.260787963867 -196.715759277344 4.590049266815
-161.010543823242 -76.805480957031 -209.883209228516 5.238969326019
-164.421051025391 -80.497901916504 -205.796585083008 8.605922698975
-75.303573608398 -70.992408752441 -205.344558715820 4.962967395782
90.423088073730 -72.970932006836 -205.610778808594 3.602284431458
-3.966646909714 -73.649070739746 -219.674499511719 1.937989950180
-157.904037475586 -73.013900756836 -213.207305908203 0.978472650051
-87.071182250977 -75.721641540527 -211.899642944336 1.278635025024
-10.391104698181 -78.941337585449 -209.559936523438 0.566904664040
16.260353088379 -73.563377380371 -215.890045166016 1.173437476158
-143.681823730469 -75.729759216309 -221.771972656250 2.295111417770
-4.257938861847 -81.853668212891 -219.528244018555 3.146043062210
-16.511985778809 -77.795829772949 -214.347167968750 2.412521362305
-14.585979461670 -70.624488830566 -221.225036621094 1.392606139183
92.247375488281 -74.599525451660 -220.425170898438 2.553438663483
-19.610010147095 -72.570274353027 -214.768035888672 2.643917083740
-34.714969635010 -73.684097290039 -217.805313110352 4.121201038361
-107.957214355469 -67.027633666992 -226.432708740234 0.964326679707
-16.801752090454 -72.251663208008 -223.456298828125 1.986221909523
94.851043701172 -71.744995117188 -216.995880126953 3.961125373840
73.706893920898 -76.285018920898 -220.503463745117 6.228880405426
9.185084342957 -76.114509582520 -216.989395141602 1.937606692314
-11.745697021484 -69.843894958496 -224.904785156250 2.573862552643
79.358955383301 -74.356658935547 -219.639129638672 2.902072191238
-120.840301513672 -81.446784973145 -225.398269653320 7.406620025635
-16.630239486694 -71.802978515625 -223.166809082031 1.858175873756
-94.590446472168 -74.488449096680 -223.089019775391 1.911529779434
-99.742538452148 -75.059677124023 -222.006774902344 1.722278118134
-128.220520019531 -78.133666992188 -229.883819580078 3.640382289886
80.973350524902 -75.522377014160 -221.101577758789 1.837645888329
-122.379287719727 -76.557365417480 -227.659286499023 2.633025407791
3.919806957245 -73.389343261719 -228.657104492188 1.223518729210
82.364921569824 -72.542060852051 -223.151031494141 1.774374246597
-16.848983764648 -77.063751220703 -234.579925537109 4.230947494507
-14.923351287842 -75.943527221680 -223.237091064453 1.369432091713
1.312677979469 -83.840736389160 -228.795959472656 4.897951126099
12.425256729126 -78.544860839844 -226.784530639648 0.571111798286
91.949188232422 -76.824424743652 -226.443145751953 5.311030864716
8.927864074707 -72.687004089355 -229.878936767578 1.792173624039
7.826180934906 -73.196327209473 -229.016525268555 0.890444278717
-8.973652839661 -75.857284545898 -231.531539916992 2.206562280655
-6.629862785339 -77.030891418457 -225.911300659180 2.077264547348
20.995958328247 -73.471878051758 -232.833450317383 3.170323133469
-12.538763046265 -70.492240905762 -231.992218017578 1.948096990585
70.940910339355 -75.947593688965 -239.931549072266 3.793939828873
-10.008698463440 -73.859764099121 -239.249786376953 2.365170001984
19.679611206055 -76.046096801758 -234.552642822266 1.581656098366
-159.167236328125 -72.434936523438 -239.849441528320 2.232815980911
-6.151549816132 -71.408195495605 -234.384262084961 1.105927586555
-6.597026824951 -78.298202514648 -237.579055786133 4.854334354401
-167.075897216797 -77.936805725098 -250.520675659180 3.470904827118
-11.035429000854 -72.179115295410 -242.986083984375 0.841705322266
14.511764526367 -71.163368225098 -243.688369750977 1.758681535721
-148.408142089844 -78.186058044434 -252.016616821289 1.695497274399
-77.363243103027 -76.399238586426 -252.729980468750 1.794033885002
-62.348365783691 -78.010452270508 -247.031311035156 1.250526547432
50.870265960693 -70.984191894531 -245.728851318359 2.053920269012
-71.861160278320 -74.846664428711 -245.384109497070 3.110754013062
15.671632766724 -75.950149536133 -248.965377807617 1.499716281891
-72.374366760254 -77.995231628418 -250.045196533203 2.553468227386
-16.094448089600 -71.726280212402 -240.358520507813 1.676868796349
-144.926086425781 -80.685821533203 -252.720809936523 1.789820075035
44.648044586182 -69.385322570801 -250.461242675781 0.767766952515
-81.269004821777 -81.532936096191 -257.265716552734 6.412843704224
-103.298301696777 -71.182884216309 -255.649108886719 0.381620347500
-100.794219970703 -77.939796447754 -254.063705444336 4.903659820557
-122.157226562500 -71.170196533203 -250.923461914063 4.973979473114
-106.131797790527 -70.540023803711 -257.629241943359 2.411309957504
-104.434478759766 -74.682853698730 -257.020629882813 1.400587081909
20.875957489014 -69.447021484375 -255.921737670898 3.465276241302
-130.977005004883 -72.630210876465 -265.635253906250 1.139174699783
-16.080387115479 -77.547180175781 -273.911712646484 4.842310428619
-149.274734497070 -72.529380798340 -285.369659423828 2.840771198273
-168.445358276367 -80.328567504883 -287.957885742188 6.708949089050
-124.841224670410 -78.597610473633 -282.305755615234 3.716949701309
-113.920036315918 -72.512954711914 -286.990600585938 1.207696795464
-75.602645874023 -71.106140136719 -281.830505371094 3.692190885544
-57.924179077148 -79.614685058594 -286.262695312500 3.736503839493
-40.592964172363 -75.122688293457 -285.047119140625 2.227506875992
-15.436731338501 -83.373756408691 -291.034606933594 5.337733745575
-13.448490142822 -73.662979125977 -293.853637695313 1.629722118378
-38.882877349854 -81.769073486328 -290.792633056641 4.828045845032
-34.475566864014 -77.437431335449 -288.176666259766 1.042585730553
-19.442165374756 -71.974174499512 -287.964080810547 3.599870204926
-74.149368286133 -76.138748168945 -294.933898925781 5.972314357758
-56.868400573730 -76.296127319336 -291.247222900391 2.632314205170
-19.703552246094 -71.514556884766 -291.657806396484 2.655903100967
-13.887030601501 -80.122474670410 -287.651794433594 4.444540023804
-3.387444019318 -76.688934326172 -293.440917968750 2.313015460968
2.775577068329 -71.306915283203 -292.741729736328 0.733513891697
-94.643905639648 -77.364227294922 -294.016876220703 3.621105670929
-137.112869262695 -81.906242370605 -297.374969482422 5.892343521118
-114.859535217285 -78.701133728027 -292.929992675781 5.131182670593
-153.279022216797 -73.582328796387 -293.389984130859 1.621730446815
-149.425018310547 -79.253906250000 -299.796905517578 1.712081789970
-147.695861816406 -73.586288452148 -300.993225097656 1.935688972473
40.929611206055 -61.966331481934 -22.628007888794 2.509876012802
18.525415420532 -71.922477722168 -22.227489471436 3.344299077988
48.556747436523 -60.884971618652 -22.268798828125 1.172050237656
45.539638519287 -68.283103942871 -34.862533569336 2.073346376419
87.363731384277 -67.514129638672 -71.170631408691 4.691372871399
94.977806091309 -70.708053588867 -73.209571838379 2.809476375580
100.339599609375 -68.771072387695 -73.936195373535 1.494255542755
97.060951232910 -67.774230957031 -83.129913330078 2.907368183136
53.841754913330 -69.984504699707 -89.306053161621 1.394745588303
41.393539428711 -77.015907287598 -87.118560791016 10.134503364563
62.319114685059 -67.533126831055 -89.596809387207 1.168425798416
-66.956283569336 -67.664535522461 -94.457817077637 3.252673149109
71.362144470215 -66.020553588867 -85.601966857910 5.549430370331
98.238937377930 -57.901321411133 -98.819221496582 2.290791034698
73.316734313965 -68.763359069824 -101.084518432617 1.659243345261
91.592811584473 -67.170928955078 -102.479743957520 3.066180229187
-89.336143493652 -70.768150329590 -106.215866088867 4.780323982239
45.185768127441 -66.460655212402 -93.445304870605 3.404956340790
-90.062538146973 -71.644638061523 -98.727798461914 4.546446800232
51.016475677490 -70.380485534668 -108.699287414551 1.769094824791
34.775653839111 -79.063964843750 -101.261688232422 7.277933597565
96.898300170898 -67.450859069824 -101.726524353027 1.818086624146
35.142227172852 -69.663932800293 -102.434669494629 5.809014320374
45.207172393799 -73.051582336426 -121.078178405762 2.214076042175
41.144050598145 -70.570678710938 -111.884963989258 1.514018177986
111.440139770508 -67.338912963867 -109.055648803711 2.393556833267
-81.015686035156 -78.606758117676 -121.973419189453 7.782841205597
112.468757629395 -76.510536193848 -119.677330017090 1.859523653984
41.779346466064 -63.814697265625 -124.772262573242 3.719021081924
38.592697143555 -70.048591613770 -118.563339233398 1.745833396912
32.921054840088 -71.154525756836 -118.089645385742 2.403376340866
-55.404331207275 -77.974685668945 -128.746459960938 5.855771064758
28.394014358521 -68.425621032715 -122.078002929688 4.083265304565
-79.243820190430 -66.036178588867 -139.101394653320 1.584328293800
-55.670265197754 -76.937126159668 -131.817520141602 4.156331539154
-80.455169677734 -67.543365478516 -135.051864624023 1.203251004219
36.692695617676 -67.502304077148 -131.818450927734 2.422240257263
-61.149063110352 -73.829254150391 -132.950912475586 3.573025941849
34.477893829346 -69.655876159668 -131.607559204102 0.623764157295
-71.658073425293 -68.256652832031 -139.677352905273 0.968385219574
-60.222255706787 -64.898979187012 -143.462631225586 2.928124904633
21.570203781128 -72.822647094727 -144.747116088867 2.526991605759
111.779403686523 -74.048660278320 -140.867828369141 2.200096845627
113.748039245605 -63.824344635010 -136.414932250977 5.017369747162
29.294260025024 -71.756813049316 -142.629730224609 2.319453954697
-51.860309600830 -74.770271301270 -138.918228149414 0.855517029762
103.112686157227 -67.349342346191 -151.494338989258 6.997438430786
-78.024627685547 -71.080192565918 -141.922760009766 0.845678389072
-59.377639770508 -70.899589538574 -141.749298095703 1.418027043343
30.900840759277 -62.834068298340 -144.365203857422 5.289748668671
-79.707672119141 -73.826011657715 -145.629852294922 3.461823940277
-70.989120483398 -70.503456115723 -149.360717773438 1.532576322556
112.408126831055 -77.484893798828 -147.172454833984 0.463064998388
-65.223541259766 -69.048706054688 -155.960388183594 2.477710008621
-40.597072601318 -66.122673034668 -150.994949340820 4.710082054138
22.755741119385 -69.115783691406 -142.699813842773 2.021184206009
-72.262672424316 -72.230857849121 -142.512832641602 1.711777687073
11.551527023315 -69.166381835938 -147.381744384766 2.005379438400
31.107023239136 -70.992317199707 -158.394866943359 1.632482051849
30.716039657593 -67.356933593750 -152.041534423828 3.103089570999
17.819194793701 -77.279861450195 -152.148803710938 4.907664775848
-52.172412872314 -75.005691528320 -152.345458984375 1.981343507767
21.052240371704 -75.281753540039 -152.063842773438 1.124203920364
-48.477962493896 -70.260375976563 -151.467376708984 1.128219842911
1.606843948364 -71.439193725586 -153.613021850586 5.089764595032
17.699884414673 -69.828948974609 -149.148406982422 1.522834777832
-66.923698425293 -70.049758911133 -159.107620239258 1.197039246559
-48.739917755127 -67.493103027344 -153.986663818359 2.810339927673
-69.806213378906 -71.725563049316 -150.576339721680 1.986641407013
20.732019424438 -69.603340148926 -157.933212280273 3.391533136368
22.262073516846 -69.942466735840 -149.231491088867 2.258240699768
1.635823965073 -71.988571166992 -167.112640380859 2.871117115021
21.335090637207 -69.240066528320 -150.214492797852 2.984878301620
29.757696151733 -70.127258300781 -168.954589843750 1.843338608742
-48.014678955078 -72.752616882324 -164.370010375977 1.374412655830
-40.511783599854 -83.245948791504 -164.507629394531 3.927728891373
-43.128795623779 -73.777381896973 -160.923583984375 2.430087089539
26.738988876343 -72.386795043945 -155.788055419922 2.048118829727
-45.766071319580 -68.060134887695 -165.714981079102 4.119610309601
-39.846462249756 -69.875785827637 -170.141403198242 0.469442933798
21.192985534668 -69.002479553223 -164.234130859375 2.070113420486
-40.361049652100 -73.079368591309 -176.860717773438 2.102769136429
26.038671493530 -65.068092346191 -169.374786376953 3.610602378845
108.528221130371 -65.476753234863 -160.994415283203 5.655214309692
-35.692817687988 -72.395599365234 -171.912719726563 2.000531673431
97.539512634277 -67.694328308105 -172.259811401367 9.288002014160
-35.466178894043 -71.890304565430 -177.858963012695 1.790392875671
-39.167339324951 -77.318748474121 -182.061294555664 4.904029369354
23.126066207886 -75.976829528809 -178.139297485352 2.754311323166
106.208503723145 -73.099227905273 -180.308425903320 1.618914842606
-35.050212860107 -69.778533935547 -180.808105468750 2.158100605011
-37.499610900879 -72.200241088867 -180.653640747070 1.600278735161
-23.214653015137 -79.778549194336 -187.159255981445 1.533317208290
-150.065246582031 -73.365234375000 -190.546463012695 1.821752309799
9.153138160706 -71.463172912598 -182.667755126953 5.056876182556
102.676223754883 -70.179992675781 -191.603790283203 2.390900850296
-162.998901367188 -72.923377990723 -192.486129760742 4.800689697266
-20.346075057983 -66.535003662109 -186.862106323242 3.912280082703
-116.418327331543 -76.427032470703 -198.523956298828 4.737305641174
-128.393844604492 -75.769035339355 -194.175460815430 3.995181798935
-106.437171936035 -75.159263610840 -200.563278198242 6.532995223999
-116.410881042480 -71.647453308105 -200.509078979492 3.705034494400
-11.087171554565 -74.503898620605 -195.641052246094 2.918376207352
18.860971450806 -69.205780029297 -195.038375854492 1.031503558159
-16.686075210571 -67.374320983887 -201.858413696289 2.900927782059
-130.138061523438 -73.565643310547 -207.062332153320 4.263597488403
-20.835628509521 -66.812973022461 -199.583724975586 1.632048964500
-127.761734008789 -70.142013549805 -203.398223876953 1.782104492188
-18.240499496460 -72.229011535645 -197.070907592773 2.330007076263
-148.636428833008 -71.670097351074 -201.152877807617 0.879571199417
91.061607360840 -65.717308044434 -204.432159423828 5.982790470123
-164.693435668945 -64.272514343262 -201.934753417969 2.367392539978
-1.867319941521 -74.183265686035 -221.374160766602 1.268648147583
12.193494796753 -75.583587646484 -209.732192993164 1.585337281227
9.627948760986 -78.201438903809 -216.487350463867 0.579252719879
81.553771972656 -73.102523803711 -214.136184692383 3.943139791489
9.629485130310 -74.786949157715 -212.771713256836 1.330273270607
9.957985877991 -71.689773559570 -214.543869018555 1.790287852287
-16.304105758667 -77.142791748047 -214.286590576172 2.231152772903
-90.879219055176 -75.284919738770 -211.612792968750 1.917891025543
-99.430625915527 -73.755851745605 -216.965759277344 1.809271216393
3.453711986542 -72.332664489746 -216.680114746094 3.513285160065
-167.139724731445 -77.726165771484 -221.299331665039 5.642570018768
16.525276184082 -69.373374938965 -216.255386352539 2.112740278244
-145.353393554688 -73.178947448730 -219.861206054688 1.859957933426
13.734545707703 -74.318382263184 -224.021774291992 2.142539739609
-136.184173583984 -76.900489807129 -225.440109252930 1.969736099243
-115.389511108398 -75.593849182129 -229.468643188477 1.423072695732
17.244537353516 -72.508590698242 -218.882995605469 2.177158594131
79.867240905762 -73.122085571289 -216.748321533203 3.074725389481
5.423432826996 -74.723731994629 -223.027313232422 0.514180898666
-108.444038391113 -72.481048583984 -232.130050659180 3.937910079956
67.430320739746 -75.180229187012 -225.837280273438 5.911232948303
86.372230529785 -75.349243164063 -227.796218872070 3.208561420441
-127.436035156250 -74.009658813477 -238.517501831055 4.270634174347
-120.436836242676 -73.746459960938 -229.986480712891 2.678619146347
-9.188512802124 -67.550796508789 -224.375869750977 2.607428789139
71.784217834473 -74.109146118164 -232.663146972656 1.996860265732
64.223815917969 -74.035644531250 -230.262359619141 5.313771724701
71.006469726563 -72.602310180664 -226.369155883789 2.575582981110
-137.671859741211 -68.759971618652 -234.291015625000 1.943058371544
68.111824035645 -75.245681762695 -227.991165161133 4.206462860107
65.116020202637 -69.503059387207 -233.573348999023 2.478341341019
-166.167266845703 -71.373130798340 -233.040756225586 2.422199726105
2.384603023529 -84.241722106934 -242.021026611328 6.607395172119
21.404003143311 -76.107734680176 -237.741165161133 1.613694429398
-6.416334152222 -69.676918029785 -241.681579589844 2.618773221970
17.642261505127 -65.183593750000 -238.686157226563 3.159626245499
67.634292602539 -74.874122619629 -236.047149658203 1.572992801666
6.279110908508 -70.649742126465 -245.015640258789 2.965648889542
-12.318364143372 -65.856948852539 -239.483993530273 0.724233567715
-2.956593990326 -69.028968811035 -233.615615844727 2.058165550232
64.586814880371 -74.197586059570 -240.529785156250 1.731514215469
0.130982995033 -73.623802185059 -241.618072509766 2.078983545303
-5.575510978699 -75.114372253418 -242.432098388672 2.403886079788
14.757949829102 -78.545372009277 -240.183181762695 1.738409399986
-167.837783813477 -78.630371093750 -241.749221801758 4.699546337128
52.908485412598 -76.010398864746 -245.760040283203 3.359480142593
47.695804595947 -64.493263244629 -253.461135864258 2.220580816269
60.560688018799 -74.552558898926 -242.028411865234 1.958595991135
-12.489069938660 -70.652656555176 -247.461044311523 0.698135018349
56.747455596924 -72.539688110352 -243.202758789063 1.155973076820
-75.145774841309 -74.419235229492 -251.639495849609 1.220026493073
49.704544067383 -74.496398925781 -246.501113891602 2.837080240250
-86.813140869141 -73.449035644531 -253.335784912109 1.179118156433
-120.942970275879 -76.007255554199 -259.447692871094 4.227084636688
-131.754470825195 -75.402336120605 -252.230728149414 3.769601345062
48.134170532227 -76.775535583496 -249.861740112305 4.383234977722
-129.484039306641 -78.970710754395 -250.998886108398 6.748747825623
-108.048446655273 -70.742202758789 -253.664978027344 2.708265781403
-118.609207153320 -72.127113342285 -258.629272460938 1.645452976227
-84.978149414063 -74.926338195801 -254.299804687500 1.261766552925
-110.341552734375 -70.270614624023 -257.888641357422 1.022505521774
-124.311599731445 -80.279022216797 -263.112487792969 5.251737594604
-147.871170043945 -72.062576293945 -269.975646972656 3.608921051025
-15.213036537170 -72.281745910645 -268.745361328125 2.147382497787
-174.906509399414 -79.712081909180 -265.878997802734 9.908654212952
-15.069442749023 -73.241592407227 -275.202453613281 3.774094820023
-158.396606445313 -70.298423767090 -267.999816894531 1.707922220230
-152.737564086914 -77.161308288574 -272.250549316406 2.137948274612
-171.560317993164 -75.676345825195 -278.642608642578 4.552409172058
-15.737197875977 -76.524475097656 -283.113891601563 2.560466766357
-126.568016052246 -79.421211242676 -282.820892333984 3.792187690735
-156.181045532227 -75.781112670898 -287.131530761719 2.290903329849
-142.485137939453 -74.191467285156 -280.794982910156 3.448061466217
-134.831970214844 -78.587242126465 -276.697875976563 8.976051330566
-8.171371459961 -65.699234008789 -283.592895507813 2.244114637375
-126.268806457520 -79.777770996094 -282.761535644531 4.086231231689
-140.449981689453 -71.213798522949 -286.758148193359 1.718955636024
-114.894989013672 -81.528320312500 -285.520629882813 5.772892951965
-82.250694274902 -71.746788024902 -289.918518066406 2.135899066925
-58.889656066895 -77.838607788086 -286.510223388672 2.646056890488
-8.488324165344 -77.212882995605 -286.896911621094 2.702130079269
-55.014343261719 -73.504890441895 -282.005828857422 4.299401760101
-56.390998840332 -72.001266479492 -288.558715820313 0.906867980957
-71.825042724609 -73.325798034668 -290.264587402344 1.392440915108
-89.457611083984 -73.563293457031 -296.418853759766 4.814432621002
-91.899475097656 -73.547988891602 -287.285034179688 1.708410978317
-158.461471557617 -75.940063476563 -292.387969970703 2.434330224991
-159.510467529297 -77.108665466309 -295.999755859375 5.323878288269
-123.555221557617 -80.362991333008 -293.296844482422 4.861013889313
-144.027740478516 -75.477249145508 -294.566131591797 2.255806207657
-150.272644042969 -79.686592102051 -307.062469482422 1.888099670410
-153.355133056641 -81.370483398438 -311.641876220703 3.009302377701
46.526031494141 -63.797180175781 -10.794038772583 4.158940792084
11.759528160095 -68.950767517090 -31.879407882690 8.400005340576
40.808513641357 -59.968292236328 -34.795745849609 1.925187706947
-15.675694465637 -71.663307189941 -65.257644653320 0.923524618149
79.726913452148 -64.242424011230 -63.676818847656 3.129757881165
89.945228576660 -60.950443267822 -64.788360595703 3.441461086273
77.560409545898 -73.887741088867 -63.260601043701 5.639582633972
69.973327636719 -70.102272033691 -68.924819946289 2.003247499466
89.208877563477 -69.248985290527 -75.326538085938 5.507303237915
-100.278930664063 -63.589778900146 -70.704460144043 3.254992485046
63.362892150879 -67.573196411133 -73.743064880371 3.171188116074
-37.812839508057 -72.190330505371 -77.576080322266 2.311943769455
96.172744750977 -66.757789611816 -83.623153686523 4.058442592621
61.651924133301 -62.824928283691 -89.600860595703 1.241094112396
106.627197265625 -74.866981506348 -89.516227722168 6.698657512665
96.806129455566 -74.806358337402 -97.466934204102 2.548194408417
72.727439880371 -68.570770263672 -100.771667480469 1.731803059578
-84.465965270996 -64.756118774414 -104.051322937012 2.793026924133
53.111957550049 -66.841308593750 -105.910560607910 3.740592002869
107.523399353027 -63.068878173828 -105.874992370605 3.933595657349
43.883537292480 -67.888633728027 -114.149635314941 2.327547788620
77.973197937012 -66.486206054688 -105.613243103027 2.692853689194
39.797420501709 -67.931564331055 -107.565795898438 2.340593099594
100.099815368652 -67.950195312500 -101.560516357422 1.204111576080
45.855678558350 -68.387062072754 -106.956604003906 1.834393858910
103.781578063965 -77.077514648438 -106.895935058594 3.310372352600
109.786628723145 -73.967750549316 -107.291267395020 2.859485387802
-82.068237304688 -66.009063720703 -114.717864990234 1.670592069626
-84.994338989258 -66.415824890137 -121.613578796387 1.455872893333
42.184745788574 -73.049369812012 -118.288627624512 2.057073593140
112.140037536621 -70.915435791016 -122.459007263184 1.234683275223
111.699836730957 -68.954673767090 -121.827178955078 1.648651719093
-91.582153320313 -68.457550048828 -126.842208862305 3.247458696365
103.130538940430 -72.286964416504 -126.459999084473 5.594811916351
-61.228492736816 -76.918792724609 -131.835815429688 5.792198181152
-87.681686401367 -70.843566894531 -128.602798461914 2.019518375397
-71.071090698242 -71.225868225098 -126.447669982910 4.534077167511
-62.300266265869 -65.145927429199 -127.044212341309 1.730754971504
30.866750717163 -69.385040283203 -130.510025024414 2.407792568207
43.945968627930 -64.581130981445 -135.865249633789 7.377742290497
-71.815246582031 -69.740997314453 -136.099121093750 1.278579592705
27.397256851196 -65.265602111816 -128.497558593750 5.356562614441
112.222244262695 -69.048271179199 -144.516708374023 1.987732648849
-38.272197723389 -70.940422058105 -150.139114379883 2.493782997131
33.930511474609 -73.369194030762 -148.978668212891 1.001781702042
111.324737548828 -66.790451049805 -148.415847778320 3.218109846115
35.079254150391 -70.828887939453 -141.208740234375 1.185787916183
108.057144165039 -67.435684204102 -137.418151855469 4.588004112244
-52.612293243408 -69.589851379395 -149.856018066406 1.938271403313
-76.108795166016 -66.070510864258 -152.260482788086 4.763404846191
-60.274452209473 -71.009864807129 -150.021270751953 5.574872493744
-44.078498840332 -77.216308593750 -164.713333129883 1.541376590729
1.613155961037 -73.821685791016 -154.935668945313 4.670746326447
106.962348937988 -70.553268432617 -151.123977661133 4.176443099976
106.885940551758 -69.395942687988 -160.059020996094 4.553917884827
10.330837249756 -70.312583923340 -155.748031616211 2.535688161850
-0.012997999787 -68.948913574219 -159.464828491211 4.627469062805
21.251388549805 -67.081863403320 -152.802734375000 2.486984252930
25.042148590088 -68.017807006836 -154.901916503906 1.749790072441
105.266021728516 -69.672798156738 -163.664901733398 4.111220359802
110.663818359375 -74.657630920410 -165.701538085938 1.023341059685
23.058509826660 -66.921005249023 -176.515777587891 0.726299405098
22.629810333252 -74.829521179199 -164.982406616211 2.095655679703
109.895629882813 -66.432014465332 -160.766769409180 4.347532272339
-31.409193038940 -69.196136474609 -179.772857666016 2.023908376694
109.712303161621 -70.651954650879 -165.555343627930 1.408481240273
16.921001434326 -70.567321777344 -162.644592285156 3.413738250732
20.099880218506 -70.652854919434 -169.282791137695 1.754042863846
106.570228576660 -70.842803955078 -170.728515625000 1.604208469391
26.807184219360 -69.135299682617 -168.962554931641 1.452713608742
113.624641418457 -68.119857788086 -184.324462890625 4.675065517426
-39.845561981201 -70.760955810547 -180.411865234375 3.890258550644
22.220331192017 -70.586418151855 -167.572174072266 1.758952617645
107.105506896973 -70.379531860352 -183.678390502930 1.361657261848
21.249179840088 -72.176231384277 -175.274154663086 2.579282045364
-151.955566406250 -69.647682189941 -186.630752563477 2.440269470215
-28.714181900024 -67.074264526367 -190.223861694336 1.163094639778
22.905040740967 -67.061851501465 -184.748275756836 1.991502046585
-117.378211975098 -75.100433349609 -192.919616699219 4.109013080597
-113.417945861816 -67.888236999512 -194.134246826172 2.176769018173
24.722278594971 -72.024803161621 -186.496780395508 1.736905574799
9.229702949524 -66.611175537109 -183.922210693359 6.720643520355
-28.103164672852 -66.307983398438 -190.536071777344 1.874440193176
-29.435220718384 -77.992553710938 -188.848770141602 0.769468128681
-30.421178817749 -72.167129516602 -188.564437866211 1.670049071312
10.750423431396 -67.210861206055 -179.631744384766 5.696907520294
-151.595367431641 -72.285385131836 -197.261062622070 2.495920419693
-147.852386474609 -71.221199035645 -192.638229370117 1.351859927177
-148.567947387695 -77.901664733887 -200.629653930664 2.127492189407
-25.007759094238 -70.032012939453 -191.199890136719 0.626765668392
14.018207550049 -67.227432250977 -199.267654418945 1.116936326027
97.256874084473 -68.495468139648 -190.694290161133 4.796567440033
-114.310249328613 -69.849411010742 -198.978286743164 1.733933806419
20.348390579224 -77.250968933105 -196.488128662109 2.334095001221
-13.661131858826 -69.500221252441 -193.985916137695 2.947576999664
-17.799808502197 -71.558929443359 -197.961761474609 2.211436033249
101.060302734375 -68.579025268555 -199.154113769531 3.170147418976
5.766355991364 -75.134948730469 -196.802780151367 4.407855987549
-23.197475433350 -69.248458862305 -196.608093261719 1.800612568855
-120.893424987793 -76.866424560547 -205.400436401367 5.230365753174
-135.445404052734 -73.235397338867 -203.712875366211 2.506586551666
-115.259384155273 -64.492942810059 -207.392684936523 4.060563564301
-143.015502929688 -77.490776062012 -203.549728393555 1.084969520569
15.489050865173 -70.880149841309 -197.283477783203 2.538642168045
91.142311096191 -73.565330505371 -197.251312255859 4.476591587067
-166.023513793945 -65.147834777832 -200.357330322266 1.664171695709
99.436637878418 -69.519340515137 -199.632537841797 2.482624769211
-25.080883026123 -78.585624694824 -204.256469726563 4.087167739868
93.997154235840 -66.148773193359 -207.212097167969 3.752677202225
87.656967163086 -74.308776855469 -206.838806152344 4.253048896790
8.930180549622 -75.015136718750 -200.843643188477 2.058466434479
20.657157897949 -69.918449401855 -212.803039550781 2.799177646637
12.947567939758 -66.513519287109 -208.055160522461 2.027252912521
-11.449994087219 -72.306404113770 -223.932235717773 1.558114051819
-93.990875244141 -76.977172851563 -220.519409179688 1.644537329674
-13.913268089294 -75.439208984375 -209.999954223633 2.679651021957
86.625381469727 -72.442306518555 -216.758926391602 0.754753112793
-95.495330810547 -76.707313537598 -215.914947509766 2.707190513611
-99.730133056641 -67.887283325195 -222.975082397461 0.596879839897
-97.838813781738 -71.419639587402 -219.051193237305 1.618803501129
89.221305847168 -75.194679260254 -221.307312011719 1.299952983856
-136.665191650391 -74.422828674316 -225.785095214844 2.375382184982
-130.863433837891 -81.871437072754 -228.613800048828 3.662205934525
-116.913894653320 -73.474075317383 -225.051864624023 1.806163311005
-114.139556884766 -69.196952819824 -220.974700927734 4.803820133209
-132.881820678711 -69.852645874023 -229.027511596680 3.433788537979
-114.617805480957 -84.164245605469 -228.733612060547 9.784298896790
-111.217117309570 -71.773986816406 -229.038009643555 1.806878089905
-7.675419807434 -78.212043762207 -222.728469848633 2.261636257172
-15.220935821533 -76.691909790039 -222.547866821289 0.606112897396
-1.217306971550 -68.490242004395 -228.978088378906 1.469210386276
-10.381044387817 -67.463600158691 -226.399169921875 1.553453683853
15.510709762573 -73.895729064941 -233.612487792969 1.548651576042
-21.688152313232 -69.464096069336 -229.345428466797 5.019567966461
-167.422790527344 -71.151451110840 -220.671188354492 2.451630592346
-6.553830146790 -73.909454345703 -233.459808349609 1.548000812531
80.758155822754 -66.744308471680 -231.717636108398 4.349280357361
12.226869583130 -75.493591308594 -232.196807861328 2.300264358521
-5.458289146423 -71.801544189453 -235.231643676758 1.028678655624
-157.683853149414 -70.533432006836 -236.365219116211 1.678830146790
-144.382583618164 -70.842315673828 -228.125595092773 2.925647020340
59.676063537598 -70.974205017090 -235.910018920898 1.646910667419
-5.940098762512 -73.551490783691 -232.025924682617 2.544617652893
11.695743560791 -75.565696716309 -227.420181274414 3.544845581055
69.173233032227 -76.227310180664 -224.264694213867 7.048777580261
76.420089721680 -71.415069580078 -233.548599243164 2.588639259338
71.738754272461 -74.126838684082 -241.760833740234 3.765963792801
-2.494791984558 -77.675102233887 -233.401290893555 1.425416588783
58.500312805176 -68.923606872559 -234.907150268555 3.989997625351
-19.823255538940 -77.399032592773 -239.879333496094 0.248759269714
-14.172273635864 -68.123703002930 -239.066085815430 1.635331273079
7.188220977783 -72.384529113770 -237.271194458008 2.729712247849
63.176765441895 -77.823684692383 -234.555130004883 5.606285572052
68.358177185059 -69.685691833496 -240.793334960938 2.353073596954
47.838222503662 -73.438697814941 -244.364746093750 3.297475099564
60.574138641357 -77.603843688965 -241.163253784180 3.252450942993
-15.343964576721 -81.436828613281 -247.789733886719 7.534088134766
-84.284614562988 -69.017242431641 -258.371582031250 3.540938615799
-77.199081420898 -70.525588989258 -254.239334106445 2.475310325623
43.660602569580 -77.433242797852 -245.285583496094 7.710797786713
-153.748474121094 -76.751800537109 -249.934280395508 3.789734601974
34.695446014404 -72.385589599609 -256.594757080078 3.319900274277
-92.718086242676 -80.753379821777 -251.821136474609 6.158775806427
-158.049713134766 -67.843597412109 -254.535842895508 2.998330354691
-139.854644775391 -62.405284881592 -252.230377197266 3.976223945618
41.963863372803 -71.847862243652 -253.426956176758 1.525666475296
-126.097625732422 -69.099182128906 -259.497222900391 2.496084690094
-118.389030456543 -75.938766479492 -254.473968505859 2.538432359695
-91.420806884766 -67.671470642090 -256.686462402344 0.933602273464
-13.008477210999 -66.713577270508 -246.073348999023 2.193459272385
32.056198120117 -72.277648925781 -254.813262939453 1.576006174088
24.839250564575 -68.894111633301 -257.844451904297 0.892889380455
-161.040817260742 -66.281959533691 -262.341949462891 3.366352081299
-114.558738708496 -77.752510070801 -262.893218994141 4.498147964478
-13.320784568787 -73.512847900391 -261.703125000000 2.450429677963
-131.517456054688 -73.702346801758 -266.488647460938 2.280255556107
-14.875085830688 -72.073860168457 -269.689514160156 1.602632164955
-162.929641723633 -74.094841003418 -271.159881591797 3.056500196457
-5.261402130127 -75.079734802246 -277.021057128906 2.070661306381
-159.377319335938 -76.640693664551 -288.049133300781 3.020012140274
-165.455520629883 -79.767921447754 -278.808502197266 6.074996471405
-142.053283691406 -75.943527221680 -285.406311035156 1.427504181862
-172.579620361328 -78.758529663086 -285.013519287109 5.577958106995
14.844347000122 -78.573715209961 -288.237976074219 0.365064293146
-103.049652099609 -76.634307861328 -286.359710693359 2.641102075577
-87.980140686035 -66.804557800293 -285.356231689453 3.609724760056
-169.216857910156 -70.654365539551 -284.534393310547 1.979614496231
-93.148551940918 -83.350631713867 -280.104827880859 10.734728813171
-157.004943847656 -76.618591308594 -289.921600341797 2.005012512207
-77.946052551270 -77.706779479980 -298.508026123047 8.390772819519
-73.008087158203 -73.683723449707 -288.680908203125 2.811397790909
-83.747093200684 -77.692970275879 -292.100341796875 2.509845972061
-3.312372922897 -72.290863037109 -286.794036865234 1.316602587700
-91.596221923828 -74.672790527344 -286.359008789063 1.022791624069
-99.288795471191 -78.132888793945 -290.044677734375 3.563684225082
-119.570487976074 -75.348884582520 -293.257751464844 2.489998817444
-116.746223449707 -70.051895141602 -293.456207275391 1.548040986061
-134.111648559570 -76.232933044434 -290.961212158203 1.537104845047
-141.919769287109 -74.772178649902 -301.035552978516 3.721732616425
-144.492385864258 -77.464836120605 -312.609741210938 2.708564996719
22.053781509399 -60.091217041016 -13.173203468323 3.339009523392
31.593824386597 -63.812824249268 -14.477784156799 1.776134490967
27.853107452393 -67.947387695313 -16.579368591309 2.561741352081
42.919353485107 -60.044174194336 -17.980417251587 2.444137811661
21.128946304321 -64.186569213867 -30.824352264404 3.984557867050
-76.571380615234 -65.009849548340 -46.190845489502 1.771944642067
87.749732971191 -59.320438385010 -65.760162353516 4.905622005463
-21.765020370483 -61.751518249512 -66.140884399414 1.531336903572
103.526710510254 -65.994857788086 -72.363464355469 2.786798715591
91.508323669434 -71.432975769043 -73.933242797852 2.411064863205
66.577560424805 -67.218505859375 -77.746719360352 1.434407234192
71.549774169922 -71.912414550781 -80.192733764648 0.953782439232
-45.657192230225 -71.567298889160 -81.048217773438 3.560588836670
58.950660705566 -73.439422607422 -78.988594055176 6.618171691895
-94.374893188477 -68.124946594238 -89.332672119141 2.109020948410
-48.237510681152 -64.075965881348 -83.592948913574 1.902804017067
-58.052272796631 -74.570487976074 -83.164474487305 8.211904525757
102.067092895508 -75.574813842773 -97.152061462402 2.573511123657
59.198238372803 -71.202110290527 -88.085937500000 0.649863898754
66.727813720703 -66.037277221680 -89.358306884766 1.677017450333
-95.329536437988 -59.516448974609 -97.670211791992 4.449579238892
106.806785583496 -69.244361877441 -88.235466003418 4.228515625000
40.321308135986 -65.207473754883 -98.285720825195 4.662522792816
101.430015563965 -66.397361755371 -96.728881835938 1.075142621994
106.280532836914 -63.219635009766 -105.044441223145 3.867071390152
98.329826354980 -67.534484863281 -101.442276000977 1.611377000809
73.185256958008 -71.885467529297 -96.572418212891 1.461403608322
85.600463867188 -70.279342651367 -106.930992126465 2.317777156830
49.451862335205 -65.486526489258 -109.897132873535 2.930996656418
109.302192687988 -61.434623718262 -99.965179443359 5.064363479614
47.138664245605 -72.967620849609 -102.245506286621 3.145494699478
36.247577667236 -65.598793029785 -101.146102905273 6.718976497650
112.689659118652 -68.490745544434 -108.711929321289 1.398747682571
-79.230506896973 -62.838760375977 -108.367546081543 0.974972069263
44.219261169434 -65.926246643066 -111.474555969238 2.151554822922
31.364154815674 -71.956573486328 -115.253509521484 2.564639091492
105.155296325684 -64.058311462402 -109.228691101074 3.106653451920
35.327224731445 -64.324623107910 -110.519767761230 6.563721656799
-87.871604919434 -68.041877746582 -110.046257019043 1.460173964500
-96.041740417480 -62.968688964844 -114.092903137207 1.937510967255
100.118263244629 -74.619674682617 -118.354270935059 6.591399192810
-95.979667663574 -68.945175170898 -118.751396179199 1.094226956367
38.762290954590 -72.960388183594 -119.295333862305 2.639401435852
35.389087677002 -68.563644409180 -122.290496826172 2.012931346893
-86.755645751953 -68.614501953125 -123.394500732422 1.629125356674
32.850906372070 -65.995605468750 -132.509796142578 2.170887470245
111.978439331055 -69.552360534668 -129.507415771484 1.740103602409
-54.364212036133 -68.951599121094 -139.098312377930 2.789856910706
-88.650962829590 -66.678421020508 -133.675094604492 2.642248153687
37.599895477295 -74.211990356445 -128.305297851563 2.321511983871
-86.610054016113 -62.720699310303 -136.816421508789 2.564868211746
-88.515907287598 -73.336227416992 -141.011352539063 5.754496097565
-51.305660247803 -68.710502624512 -135.419128417969 1.801377773285
-72.061752319336 -65.519958496094 -138.266601562500 2.322723388672
-51.604763031006 -67.967552185059 -131.409484863281 0.513283371925
117.189132690430 -63.955501556396 -134.466156005859 4.537956237793
-72.125328063965 -71.613441467285 -132.957626342773 1.817458391190
37.148571014404 -69.947380065918 -128.878540039063 1.733932375908
-79.293273925781 -66.162696838379 -141.293411254883 2.864108324051
-72.692878723145 -69.296134948730 -134.630157470703 0.649436771870
-96.004531860352 -66.317268371582 -142.884735107422 1.065704941750
-56.679069519043 -64.071289062500 -144.522842407227 2.475066423416
30.768400192261 -62.239242553711 -145.102752685547 6.186500072479
26.457010269165 -67.155281066895 -147.584991455078 2.358717918396
19.985565185547 -61.002315521240 -143.679824829102 2.879501819611
111.525123596191 -67.608650207520 -144.285797119141 2.671937942505
-90.797386169434 -67.098663330078 -150.976348876953 1.936866044998
9.345089912415 -70.683189392090 -151.258514404297 1.465834498405
-72.227653503418 -68.563812255859 -155.320556640625 2.777008771896
23.125356674194 -66.595321655273 -147.755569458008 2.979517459869
-50.181133270264 -67.550994873047 -154.877456665039 3.158931255341
9.261403083801 -67.149215698242 -153.243469238281 0.909199416637
16.967821121216 -73.119842529297 -158.246810913086 2.220547676086
16.094963073730 -76.300598144531 -162.509460449219 4.023289203644
-52.412349700928 -72.851478576660 -163.295486450195 4.991436481476
-38.962787628174 -67.033226013184 -155.149047851563 2.800034046173
-48.571025848389 -71.049804687500 -162.191299438477 1.920518875122
-103.575790405273 -71.309371948242 -173.362228393555 2.857914209366
21.395975112915 -72.043693542480 -174.134857177734 2.423764467239
-33.717639923096 -70.298385620117 -178.427612304688 2.180745601654
15.065681457520 -76.263587951660 -177.080474853516 2.713390827179
-142.395904541016 -69.133018493652 -176.663024902344 1.201158285141
-31.796119689941 -64.867866516113 -171.828125000000 2.844425916672
-157.467727661133 -79.351181030273 -178.644210815430 9.713446617126
24.850875854492 -61.982978820801 -180.716720581055 6.037858009338
-35.231079101563 -72.222297668457 -169.146163940430 3.644210577011
-107.012802124023 -66.456260681152 -175.171264648438 2.931353807449
-107.270820617676 -78.067825317383 -184.420104980469 8.844058990479
-31.393466949463 -62.575881958008 -185.709213256836 6.358204364777
-25.004135131836 -76.699073791504 -180.611877441406 1.112281918526
11.323909759521 -68.569526672363 -187.995986938477 4.062197208405
15.200458526611 -65.987869262695 -198.804977416992 1.554270386696
12.517724990845 -70.932945251465 -186.676116943359 2.344077348709
-142.877899169922 -67.559082031250 -187.003631591797 1.104534506798
24.791719436646 -64.067756652832 -188.761703491211 5.091175079346
4.533516883850 -69.028846740723 -195.942398071289 4.544444561005
-134.505661010742 -68.230072021484 -193.324798583984 1.382044315338
-112.371002197266 -69.792770385742 -195.412506103516 2.231934309006
14.691876411438 -67.629600524902 -204.090911865234 1.291528344154
-120.007385253906 -68.187408447266 -197.248626708984 1.631807684898
-107.980278015137 -61.499546051025 -193.060943603516 5.123370170593
-167.728866577148 -72.888580322266 -203.031234741211 2.586271047592
-24.785688400269 -68.022140502930 -199.320526123047 1.144139289856
9.464133262634 -67.603340148926 -198.580505371094 0.879252791405
-146.232696533203 -72.068626403809 -204.763626098633 1.857384681702
-138.873336791992 -75.816230773926 -207.963516235352 5.217550277710
-22.824497222900 -67.727439880371 -207.686874389648 3.551572799683
-12.950979232788 -71.441566467285 -205.042572021484 1.316777467728
-13.621976852417 -72.418830871582 -205.064529418945 2.446351766586
-138.023910522461 -77.188781738281 -202.223480224609 2.563292503357
-17.962331771851 -70.157814025879 -212.250534057617 2.385532140732
-8.637840270996 -78.213851928711 -213.758575439453 1.825625181198
18.029272079468 -65.984519958496 -210.549942016602 2.414213418961
-18.284978866577 -77.632308959961 -211.074768066406 1.484787464142
9.945420265198 -72.329505920410 -207.703918457031 0.925360620022
