-2.299398899078 -84.729698181152 -216.706314086914 5.334507942200
15.885151863098 -88.884292602539 -229.152511596680 7.742928028107
-33.242427825928 -77.932792663574 -232.754119873047 5.615307807922
-148.615722656250 -79.564193725586 -230.977951049805 0.884547770023
-38.799495697021 -80.611816406250 -240.229507446289 1.842819333076
-49.519565582275 -79.648536682129 -235.035125732422 7.563454627991
-41.542823791504 -78.912902832031 -234.548751831055 5.570073604584
16.729770660400 -84.814903259277 -240.573593139648 2.719619035721
-52.918067932129 -74.454025268555 -241.669281005859 1.651125431061
15.893833160400 -84.515892028809 -241.421600341797 3.337776184082
11.900616645813 -80.473258972168 -236.313995361328 2.175016880035
5.949798107147 -85.593620300293 -246.246582031250 4.784673213959
-41.480728149414 -87.411598205566 -241.820083618164 6.502187252045
22.103960037231 -87.624710083008 -242.821365356445 6.865977287292
-145.177413940430 -79.985702514648 -238.845275878906 0.993516981602
17.634241104126 -81.433143615723 -248.121093750000 1.197758197784
-3.151494026184 -89.129081726074 -244.881179809570 8.319591522217
7.260032176971 -83.489677429199 -235.483413696289 2.982268810272
-152.724807739258 -73.234474182129 -246.733871459961 2.602858066559
-149.503936767578 -84.130531311035 -249.279037475586 0.173102229834
-144.659515380859 -80.563003540039 -248.407730102539 0.940158486366
-154.779525756836 -79.032737731934 -251.038406372070 2.359880924225
11.722067832947 -78.145027160645 -258.723114013672 6.002449035645
-158.920700073242 -73.556388854980 -264.577728271484 2.063883304596
-10.809638023376 -84.444030761719 -269.440765380859 5.610668659210
-155.867080688477 -82.577186584473 -257.415039062500 2.201882123947
-147.380569458008 -77.368659973145 -275.034820556641 1.369194388390
-158.003784179688 -74.568161010742 -267.101165771484 2.024241924286
-157.268081665039 -83.269500732422 -275.610961914063 5.941096305847
-133.647735595703 -84.593734741211 -281.725433349609 6.096615314484
-158.081954956055 -80.420547485352 -281.410766601563 5.398647785187
-149.847152709961 -83.688095092773 -283.156738281250 0.987267911434
-150.978393554688 -80.344551086426 -280.607299804688 1.117821455002
-157.776336669922 -83.000404357910 -288.664703369141 3.860730886459
-148.377227783203 -76.883171081543 -283.531829833984 1.329874157906
-156.837280273438 -80.289215087891 -293.403839111328 2.376012086868
-151.789764404297 -82.030319213867 -296.092681884766 1.892136573792
-150.864929199219 -74.866775512695 -298.972900390625 1.002931952477
-54.138217926025 -67.304595947266 -56.573440551758 7.435124874115
-62.821792602539 -76.200881958008 -59.419254302979 2.636728763580
-44.487609863281 -77.283020019531 -56.187850952148 2.816219806671
-21.731447219849 -80.496681213379 -72.151374816895 3.826576471329
-50.319461822510 -82.090812683105 -81.770072937012 2.427218675613
-87.478736877441 -86.476608276367 -90.414367675781 4.565043926239
41.120056152344 -82.221511840820 -104.317672729492 4.522445678711
-71.976608276367 -79.834434509277 -92.757934570313 6.015823841095
46.154701232910 -85.185127258301 -111.297935485840 4.995535850525
42.761940002441 -81.802391052246 -120.848869323730 2.696451663971
42.398773193359 -82.757911682129 -120.595222473145 2.876776695251
35.333721160889 -82.896492004395 -131.870269775391 2.320085763931
32.389869689941 -79.607215881348 -131.020812988281 1.108278274536
33.696266174316 -91.212020874023 -131.184265136719 9.524962425232
32.978843688965 -78.389472961426 -147.848236083984 1.488128066063
-45.702472686768 -74.347900390625 -145.200912475586 0.887998938560
29.938812255859 -84.405624389648 -136.129821777344 5.081474781036
-66.237670898438 -74.044189453125 -147.183914184570 1.847147226334
-35.013633728027 -83.148986816406 -146.902389526367 8.526883125305
-61.251701354980 -81.763954162598 -157.187942504883 4.575201511383
-38.873355865479 -82.283447265625 -153.213470458984 2.975474357605
31.739362716675 -83.631767272949 -154.459548950195 4.210101604462
-36.535545349121 -87.769340515137 -151.218536376953 9.140283584595
-1.078353047371 -82.276489257813 -171.385711669922 4.453644275665
35.209968566895 -75.120529174805 -162.990173339844 3.127614736557
-11.472260475159 -81.921745300293 -167.254760742188 3.945400953293
-58.379596710205 -79.392227172852 -156.955398559570 5.988486289978
-38.489574432373 -76.066337585449 -165.764755249023 2.315487861633
-33.675334930420 -76.476791381836 -169.813674926758 2.087800741196
22.650585174561 -84.631164550781 -174.661499023438 6.137771129608
-53.740524291992 -81.773193359375 -170.529983520508 4.106953144073
-27.260076522827 -74.947875976563 -170.137420654297 1.509255409241
21.314172744751 -81.802642822266 -182.938995361328 3.659805297852
-53.057655334473 -81.745788574219 -180.481460571289 0.730209529400
-25.170936584473 -73.904533386230 -174.839736938477 2.420422554016
-55.736457824707 -76.071441650391 -179.535430908203 2.115343332291
-42.530929565430 -79.248504638672 -190.417358398438 2.495795488358
-30.098024368286 -78.944938659668 -185.365615844727 1.288244247437
-41.968471527100 -83.037055969238 -190.624542236328 2.100092411041
-23.681932449341 -80.442573547363 -188.183563232422 1.098026514053
-139.757995605469 -78.890388488770 -189.200225830078 4.681700706482
20.335411071777 -82.228195190430 -198.249450683594 3.953513860703
-134.691772460938 -76.397529602051 -191.758316040039 4.677906036377
-21.518114089966 -77.743171691895 -191.792877197266 2.053822040558
-22.168365478516 -77.877868652344 -192.273666381836 2.141982078552
-43.615970611572 -81.435188293457 -188.605636596680 3.527069091797
9.543588638306 -78.693260192871 -195.951721191406 3.435980796814
-17.967189788818 -85.232398986816 -194.046920776367 5.592777252197
-55.630905151367 -82.510093688965 -199.643157958984 1.522010922432
-35.995227813721 -81.301887512207 -198.408493041992 2.647087335587
-60.647422790527 -76.954917907715 -201.281448364258 4.448426246643
-69.919151306152 -78.764045715332 -205.502395629883 0.587648928165
15.155261993408 -80.146499633789 -206.209381103516 1.323730349541
-88.364219665527 -78.039237976074 -204.938583374023 7.275348186493
-29.743175506592 -81.824951171875 -210.476425170898 1.999508619308
-82.142845153809 -80.699562072754 -202.527877807617 7.786264419556
-151.791442871094 -78.601951599121 -204.925888061523 1.636745333672
-8.679066658020 -82.429580688477 -210.252059936523 4.256737709045
-6.960749149323 -79.907722473145 -214.023864746094 2.481902837753
10.841806411743 -83.762176513672 -214.080551147461 3.888511180878
10.494495391846 -74.963867187500 -223.927597045898 1.397930622101
-2.913486003876 -84.567680358887 -223.793594360352 5.427409648895
-145.698837280273 -76.941322326660 -210.252914428711 2.219114303589
-152.263015747070 -83.268028259277 -227.427978515625 0.798273980618
-157.212844848633 -74.352043151855 -225.368667602539 2.810863256454
-2.986933946609 -86.095176696777 -232.995300292969 6.912220478058
0.610682010651 -80.568405151367 -233.858947753906 3.106009960175
-26.714702606201 -88.116653442383 -238.352569580078 8.450086593628
-152.788711547852 -75.805732727051 -230.273498535156 2.826872587204
7.327528953552 -84.949226379395 -239.165878295898 5.135246276855
-24.980768203735 -75.091781616211 -236.735397338867 1.146654367447
16.900150299072 -83.199295043945 -231.775741577148 2.666403293610
-54.716800689697 -79.758903503418 -237.852416992188 5.022089958191
-52.959777832031 -81.540245056152 -244.918533325195 2.435500860214
-149.671630859375 -84.659942626953 -237.379898071289 1.563779115677
-64.251632690430 -82.727691650391 -242.951980590820 6.047945022583
-4.876429080963 -82.796356201172 -241.996841430664 6.882264614105
-13.030091285706 -79.100685119629 -249.350906372070 4.106588363647
-149.910751342773 -83.604858398438 -251.475738525391 0.737963676453
-133.981964111328 -77.164756774902 -248.222610473633 7.530319690704
-137.861831665039 -76.917121887207 -249.176422119141 6.069018363953
13.796207427979 -82.129234313965 -253.813232421875 1.719869136810
-148.971817016602 -80.999832153320 -264.295989990234 2.152494430542
14.912140846252 -84.677680969238 -261.928436279297 1.174885988235
-146.405502319336 -77.147163391113 -267.622558593750 2.049251556396
-0.399693995714 -85.701049804688 -273.179229736328 1.479370713234
-144.575454711914 -80.246009826660 -273.894592285156 2.864138126373
-5.759191989899 -86.852325439453 -279.040863037109 7.511256217957
-156.879959106445 -76.227096557617 -276.563598632813 3.315246105194
-147.423995971680 -75.787254333496 -274.508575439453 2.637824058533
-139.682708740234 -85.217262268066 -278.232513427734 6.374359607697
-153.489273071289 -81.669563293457 -286.774383544922 2.171548604965
-24.933868408203 -80.420326232910 -285.781890869141 3.929839134216
-154.245147705078 -78.158966064453 -283.751617431641 2.179047346115
-150.298202514648 -84.310180664063 -287.029235839844 1.336167097092
-156.334121704102 -78.600936889648 -298.615966796875 3.443547487259
-52.822620391846 -73.560638427734 -51.292522430420 3.664433717728
-37.042377471924 -83.574455261230 -58.159309387207 6.522945404053
-73.123222351074 -80.032524108887 -62.664005279541 4.526543140411
-29.125434875488 -75.221549987793 -61.673343658447 2.739996433258
-25.133888244629 -79.132614135742 -65.482414245605 3.504695653915
-85.070861816406 -76.891189575195 -72.427085876465 2.673956155777
86.222602844238 -84.011138916016 -82.681602478027 6.339945316315
-32.478855133057 -74.880966186523 -81.119186401367 3.241406679153
84.055778503418 -86.365402221680 -84.290557861328 7.883491992950
81.305130004883 -82.291107177734 -87.261161804199 4.270540714264
86.963195800781 -81.290397644043 -83.553512573242 4.127824783325
88.751197814941 -78.782402038574 -89.115242004395 1.244254112244
91.403068542480 -80.534408569336 -93.418388366699 3.427370309830
-88.815765380859 -72.536659240723 -86.770988464355 2.702619075775
58.348834991455 -81.244552612305 -102.875457763672 5.951421260834
-96.057701110840 -63.733715057373 -104.663269042969 2.548363208771
49.273010253906 -83.971336364746 -103.896202087402 5.811560153961
51.653457641602 -82.173355102539 -110.321578979492 5.086381435394
38.888683319092 -79.145202636719 -111.271934509277 2.231941699982
35.334163665771 -81.349739074707 -135.382339477539 1.897781491280
27.604745864868 -79.572265625000 -137.657379150391 1.773380398750
22.330156326294 -72.507675170898 -140.076812744141 2.698919296265
33.284435272217 -75.847702026367 -139.290283203125 2.823197603226
-45.701000213623 -81.688751220703 -148.412338256836 2.803519725800
-49.584770202637 -79.952987670898 -145.503173828125 2.543240070343
-40.485771179199 -77.606269836426 -153.470870971680 1.570248961449
22.656202316284 -77.690101623535 -151.637069702148 2.204648256302
31.056127548218 -79.533195495605 -164.864898681641 1.392305970192
-32.978427886963 -74.867385864258 -164.569976806641 1.710417151451
-35.216350555420 -72.624198913574 -153.541854858398 2.892534494400
-45.918983459473 -81.479118347168 -154.089660644531 1.688514351845
1.619205951691 -76.522155761719 -159.085372924805 1.046253919601
25.425392150879 -81.239822387695 -146.648239135742 3.281895875931
33.782218933105 -76.138061523438 -155.890243530273 0.691845297813
29.415176391602 -78.546615600586 -167.568130493164 2.729296684265
-5.429880142212 -79.135925292969 -168.685531616211 0.870089232922
-5.843545913696 -81.090156555176 -166.227233886719 1.654514312744
-58.555969238281 -75.762748718262 -160.179199218750 3.296222686768
-61.061668395996 -77.663749694824 -165.594573974609 1.630952239037
-45.027183532715 -80.184570312500 -163.738693237305 2.097625494003
-37.703048706055 -76.552337646484 -162.368560791016 1.504948496819
21.234325408936 -74.552139282227 -167.157546997070 1.074898838997
-24.307926177979 -84.399238586426 -173.428787231445 6.268867015839
-29.861772537231 -75.395660400391 -176.896148681641 3.192137956619
-63.751960754395 -82.585418701172 -173.259674072266 3.640852451324
95.694953918457 -84.678695678711 -180.599105834961 10.955174446106
20.805763244629 -84.806694030762 -172.466323852539 5.903793334961
-25.991920471191 -79.057464599609 -174.766983032227 1.984956383705
-52.455825805664 -78.711471557617 -171.859710693359 2.013787269592
-22.600595474243 -75.315437316895 -176.081909179688 1.633884668350
112.858886718750 -83.490180969238 -181.753433227539 7.828209877014
-57.696578979492 -80.937713623047 -179.879348754883 3.032572984695
10.563151359558 -82.896171569824 -187.529953002930 6.594666481018
15.516895294189 -80.350448608398 -174.536514282227 4.377590656281
-56.549377441406 -85.173759460449 -170.418792724609 4.425898551941
-25.575609207153 -77.618713378906 -177.829833984375 2.512033224106
-56.446685791016 -82.652282714844 -171.665252685547 2.945821046829
-37.143497467041 -81.483085632324 -170.956253051758 3.576291799545
-29.743255615234 -79.323104858398 -182.530838012695 1.348648667336
18.286876678467 -81.229049682617 -185.171508789063 3.224685668945
-48.295398712158 -80.960578918457 -183.133651733398 2.237037420273
102.463737487793 -81.888557434082 -189.048583984375 4.492059707642
-51.119773864746 -74.637336730957 -183.613143920898 2.040438413620
4.838408946991 -79.750411987305 -199.217330932617 5.192628383636
20.308122634888 -79.415145874023 -194.439620971680 0.891540050507
-50.760936737061 -79.110260009766 -186.087417602539 0.776289939880
-16.075576782227 -80.796043395996 -184.303222656250 2.404918670654
97.964874267578 -82.823402404785 -193.226226806641 7.262963294983
93.986846923828 -87.863670349121 -193.251937866211 12.802588462830
-51.287628173828 -77.172035217285 -180.583221435547 1.036042213440
-151.374649047852 -83.474349975586 -191.593246459961 2.996278762817
-46.393524169922 -78.683723449707 -190.047286987305 1.279650568962
-145.823471069336 -77.402069091797 -188.186279296875 1.440275073051
-135.523162841797 -71.866287231445 -188.469497680664 6.755830287933
-48.516246795654 -82.697082519531 -189.847930908203 4.426004886627
8.046438217163 -82.981903076172 -202.653549194336 4.894443511963
-16.920862197876 -76.759216308594 -200.462356567383 0.941239655018
15.097735404968 -77.681396484375 -197.040954589844 0.976362705231
89.687088012695 -88.112052917480 -212.015960693359 11.212785720825
-35.508010864258 -77.361267089844 -197.464096069336 1.985978484154
-16.354393005371 -77.350181579590 -198.191955566406 1.139008045197
-18.767412185669 -77.200454711914 -210.001754760742 1.871700048447
-35.827838897705 -77.938842773438 -198.145996093750 2.020181655884
3.741692066193 -81.050842285156 -202.294601440430 6.322194099426
-81.817367553711 -80.267654418945 -204.237045288086 6.566262245178
14.933259010315 -82.337707519531 -211.430282592773 2.061606645584
-36.313148498535 -78.316009521484 -200.044448852539 1.346944212914
-146.789550781250 -81.610908508301 -197.866821289063 1.005071759224
-142.035568237305 -72.510452270508 -201.526062011719 2.101392984390
-90.239395141602 -78.969947814941 -205.838958740234 7.640212535858
-36.201065063477 -76.993652343750 -203.436355590820 1.223211526871
-14.052751541138 -86.200363159180 -207.373077392578 5.681785583496
-35.665512084961 -80.852127075195 -199.161590576172 2.127995729446
-92.352912902832 -81.590705871582 -210.069335937500 6.861523151398
-88.188522338867 -80.585876464844 -206.106399536133 7.187537193298
3.584141016006 -87.815498352051 -216.333007812500 9.771200180054
-150.729888916016 -69.898330688477 -203.581008911133 2.466440916061
-16.932199478149 -84.953346252441 -207.465881347656 5.973039627075
7.304928779602 -88.840110778809 -214.945373535156 9.181010246277
-145.893035888672 -75.179298400879 -212.047683715820 0.994089007378
-25.582105636597 -81.894195556641 -209.986267089844 2.792293071747
0.414101988077 -75.442718505859 -215.125747680664 3.478004217148
-11.312505722046 -81.508483886719 -215.292724609375 2.588337898254
-154.255462646484 -71.576065063477 -214.384536743164 3.006111145020
-142.180694580078 -64.991821289063 -218.011489868164 3.740157127380
-5.596442222595 -81.067024230957 -222.097167968750 2.488268136978
-150.189926147461 -82.462364196777 -217.804107666016 0.507537841797
-1.127958059311 -75.303489685059 -224.848190307617 1.008531689644
15.582477569580 -80.375236511230 -232.442077636719 0.637627840042
-4.738551139832 -84.128997802734 -224.419754028320 5.016757488251
-4.630661964417 -74.116432189941 -227.289901733398 2.948004007339
6.720292091370 -79.106216430664 -227.639328002930 0.880661845207
-155.144577026367 -77.717536926270 -231.617385864258 0.508561789989
-21.935737609863 -77.466659545898 -227.676361083984 2.686393260956
-36.890552520752 -82.691818237305 -233.146530151367 7.630879402161
-1.625797033310 -79.452499389648 -230.986083984375 2.774270057678
1.216421008110 -87.534492492676 -239.698608398438 8.810989379883
-1.126479983330 -78.718795776367 -228.457290649414 1.006323456764
-61.879520416260 -78.803840637207 -236.037063598633 9.489480018616
-151.256134033203 -72.500511169434 -241.203903198242 2.631763458252
-156.255279541016 -76.554847717285 -238.494277954102 3.024877309799
9.676832199097 -83.517532348633 -243.184326171875 2.325054883957
23.501602172852 -84.521339416504 -242.072357177734 5.593835830688
-64.139778137207 -75.589241027832 -240.932266235352 4.606802940369
-144.496154785156 -82.543182373047 -243.491500854492 2.007024049759
-156.326507568359 -80.879722595215 -245.731674194336 5.623683929443
-157.911270141602 -80.876945495605 -247.867431640625 6.568254947662
-146.177581787109 -73.827812194824 -253.991821289063 1.331931233406
-145.612869262695 -78.428489685059 -247.935165405273 1.124446988106
-8.788925170898 -83.237014770508 -251.373001098633 3.421583175659
-148.913513183594 -78.669311523438 -253.192672729492 1.711396098137
-18.274717330933 -82.014183044434 -264.176055908203 7.044087886810
-150.837829589844 -75.581283569336 -262.057250976563 2.508394241333
-151.744400024414 -76.642196655273 -273.611053466797 2.246721982956
-151.262268066406 -75.101470947266 -275.910339355469 0.678889274597
-7.339568138123 -76.251380920410 -280.817474365234 2.522733926773
-153.127334594727 -72.743118286133 -273.646942138672 1.150836825371
-28.192892074585 -82.943977355957 -280.811798095703 8.854133605957
-28.442083358765 -77.340599060059 -279.375244140625 6.376204967499
-16.741903305054 -78.025962829590 -290.016845703125 2.068742752075
-19.113355636597 -77.523658752441 -289.189422607422 0.759756982327
7.327404022217 -84.917602539063 -286.870483398438 6.682781219482
-128.764572143555 -80.524620056152 -282.277008056641 5.669271945953
-66.597808837891 -80.429191589355 -280.438690185547 7.177611827850
-46.325939178467 -76.604995727539 -285.001525878906 2.804678678513
-37.404212951660 -81.359619140625 -281.759246826172 7.014911651611
-12.357234001160 -78.861198425293 -290.044769287109 1.675686001778
1.884351968765 -83.156311035156 -283.344360351563 4.172576904297
-145.323654174805 -78.027954101563 -290.485626220703 2.600383281708
7.225183010101 -82.585128784180 -292.799530029297 4.594196796417
-158.175109863281 -74.151565551758 -294.353271484375 1.959990620613
-159.368347167969 -82.588859558105 -292.374572753906 4.870933055878
-157.904251098633 -72.448768615723 -303.890014648438 2.129968404770
-146.418838500977 -76.667037963867 -300.697998046875 0.911290109158
-48.151679992676 -75.787246704102 -43.366336822510 7.079684734344
-50.604763031006 -80.746292114258 -50.241302490234 6.935495853424
-65.461166381836 -73.110633850098 -48.058277130127 3.450370311737
-37.035961151123 -73.771202087402 -57.723602294922 1.870838880539
-32.557899475098 -76.884811401367 -53.982223510742 4.099045753479
-16.078113555908 -76.268875122070 -66.018730163574 4.263311862946
-78.623451232910 -71.740989685059 -62.858509063721 3.795276165009
88.118919372559 -80.967971801758 -76.382919311523 4.143178939819
-88.659828186035 -72.808166503906 -65.098022460938 2.270682811737
82.011489868164 -77.337905883789 -74.090835571289 1.809322237968
90.904304504395 -74.805961608887 -82.693771362305 2.508550167084
100.782974243164 -77.357368469238 -89.092514038086 3.798616170883
-59.947769165039 -78.877380371094 -90.505249023438 2.713224172592
83.350158691406 -82.435508728027 -94.777969360352 5.611032009125
77.724243164063 -85.798965454102 -88.076057434082 8.257864952087
88.064094543457 -80.167938232422 -88.444808959961 2.781724691391
-56.438346862793 -75.972419738770 -91.419700622559 1.831981420517
49.457576751709 -76.925773620605 -95.252700805664 1.790021419525
47.106418609619 -78.504310607910 -103.392120361328 1.162135124207
40.589244842529 -80.156951904297 -99.920158386230 5.571949481964
37.022468566895 -79.573867797852 -96.810630798340 9.968834877014
-90.451866149902 -70.024765014648 -95.061691284180 3.939907550812
36.347431182861 -77.007118225098 -113.848663330078 2.081426382065
-83.435432434082 -75.775657653809 -99.570625305176 3.655104637146
40.446235656738 -80.828079223633 -124.938812255859 1.074820518494
33.228015899658 -80.285751342773 -116.775306701660 2.613611698151
35.517158508301 -70.127517700195 -117.954254150391 1.674763798714
46.117584228516 -76.780693054199 -113.660446166992 1.279906630516
42.590728759766 -82.922943115234 -125.218986511230 3.361387014389
-49.883991241455 -69.659286499023 -129.121154785156 2.887218236923
38.461357116699 -84.805145263672 -130.259216308594 5.039970874786
35.873634338379 -79.282020568848 -141.122680664063 2.575527906418
-56.210060119629 -74.748703002930 -138.711746215820 0.600351214409
-43.694198608398 -77.492729187012 -134.218353271484 4.793673515320
35.567005157471 -77.360595703125 -138.706176757813 2.478699684143
110.789443969727 -75.778213500977 -138.911911010742 0.641068816185
112.362808227539 -77.286468505859 -146.145782470703 0.931245684624
26.887008666992 -80.953979492188 -136.997360229492 2.854666233063
-39.593833923340 -80.735237121582 -144.138427734375 6.094165802002
117.781951904297 -90.387283325195 -150.673385620117 13.804433822632
-36.197200775146 -75.017158508301 -146.739440917969 5.429990291595
-67.773162841797 -75.399040222168 -156.858169555664 1.773239374161
110.480735778809 -87.167114257813 -152.836364746094 10.796022415161
22.358299255371 -80.803794860840 -163.093597412109 2.870642423630
1.042507052422 -79.464370727539 -158.113174438477 3.084414243698
110.921852111816 -81.831939697266 -150.181823730469 5.174838066101
-64.328834533691 -76.330398559570 -160.332138061523 0.936089396477
-39.339866638184 -79.271965026855 -160.962921142578 1.421912074089
110.759788513184 -83.173797607422 -163.487808227539 6.427008628845
27.364025115967 -73.090126037598 -154.805297851563 2.078757047653
-61.177307128906 -69.215797424316 -157.756622314453 3.875682830811
112.847106933594 -82.328353881836 -164.150283813477 5.649976730347
-65.863845825195 -78.365692138672 -162.564971923828 2.137770175934
-48.973442077637 -80.975212097168 -177.271408081055 2.209987878799
105.744667053223 -81.288352966309 -169.491104125977 5.255321502686
-59.754058837891 -75.301567077637 -166.733169555664 1.000754117966
112.336776733398 -80.864341735840 -177.261154174805 3.574343204498
-62.046134948730 -75.744140625000 -170.609741210938 1.669388532639
-16.735584259033 -75.236251831055 -172.454513549805 3.615645647049
-10.082653045654 -84.919792175293 -178.247970581055 3.119347095490
107.361297607422 -84.104858398438 -163.756118774414 7.769087791443
21.312938690186 -81.013854980469 -167.060485839844 3.651154279709
31.125337600708 -73.595962524414 -165.091934204102 1.402377724648
-58.868446350098 -76.004280090332 -171.442962646484 1.845158696175
16.446846008301 -76.971717834473 -177.543777465820 1.594928026199
-57.811969757080 -78.094947814941 -168.027496337891 0.957775712013
-53.606082916260 -75.678741455078 -189.513320922852 1.134567379951
9.391213417053 -76.391006469727 -180.956253051758 5.657836914063
-55.720855712891 -71.234786987305 -172.982727050781 4.402564525604
105.102020263672 -78.858901977539 -187.684692382813 2.124410867691
25.787286758423 -83.200393676758 -178.274032592773 3.247922897339
-36.497337341309 -74.957847595215 -182.599136352539 2.775912046432
-44.117183685303 -80.825416564941 -183.373733520508 4.364978313446
10.348521232605 -82.208999633789 -186.573165893555 6.298984527588
-20.954204559326 -79.671409606934 -182.044128417969 1.245409131050
-47.892829895020 -79.355545043945 -190.028961181641 1.806047201157
100.637710571289 -86.778205871582 -180.241317749023 10.310894966125
7.324015140533 -83.594474792480 -185.638183593750 9.549373626709
-133.166625976563 -82.858718872070 -192.302368164063 5.294664859772
-51.159870147705 -80.139793395996 -190.030395507813 2.816544294357
92.861106872559 -80.705635070801 -196.667449951172 6.649311065674
-151.353378295898 -81.269859313965 -193.909027099609 1.950960874557
17.142658233643 -80.314155578613 -197.492187500000 1.838857173920
-44.926620483398 -74.202407836914 -200.506240844727 1.221240401268
-31.121917724609 -82.095428466797 -202.326934814453 4.036861896515
-38.419475555420 -79.566856384277 -194.915161132813 1.103179454803
-47.481609344482 -85.600509643555 -192.265167236328 4.564609527588
99.614105224609 -81.870712280273 -203.430679321289 5.005526542664
-22.743303298950 -83.537689208984 -194.294601440430 3.678612470627
-151.285675048828 -74.931831359863 -191.430068969727 2.050803661346
14.478647232056 -82.861274719238 -196.386520385742 3.933351755142
-78.815460205078 -81.963172912598 -198.157135009766 9.725958824158
-143.895126342773 -72.625015258789 -206.266616821289 2.018625974655
91.603874206543 -85.272125244141 -212.424697875977 8.358485221863
-34.357307434082 -76.636589050293 -201.456253051758 1.100982546806
-30.288461685181 -79.397972106934 -204.806472778320 1.512817621231
8.980463027954 -80.216773986816 -205.283020019531 2.536806821823
-73.326461791992 -82.351982116699 -199.963150024414 7.995711326599
-28.162832260132 -88.133270263672 -199.330947875977 9.473602294922
-10.658016204834 -81.221992492676 -212.610427856445 2.456492185593
-70.713546752930 -78.461494445801 -207.399902343750 1.508049726486
-15.515315055847 -79.800094604492 -212.561843872070 1.313884139061
6.423635005951 -69.862792968750 -206.575119018555 2.942534208298
9.870266914368 -83.416664123535 -217.287567138672 2.863831996918
-153.942489624023 -77.585411071777 -209.423202514648 3.891933917999
-10.971529960632 -79.236358642578 -209.156265258789 1.112249851227
-104.686950683594 -72.684265136719 -212.604553222656 7.575580120087
-23.692703247070 -78.646759033203 -214.042465209961 1.328024864197
86.232902526855 -88.868988037109 -209.858184814453 12.737554550171
8.151076316833 -77.591690063477 -219.688400268555 1.858493089676
20.777959823608 -80.067764282227 -212.214706420898 5.410568237305
77.989830017090 -83.799728393555 -209.937698364258 11.221239089966
-0.709872007370 -85.280944824219 -225.916992187500 5.452291011810
83.423957824707 -82.612953186035 -214.206344604492 6.538674354553
-23.679576873779 -73.928001403809 -219.921340942383 1.067297935486
15.288646697998 -75.983512878418 -213.852371215820 2.513845920563
-150.790390014648 -77.015914916992 -209.174377441406 1.692809939384
-29.305335998535 -80.637489318848 -221.235443115234 4.273734569550
0.165463998914 -76.407424926758 -227.180801391602 1.958118319511
-158.614242553711 -81.615447998047 -215.872299194336 8.803857803345
-139.674362182617 -79.907806396484 -219.396713256836 5.701974391937
0.399048000574 -79.370933532715 -218.202804565430 3.152671575546
-5.275687217712 -75.243598937988 -218.914291381836 1.274317383766
-139.176208496094 -71.684761047363 -220.454605102539 4.012836456299
-149.828018188477 -76.183921813965 -234.895385742188 0.775384068489
-151.392852783203 -76.637420654297 -226.942718505859 2.243963718414
-33.477165222168 -80.662376403809 -230.845397949219 7.969207286835
-143.583480834961 -80.295898437500 -235.104400634766 2.016843557358
12.003355979919 -82.385414123535 -236.964065551758 1.126256465912
3.637471914291 -79.792472839355 -240.683547973633 2.496980428696
-152.833786010742 -69.169555664063 -230.180297851563 1.490417003632
-152.044555664063 -75.254058837891 -236.705123901367 0.890739560127
-47.517631530762 -81.322090148926 -240.818222045898 3.511088609695
-34.024894714355 -80.009529113770 -242.153991699219 0.708323121071
1.620988011360 -79.697006225586 -237.212112426758 1.327512979507
-37.897769927979 -81.584251403809 -239.743148803711 2.382815599442
19.371185302734 -80.952255249023 -242.124298095703 2.245544910431
-8.780432701111 -82.636634826660 -248.744766235352 5.858422279358
-145.581375122070 -77.641052246094 -244.635986328125 2.548038482666
-13.179544448853 -86.017768859863 -248.380676269531 8.637529373169
-150.901000976563 -73.226844787598 -237.296310424805 2.054973363876
-67.195388793945 -80.949684143066 -244.006301879883 4.316438198090
-148.985565185547 -83.988883972168 -250.186157226563 1.032962560654
-130.406646728516 -77.028701782227 -249.925811767578 6.686686992645
-156.266128540039 -76.380767822266 -247.598953247070 3.845131635666
-12.718095779419 -77.440834045410 -262.866210937500 2.903026819229
-148.654037475586 -83.951622009277 -265.305297851563 1.831419587135
-151.795013427734 -76.926734924316 -261.589263916016 3.217381238937
-15.166528701782 -80.456184387207 -266.054656982422 4.634437561035
-146.480316162109 -76.865447998047 -261.331390380859 1.703006029129
-10.014055252075 -78.725692749023 -271.087066650391 1.168838500977
-48.628776550293 -78.663734436035 -277.364868164063 8.382274627686
-138.313156127930 -73.964698791504 -280.208404541016 5.791059970856
-139.396102905273 -76.597549438477 -277.505706787109 6.093587875366
-125.387306213379 -73.317886352539 -272.785888671875 7.051723957062
-54.665878295898 -78.489891052246 -280.140716552734 5.666216373444
-114.254081726074 -76.431030273438 -275.127502441406 11.779165267944
13.255164146423 -80.581184387207 -288.937774658203 3.013617277145
-59.368206024170 -76.879676818848 -282.325256347656 2.962552785873
-143.901763916016 -76.927947998047 -285.588134765625 2.205594301224
-66.824249267578 -77.648391723633 -284.241790771484 2.864534854889
-148.698699951172 -83.101814270020 -285.576629638672 1.414700269699
-119.377197265625 -74.561157226563 -283.509033203125 3.724626302719
-48.898948669434 -82.923606872559 -284.323791503906 5.641294479370
-36.328433990479 -79.884719848633 -286.182373046875 2.872987508774
-142.075668334961 -71.694648742676 -289.153289794922 2.572989940643
-17.722583770752 -73.546325683594 -275.504943847656 5.502076148987
2.567635059357 -80.307296752930 -281.895202636719 1.668322682381
3.621515989304 -78.866477966309 -285.569427490234 2.205226659775
11.955312728882 -82.451858520508 -291.681488037109 4.594202518463
-153.279922485352 -82.290908813477 -289.957092285156 1.808068990707
-147.274887084961 -74.060585021973 -283.238342285156 1.798376679420
-62.777698516846 -72.457260131836 -56.488075256348 3.272736310959
91.763198852539 -81.580841064453 -69.602416992188 7.504438877106
81.148681640625 -80.644424438477 -75.138801574707 5.268932819366
-25.902872085571 -79.103240966797 -70.947837829590 2.258138895035
85.897560119629 -77.436767578125 -71.684349060059 3.711869478226
-36.344661712646 -79.021156311035 -74.046234130859 3.148377180099
83.843559265137 -74.449874877930 -80.389175415039 2.038553237915
99.395156860352 -74.895240783691 -77.352096557617 1.671799063683
-62.284599304199 -68.899589538574 -90.423583984375 2.269939422607
73.933837890625 -79.995613098145 -91.691345214844 5.247029781342
81.646560668945 -76.873489379883 -95.335144042969 2.241308450699
99.572341918945 -83.480270385742 -93.306655883789 8.488459587097
57.127208709717 -81.110885620117 -93.449684143066 6.628651142120
-63.017032623291 -71.705474853516 -95.061187744141 2.055334806442
-71.814163208008 -71.310050964355 -94.458457946777 5.621825218201
52.654403686523 -81.208381652832 -99.680229187012 4.116337776184
-85.142250061035 -76.124328613281 -94.614402770996 5.584239959717
49.209877014160 -75.045951843262 -114.953575134277 2.011883735657
111.914733886719 -79.925910949707 -118.507537841797 4.281769752502
114.059219360352 -83.481819152832 -128.170059204102 7.835857391357
20.126796722412 -75.810638427734 -132.507659912109 7.641448974609
111.251403808594 -83.056190490723 -124.984230041504 6.693375110626
30.203943252563 -75.201026916504 -129.195693969727 1.854507684708
113.699600219727 -73.961914062500 -131.375213623047 1.111586928368
37.694561004639 -75.751564025879 -130.965164184570 1.643044114113
-56.705402374268 -75.128532409668 -133.612274169922 2.368618965149
37.007091522217 -83.880767822266 -142.329483032227 5.019211769104
109.506202697754 -78.559906005859 -132.092132568359 3.917572498322
-44.214828491211 -74.252960205078 -137.833984375000 3.005570650101
32.519283294678 -77.000885009766 -146.921340942383 0.351117104292
-55.946475982666 -69.420600891113 -135.688964843750 3.150562047958
-59.854846954346 -75.413215637207 -137.652114868164 2.654455661774
-52.693969726563 -80.031044006348 -144.059890747070 3.216626644135
-63.946998596191 -79.382026672363 -149.239837646484 4.707153320313
111.574554443359 -86.166656494141 -144.879089355469 8.946924209595
-49.484886169434 -84.242385864258 -149.196395874023 6.857520103455
23.569438934326 -84.573127746582 -152.649215698242 4.775777339935
107.316444396973 -82.139923095703 -161.463241577148 6.267804622650
-64.588546752930 -76.132682800293 -147.898925781250 3.481946706772
-42.268028259277 -78.060775756836 -151.803298950195 2.228496074677
9.688415527344 -75.592277526855 -149.840484619141 4.738713741302
-68.175132751465 -76.650718688965 -147.405044555664 1.476283311844
-64.428375244141 -79.385101318359 -151.465133666992 3.557100534439
0.906004011631 -78.212677001953 -157.730255126953 2.578832626343
-44.338851928711 -72.214172363281 -162.261001586914 0.783719539642
28.592159271240 -76.449234008789 -164.216140747070 0.747869849205
-63.324050903320 -71.411727905273 -162.621261596680 1.427979350090
-55.608444213867 -78.996704101563 -159.988891601563 5.809500217438
13.916737556458 -82.327186584473 -155.201538085938 8.379526138306
-29.902187347412 -75.821678161621 -162.773651123047 3.231401443481
-28.204046249390 -80.304832458496 -160.874435424805 6.129869461060
14.411426544189 -80.398956298828 -170.299667358398 4.516383647919
-44.441242218018 -80.407852172852 -167.064224243164 3.325446844101
-10.283125877380 -79.772598266602 -167.146545410156 2.595153093338
-66.767448425293 -72.425224304199 -164.913879394531 0.696008741856
-8.013177871704 -75.279289245605 -169.798934936523 0.990702986717
-21.608602523804 -77.814979553223 -174.570953369141 3.056372880936
21.703834533691 -75.604888916016 -180.572067260742 2.302672624588
-38.924774169922 -79.367065429688 -166.643341064453 1.522964119911
21.540786743164 -74.177871704102 -171.061294555664 3.583069801331
-23.088096618652 -73.679626464844 -180.930023193359 1.673074483871
-32.280750274658 -80.422355651855 -171.394790649414 2.076712608337
-148.917510986328 -70.885986328125 -185.071975708008 1.884520769119
-17.546411514282 -83.230308532715 -178.113021850586 1.864815950394
-140.277923583984 -72.702926635742 -181.624221801758 1.852533221245
-155.050277709961 -74.738342285156 -178.586318969727 4.581677913666
-50.586952209473 -75.050697326660 -183.085769653320 1.518110036850
97.681144714355 -80.731262207031 -192.718582153320 5.824509143829
-145.492935180664 -75.972305297852 -181.580535888672 1.920828580856
-145.308532714844 -71.963798522949 -187.251113891602 1.680071234703
22.290443420410 -77.102661132813 -191.862350463867 1.525157809258
-139.710968017578 -75.445632934570 -187.438919067383 3.687086820602
11.859562873840 -74.476325988770 -194.979141235352 1.232398152351
-138.466598510742 -78.532554626465 -191.655044555664 4.068360328674
12.598863601685 -74.396438598633 -193.615005493164 2.018755197525
-133.009078979492 -70.958625793457 -186.803298950195 7.983342647552
3.954972982407 -74.590850830078 -196.905792236328 5.792188644409
-153.142120361328 -74.527587890625 -193.155303955078 3.398239374161
94.666870117188 -81.563629150391 -204.687408447266 4.750296592712
-18.352792739868 -81.271118164063 -204.215240478516 2.323399066925
-31.508899688721 -76.685989379883 -203.682571411133 2.191438913345
-13.281074523926 -72.333145141602 -200.194442749023 2.307798385620
-145.802719116211 -80.229072570801 -201.908676147461 2.727520227432
-36.348571777344 -77.687057495117 -197.049575805664 1.287874460220
-85.424827575684 -78.608940124512 -195.260742187500 15.099171638489
-27.884143829346 -79.707458496094 -202.573150634766 4.048485279083
12.662512779236 -79.986022949219 -210.051528930664 1.379721879959
-147.149520874023 -72.004837036133 -207.158172607422 1.538868427277
-90.048637390137 -79.391197204590 -212.753967285156 2.942854642868
-30.383525848389 -76.826515197754 -215.234252929688 1.497465968132
-28.968582153320 -78.314086914063 -215.625534057617 1.323283314705
-8.323049545288 -80.613349914551 -203.459777832031 5.644313812256
-28.226034164429 -77.087539672852 -201.630386352539 3.885903358459
-85.999038696289 -77.106475830078 -215.717651367188 1.389316678047
-91.944587707520 -82.810523986816 -212.842422485352 6.264668941498
-23.967796325684 -77.480575561523 -216.834823608398 1.460826516151
-3.598809003830 -88.977348327637 -220.648040771484 8.883327484131
-158.626113891602 -77.256057739258 -208.467559814453 6.565102577209
-3.826656103134 -80.706939697266 -217.249832153320 1.343073248863
86.663482666016 -86.880638122559 -225.671752929688 10.458806991577
-140.097656250000 -78.041687011719 -214.380783081055 4.698268890381
-4.192613124847 -79.507530212402 -215.875106811523 0.697923958302
-140.266128540039 -77.079765319824 -217.181976318359 5.348661899567
-148.686660766602 -83.735404968262 -216.030746459961 2.320026636124
-6.983205795288 -77.890335083008 -223.027160644531 1.771907210350
21.585153579712 -80.903053283691 -208.725738525391 4.663280487061
-139.866287231445 -73.060539245605 -221.026611328125 3.530970096588
-19.852874755859 -80.728675842285 -222.167144775391 1.909557342529
69.416732788086 -82.347373962402 -221.935699462891 11.736770629883
72.750411987305 -81.910491943359 -231.549301147461 7.321125507355
9.430253982544 -82.031608581543 -225.141738891602 2.495104312897
-37.051551818848 -79.589698791504 -229.705749511719 9.693088531494
-26.910675048828 -87.829193115234 -237.114517211914 8.264829635620
0.311363995075 -77.657913208008 -238.497756958008 0.831519067287
-48.174385070801 -72.815505981445 -238.007141113281 2.740699291229
-22.166837692261 -76.321746826172 -237.638870239258 2.387273073196
9.136982917786 -75.853698730469 -233.434875488281 0.902185499668
-64.939994812012 -78.322959899902 -239.148590087891 7.395393848419
-39.216861724854 -84.340652465820 -238.081756591797 5.782586097717
-39.410701751709 -77.128417968750 -239.776748657227 2.461307048798
-149.147857666016 -72.530387878418 -237.281326293945 3.090189695358
-46.460105895996 -81.823570251465 -242.722793579102 2.265078783035
-53.966087341309 -68.963684082031 -241.073150634766 5.536471366882
-67.351455688477 -77.339729309082 -242.000274658203 5.139745712280
-12.399957656860 -84.489089965820 -239.683380126953 8.868052482605
-80.581390380859 -79.283843994141 -248.833541870117 4.157954692841
-159.033050537109 -82.126968383789 -243.807296752930 8.356125831604
-142.048995971680 -73.859169006348 -244.523651123047 2.545272111893
-122.716606140137 -78.393981933594 -249.999069213867 5.847446441650
-161.455535888672 -71.455863952637 -248.274337768555 2.197737216949
15.996598243713 -88.230354309082 -262.680816650391 4.939824104309
-17.495384216309 -82.194404602051 -263.731414794922 6.672288417816
-158.340911865234 -78.754150390625 -265.893005371094 4.997869491577
-155.930221557617 -83.403816223145 -269.880859375000 4.130794525146
-149.016357421875 -78.343032836914 -277.212097167969 1.831281304359
-61.314613342285 -72.928237915039 -272.387115478516 13.040207862854
-41.424114227295 -72.717758178711 -279.546203613281 5.845174789429
-19.962987899780 -77.065605163574 -284.764953613281 3.427182197571
-10.996839523315 -74.909286499023 -272.315490722656 2.605694293976
-69.160118103027 -82.047164916992 -278.029418945313 9.808776855469
-84.289901733398 -83.218330383301 -278.746002197266 10.272064208984
-4.369850158691 -81.133697509766 -276.548980712891 1.530909538269
-1.017184972763 -82.136131286621 -288.113037109375 5.473736763000
-143.261276245117 -74.465415954590 -276.746246337891 2.362385272980
-83.771644592285 -73.802459716797 -278.519866943359 7.113103389740
-149.609344482422 -74.588264465332 -278.600219726563 2.592796564102
-97.684280395508 -88.090599060059 -277.225128173828 15.853769302368
-81.498847961426 -77.200263977051 -277.998779296875 7.568834304810
-89.377807617188 -74.632614135742 -289.637359619141 2.598872423172
-66.587715148926 -77.921211242676 -285.532806396484 2.357326745987
-34.272258758545 -71.709487915039 -290.371215820313 1.640102863312
-12.289995193481 -79.367721557617 -285.043304443359 3.886282205582
-153.301040649414 -68.016311645508 -291.594909667969 2.752940654755
-151.096084594727 -73.356292724609 -292.356018066406 2.305701017380
-146.554092407227 -74.507949829102 -297.439727783203 1.391308426857
-161.533798217773 -75.336021423340 -295.371154785156 4.180465221405
-53.127262115479 -69.525016784668 -50.314563751221 2.874904155731
-45.851833343506 -73.477401733398 -46.856796264648 4.454310894012
-36.767795562744 -76.326766967773 -47.493358612061 5.347272396088
-74.937980651855 -76.672164916992 -56.412944793701 1.087792634964
-26.674757003784 -73.026702880859 -59.874649047852 2.469958305359
-33.110759735107 -73.853927612305 -74.268783569336 4.358951091766
76.193099975586 -82.846855163574 -80.631729125977 6.785464763641
77.384292602539 -78.062026977539 -76.090019226074 3.339600563049
74.266487121582 -74.781951904297 -80.370231628418 1.839315772057
103.181442260742 -74.746170043945 -88.304527282715 3.090777873993
69.356277465820 -80.712036132813 -85.847892761230 5.514077186584
48.923904418945 -81.008476257324 -84.354499816895 9.939711570740
54.371707916260 -84.315933227539 -98.240142822266 7.466932296753
-64.334129333496 -72.233177185059 -96.276039123535 1.630944132805
-72.631896972656 -69.255516052246 -96.136230468750 4.233516693115
46.562934875488 -79.062690734863 -99.352981567383 1.336349725723
-80.507957458496 -80.179168701172 -103.531188964844 2.667147159576
-90.966308593750 -71.555473327637 -103.003974914551 3.336017370224
52.923892974854 -77.859230041504 -105.627357482910 1.489426970482
108.750373840332 -78.386329650879 -114.872367858887 4.524667739868
34.421375274658 -79.816101074219 -122.794212341309 1.717960476875
43.333778381348 -79.633712768555 -114.801567077637 1.063341021538
40.871906280518 -75.718978881836 -118.640007019043 3.052673578262
31.425903320313 -79.364852905273 -117.425437927246 3.675133228302
110.618858337402 -79.842430114746 -119.546714782715 3.718996286392
40.108486175537 -81.434188842773 -128.324295043945 3.592747449875
36.796932220459 -72.955162048340 -129.035293579102 2.464606285095
-42.978466033936 -73.986373901367 -135.673736572266 4.475555419922
-68.947204589844 -78.871154785156 -136.089141845703 6.477783203125
-51.902534484863 -74.463516235352 -143.945022583008 2.306773662567
-74.898750305176 -80.436973571777 -139.117355346680 5.574587345123
-37.114215850830 -75.824386596680 -142.311721801758 6.960573196411
105.831306457520 -81.391281127930 -155.634384155273 6.828393459320
-71.277091979980 -77.873573303223 -150.090240478516 2.451839208603
23.822059631348 -83.975509643555 -141.379180908203 5.877851009369
28.067752838135 -80.991455078125 -144.756057739258 3.422781705856
110.509780883789 -84.523635864258 -161.339447021484 7.885442256927
10.153740882874 -81.722961425781 -154.682464599609 6.204210281372
34.141792297363 -75.147346496582 -151.578918457031 2.065791845322
-62.176750183105 -78.685829162598 -153.128417968750 4.146425724030
-39.710002899170 -79.048889160156 -168.975967407227 0.217116534710
22.343755722046 -78.286750793457 -158.976928710938 0.379419654608
-65.042106628418 -74.293891906738 -148.782608032227 3.038505077362
-70.352844238281 -75.353775024414 -159.252227783203 1.778407573700
115.470474243164 -83.400421142578 -164.211181640625 6.646279811859
-8.336709022522 -79.168647766113 -159.331954956055 7.702151298523
-66.279235839844 -73.615684509277 -164.501785278320 1.659061074257
-36.102558135986 -78.901725769043 -160.420257568359 1.165744781494
-53.958625793457 -74.686706542969 -165.143493652344 4.495949745178
31.012245178223 -77.526611328125 -172.412094116211 2.236278533936
111.705970764160 -77.548744201660 -170.790344238281 2.508403301239
101.778465270996 -78.713806152344 -181.123611450195 2.630962133408
103.755622863770 -80.174621582031 -187.072174072266 3.029910087585
106.327766418457 -77.529777526855 -173.568588256836 2.492556095123
-51.241428375244 -74.771377563477 -187.025756835938 1.126281023026
-47.105369567871 -72.417549133301 -177.502975463867 6.277070522308
27.446033477783 -78.120841979980 -179.748153686523 1.367868065834
-47.779830932617 -75.053794860840 -179.028976440430 3.881414890289
-21.267824172974 -77.346099853516 -178.250961303711 1.439337134361
-51.741661071777 -80.169273376465 -185.223007202148 1.286193966866
-152.845077514648 -72.297622680664 -183.810562133789 1.341380238533
100.201972961426 -83.638328552246 -189.830810546875 6.991075992584
-44.708496093750 -73.310829162598 -189.383544921875 2.630498409271
-12.306389808655 -79.527999877930 -194.426879882813 5.039260387421
-139.706649780273 -72.986778259277 -183.693374633789 3.514902830124
-41.345306396484 -73.945083618164 -193.549392700195 3.253554821014
99.955253601074 -79.002388000488 -193.879440307617 3.296670436859
107.699554443359 -78.285430908203 -182.445968627930 2.443971633911
-43.030784606934 -76.350318908691 -189.234130859375 2.548556804657
-23.061710357666 -86.258186340332 -194.340133666992 6.412727355957
-147.563766479492 -76.817161560059 -191.840820312500 3.147974729538
-25.737684249878 -76.558219909668 -189.347732543945 0.862546443939
-161.444869995117 -73.763626098633 -187.475219726563 8.391874313354
-153.769104003906 -82.458518981934 -196.950988769531 1.853132247925
-146.233612060547 -76.440193176270 -193.304534912109 1.782022714615
-39.441780090332 -77.954147338867 -195.555801391602 1.972470998764
101.039024353027 -82.544914245605 -201.560653686523 4.714113712311
-43.374546051025 -74.478790283203 -194.075347900391 2.440503835678
-142.936752319336 -78.337310791016 -196.331268310547 2.046724081039
-37.949977874756 -72.238937377930 -199.491333007813 2.497307538986
-24.026988983154 -84.172393798828 -204.330154418945 6.304359436035
97.017478942871 -84.554244995117 -203.478347778320 7.777700424194
88.465454101563 -83.024566650391 -212.728302001953 6.159522533417
-39.447528839111 -74.902191162109 -211.423690795898 4.334030628204
-89.691986083984 -77.625823974609 -202.521331787109 9.886662483215
-76.880004882813 -77.700752258301 -204.868530273438 2.755580186844
-20.620927810669 -77.721832275391 -202.890365600586 1.959305286407
-150.880752563477 -76.963409423828 -191.496871948242 2.741951942444
91.001892089844 -79.928108215332 -211.611541748047 3.230989456177
87.079010009766 -76.410079956055 -215.177932739258 2.880916595459
88.225418090820 -81.766998291016 -218.389541625977 5.737702369690
-104.264305114746 -77.176147460938 -210.320983886719 10.072275161743
-156.689849853516 -76.823722839355 -211.676025390625 4.834931850433
-21.844017028809 -75.409660339355 -219.084259033203 1.095013380051
79.574943542480 -76.301055908203 -225.209991455078 1.427701950073
-151.994903564453 -79.088745117188 -212.048080444336 2.700974464417
-31.012258529663 -79.391532897949 -210.753646850586 1.512893676758
-136.195755004883 -72.783119201660 -225.444396972656 2.683883905411
-12.725441932678 -81.569038391113 -227.133804321289 3.953088283539
15.416546821594 -77.481193542480 -225.893829345703 1.518811583519
18.606346130371 -80.207237243652 -229.323593139648 2.366281270981
-157.617584228516 -77.614082336426 -227.101425170898 3.634857416153
-128.376251220703 -70.464813232422 -224.666244506836 0.685294926167
