# This PCD file was generated using the MATLAB® pcwrite function
# from Computer Vision Toolbox®.
# .PCD v.7 - Point Cloud Data file format
VERSION .7
FIELDS x y z
SIZE 4 4 4
TYPE F F F
COUNT 1 1 1
WIDTH 1414
HEIGHT 1
VIEWPOINT 0 0 0 1 0 0 0
POINTS 1414
DATA ascii
-156.590729 -76.788696 -266.360840
-170.797943 -79.545944 -273.392059
-158.972046 -81.306953 -261.658600
-168.362183 -74.608871 -274.323212
-4.030878 -78.838951 -280.984009
3.536668 -80.356895 -275.235748
-111.423294 -73.876366 -281.528656
-161.148041 -85.820969 -272.598083
-151.752472 -74.227554 -270.032501
-109.587959 -75.062485 -280.534241
-158.024170 -81.781364 -278.711761
-152.113297 -83.032280 -273.638336
-80.974617 -80.490211 -283.491943
-173.017166 -80.856758 -272.694733
-126.567131 -72.147339 -278.490509
-46.547047 -80.913254 -276.197449
-154.182373 -76.980270 -272.474060
-134.957458 -70.934448 -280.295166
-25.549992 -71.760994 -288.266846
-134.097260 -71.756226 -279.352966
1.832338 -75.666992 -289.977051
10.466660 -70.648666 -287.407288
-137.420685 -71.408775 -276.659821
-149.946411 -79.888237 -284.936279
-161.842239 -82.408646 -300.998840
-61.934818 -68.008812 -43.444584
-12.839252 -65.198387 -60.509090
-10.057441 -76.433456 -58.539635
78.248711 -67.943344 -78.275482
98.007423 -69.356178 -75.867599
-27.790035 -73.141823 -72.997902
84.297646 -69.364311 -80.718445
98.267372 -74.813194 -83.246468
72.969147 -71.479858 -83.187744
80.743729 -68.954071 -90.724472
-42.412922 -73.561882 -76.048866
-84.129158 -77.480644 -79.396523
66.849274 -75.013138 -92.187393
57.306831 -74.470734 -98.379143
98.736610 -65.468719 -102.764877
-83.264801 -67.483383 -90.982986
85.632439 -64.095375 -100.373932
77.608879 -71.947510 -100.949623
97.903107 -73.970718 -97.992149
90.943352 -71.233047 -95.295517
86.133270 -74.169624 -98.676064
-83.213768 -76.211182 -92.103584
51.417603 -67.623611 -101.199692
110.578224 -72.141167 -111.673523
112.185539 -71.435226 -111.610878
56.299728 -75.848129 -118.914001
119.834679 -74.792145 -120.149170
122.403740 -74.972794 -136.820465
-45.072281 -69.913986 -119.948288
32.619576 -71.541237 -131.403336
46.150463 -76.562134 -130.932281
28.456383 -69.043037 -137.672760
117.199089 -75.706390 -137.512009
116.141624 -72.685501 -130.537582
-69.541290 -73.568092 -138.625275
-38.883442 -71.864372 -131.252518
-67.753151 -71.518776 -143.774551
21.824627 -69.514221 -142.869812
115.439728 -66.701294 -148.565521
-50.642582 -75.949402 -144.259552
-69.257538 -72.796989 -143.353699
-35.588055 -76.898689 -143.071640
34.623577 -65.292168 -150.820282
111.492966 -65.578270 -150.981415
120.448311 -69.139297 -164.222153
-64.883644 -70.021576 -147.282410
-72.843185 -77.284210 -149.792191
25.070021 -78.071381 -159.478012
-57.669136 -70.669685 -158.328217
-29.353910 -70.036873 -156.802856
11.920313 -74.775917 -159.572937
109.324593 -66.855919 -162.321503
13.947874 -77.458496 -164.419983
-29.315319 -73.473007 -158.756927
-1.542210 -65.518074 -158.555618
108.603508 -65.517960 -166.990860
-38.957508 -70.576050 -154.676163
33.218201 -69.128326 -170.644623
117.695038 -76.496628 -173.714432
-54.806511 -69.558769 -166.628159
-25.313587 -77.445030 -169.190689
103.020187 -71.877541 -175.168106
32.140987 -68.838593 -163.115311
104.830414 -72.646950 -176.917831
-34.897903 -67.761200 -172.387436
112.366394 -75.726456 -181.952805
-61.974072 -69.355751 -168.420807
-23.618546 -78.442635 -170.190613
-146.287125 -67.284096 -170.976501
-51.754646 -72.317131 -169.427963
-145.642426 -75.932762 -171.561905
-33.704491 -70.344238 -175.050247
32.678532 -78.922760 -173.323959
106.980064 -72.293755 -184.479111
-35.845325 -71.955719 -173.193726
11.514572 -72.979790 -186.176773
15.855657 -71.880592 -202.087204
-148.078400 -75.963989 -172.738708
108.385452 -75.069069 -197.007355
-23.343805 -70.739365 -185.782547
101.623566 -72.877319 -186.876846
12.613544 -68.728096 -186.282471
-141.194885 -75.204506 -193.083405
-135.922348 -73.794167 -185.561172
104.133308 -75.990143 -202.309235
-10.745324 -78.209244 -193.415115
-17.286596 -73.396126 -198.586700
12.337317 -75.534599 -202.739136
-149.154938 -74.857109 -192.047348
-146.112534 -76.663628 -196.202789
101.836082 -63.352139 -206.791550
-85.517471 -73.944618 -196.476761
-33.811768 -75.098083 -192.279694
20.868343 -76.974762 -211.869904
-23.901949 -73.947739 -203.703568
-73.359459 -71.551086 -194.589828
91.216522 -71.363014 -208.422150
-78.214233 -70.577507 -201.878845
-148.399033 -74.844475 -205.257645
-80.269974 -71.688629 -201.793701
-10.374666 -65.422913 -200.069550
-20.732330 -69.542122 -214.062454
18.262615 -73.461235 -210.938446
-5.411268 -74.805077 -217.604156
-88.462173 -81.880028 -208.601181
93.156647 -69.899330 -213.860306
-100.943970 -72.253639 -203.725128
-155.199142 -72.659988 -211.329010
-31.702803 -72.470001 -217.663910
19.617472 -74.104675 -211.098587
-102.374458 -75.682869 -208.408875
7.073962 -66.390190 -211.590195
-27.933859 -72.921066 -206.840652
81.356560 -68.398079 -224.472794
-143.893921 -72.828926 -202.263153
15.698474 -71.815353 -221.254761
-10.149571 -77.326599 -222.953842
17.146545 -62.902851 -219.614548
83.555023 -73.049438 -222.353333
-15.646117 -77.778900 -223.115173
-130.784164 -77.785072 -213.986130
-16.105970 -72.413361 -217.509232
15.896749 -71.712006 -223.596771
-128.704407 -78.749603 -213.803848
-155.200500 -71.353241 -217.289948
-144.085068 -73.836098 -215.262146
-127.524498 -72.088242 -212.483429
-11.034406 -68.862823 -217.378922
71.179169 -71.111794 -225.181564
-146.448853 -69.615898 -227.049698
66.583374 -72.429230 -226.245163
-22.432138 -77.943436 -225.213562
-143.101685 -78.135818 -213.495697
75.353256 -81.262238 -228.279953
9.666945 -78.743851 -226.168365
-140.148819 -78.962410 -222.850250
-150.063492 -74.331619 -218.361511
17.191792 -67.070770 -225.666260
-3.633656 -77.584923 -234.164093
-31.863798 -71.875572 -229.151138
-2.695275 -67.028915 -229.835999
-161.344727 -79.824791 -222.966766
3.036584 -69.426247 -236.870285
-166.081421 -77.505783 -226.763519
-12.637261 -74.140305 -231.016434
55.864048 -72.858765 -236.843719
-14.977123 -70.870682 -229.250854
-26.966572 -73.017944 -241.748657
-25.501907 -72.601654 -234.653854
-10.987809 -78.115997 -233.236832
-146.791092 -76.445961 -212.566589
6.209469 -70.873795 -235.757645
62.201664 -71.264725 -243.445251
14.364826 -68.604149 -240.541046
-171.863739 -73.362724 -227.902054
-53.396961 -72.294540 -229.018555
3.884279 -80.341370 -243.987518
15.893067 -73.007835 -238.042572
-55.332844 -73.440300 -238.784363
-3.668726 -66.101563 -245.397476
18.669008 -81.260147 -244.736771
-175.089325 -72.535751 -233.577423
-65.892281 -79.043091 -240.209244
-54.662693 -70.998863 -239.168259
-85.668503 -71.677200 -243.228241
-163.898422 -77.760849 -230.967728
-152.397186 -63.932777 -232.664566
-62.699085 -76.367004 -240.739441
-70.380203 -73.221222 -238.655060
-155.574112 -72.134079 -237.271622
-153.971527 -77.242737 -237.553436
-76.389275 -67.751358 -245.384674
-95.930984 -69.972794 -246.337753
-164.778488 -67.001595 -239.282272
-160.113266 -76.154114 -247.300873
-138.129700 -77.812408 -247.750824
-85.233673 -73.153923 -238.551117
-163.561447 -70.261276 -239.057907
-143.810471 -71.535110 -243.639420
-86.297058 -72.720154 -236.740494
-100.500420 -72.259445 -251.293945
-144.113556 -76.716194 -240.933304
-94.091377 -73.975853 -244.611404
-157.745819 -72.484367 -240.379852
-106.708603 -73.839577 -242.452667
-174.610779 -74.049736 -242.917297
-165.263657 -78.325104 -252.727737
-130.785614 -80.470680 -242.748306
-155.256332 -76.103088 -245.192642
-111.455330 -69.494888 -251.444397
-16.485481 -69.898430 -255.758255
-142.750290 -74.562134 -246.629074
-129.910950 -73.488159 -247.117569
-155.523895 -72.371124 -249.289505
21.983822 -73.531677 -268.909912
-153.584549 -78.585266 -265.481598
-173.143219 -76.125687 -267.900726
-13.091934 -70.881111 -273.789124
-148.013519 -73.959496 -264.891144
-15.373796 -70.418663 -277.624756
8.702909 -74.179115 -282.266022
-141.275284 -71.493011 -272.268005
-68.995155 -77.200821 -278.366852
-37.464149 -77.460320 -282.468445
-115.726273 -75.002205 -269.628571
-102.005913 -80.863174 -278.545471
-92.216415 -75.147507 -280.992615
-55.885441 -75.680313 -284.469727
-119.763458 -82.297844 -274.053345
-120.700073 -76.858604 -277.929840
-38.238930 -69.190773 -279.659698
-121.619110 -76.903618 -281.963409
-133.253311 -68.290436 -275.233398
-149.413116 -78.984871 -280.980286
2.587119 -73.360207 -285.266388
14.611643 -74.987076 -288.145599
-166.693604 -74.972488 -276.859375
-166.334656 -80.787590 -285.832214
-154.477676 -77.433952 -295.349762
-158.828384 -74.842102 -295.409454
-158.293167 -75.539047 -300.514709
39.787922 -76.031845 -9.729886
48.035858 -66.625732 -17.232414
32.289104 -70.781799 -22.256311
39.836487 -66.513306 -35.823261
-49.479946 -71.235298 -42.032536
-54.722061 -72.137489 -42.102112
-29.301773 -77.358757 -40.731598
-79.067581 -64.207687 -57.226528
88.021156 -74.033401 -75.697540
-3.184089 -66.079750 -65.848785
98.458199 -70.425323 -61.575920
109.524910 -69.562645 -75.787949
-83.233749 -69.187576 -63.581978
72.862915 -70.429520 -79.350075
-31.454073 -76.084778 -79.941780
109.836327 -70.014748 -81.044044
-50.778286 -68.291374 -79.561546
56.561157 -71.563148 -88.644432
77.056221 -79.593224 -88.535759
60.152122 -68.775833 -93.384758
59.471889 -72.420830 -97.048698
82.990036 -75.033676 -95.793182
53.733475 -69.709885 -107.818115
103.205940 -70.984467 -103.397621
111.115738 -76.840630 -109.437729
82.823265 -68.177414 -103.555367
101.290619 -71.850342 -106.282372
106.851685 -70.668289 -93.376999
116.702705 -72.037941 -106.040756
46.256245 -69.613174 -104.085426
119.681923 -66.897568 -118.962105
120.389870 -72.189316 -121.539116
34.636436 -68.366074 -121.786888
50.178997 -73.074593 -115.301598
120.076569 -71.607147 -135.058609
37.983784 -70.233856 -123.709389
122.857521 -77.447922 -128.401627
112.676186 -72.552284 -123.997467
32.397820 -74.514664 -129.411865
-41.358051 -73.181900 -125.011559
-47.167919 -70.158287 -126.199562
116.161980 -70.328087 -137.257370
-62.018883 -79.315445 -129.742523
-66.098900 -73.361153 -131.148926
-55.925629 -73.042358 -129.527756
34.209393 -72.992859 -142.396912
124.652924 -74.387527 -149.722000
-66.592224 -67.879517 -138.915268
-45.458702 -73.513641 -132.449417
36.052483 -72.005219 -150.342987
-64.245720 -74.619217 -138.462006
118.753540 -68.990173 -140.473038
114.216713 -67.906059 -159.444977
119.848526 -72.254120 -156.840866
-34.725754 -76.987236 -144.574356
-60.341309 -72.422729 -157.176758
-62.410938 -66.622375 -149.059158
32.547710 -73.153046 -139.400833
1.253842 -74.887558 -156.420959
113.424850 -68.893318 -164.626297
115.997505 -67.885506 -153.448898
116.122345 -76.093292 -161.606842
-58.711391 -69.978798 -148.192871
-41.638363 -75.680305 -161.047165
-1.221722 -71.863327 -159.720337
-29.435780 -74.090149 -168.040344
108.134346 -69.201103 -169.376862
-28.177122 -78.234055 -152.602036
111.202454 -68.434250 -168.162354
-39.186878 -73.143303 -167.045044
110.141930 -67.331917 -171.868835
-151.591949 -75.993156 -163.977295
-22.689199 -66.691490 -171.253540
-16.958048 -73.455139 -178.020691
27.065317 -77.234360 -172.945816
15.828463 -70.371704 -180.026825
31.352762 -72.887283 -179.183762
103.605064 -79.074310 -185.928940
-150.259369 -69.276810 -168.638184
-16.545816 -75.562302 -174.424500
102.895683 -73.845985 -179.303146
104.306259 -65.443474 -189.643509
112.189262 -73.673462 -177.035614
102.314255 -73.482986 -193.500854
-149.191010 -72.310806 -184.864777
99.973404 -72.121567 -207.601303
-26.975578 -70.351105 -192.820343
97.071693 -71.269264 -194.255859
-116.765373 -80.212639 -190.225494
-28.321384 -78.863533 -180.373566
-141.570923 -67.336655 -184.687607
97.515213 -71.283905 -197.617081
9.280692 -72.416618 -195.278793
26.540218 -69.131744 -187.227417
-148.142731 -77.320709 -191.060257
-135.658325 -73.797256 -189.592606
-8.605577 -72.264732 -203.960114
-123.317932 -73.422020 -193.931152
-143.103622 -75.689781 -181.758362
1.204146 -73.363205 -192.877151
-25.579744 -75.648827 -192.779419
22.480764 -77.331993 -196.715179
5.246228 -75.072708 -208.774277
81.569801 -65.936516 -208.924683
-17.115608 -69.240807 -205.800293
90.587906 -67.744164 -209.235184
99.385574 -75.442810 -207.533875
-147.013321 -77.001999 -199.285812
95.267548 -75.047066 -211.918137
4.450838 -69.819145 -200.294327
2.141165 -75.249420 -209.274887
-30.515261 -72.449394 -197.962219
-88.894211 -73.102432 -202.133759
-23.561905 -76.237343 -202.612442
85.650269 -69.485756 -218.328171
91.470184 -70.138885 -214.849228
-30.586693 -71.438988 -204.046600
-83.370438 -68.652550 -210.192322
0.498654 -75.006264 -214.603470
76.934608 -65.230522 -210.130737
-152.662003 -82.689270 -206.770203
-166.168106 -72.460121 -199.328339
-164.121994 -80.468399 -206.533096
-22.178312 -75.648491 -220.410217
-155.074951 -81.292633 -207.713394
-3.937763 -73.029465 -217.967270
5.517495 -75.328941 -213.549164
-170.622696 -75.190987 -211.432816
-156.321060 -75.147888 -214.409409
77.628181 -77.040726 -231.805176
-2.758791 -72.384506 -219.963333
-160.740967 -66.476128 -212.079163
-142.883713 -78.421318 -208.780731
-18.774807 -70.372810 -217.174957
-2.984804 -77.739090 -214.043304
78.919670 -67.173500 -226.931458
-161.190720 -72.022392 -213.238953
-141.482330 -70.524345 -220.433319
-126.887581 -71.660957 -219.601379
77.073242 -75.412590 -224.938354
-116.437042 -74.820755 -217.547958
-143.098389 -74.570770 -216.033447
-152.194839 -72.869949 -218.312378
-150.985153 -76.094795 -218.375244
-156.090714 -76.379395 -214.898132
-165.059082 -76.129997 -213.324738
-133.030975 -76.355644 -225.055710
-133.861069 -75.990608 -220.826340
-151.882584 -82.588120 -219.973770
-146.661652 -69.687309 -224.931656
-151.367188 -76.236626 -221.952652
75.022453 -75.966270 -233.095230
65.877060 -63.343212 -232.695328
-155.147522 -72.342323 -221.190414
72.369667 -64.343124 -231.997665
-22.051783 -69.734375 -229.798645
12.007694 -75.296204 -234.347595
7.282001 -73.497284 -230.994217
-157.545731 -75.279320 -226.220245
15.225117 -71.721657 -237.123886
56.916611 -69.501129 -237.004303
11.835845 -68.491302 -233.970932
2.933700 -72.614708 -236.129959
-8.007051 -68.293602 -233.540161
-23.647989 -70.586998 -236.433411
-4.136541 -73.085625 -234.533371
3.725395 -77.031738 -241.876785
56.110336 -74.079269 -238.508575
-55.624107 -80.639122 -236.396240
19.048313 -71.171234 -244.441696
-58.565414 -74.327568 -230.675156
-12.740742 -73.556633 -242.379379
-69.254807 -68.503517 -241.701416
-87.615326 -69.869202 -244.578705
-84.112938 -76.442162 -244.850479
-9.472759 -72.118790 -251.762009
-125.607018 -75.095726 -250.605072
-15.762938 -73.821297 -244.617126
-118.772003 -74.253296 -242.244019
-120.683617 -72.237091 -247.058594
-105.817772 -74.349815 -242.536301
-145.017563 -73.011887 -246.054565
-147.015091 -74.835037 -255.373169
-171.687881 -75.608147 -247.997574
18.795507 -78.152786 -276.724182
-65.383522 -70.682213 -276.105194
-72.320366 -72.683563 -272.215393
-45.775108 -76.080086 -274.001190
-30.088558 -74.033882 -281.009399
-99.420891 -78.460114 -280.897461
-36.024200 -70.733589 -276.930023
-7.204273 -72.397705 -279.723785
-171.108765 -76.120094 -275.171661
-23.940022 -76.820213 -278.478790
0.927060 -74.627022 -282.724823
10.554125 -80.146507 -273.829468
-60.736557 -78.796074 -275.767792
-40.520741 -75.642601 -284.947723
9.959929 -70.275436 -289.797546
-76.471184 -71.463097 -285.279510
-47.576786 -69.294525 -279.630920
-22.358616 -70.582031 -282.704071
9.621211 -76.452789 -287.348724
-16.972282 -76.784935 -290.469086
0.266977 -71.984428 -290.478027
10.592883 -77.188347 -283.127197
-139.156525 -74.180511 -281.220001
-149.536316 -78.460381 -283.640656
-160.124710 -74.644417 -299.443451
57.499866 -69.286453 -12.011843
41.540142 -70.239037 -8.215574
52.411861 -70.566292 -11.997778
34.952404 -64.629868 -13.970587
57.187477 -66.292236 -21.344946
37.709343 -66.282799 -22.133955
34.639915 -70.531738 -22.279406
37.835670 -71.557602 -38.800808
47.084248 -74.884644 -27.958956
36.335323 -76.935799 -34.485165
54.522411 -67.884315 -38.218803
42.547592 -71.162621 -38.778820
52.186020 -72.774994 -32.344406
40.869083 -68.275391 -36.828468
56.164764 -70.365089 -40.132370
42.341835 -69.298538 -33.477489
-33.053043 -70.785881 -39.434338
-19.305889 -64.717278 -43.136051
-80.953362 -73.452011 -42.586052
-81.680939 -72.947403 -56.156647
85.604263 -73.517181 -62.449062
92.818184 -67.765938 -72.683876
-13.176071 -68.759399 -69.431648
-79.243607 -69.722847 -62.210674
-16.619083 -69.336708 -70.132072
-41.405674 -73.533165 -76.479515
73.636642 -66.066681 -85.218155
58.876759 -68.096634 -92.085068
106.717522 -66.497238 -92.240715
75.779953 -73.351357 -95.919968
-63.196796 -71.765495 -78.858231
-51.415562 -66.791451 -90.830765
51.510620 -69.441895 -94.964348
84.394958 -67.013359 -96.373657
62.338402 -81.264137 -103.478806
109.187645 -69.020172 -95.568283
-87.611816 -76.277748 -96.946434
48.766502 -69.342415 -106.108009
114.021133 -71.234215 -111.121796
55.956245 -70.557442 -109.343513
106.101746 -71.642113 -112.236847
-78.261414 -70.944427 -108.217194
41.618866 -75.056671 -110.150208
113.586258 -66.700966 -117.756470
110.554253 -65.575180 -117.370537
109.020737 -70.121597 -115.935562
117.511284 -67.187828 -114.862106
48.447655 -74.717636 -104.200966
38.597664 -64.337753 -111.422920
44.506840 -69.802765 -108.504128
109.877480 -72.184250 -121.232803
47.426262 -67.592896 -117.682579
115.064796 -67.594604 -134.047318
114.420700 -67.466469 -132.249542
39.523888 -66.519653 -114.066231
-72.843704 -73.190178 -111.867195
116.491150 -64.460594 -134.492249
-47.461063 -71.973892 -130.140457
39.455196 -71.590416 -130.391800
-68.547829 -72.413391 -123.002182
30.107822 -75.059723 -124.926193
-77.074371 -73.589958 -134.225281
-40.788845 -75.566635 -133.811539
-71.386230 -75.504013 -128.978333
113.297493 -68.182892 -136.500931
125.688095 -66.043625 -142.684341
123.675621 -73.735352 -149.881866
-77.666489 -72.687935 -132.774948
9.847557 -65.642998 -145.498505
-45.603588 -72.399712 -138.491089
-48.639000 -73.596359 -145.975586
108.501740 -70.672592 -164.842361
-36.088322 -75.154572 -139.730270
18.247276 -66.971764 -154.056839
26.204813 -73.910347 -152.756149
117.175301 -66.903770 -166.575485
33.491161 -69.188034 -164.267563
2.501884 -73.351624 -158.299683
35.403561 -71.470184 -156.218155
-63.763832 -70.627220 -145.750381
-63.385555 -72.511131 -149.501251
-67.092499 -69.153252 -156.934296
117.364815 -64.018677 -163.064362
-41.514229 -72.658356 -154.783249
18.490154 -70.870644 -159.994827
-60.956944 -69.914452 -160.669205
-62.792767 -68.698479 -162.213821
-40.621777 -74.192497 -152.885590
-32.281082 -76.374588 -159.363617
118.854408 -73.105827 -172.726898
-35.585228 -63.320236 -175.146439
14.246714 -72.327797 -166.843643
112.114311 -73.630692 -187.804153
-144.210831 -75.928551 -161.727570
-143.660934 -72.367104 -156.742493
-143.683746 -70.477257 -168.202850
-139.699936 -76.865074 -170.925339
-31.351332 -69.468880 -176.747223
-21.519089 -72.629250 -178.065277
25.095118 -64.200844 -188.740280
-138.244949 -72.380722 -172.478424
-146.340561 -74.239647 -174.511887
-20.587299 -69.187737 -177.694809
10.668174 -70.474182 -177.406250
-149.238617 -73.257233 -181.586166
-29.996006 -71.366974 -182.438293
101.146019 -70.369690 -188.285950
106.051178 -66.916740 -190.128342
26.613659 -63.760227 -189.116898
-6.982513 -71.096390 -182.114746
-27.633198 -74.269012 -184.882263
-155.710037 -76.635567 -187.431335
-131.604630 -74.664322 -183.098846
-124.541718 -68.790527 -181.249115
-125.654137 -71.510483 -184.065384
-20.308661 -65.878410 -187.366364
16.560600 -74.750114 -186.914169
91.738373 -77.557823 -200.778397
-150.575424 -67.494888 -178.912338
-142.593719 -69.329178 -184.767975
-151.142593 -73.847023 -186.881195
-153.329041 -70.158325 -180.889191
-22.488253 -69.933533 -192.537018
-5.812514 -66.080078 -188.359756
-143.193451 -66.453285 -189.132446
-20.297270 -70.520432 -196.043488
-159.143875 -72.988472 -187.419861
-133.511902 -72.719727 -185.296356
15.205027 -75.749832 -201.818130
-157.726135 -67.943230 -189.412766
-145.652283 -76.440025 -192.427536
6.592464 -68.004112 -199.863602
-153.504517 -69.426430 -187.245499
-25.134785 -70.007744 -196.062836
93.100693 -71.702255 -198.354416
-160.120682 -75.873138 -194.255310
-163.206070 -79.719406 -190.053833
-74.366028 -69.174850 -195.414505
90.963257 -69.180710 -207.055710
-4.157561 -70.580978 -214.653839
-157.287216 -71.952850 -197.672760
-86.508247 -73.856644 -201.284637
-9.820266 -76.231918 -204.281448
16.279572 -70.362236 -212.258759
-143.659927 -74.257538 -207.263702
-4.356933 -78.789322 -214.725403
-16.266195 -75.024605 -208.604340
-14.887653 -67.639992 -215.387375
91.782898 -70.369484 -222.000992
-19.437347 -69.826347 -208.661316
-34.703327 -71.033096 -210.690826
-108.427139 -65.004738 -214.099777
-17.235075 -69.229797 -217.508224
94.587334 -67.582062 -218.676407
73.298325 -72.271729 -220.861572
9.171143 -72.965050 -212.945663
-12.314385 -66.722412 -219.228394
78.977013 -70.301636 -220.329865
-121.065582 -79.598991 -212.605362
-17.048553 -68.787445 -217.218277
-94.789299 -72.397858 -211.893982
-99.849098 -73.060371 -210.479370
-128.768570 -76.248497 -216.478683
80.498726 -71.406471 -221.932251
-122.804375 -74.666389 -214.613617
3.091079 -69.974800 -224.142807
81.716850 -68.353310 -223.984909
-17.997736 -73.726753 -228.737167
-15.309622 -72.903847 -217.524689
0.584114 -80.448288 -224.405518
11.755553 -75.079857 -223.005402
91.094574 -72.427307 -228.046387
7.996312 -69.179001 -225.682999
6.961487 -69.725441 -224.762451
-9.944149 -72.513405 -226.200134
-7.208796 -73.817047 -220.789398
19.840441 -69.737228 -229.476273
-13.585377 -67.180145 -226.260895
69.202759 -71.419807 -240.037491
-11.525995 -70.311600 -233.768661
18.434782 -72.277397 -231.175293
-160.380936 -70.638412 -224.138504
-7.368577 -67.952568 -229.109070
-7.963991 -74.754608 -232.463913
-168.948242 -75.930763 -234.399338
-12.823224 -68.538635 -237.375931
12.604278 -67.200783 -239.791687
-150.425568 -75.916489 -237.173309
-79.618210 -73.268356 -242.685120
-64.232544 -74.861435 -238.074203
48.733547 -66.533257 -244.304520
-73.640747 -71.858284 -235.690338
13.446682 -71.822884 -245.271820
-74.441353 -74.880127 -240.394608
-17.694284 -68.220009 -234.397003
-146.975479 -78.353973 -238.185669
42.185795 -64.875534 -248.552673
-83.774971 -78.318138 -247.090088
-105.742767 -68.279579 -243.674057
-103.069084 -75.048325 -242.459473
-124.232239 -68.623581 -237.673065
-108.711662 -67.614807 -245.436630
-106.935684 -71.752731 -245.065445
18.096882 -65.065102 -252.376358
-134.025681 -69.772903 -251.784210
-19.924644 -73.092567 -268.027100
-153.634323 -69.332916 -270.211700
-172.859222 -77.282745 -271.709076
-128.989334 -75.195053 -269.000458
-118.476044 -68.851791 -274.242279
-79.910728 -67.136887 -271.672638
-62.494682 -75.307037 -277.546082
-45.166214 -70.645973 -277.387604
-20.399635 -78.426308 -285.315308
-18.705671 -68.617081 -287.981476
-43.788654 -77.107086 -283.426300
-39.255333 -72.798950 -280.993256
-24.297573 -67.166054 -281.649963
-79.310135 -71.780693 -284.984741
-61.816254 -71.837067 -282.493011
-24.816298 -66.605667 -285.302399
-18.653749 -75.253502 -281.953613
-8.610572 -71.533997 -288.344543
-2.467665 -66.101158 -287.912567
-99.680328 -73.274345 -282.705994
-142.232574 -78.222969 -283.285736
-119.759529 -74.880852 -280.280121
-158.168793 -70.206841 -277.966888
-154.707520 -75.649551 -284.783417
-153.120682 -69.930382 -285.930603
54.033875 -63.923874 -20.878468
31.809572 -74.152191 -19.236893
61.656605 -62.762745 -21.009876
57.855942 -69.838310 -33.576839
97.080811 -67.550919 -72.619110
104.568291 -70.595650 -75.264824
109.848167 -68.575554 -76.299614
105.936783 -67.358978 -85.215256
62.419708 -69.906441 -88.486610
50.221092 -77.143723 -85.658340
70.832466 -67.347542 -89.284630
-58.464130 -68.874123 -85.307030
80.112854 -65.841057 -85.874657
105.937843 -57.034641 -100.656242
81.027672 -68.123154 -101.527382
99.148293 -66.275536 -104.120888
-81.566124 -71.910217 -95.594002
53.465694 -66.370193 -91.921371
-81.768364 -73.005905 -88.102303
58.274632 -69.789268 -107.644920
42.669075 -78.870743 -99.369774
104.495468 -66.513680 -103.740189
42.861275 -69.437714 -100.292679
51.656456 -72.179161 -119.670212
48.209278 -70.006615 -110.153069
118.498390 -66.022911 -112.039032
-74.269196 -79.202538 -112.103127
118.886566 -74.878761 -122.966980
47.892033 -62.883129 -122.852859
45.200710 -69.326828 -116.623711
39.586155 -70.512817 -115.795952
-49.190392 -78.076363 -120.588379
34.769375 -67.726463 -119.385216
-73.801079 -66.134216 -128.941360
-49.676647 -76.955902 -123.602821
-74.716782 -67.769157 -124.863838
42.370689 -66.430756 -129.638901
-55.250778 -73.882484 -124.269005
40.196995 -68.615509 -129.339615
-66.251129 -68.247513 -130.098022
-55.135746 -64.649208 -134.556778
26.450228 -71.563553 -141.653015
116.720688 -71.829109 -143.980820
118.888916 -61.711716 -139.378922
34.290421 -70.466331 -140.038162
-46.384460 -74.544830 -130.881500
107.279472 -64.936218 -153.792404
-72.728477 -71.081917 -131.984100
-54.116238 -70.685280 -133.079407
35.685780 -61.479813 -141.620499
-74.634636 -73.741943 -135.645447
-66.225906 -70.212479 -139.865402
116.949356 -75.078636 -150.410400
-60.941376 -68.504112 -146.798569
-36.062435 -65.427483 -143.444077
27.736692 -67.902054 -139.585114
-67.009483 -72.147125 -132.999344
16.238718 -67.953499 -143.490417
35.009659 -69.236473 -155.861572
35.019527 -65.786453 -149.393890
22.244537 -75.854576 -148.907043
-47.614685 -74.405487 -144.257233
25.455864 -73.821472 -148.985336
-43.915836 -69.643341 -143.496628
5.912940 -70.167534 -149.091064
22.257635 -68.493103 -145.691269
-62.843460 -69.436172 -149.849976
-44.377384 -66.809486 -145.911057
-65.117142 -71.385742 -141.193787
24.677544 -67.984131 -154.652435
26.804274 -68.550156 -146.088989
5.021117 -70.335922 -162.571381
25.805128 -67.831375 -146.985672
32.930546 -68.090271 -166.275024
-44.314217 -71.765366 -156.467453
-36.734982 -82.160988 -157.420624
-39.193497 -72.828857 -153.393845
30.844778 -70.755531 -153.003952
-42.209728 -67.010529 -157.826584
-36.590076 -68.630440 -162.697617
24.699169 -67.200546 -160.950104
-37.532719 -71.649292 -169.455917
29.141579 -63.065712 -166.293747
112.011681 -62.732632 -163.582001
-32.543015 -71.049934 -164.820602
100.298462 -64.761978 -174.130020
-32.729877 -70.374641 -170.751328
-36.656727 -75.725998 -174.846313
25.742617 -73.756897 -175.150711
108.447891 -69.834808 -182.904846
-32.538139 -68.175827 -173.659683
-34.947083 -70.629784 -173.408386
-21.067835 -77.851929 -181.090881
-147.909119 -72.849640 -175.619858
11.447956 -69.283371 -178.581848
104.120277 -66.640533 -193.843430
-160.949097 -72.506630 -176.658081
-18.316818 -64.588951 -180.607437
-114.860153 -75.286423 -185.961884
-126.515030 -74.893204 -180.788452
-105.055466 -73.843483 -188.640594
-115.036209 -70.453056 -187.803818
-9.603633 -72.197006 -190.225021
20.261385 -66.563393 -191.516113
-15.686172 -64.961937 -195.836670
-129.160980 -72.348389 -193.456985
-19.675236 -64.514130 -193.268600
-126.572868 -69.001442 -189.866241
-16.860361 -69.967674 -191.096603
-147.228180 -70.839500 -186.245621
91.609329 -61.956120 -205.714157
-163.373398 -63.613655 -185.714737
-2.174608 -71.042152 -216.507645
12.664958 -72.603210 -205.898560
9.668036 -75.059898 -212.535614
81.531677 -69.177132 -214.955704
9.890701 -71.751686 -208.731552
10.066182 -68.602135 -210.431671
-16.061121 -74.371117 -208.539230
-90.291771 -73.473335 -200.725861
-99.204987 -71.895508 -205.435837
3.437356 -69.261612 -212.136429
-167.009216 -76.544365 -205.248032
16.477331 -66.160751 -212.520004
-145.221634 -71.781578 -205.170273
13.209415 -70.917686 -220.217422
-136.420410 -75.235504 -211.467667
-115.965080 -73.569489 -216.867508
17.045610 -69.211937 -215.280197
79.670189 -69.143074 -217.446030
4.990536 -71.449379 -218.669815
-109.249710 -70.300835 -219.905899
66.659981 -71.091553 -225.720078
85.423599 -70.980789 -228.972183
-128.619110 -71.873848 -225.022888
-121.054070 -71.768196 -216.985779
-9.749756 -64.414978 -218.809265
70.524506 -69.777039 -232.793533
63.146278 -69.860825 -229.880875
70.165527 -68.457474 -226.420166
-138.592300 -66.867027 -219.957138
67.192726 -71.088203 -227.916473
63.764328 -65.226486 -233.112579
-166.907516 -69.851929 -216.839783
0.750094 -80.463737 -237.678955
19.936880 -72.228722 -234.474579
-8.150502 -66.019623 -236.318115
16.011261 -61.327648 -234.844101
66.159966 -70.495491 -235.906906
4.295287 -66.747566 -240.538177
-13.925364 -62.333313 -233.613022
-4.152114 -65.558243 -228.491913
62.805588 -69.729073 -240.149490
-1.575524 -69.888847 -236.816101
-7.309389 -71.423416 -237.281265
13.163397 -74.675179 -236.526489
-169.099670 -76.880188 -225.620056
50.814457 -71.532074 -244.620178
44.972004 -59.865116 -251.610947
58.689846 -70.089378 -241.379288
-14.595487 -66.904022 -241.695145
54.785297 -68.089546 -242.231750
-77.350861 -71.293732 -241.691803
47.552399 -70.035881 -245.096619
-89.116135 -70.414467 -242.558533
-123.557861 -73.203789 -246.396637
-133.854202 -72.930649 -238.443680
45.777794 -72.237869 -248.406647
-131.469406 -76.505157 -237.473511
-110.349724 -67.951317 -241.358231
-121.211960 -69.320862 -245.627670
-87.337082 -71.842171 -243.687943
-112.931747 -67.388107 -245.400009
-127.127548 -77.410225 -249.944855
-151.182617 -69.283463 -254.942413
-18.757036 -67.964897 -262.781921
-177.796158 -77.365257 -249.231903
-19.047291 -68.740646 -269.258789
-161.564621 -67.700562 -252.202164
-156.142914 -74.373390 -257.026184
-175.373627 -72.932098 -262.072174
-20.223736 -71.806984 -277.197784
-130.739166 -76.024216 -269.420044
-160.612717 -72.615341 -271.591095
-146.530762 -71.042656 -266.161377
-138.571411 -75.461113 -262.725372
-12.816091 -60.883636 -277.879089
-130.433075 -76.378738 -269.391602
-144.939056 -67.874229 -272.160980
-119.258591 -77.915916 -272.970520
-87.091339 -67.628128 -279.302856
-63.492393 -73.536255 -277.675629
-13.245030 -72.302559 -281.485352
-59.360249 -69.285561 -273.322937
-61.198048 -67.614304 -279.720276
-76.698891 -69.073082 -280.405670
-94.708916 -69.346039 -285.345612
-96.518410 -69.617050 -276.069733
-163.246704 -72.653130 -276.681885
-164.529404 -73.731850 -280.245880
-128.443024 -76.634659 -280.100159
-149.001709 -71.958092 -279.826416
-156.047287 -75.887360 -291.983582
-159.419876 -77.477966 -296.388580
60.446838 -66.020988 -9.512262
24.368366 -70.990097 -28.314190
53.058502 -61.585350 -32.946629
-5.263998 -73.086021 -59.805218
89.944122 -64.582405 -64.529747
100.029022 -61.139542 -66.240891
87.906830 -74.260628 -64.245682
79.911934 -70.407242 -69.266647
98.653564 -69.145988 -76.939766
-90.117279 -65.865532 -59.225445
72.961815 -67.821930 -73.546997
-28.187805 -73.528069 -70.593086
105.006821 -66.339645 -85.617081
70.120018 -62.649334 -89.106934
115.112053 -74.155083 -92.442467
104.768539 -73.986847 -99.698776
80.459351 -67.946449 -101.169571
-76.618652 -65.904274 -93.594154
60.521378 -66.305489 -104.904625
114.767029 -61.890923 -108.476135
50.760262 -67.229546 -112.521034
85.339699 -65.664268 -106.295784
47.136097 -67.506401 -105.677498
107.705612 -66.979507 -103.807724
53.226086 -67.907043 -105.496925
111.102791 -75.908585 -109.643883
117.035492 -72.717964 -110.358307
-74.946098 -66.827652 -104.431305
-78.334229 -67.074600 -111.119949
48.832657 -72.291374 -116.681870
118.312424 -69.211792 -125.556717
117.897232 -67.274971 -124.839859
-85.244705 -69.046120 -115.943306
109.063675 -70.576729 -128.971039
-55.222942 -77.002945 -123.240921
-81.450806 -71.335182 -118.034439
-64.728531 -71.581161 -117.030746
-56.079891 -65.383301 -118.048813
36.667160 -68.418533 -127.990646
49.299973 -63.310955 -134.085434
-66.147743 -69.833855 -126.561852
33.303318 -64.398849 -125.627617
116.862648 -66.723000 -147.505264
-33.636765 -70.239540 -142.888718
38.495892 -71.844109 -146.732880
115.677444 -64.367004 -151.267075
40.149807 -69.510307 -138.989334
113.178612 -65.360550 -140.095169
-47.936306 -69.067543 -141.587967
-71.576065 -65.760582 -142.279297
-55.577316 -70.573044 -141.270538
-40.366894 -76.170639 -157.207748
5.852068 -72.511566 -150.479416
111.176994 -68.103455 -153.778641
110.476303 -66.695808 -162.650391
14.458321 -68.877892 -151.783432
3.870877 -67.532730 -154.744110
25.522701 -65.602242 -149.498627
29.169582 -66.433670 -151.878006
108.615631 -66.890129 -166.143707
113.910042 -71.751266 -168.687561
25.697001 -64.751869 -173.265121
26.138859 -72.986740 -161.962982
113.400871 -63.677650 -163.475998
-28.840616 -67.579720 -172.859116
112.931213 -67.762863 -168.360916
20.561998 -68.860069 -159.118439
23.278648 -68.720840 -165.957947
109.443665 -67.845100 -173.310776
29.976770 -67.133522 -166.052780
115.521385 -64.656715 -187.272308
-37.285046 -69.225792 -172.965439
25.510700 -68.677505 -164.394943
109.084618 -67.010796 -186.248123
24.029207 -70.061058 -172.055359
-149.563019 -69.266563 -171.478302
-26.890097 -65.132416 -183.404007
24.980484 -64.662491 -181.468552
-115.446358 -74.129738 -180.269073
-111.650314 -66.839752 -181.542221
26.722502 -69.552307 -183.479889
11.390262 -64.397385 -179.697739
-26.309553 -64.350449 -183.734924
-27.407022 -76.092888 -182.299255
-28.428745 -70.289886 -181.779877
13.207614 -65.099663 -175.540298
-149.906906 -71.599228 -182.180237
-145.866302 -70.621437 -177.794983
-147.062302 -77.082085 -185.908752
-23.230288 -68.017342 -184.716034
15.120538 -64.524200 -195.345779
98.759697 -65.046654 -192.517593
-112.853401 -68.674095 -186.368698
21.725372 -74.546341 -193.296143
-12.107359 -67.272820 -188.253922
-16.488478 -69.267586 -191.995712
101.974396 -64.846710 -201.216293
7.135891 -72.595276 -192.552841
-21.803152 -67.060318 -190.210312
-119.791908 -75.584885 -192.526505
-134.229034 -72.175591 -189.744720
-114.430542 -63.094280 -194.540176
-141.727615 -76.523293 -189.188110
16.760115 -68.213692 -193.573181
92.260147 -70.001862 -198.785599
-164.583405 -64.548782 -184.076141
100.331123 -65.792358 -201.609695
-24.114368 -76.199921 -197.979050
94.351364 -62.274258 -208.699387
88.132782 -70.516113 -208.130142
10.013687 -72.324165 -196.795181
20.841520 -66.753883 -209.375137
13.442524 -63.575699 -204.015305
-11.928303 -69.207664 -218.349930
-93.990250 -74.950714 -209.444382
-13.398799 -72.760780 -204.378418
86.404617 -68.383217 -217.898499
-95.177856 -74.828552 -204.742050
-99.974129 -65.863907 -211.238403
-97.783195 -69.482758 -207.556671
88.709473 -70.975365 -222.691254
-136.948456 -72.754974 -211.707184
-131.281006 -80.051636 -215.139771
-117.203743 -71.593231 -212.297470
-114.198685 -67.400108 -208.297318
-133.441849 -68.050728 -215.066895
-115.059998 -82.147446 -216.435089
-111.810974 -69.714096 -216.612534
-8.021786 -75.099724 -217.578079
-15.551800 -73.674828 -216.838684
-2.104176 -65.129829 -223.970367
-11.079095 -64.284943 -220.743027
14.319134 -70.203934 -229.890808
-22.541340 -66.335503 -222.966782
-167.313568 -69.993774 -204.412125
-7.681714 -70.483475 -228.232025
79.468849 -62.335922 -232.250488
11.156130 -71.879868 -228.300980
-6.731226 -68.313637 -230.012833
-158.680908 -68.818398 -220.710175
-144.843277 -69.201660 -213.410614
58.191704 -66.695580 -235.113831
-6.974627 -70.158806 -226.833649
10.954706 -72.092819 -223.503311
68.516960 -72.161797 -224.301147
75.061821 -67.004326 -233.915222
69.855164 -69.538910 -241.863556
-3.591165 -74.200897 -228.559799
57.067295 -64.688133 -233.974121
-21.325111 -73.947807 -233.828537
-15.723711 -64.632751 -233.135208
5.750700 -68.688995 -232.927338
61.844715 -73.538544 -234.199875
66.505150 -65.167168 -240.539383
45.826672 -69.060989 -242.808090
58.792809 -73.163452 -240.605682
-17.359352 -77.707726 -242.139862
-86.983032 -65.812881 -247.624985
-79.616119 -67.352982 -244.031647
41.635452 -73.077240 -243.556595
-155.624390 -74.604866 -234.690491
31.866028 -67.819534 -254.076340
-94.830681 -77.828064 -240.856033
-160.319122 -65.622154 -238.727966
-142.063477 -60.035694 -237.514221
39.328972 -67.285179 -251.398117
-128.771881 -66.358643 -245.894211
-120.669518 -73.245209 -241.609085
-93.999763 -64.599808 -245.418198
-15.057416 -63.012047 -240.161865
29.354282 -67.793129 -252.116379
21.913256 -64.411301 -254.548477
-163.854050 -63.876740 -246.263138
-117.408112 -74.775475 -250.319199
-16.374006 -69.371429 -255.923920
-134.612778 -70.826889 -252.629349
-18.486731 -67.726494 -263.740540
-166.265991 -71.459885 -255.153748
-9.369427 -70.410431 -271.795410
-163.855743 -73.486549 -272.312714
-169.254410 -76.944733 -262.772858
-146.398956 -72.658844 -270.840179
-176.797058 -75.845406 -268.445038
9.952969 -73.348419 -284.455597
-107.547745 -72.860153 -274.474701
-92.542900 -62.884674 -274.218872
-173.489716 -67.718681 -267.962494
-97.174866 -79.632233 -269.107544
-161.617752 -73.383575 -274.341431
-83.327377 -73.292282 -288.335052
-77.766891 -69.489487 -278.755920
-88.674988 -73.527786 -281.548431
-8.123178 -67.324394 -281.593903
-96.141228 -70.763824 -275.199524
-104.033920 -74.209633 -278.449738
-124.514809 -71.576775 -280.188293
-121.763367 -66.243195 -280.425842
-138.854691 -72.697464 -276.930542
-147.349640 -71.046066 -286.401611
-150.683502 -73.441826 -297.846069
35.833565 -62.539776 -10.106324
45.297981 -66.109810 -12.166501
41.462990 -70.227554 -14.126403
56.318665 -62.109997 -16.323977
33.740486 -66.146805 -27.764141
-64.770905 -67.694679 -36.439560
97.756012 -59.508938 -67.012924
-11.497352 -63.226151 -59.983471
113.108040 -65.807175 -74.868591
101.064682 -71.340965 -75.770515
75.890556 -67.316498 -77.748917
80.729439 -71.880348 -80.663544
-36.257664 -72.900467 -73.501900
68.258362 -73.589905 -78.646416
-85.460602 -69.803703 -78.336731
-39.080490 -65.371513 -75.646721
-48.738400 -75.989525 -74.852646
110.046051 -74.701469 -99.766304
67.859062 -71.094360 -87.670898
75.232124 -65.806854 -89.304619
-87.070145 -60.975616 -86.337135
115.323448 -68.569046 -91.014877
48.268448 -65.038864 -96.379982
109.348732 -65.547783 -99.035332
113.585632 -62.079739 -107.567352
105.943878 -66.588303 -103.556908
81.236961 -71.372498 -97.109024
92.895737 -69.328094 -108.240524
56.583176 -64.882385 -108.591057
116.930832 -60.402874 -102.656822
54.874523 -72.603004 -101.018898
44.012150 -65.397682 -98.965584
119.779877 -67.169083 -111.814919
-71.710884 -63.804134 -98.200592
51.259289 -65.339470 -109.819496
38.235516 -71.412857 -112.884491
112.184326 -62.813457 -111.687485
42.438305 -63.870892 -108.213715
-80.394875 -69.059929 -99.435013
-88.873184 -63.971928 -102.765793
106.637840 -73.172447 -120.749382
-89.071732 -69.813614 -107.588547
45.348492 -72.214630 -117.449486
41.734406 -67.775528 -120.078857
-80.191719 -69.242943 -112.839264
38.475803 -64.950813 -130.022369
117.654152 -67.652664 -132.535248
-48.952271 -68.753479 -130.721771
-82.806961 -67.040550 -122.906105
43.583130 -73.225540 -126.391449
-81.025642 -62.971973 -126.063698
-83.109665 -73.486923 -130.423935
-45.651043 -68.579910 -127.254646
-66.584129 -65.556633 -128.584442
-45.681690 -67.953835 -123.214142
122.456726 -61.856941 -137.674316
-66.223022 -71.797615 -123.461983
43.051365 -68.952126 -126.808937
-73.999557 -66.199493 -131.127625
-66.926880 -69.440994 -125.024124
-90.778252 -66.507217 -131.577713
-51.682011 -63.750031 -135.832123
35.497173 -60.866051 -142.329788
31.074501 -65.760948 -144.652908
24.825659 -59.797600 -140.138565
116.168800 -65.298813 -147.185745
-86.131050 -66.998535 -140.025253
13.786625 -69.386513 -147.249680
-67.889534 -68.120491 -145.668121
27.733616 -65.235931 -144.579285
-45.875675 -66.859337 -146.702637
13.531988 -65.799255 -149.121231
20.935682 -71.534760 -154.809799
19.803951 -74.604263 -159.093094
-48.626614 -71.946587 -155.098404
-34.708073 -66.201187 -147.724686
-44.736599 -70.131332 -154.207489
-100.372879 -70.727943 -161.598557
24.252501 -69.958946 -170.925385
-31.040308 -68.746719 -171.391785
17.777103 -74.168892 -173.552597
-139.347595 -68.919708 -162.176041
-28.724375 -63.481922 -164.784653
-154.417969 -79.255898 -163.417953
27.147976 -59.676529 -177.434097
-31.894297 -70.949196 -162.088196
-103.973755 -65.866867 -163.027496
-104.750786 -77.215439 -172.569092
-29.297710 -60.795101 -178.588699
-22.434288 -74.979591 -174.350266
13.219317 -66.215210 -183.959961
16.319422 -63.284245 -194.929260
14.524199 -68.600571 -182.793625
-140.553452 -67.060844 -172.409729
26.557650 -61.534348 -185.513168
5.904626 -66.530884 -191.434021
-132.628387 -67.454170 -179.304672
-110.674744 -68.694969 -182.943542
15.465655 -64.782288 -200.213394
-118.434608 -67.129128 -184.206650
-106.215309 -60.419846 -180.658463
-166.391495 -72.230774 -186.850098
-23.585772 -65.776962 -192.771332
10.628283 -64.973274 -194.360367
-145.074005 -71.107605 -190.022110
-137.914810 -74.676064 -193.824188
-22.206205 -65.223412 -201.240051
-12.138270 -68.893288 -199.384781
-12.799490 -69.877426 -199.389130
-136.660034 -76.199646 -188.197678
-17.644787 -67.466431 -206.193497
-8.366474 -75.365692 -208.567230
18.335609 -62.916428 -206.834976
-17.812031 -74.974380 -205.215118
10.529246 -69.434448 -203.628220
-11.514951 -70.098183 -208.664856
-24.412703 -63.119587 -204.381607
10.943282 -76.346756 -215.567093
-3.062814 -75.758835 -213.021255
10.592659 -61.804493 -215.125610
-7.612090 -72.186974 -222.981644
-161.742630 -72.528244 -212.282227
79.956085 -70.568268 -218.447128
-136.409668 -66.778191 -210.035980
-135.594742 -73.655289 -207.589981
-8.480102 -69.099640 -218.948166
4.345145 -67.127258 -230.780136
-159.785782 -70.455948 -217.232788
89.599907 -63.977226 -219.786072
-2.136242 -65.926262 -221.093353
0.350668 -68.487938 -214.961823
72.771980 -71.172501 -230.411880
-1.442795 -63.927135 -231.386719
-13.925782 -69.757347 -217.463638
-129.133850 -65.322510 -220.509491
-7.307371 -67.504585 -232.504807
1.542238 -64.562134 -223.948868
64.501823 -62.740082 -236.175262
-159.100037 -74.137054 -222.037109
-15.740216 -65.559021 -239.485901
-172.087036 -75.019096 -223.691208
9.038681 -61.226028 -236.130478
-164.363281 -73.301567 -223.647720
-161.513870 -73.689690 -232.724945
56.544933 -67.996666 -242.451324
58.603840 -70.109146 -239.732666
53.110611 -68.521469 -243.916687
48.915527 -67.218452 -246.891144
-153.533890 -73.004211 -228.055008
-158.001740 -65.672157 -231.299301
-14.323345 -74.503273 -243.063492
-152.361862 -69.746269 -233.454636
15.002966 -67.777679 -246.323471
-173.868805 -79.304672 -236.062714
-171.668335 -68.805122 -235.871658
-84.111954 -72.499908 -236.072021
-173.749557 -69.708664 -241.736465
-87.737144 -69.330475 -248.288986
40.496674 -65.822273 -250.660889
18.751806 -71.586212 -253.184402
-160.526031 -72.807671 -249.211807
-104.355835 -60.609966 -248.800018
37.454315 -66.731819 -250.920670
-110.498962 -81.014275 -246.074219
-156.444504 -67.109810 -252.042160
-105.927917 -68.971069 -244.430939
-172.601028 -75.396011 -243.952164
-116.241531 -71.104362 -252.146805
-156.828247 -74.011040 -252.108353
-162.751663 -66.923523 -247.659760
-168.485764 -69.894051 -248.792282
-168.822266 -68.927330 -247.171143
-168.772751 -71.289993 -248.818756
-172.621475 -72.384010 -243.328659
23.760529 -69.220024 -261.691925
-150.039368 -77.346771 -248.126740
-156.614197 -71.029419 -271.361664
25.529396 -67.150848 -271.284058
-16.461332 -72.371872 -268.319214
-129.345230 -66.898964 -272.247253
-140.819443 -70.663864 -273.238281
-137.769348 -70.082352 -276.708344
-133.050354 -70.656944 -272.820862
-117.105759 -68.562027 -280.856598
-107.835037 -64.308937 -271.892273
1.991340 -73.005417 -290.830322
-88.693245 -71.424187 -280.703278
-152.819595 -71.576530 -271.580688
-107.420753 -71.499359 -279.734772
-138.737961 -67.597427 -279.501099
5.672935 -70.405380 -282.111725
-115.029892 -61.020733 -274.417908
0.040028 -68.601036 -288.917511
-147.550781 -70.469116 -271.839264
-156.939865 -70.953491 -280.463318
-166.308929 -69.456100 -303.030762
-162.106049 -68.158928 -296.195526
57.120384 -69.846367 -22.462519
35.999424 -65.383034 -34.110657
38.642647 -67.169861 -32.781311
-30.976595 -71.270515 -39.388428
-1.130887 -63.579731 -57.545753
103.734505 -65.734497 -67.948441
76.553841 -58.270237 -67.180458
-17.530098 -65.554512 -67.314095
-93.727928 -73.884834 -77.956879
-35.294167 -66.822647 -78.773605
64.664925 -65.596359 -77.636436
73.600113 -69.959259 -82.736176
58.029835 -62.487728 -85.446114
-52.338116 -66.743477 -82.227547
74.936165 -59.382610 -87.828384
49.290108 -71.349464 -96.039383
76.562607 -69.173805 -93.990112
-52.656639 -65.608093 -88.055489
59.001297 -68.223763 -88.718033
54.044895 -69.657738 -95.384880
109.436142 -60.213840 -104.241745
-57.520164 -67.723404 -88.894501
118.633392 -64.184837 -100.717377
-72.216888 -72.846336 -91.952545
59.586632 -69.521431 -105.272629
54.764957 -64.090889 -99.034668
96.686829 -59.670273 -104.456779
88.930252 -66.529762 -105.258293
63.689648 -67.517052 -103.351303
-71.294540 -69.150505 -103.025742
-73.344650 -67.772614 -107.975952
-75.717491 -69.323425 -107.407822
-88.463226 -76.127419 -106.136696
107.319580 -56.790760 -118.752182
-85.667770 -72.645088 -107.325600
-69.169640 -62.089066 -112.160255
114.131874 -64.103134 -118.142303
-53.474773 -56.916553 -108.003990
117.836830 -71.529518 -132.952362
114.621521 -68.044029 -130.999542
109.188866 -68.168015 -129.573532
-89.313156 -69.538025 -125.482941
-40.616413 -67.843781 -133.902069
-78.078773 -64.101463 -132.792999
-65.455978 -67.890488 -138.559357
-64.202644 -66.963745 -140.873184
-50.824741 -67.222549 -135.229385
-41.172462 -74.544662 -135.264755
16.028009 -67.082161 -143.265625
-89.301247 -62.618813 -129.370392
-42.844677 -65.514893 -137.689255
-46.778297 -56.812874 -137.776611
-39.238655 -64.568245 -145.874557
29.591677 -70.341377 -155.887680
-47.810089 -70.048820 -143.530121
-99.487144 -61.103630 -136.185394
-45.199364 -62.892925 -145.665283
28.999344 -71.173569 -140.660095
-91.600327 -78.095024 -152.991776
26.363453 -70.562248 -154.127151
-105.854614 -63.648823 -156.216370
-98.936821 -69.507195 -152.661072
24.495033 -67.436920 -162.846878
29.217203 -64.350029 -163.307007
-109.497688 -73.035324 -160.650665
-140.242508 -65.032494 -158.685165
-16.207710 -68.327576 -184.773117
-25.874044 -66.463058 -172.522842
-116.252708 -71.714790 -174.073578
-142.006363 -64.313148 -171.392639
-98.729683 -64.162766 -169.470490
-158.872147 -70.210457 -172.743729
-129.737686 -76.307541 -182.238739
-131.601624 -73.151268 -182.933563
-17.613991 -65.295273 -179.576614
-117.232018 -70.314293 -187.355927
-118.775993 -63.686211 -188.389969
-28.285404 -71.838707 -184.629059
-153.131470 -66.111771 -179.503479
-132.379532 -70.742226 -191.567917
-124.332062 -65.598953 -190.294495
19.454538 -71.741425 -197.241638
-161.935974 -70.982735 -185.866562
13.694914 -64.333748 -212.931885
14.408941 -69.527161 -211.021851
-14.632808 -61.668587 -204.668137
-5.216199 -67.314613 -211.104401
-173.403442 -65.913704 -195.293564
-159.362961 -63.650414 -196.879974
-95.324265 -67.852928 -208.040985
-96.057411 -72.145798 -209.347015
-161.574005 -72.190796 -212.487946
-110.542961 -65.359825 -206.561676
-11.464218 -65.011627 -204.095901
-129.027252 -72.159515 -207.365540
-144.081238 -69.910706 -208.228470
-3.722083 -70.965645 -215.446182
-134.733170 -66.729324 -210.138535
-123.847504 -75.785728 -208.345810
-114.708122 -73.886375 -210.713776
-3.881063 -58.413040 -224.065155
-108.975708 -65.638268 -220.477249
-162.898849 -61.154457 -207.105499
-145.869492 -69.004730 -211.622711
-165.271927 -69.512459 -210.837784
-9.339281 -64.510979 -218.652496
-9.291879 -68.392929 -228.121674
77.534142 -70.455215 -223.799133
-3.066661 -71.292183 -222.820618
-144.928711 -69.697762 -225.013992
-15.958608 -64.207733 -223.144440
72.747795 -66.862885 -226.063278
72.291031 -66.909035 -232.013504
-135.377762 -66.989334 -218.009872
-156.332428 -75.777603 -213.582336
-114.808258 -66.179077 -220.452118
-127.239777 -62.530819 -224.042801
-163.389084 -68.263901 -220.093170
-162.551895 -71.264404 -220.057846
-149.877380 -62.179020 -217.614609
-17.617632 -63.913654 -227.351532
-8.260945 -65.561050 -236.931076
-161.860764 -68.529579 -228.476074
4.193183 -67.821106 -231.130203
-1.971029 -69.466225 -233.274551
-159.993652 -69.564606 -221.554276
17.535862 -73.271698 -235.226059
48.787411 -70.175522 -243.997864
