77.421691894531 -62.745952606201 -87.082443237305 7.032742023468
103.658676147461 -55.320678710938 -101.896774291992 2.078466892242
78.401657104492 -65.604980468750 -102.636169433594 4.733190059662
96.596542358398 -64.448432922363 -105.107109069824 1.259846210480
-84.275077819824 -63.814620971680 -98.236068725586 5.918650627136
50.827560424805 -62.607490539551 -93.379013061523 2.390588760376
-84.581573486328 -64.639404296875 -90.713249206543 11.175998687744
55.662063598633 -66.733146667480 -108.924194335938 4.634043693542
39.688175201416 -74.998725891113 -100.498069763184 4.620927333832
101.929145812988 -64.849365234375 -104.663749694824 2.601580142975
40.203041076660 -65.615379333496 -101.746475219727 4.467618465424
49.077091217041 -69.323974609375 -120.926086425781 4.209446430206
45.618190765381 -66.706176757813 -111.525970458984 1.916862964630
116.015220642090 -65.112480163574 -112.831153869629 6.063053131104
-77.076057434082 -71.918693542480 -114.406181335449 2.176537275314
116.206954956055 -74.354415893555 -123.439956665039 0.881046533585
45.653591156006 -60.026245117188 -124.468406677246 4.983492374420
42.692680358887 -66.155021667480 -118.046737670898 3.814637899399
37.034446716309 -67.125328063965 -117.235633850098 1.995857238770
-51.897827148438 -71.919120788574 -122.668815612793 6.299597263336
32.345920562744 -64.309257507324 -120.968658447266 4.654205799103
-76.020126342773 -59.471996307373 -131.683074951172 4.207044124603
-52.319145202637 -70.889724731445 -125.725212097168 3.612055540085
-77.026702880859 -60.931709289551 -127.560729980469 1.382580995560
40.078754425049 -63.625759124756 -131.183013916016 4.871977329254
-57.781475067139 -67.659339904785 -126.554801940918 0.267686426640
37.830821990967 -65.725753784180 -130.830154418945 3.250872373581
-68.534645080566 -61.872547149658 -132.688354492188 5.340523242950
-57.265575408936 -58.801673889160 -137.155761718750 0.974785208702
24.105516433716 -68.648986816406 -143.173370361328 1.796697139740
114.334342956543 -71.974411010742 -144.568191528320 1.653525114059
116.796829223633 -61.778785705566 -140.299041748047 7.938458442688
31.962978363037 -67.755043029785 -141.517639160156 0.555658280849
-48.882637023926 -68.845550537109 -133.049331665039 1.398617506027
105.217376708984 -65.122390747070 -154.709503173828 5.434417247772
-75.085525512695 -64.556144714355 -134.540786743164 1.786924362183
-56.461246490479 -64.812515258789 -135.459030151367 1.977864146233
33.671371459961 -58.880542755127 -143.397232055664 8.095946311951
-77.046043395996 -67.278701782227 -138.126693725586 1.713353037834
-68.486473083496 -64.178894042969 -142.380706787109 5.232644081116
114.512794494629 -75.453384399414 -150.878189086914 1.825145721436
-63.085357666016 -62.890224456787 -149.314758300781 7.812008380890
-38.149097442627 -60.520301818848 -145.815307617188 9.647126197815
25.494527816772 -64.961601257324 -141.221023559570 0.207830846310
-69.396255493164 -65.844444274902 -135.459884643555 3.932683706284
14.037071228027 -64.770683288574 -145.239440917969 2.331878900528
32.866088867188 -67.105743408203 -157.366073608398 2.775617837906
32.932369232178 -63.433040618896 -151.022537231445 6.006812572479
19.825006484985 -73.050880432129 -150.316360473633 3.103862047195
-49.986339569092 -69.135261535645 -146.433685302734 1.716910362244
23.102891921997 -71.128837585449 -150.432510375977 1.181999683380
-46.137855529785 -64.473991394043 -145.801437377930 2.768515586853
3.694380044937 -66.838027954102 -150.864898681641 6.347081184387
20.054344177246 -65.585510253906 -147.358596801758 1.321415424347
-64.989738464355 -63.865539550781 -152.351181030273 7.128038883209
-46.482803344727 -61.712944030762 -148.317550659180 5.195023536682
-67.405448913574 -65.434005737305 -143.656097412109 4.365894317627
22.570930480957 -65.471504211426 -156.306854248047 3.248301744461
24.599967956543 -65.806472778320 -147.707626342773 3.119308948517
2.919564008713 -67.449951171875 -164.339614868164 4.172269821167
23.633497238159 -65.087028503418 -148.638916015625 3.766708612442
30.920736312866 -66.257774353027 -167.833801269531 4.875128746033
-46.489257812500 -67.035675048828 -158.694000244141 3.570202589035
-39.252418518066 -77.702758789063 -159.207550048828 2.301129817963
-41.434879302979 -68.159004211426 -155.533111572266 1.066272735596
28.627178192139 -68.385314941406 -154.500061035156 0.672347843647
-44.215229034424 -62.403499603271 -160.196105957031 6.186444759369
-38.608806610107 -64.377922058105 -164.950180053711 5.869306564331
22.675697326660 -64.910583496094 -162.627410888672 2.850803613663
-39.590305328369 -67.599380493164 -171.608688354492 1.787586092949
27.301675796509 -61.114688873291 -168.065963745117 6.830826759338
110.108863830566 -63.421112060547 -164.520965576172 5.326967716217
-34.625579833984 -67.002655029297 -166.946273803711 4.502127170563
98.430526733398 -65.431846618652 -175.111145019531 8.778293609619
-34.736110687256 -66.530143737793 -172.898513793945 2.972243309021
-38.801898956299 -71.889450073242 -176.844802856445 2.853650569916
23.628599166870 -71.992187500000 -176.580001831055 2.803721427917
106.485481262207 -71.075668334961 -183.620529174805 1.944226384163
-34.444854736328 -64.442291259766 -175.879470825195 4.483560562134
-36.936431884766 -66.805091857910 -175.567611694336 2.584055662155
-23.236614227295 -74.746444702148 -182.852081298828 1.729674577713
-149.885025024414 -65.372817993164 -178.854446411133 2.530545234680
9.522654533386 -67.172630310059 -180.310516357422 6.476662158966
102.365989685059 -68.126251220703 -194.707229614258 4.519070148468
-162.896392822266 -64.636390686035 -180.037139892578 10.512187004089
-20.049539566040 -61.572669982910 -182.802124023438 9.215848922729
-116.843330383301 -69.260215759277 -188.767303466797 3.367374658585
-128.525009155273 -68.301315307617 -183.730026245117 10.279816627502
-106.972145080566 -68.236480712891 -191.394287109375 1.440906524658
-116.841506958008 -64.491302490234 -190.777938842773 3.685322284698
-11.508040428162 -69.796958923340 -192.059768676758 5.191014766693
18.538629531860 -65.200599670410 -193.240844726563 2.542175531387
-17.294967651367 -62.566558837891 -197.981506347656 5.339297771454
-130.969818115234 -66.116813659668 -196.505767822266 2.082179307938
-21.289983749390 -61.897510528564 -195.471450805664 4.472034931183
-128.304214477539 -62.733112335205 -193.007354736328 4.591252803802
-18.678236007690 -67.361366271973 -193.082443237305 1.979870319366
-149.041259765625 -63.760429382324 -189.536193847656 2.645588159561
90.126152038574 -63.451133728027 -206.860900878906 7.773089885712
-164.940795898438 -55.991634368896 -189.421920776367 13.653804779053
-3.806919097900 -69.811065673828 -218.289398193359 1.148476958275
10.875675201416 -71.487564086914 -207.481384277344 1.293613433838
7.858766078949 -74.075477600098 -214.059249877930 1.769418478012
79.897521972656 -70.655624389648 -215.948181152344 2.308964490891
8.157114028931 -70.644927978516 -210.370483398438 1.845762729645
8.452868461609 -67.564498901367 -212.177230834961 1.523047089577
-17.868274688721 -72.398292541504 -210.352310180664 1.488213300705
-92.095466613770 -68.778068542480 -203.333648681641 11.515005111694
-100.908111572266 -67.073303222656 -208.186462402344 10.284049987793
1.821455001831 -68.064331054688 -213.925643920898 5.176658153534
-168.828536987305 -69.472969055176 -208.529800415039 2.688428640366
14.960480690002 -65.410789489746 -214.283599853516 3.500992298126
-146.895919799805 -65.431861877441 -208.395156860352 2.704335689545
11.605671882629 -70.324554443359 -221.843902587891 1.816593050957
-138.158020019531 -69.393211364746 -214.478378295898 6.567437171936
-117.610473632813 -68.593582153320 -219.723632812500 5.741262912750
15.451718330383 -68.574066162109 -216.930053710938 1.088529348373
78.060836791992 -70.647590637207 -218.457077026367 3.499718666077
3.359957933426 -70.530120849609 -220.362792968750 2.949636697769
-110.762634277344 -65.656944274902 -222.805099487305 2.105254411697
65.068382263184 -72.454948425293 -226.790832519531 5.584260463715
83.853950500488 -73.077568054199 -229.852966308594 2.198307991028
-130.126571655273 -66.768638610840 -228.061904907227 2.038605690002
-122.635314941406 -66.630622863770 -219.956466674805 5.424077033997
-11.135806083679 -63.022430419922 -220.897384643555 6.016528606415
69.038482666016 -71.517745971680 -233.865875244141 1.874729752541
61.635482788086 -71.255760192871 -231.027603149414 5.623575210571
68.665977478027 -69.964164733887 -227.546264648438 3.734709024429
-139.972793579102 -61.260761260986 -223.275512695313 3.677704572678
65.620811462402 -72.546279907227 -228.980453491211 3.907934665680
62.436901092529 -66.760627746582 -234.412048339844 2.667931795120
-168.398834228516 -63.198520660400 -220.345657348633 5.202135086060
-1.006257057190 -80.061309814453 -239.089248657227 2.196827650070
18.414546966553 -72.356452941895 -235.977371215820 2.224379062653
-9.432418823242 -65.292518615723 -238.322586059570 1.416326045990
14.857968330383 -61.351478576660 -236.765884399414 3.398629188538
64.680793762207 -72.200630187988 -236.996810913086 0.999725162983
3.019900083542 -66.578392028809 -242.387420654297 2.657840728760
-15.105462074280 -61.325004577637 -235.806472778320 6.829172134399
-5.491918087006 -64.688911437988 -230.476730346680 3.731700181961
61.392383575439 -71.473342895508 -241.297531127930 1.189968109131
-2.985822916031 -69.391677856445 -238.618499755859 1.856240630150
-8.763202667236 -70.751602172852 -239.088577270508 2.140629291534
11.582143783569 -74.648590087891 -238.012039184570 1.411346316338
-170.744430541992 -70.454475402832 -228.898132324219 3.698129653931
49.388805389404 -73.035522460938 -245.825088500977 2.823956489563
44.002033233643 -61.434703826904 -253.276718139648 2.557223320007
57.278228759766 -71.740592956543 -242.556045532227 1.639736890793
-15.854337692261 -66.151977539063 -243.731170654297 4.836507320404
53.450389862061 -69.644172668457 -243.517395019531 1.840744495392
-78.718605041504 -68.465858459473 -244.216293334961 5.437927722931
46.182880401611 -71.450149536133 -246.386566162109 3.024192571640
-90.439704895020 -67.229843139648 -245.233215332031 8.445626258850
-124.919090270996 -69.014236450195 -249.323654174805 4.617765903473
-135.272216796875 -68.122543334961 -241.490615844727 6.970260143280
44.365913391113 -73.707214355469 -249.635971069336 2.253565311432
-133.016769409180 -71.737533569336 -240.372390747070 5.224500656128
-111.589393615723 -64.026817321777 -244.336303710938 10.467605590820
-122.452133178711 -65.186233520508 -248.666259765625 6.438651084900
-88.699073791504 -68.754226684570 -246.294052124023 6.044401168823
-114.114501953125 -63.520935058594 -248.421386718750 9.196984291077
-128.594726562500 -73.222541809082 -252.759704589844 2.956975936890
-152.319290161133 -64.486930847168 -258.282379150391 1.711170911789
-19.857786178589 -67.814437866211 -264.809722900391 6.009091377258
-179.238052368164 -71.480796813965 -252.566436767578 11.236557960510
-20.115066528320 -68.807037353516 -271.258331298828 6.433824539185
-162.667160034180 -62.467140197754 -255.705047607422 6.903665065765
-157.427429199219 -69.480422973633 -260.238433837891 1.823733210564
-176.552917480469 -67.583404541016 -265.527709960938 9.424756050110
-21.321113586426 -72.109657287598 -279.097473144531 8.407531738281
-131.981597900391 -72.402549743652 -272.307220458984 7.843324661255
-161.704040527344 -68.088150024414 -274.900573730469 2.720135927200
-147.627243041992 -66.791351318359 -269.385253906250 3.361424922943
-139.851043701172 -71.346694946289 -265.716552734375 3.405082702637
-13.547623634338 -61.467319488525 -280.082550048828 5.715091705322
-131.687759399414 -72.765762329102 -272.263336181641 7.794316291809
-145.876556396484 -63.889705657959 -275.474853515625 2.790575981140
-120.538780212402 -74.795471191406 -275.672271728516 9.541120529175
-87.990463256836 -65.803245544434 -282.029632568359 6.499981403351
-64.617263793945 -72.426040649414 -279.956878662109 6.075013160706
-14.324259757996 -72.985404968262 -283.293701171875 3.294324398041
-60.385322570801 -68.163848876953 -275.712707519531 10.341938972473
-62.108379364014 -66.658439636230 -282.182708740234 6.081848621368
-77.642387390137 -67.628128051758 -282.975280761719 5.353244781494
-95.606025695801 -67.479919433594 -288.086486816406 2.486287593842
-97.507484436035 -67.365333557129 -278.825775146484 9.180413246155
-164.291610717773 -68.217674255371 -280.013610839844 2.240508079529
-165.577224731445 -69.377914428711 -283.550872802734 2.573185205460
-129.610458374023 -73.462905883789 -282.935607910156 1.840240478516
-150.003479003906 -68.103828430176 -283.034729003906 2.273286342621
-157.065704345703 -72.222770690918 -295.119262695313 2.128979921341
-160.449401855469 -73.854866027832 -299.500457763672 3.913879156113
57.069816589355 -59.596534729004 -10.964865684509 11.956048011780
21.017528533936 -64.029396057129 -29.950204849243 4.099452972412
50.045978546143 -55.744796752930 -34.613586425781 4.168504238129
-8.381807327271 -66.250480651855 -61.650382995605 1.675577282906
87.095733642578 -61.063957214355 -65.694892883301 3.774073600769
97.304870605469 -58.017898559570 -67.421623229980 3.354066133499
84.734489440918 -70.653747558594 -65.095230102539 1.693007111549
76.918281555176 -66.717285156250 -70.328590393066 3.809911966324
95.760253906250 -66.345191955566 -77.849060058594 6.406869888306
-92.949035644531 -56.218292236328 -62.188991546631 3.975056409836
70.097244262695 -64.055892944336 -74.767051696777 4.728607177734
-31.208965301514 -66.314292907715 -72.649986267090 2.782534360886
102.281852722168 -64.056297302246 -86.553375244141 2.359416961670
67.570472717285 -59.341674804688 -90.525688171387 1.917843699455
112.182365417480 -72.435646057129 -92.999221801758 6.527275085449
101.916351318359 -72.181022644043 -100.362289428711 2.204600572586
77.836326599121 -65.397171020508 -102.290550231934 4.457440376282
-79.148483276367 -57.908699035645 -96.395874023438 7.178022861481
57.998771667480 -63.231361389160 -106.283912658691 4.411653995514
112.391548156738 -60.737117767334 -109.452430725098 5.941907405853
48.281661987305 -64.099609375000 -113.962898254395 3.451900720596
82.836257934570 -63.458595275879 -107.442909240723 0.844700932503
44.588455200195 -64.016365051270 -107.151260375977 3.860649585724
105.122451782227 -65.422943115234 -104.682243347168 2.185331821442
50.659816741943 -64.611145019531 -106.894645690918 2.053953647614
108.272834777832 -74.658592224121 -110.169319152832 1.741557121277
114.314819335938 -71.692497253418 -110.933631896973 1.802699446678
-77.409553527832 -59.266563415527 -107.176704406738 2.217931270599
-80.743316650391 -59.636199951172 -113.886978149414 0.988949894905
46.224174499512 -69.237998962402 -117.964645385742 2.349039554596
115.845504760742 -68.765983581543 -126.230949401855 2.143663167953
115.488624572754 -66.792549133301 -125.586166381836 2.417896032333
-87.671699523926 -61.546718597412 -118.709205627441 2.149757146835
106.587699890137 -69.944015502930 -129.690048217773 2.926461696625
-57.866973876953 -70.741004943848 -125.418586730957 2.003403902054
-83.937423706055 -64.031700134277 -120.680587768555 2.521280050278
-67.242416381836 -64.793914794922 -119.498161315918 1.790110468864
-58.383136749268 -58.924346923828 -120.642761230469 1.569883108139
34.297443389893 -65.365188598633 -129.524978637695 3.251193284988
47.148162841797 -60.894283294678 -135.664337158203 11.624855995178
-68.516220092773 -63.336341857910 -129.098266601563 4.420898437500
31.048192977905 -61.156242370605 -127.337669372559 2.192435503006
114.678329467773 -67.002616882324 -148.266464233398 2.838676691055
-35.890296936035 -65.387321472168 -145.068161010742 8.745605468750
36.180648803711 -69.504966735840 -148.117080688477 3.796372652054
113.606430053711 -64.742294311523 -152.119842529297 5.047001361847
37.841236114502 -66.956657409668 -140.442886352539 3.867125988007
110.974800109863 -65.260108947754 -140.946243286133 4.818201541901
-50.154022216797 -63.699211120605 -143.955123901367 3.156462669373
-73.663185119629 -59.640361785889 -145.002517700195 7.629059791565
-57.843528747559 -64.939712524414 -143.663589477539 1.585138559341
-42.684417724609 -71.592056274414 -159.240280151367 1.972607135773
3.567987918854 -69.226066589355 -152.171432495117 4.607647895813
109.006874084473 -68.414070129395 -154.545776367188 1.374034404755
108.433876037598 -67.296333312988 -163.467819213867 2.903169393539
12.302032470703 -65.926338195801 -153.513046264648 1.958345890045
1.792557001114 -64.337326049805 -156.626724243164 6.078851222992
23.448299407959 -62.939373016357 -151.230636596680 3.424679040909
27.086841583252 -63.973674774170 -153.542266845703 4.574857234955
106.599472045898 -67.551643371582 -166.971084594727 3.929147005081
111.751731872559 -72.671112060547 -169.290115356445 0.278412699699
23.866086959839 -62.929920196533 -175.009307861328 3.620762586594
23.930837631226 -70.773117065430 -163.423675537109 2.500882148743
111.464767456055 -64.407150268555 -164.367980957031 4.333333969116
-30.736919403076 -63.940773010254 -175.062377929688 4.671088218689
110.903465270996 -68.643577575684 -169.112396240234 0.445062190294
18.469093322754 -66.367385864258 -160.781509399414 4.766964912415
21.250707626343 -66.558013916016 -167.593597412109 2.073334932327
107.460090637207 -68.784385681152 -174.091781616211 2.448834180832
27.998598098755 -65.196876525879 -167.675155639648 4.401698112488
113.766906738281 -66.290275573730 -188.092941284180 7.305005073547
-39.230216979980 -65.310043334961 -175.197662353516 4.907619476318
23.468715667725 -66.533523559570 -166.010330200195 1.778319597244
107.246238708496 -68.393295288086 -187.053329467773 1.681628227234
22.011367797852 -68.135459899902 -173.632736206055 1.762778043747
-151.456024169922 -61.593959808350 -174.857147216797 2.119334697723
-28.610488891602 -61.930782318115 -185.665542602539 6.210008144379
23.227273941040 -63.104946136475 -183.217773437500 5.188982963562
-117.442199707031 -67.885719299316 -183.124450683594 5.250349998474
-113.393898010254 -60.774135589600 -184.611526489258 5.384181499481
24.823480606079 -68.117156982422 -185.039932250977 2.241487503052
9.637958526611 -62.329586029053 -181.596191406250 8.960948944092
-28.001230239868 -61.180500030518 -186.017501831055 7.030882835388
-29.502443313599 -72.822700500488 -184.185592651367 2.479360580444
-30.334836959839 -66.974494934082 -183.878814697266 2.204122066498
11.393166542053 -62.945083618164 -177.398483276367 8.157529830933
-151.780517578125 -64.288208007813 -185.474426269531 1.538580417633
-147.749450683594 -63.290946960449 -181.084777832031 2.419976949692
-149.086608886719 -69.989418029785 -188.980743408203 1.726408123970
-25.037139892578 -64.979171752930 -186.838973999023 3.078980922699
13.503503799438 -63.128566741943 -197.191421508789 4.309615612030
97.049728393555 -66.310821533203 -193.492462158203 5.755047798157
-114.613693237305 -62.736053466797 -189.383316040039 3.303530931473
19.751777648926 -73.285057067871 -194.727111816406 1.714298605919
-13.863990783691 -64.726692199707 -190.286804199219 6.671009540558
-18.275096893311 -66.705917358398 -194.001525878906 1.380935192108
100.347953796387 -66.522491455078 -202.159545898438 4.941754341125
5.229302883148 -70.828788757324 -194.201202392578 4.767535686493
-23.529195785522 -64.263191223145 -192.348358154297 3.573034524918
-121.722640991211 -69.626022338867 -195.367614746094 0.947500169277
-136.062698364258 -65.646690368652 -192.853729248047 2.658204793930
-115.929908752441 -57.397495269775 -197.759613037109 6.500869274139
-143.706771850586 -69.722396850586 -192.222869873047 1.857363104820
15.003070831299 -66.805648803711 -195.274932861328 0.984678089619
90.445655822754 -71.265815734863 -199.650405883789 3.539272308350
-166.196090698242 -56.828235626221 -187.764236450195 14.781957626343
98.677703857422 -67.426628112793 -202.536605834961 3.580268144608
-26.073314666748 -73.588600158691 -199.817733764648 0.956598341465
92.882987976074 -63.964153289795 -209.805084228516 5.152650356293
86.388244628906 -71.971282958984 -209.013092041016 2.699088335037
8.152839660645 -70.801841735840 -198.420776367188 0.665546000004
19.273813247681 -66.036842346191 -211.075576782227 2.835155010223
11.936623573303 -62.430091857910 -205.905395507813 4.796477317810
-13.476961135864 -67.721542358398 -220.293930053711 2.505177497864
-95.762023925781 -70.437721252441 -212.032836914063 3.533560991287
-15.191549301147 -70.731628417969 -206.223037719727 2.428428649902
84.820671081543 -70.126701354980 -218.866867065430 0.426630049944
-96.987434387207 -70.111465454102 -207.349990844727 8.138048171997
-101.423202514648 -61.226989746094 -214.202850341797 9.266148567200
-99.387550354004 -64.784706115723 -210.375289916992 8.719170570374
87.081161499023 -72.960113525391 -223.542785644531 0.397223740816
-138.600906372070 -66.906547546387 -214.809402465820 6.203066349030
-133.148971557617 -74.502212524414 -217.928054809570 6.006292343140
-118.823913574219 -66.418342590332 -215.237991333008 10.392854690552
-115.717117309570 -62.188838958740 -211.355590820313 8.573536872864
-134.909179687500 -62.441383361816 -218.294677734375 8.371221542358
-116.995758056641 -77.176261901855 -218.983917236328 8.087024688721
-113.332649230957 -64.870780944824 -219.560470581055 6.290428638458
-9.776159286499 -73.708564758301 -219.277755737305 2.455793619156
-17.260881423950 -72.010917663574 -218.665328979492 3.029956102371
-3.471873044968 -64.169868469238 -225.952133178711 2.830088615417
-12.442502975464 -62.916553497314 -222.847976684570 6.281967163086
12.826128005981 -69.987770080566 -231.524429321289 1.513901114464
-23.946117401123 -64.664588928223 -225.116058349609 6.888927459717
-168.921936035156 -62.890602111816 -207.925369262695 5.183324337006
-9.185932159424 -69.482841491699 -230.081771850586 1.663999199867
78.220596313477 -64.361328125000 -233.490615844727 5.400611877441
9.594750404358 -71.501586914063 -229.909652709961 2.681761503220
-8.147559165955 -67.409385681152 -231.927154541016 0.387455642223
-160.107635498047 -62.573474884033 -224.165420532227 2.969978809357
-146.357162475586 -63.156650543213 -216.715942382813 2.602439403534
56.836761474609 -68.114379882813 -236.417831420898 4.080720424652
-8.481109619141 -69.132797241211 -228.688385009766 2.517479658127
9.342897415161 -71.539253234863 -225.109802246094 1.519507169724
66.875732421875 -73.535423278809 -225.316635131836 5.910025596619
73.675666809082 -68.937332153320 -235.036911010742 1.654717326164
68.459617614746 -71.576156616211 -242.945068359375 2.115432977676
-5.218763828278 -73.342422485352 -230.238250732422 1.114643454552
55.769615173340 -66.032173156738 -235.360168457031 5.714370727539
-22.885974884033 -72.689422607422 -235.693511962891 3.188408374786
-16.983709335327 -63.545669555664 -235.267364501953 6.469593524933
4.340804100037 -68.298446655273 -234.699188232422 1.814090490341
60.251228332520 -75.037857055664 -235.229156494141 3.959011077881
65.245330810547 -67.052482604980 -241.808044433594 1.503367066383
44.469951629639 -70.339126586914 -244.151077270508 3.958996057510
57.271659851074 -74.787338256836 -241.674972534180 1.382749438286
-18.972633361816 -76.867553710938 -243.828079223633 1.292240738869
-88.108619689941 -62.881809234619 -250.434585571289 6.811398029327
-80.829978942871 -64.537071228027 -246.714782714844 6.970539093018
40.154144287109 -74.238693237305 -244.802230834961 6.039688587189
-157.119216918945 -68.944778442383 -237.904067993164 1.184360861778
30.661069869995 -69.033996582031 -255.597717285156 1.654227018356
-96.413368225098 -74.386520385742 -243.332382202148 9.295689582825
-161.475158691406 -59.959300994873 -242.299270629883 7.412039756775
-143.055206298828 -54.939071655273 -241.094100952148 8.953933715820
38.113113403320 -68.652488708496 -252.863616943359 1.473803877831
-129.906387329102 -61.987369537354 -249.112899780273 7.608197212219
-122.077209472656 -68.982872009277 -244.508300781250 9.424236297607
-95.100708007813 -61.361167907715 -248.343139648438 6.293524742126
-16.200151443481 -62.195457458496 -242.338989257813 6.204030990601
28.133953094482 -68.855949401855 -253.665634155273 2.860366344452
20.832117080688 -65.317893981934 -256.289764404297 2.325541973114
-164.881561279297 -58.363758087158 -249.926300048828 9.794160842896
-118.789871215820 -70.924682617188 -253.126144409180 3.580316781998
-17.585172653198 -69.057250976563 -257.882934570313 3.998857021332
-135.831741333008 -66.494102478027 -255.747879028320 1.984581112862
-19.571012496948 -67.618873596191 -265.773223876953 5.901676654816
-167.464294433594 -66.170570373535 -258.571990966797 3.747275590897
-10.475660324097 -70.883247375488 -273.636322021484 2.271650791168
-164.967636108398 -68.876678466797 -275.624572753906 1.230593681335
-170.564758300781 -71.817871093750 -266.025848388672 3.581861019135
-147.507019042969 -68.574234008789 -274.003417968750 3.231590986252
-178.014877319336 -70.670043945313 -271.809600830078 9.865826606750
8.851936340332 -74.899726867676 -285.988616943359 2.800283193588
-108.652778625488 -70.184776306152 -277.231689453125 9.097573280334
-93.326705932617 -60.706977844238 -277.169677734375 14.439332962036
-174.443008422852 -62.644939422607 -271.576232910156 9.927144050598
-98.560432434082 -77.102859497070 -271.526519775391 12.968894958496
-162.709182739258 -68.918869018555 -277.632659912109 2.962082147598
-84.335739135742 -71.902030944824 -290.820465087891 1.510193109512
-78.738578796387 -67.950904846191 -281.323059082031 6.589286804199
-89.749473571777 -71.722618103027 -284.084716796875 4.135372161865
-9.038548469543 -68.185829162598 -283.522979736328 2.011219739914
-97.176628112793 -68.492675781250 -277.912384033203 9.552778244019
-105.150032043457 -71.788139343262 -281.121246337891 4.229525089264
-125.515197753906 -68.543594360352 -283.159484863281 2.132210254669
-122.585464477539 -63.315338134766 -283.554260253906 5.529458522797
-139.913375854492 -69.075500488281 -280.011383056641 5.350595951080
-148.262435913086 -67.478157043457 -289.620452880859 1.676139354706
-151.570510864258 -70.162826538086 -301.008148193359 0.806116819382
32.592647552490 -55.328098297119 -11.931065559387 3.818483352661
41.951076507568 -59.278575897217 -13.769034385681 4.279537677765
37.998874664307 -63.333797454834 -15.623615264893 3.495749711990
53.136161804199 -55.792957305908 -17.950300216675 6.008935451508
30.540510177612 -59.481655120850 -29.473217010498 4.609032630920
-67.885124206543 -58.081855773926 -39.095512390137 5.075574874878
95.094551086426 -56.341289520264 -68.273078918457 5.426487445831
-14.281179428101 -56.202648162842 -62.235118865967 2.768958568573
110.298637390137 -63.414482116699 -75.747695922852 5.852032184601
98.086181640625 -68.576133728027 -76.579612731934 3.273894071579
73.079147338867 -63.795162200928 -78.953865051270 7.380204200745
77.789413452148 -68.615676879883 -81.658416748047 7.199360847473
-39.226745605469 -65.523246765137 -75.661155700684 1.536819100380
65.250526428223 -69.840957641602 -79.710556030273 2.514549732208
-88.253311157227 -60.976333618164 -81.103187561035 9.843783378601
-41.777507781982 -57.985179901123 -78.095260620117 1.664011001587
-51.790767669678 -68.244331359863 -77.031089782715 5.816016197205
107.167503356934 -73.071304321289 -100.350997924805 1.725640177727
65.016380310059 -67.651893615723 -88.819984436035 1.711766839027
72.576080322266 -62.671142578125 -90.561210632324 6.953134059906
-89.495185852051 -52.386196136475 -89.421806335449 12.129553794861
112.566902160645 -66.812965393066 -91.764694213867 6.910111427307
45.718170166016 -61.262714385986 -97.934097290039 3.379929304123
106.769088745117 -63.879585266113 -99.945999145508 2.204643011093
111.196327209473 -60.854835510254 -108.549743652344 5.830853462219
103.372543334961 -64.965263366699 -104.463195800781 2.553660631180
78.462501525879 -68.702377319336 -98.105567932129 4.712735652924
90.283279418945 -67.435745239258 -109.181755065918 2.979542255402
54.143745422363 -61.809360504150 -110.057655334473 2.710220575333
114.550956726074 -59.117935180664 -103.666587829590 10.214624404907
52.110191345215 -69.198860168457 -102.239402770996 2.225584983826
41.475868225098 -61.571437835693 -100.549003601074 6.238572120667
117.255714416504 -66.291732788086 -112.554229736328 6.393176078796
-74.131919860840 -56.134609222412 -101.022186279297 1.740361809731
48.818923950195 -62.133369445801 -111.323768615723 1.836713552475
35.628246307373 -67.877571105957 -114.308586120605 2.736691951752
109.808723449707 -61.686077117920 -112.655967712402 4.853683471680
40.037609100342 -60.319091796875 -109.860237121582 4.413387298584
-82.974739074707 -61.141105651855 -102.161727905273 4.794443607330
-91.248229980469 -55.896175384521 -105.753890991211 7.338312149048
104.002334594727 -72.168106079102 -121.408302307129 2.370193004608
-91.597694396973 -61.893802642822 -110.372337341309 5.688892364502
42.751598358154 -69.073333740234 -118.770019531250 1.762270569801
39.311443328857 -64.612426757813 -121.588981628418 2.783916473389
-82.656402587891 -61.801090240479 -115.548728942871 1.934622764587
36.238994598389 -62.032489776611 -131.657501220703 2.729107618332
115.302803039551 -67.431892395020 -133.265853881836 1.627227783203
-51.257324218750 -62.970592498779 -133.117370605469 1.494337916374
-85.105499267578 -59.868297576904 -125.712280273438 3.743607759476
41.034576416016 -70.338684082031 -127.688987731934 3.667702674866
-83.161033630371 -55.974048614502 -128.991104125977 6.429584026337
-85.554809570313 -66.561065673828 -133.004058837891 1.853817939758
-47.983684539795 -62.784461975098 -129.624832153320 4.056750297546
-68.791465759277 -59.120685577393 -131.272750854492 5.271340370178
-48.030036926270 -62.016284942627 -125.609062194824 5.313232898712
120.342231750488 -61.981727600098 -138.554046630859 8.952858924866
-68.684989929199 -65.186538696289 -125.932914733887 3.813403606415
40.649349212646 -66.067337036133 -128.260253906250 4.401645660400
-76.200859069824 -59.607383728027 -133.867660522461 4.692368984222
-69.295730590820 -62.864257812500 -127.583175659180 3.783552169800
-92.975723266602 -59.376937866211 -134.478164672852 4.986086845398
-53.772377014160 -58.062259674072 -138.426254272461 4.152871608734
33.509757995605 -58.286167144775 -144.129318237305 8.573798179626
28.947610855103 -63.110992431641 -146.325866699219 5.151248455048
22.860382080078 -56.789939880371 -142.085723876953 2.774683952332
114.029472351074 -65.545982360840 -148.003753662109 3.453357458115
-88.271163940430 -60.317520141602 -142.855606079102 3.382497072220
11.572720527649 -66.253082275391 -148.971435546875 2.327005386353
-70.026824951172 -62.238113403320 -148.269378662109 5.615700721741
25.625553131104 -62.473773956299 -146.304672241211 3.895185470581
-47.974693298340 -61.741081237793 -149.122177124023 5.305938720703
11.454757690430 -62.727275848389 -150.969131469727 2.996751070023
18.714380264282 -68.900070190430 -156.378845214844 3.618405818939
17.519804000854 -72.079010009766 -160.564132690430 2.571339845657
-50.817520141602 -67.026344299316 -157.363616943359 3.697346687317
-36.782562255859 -61.488048553467 -150.052352905273 9.965972900391
-46.877391815186 -65.310279846191 -156.496673583984 4.020705223083
-102.433418273926 -64.329902648926 -164.430511474609 3.287737607956
22.227697372437 -68.001167297363 -172.504776000977 1.004718184471
-32.987483978271 -64.982337951660 -173.577896118164 3.058366775513
15.639633178711 -72.084793090820 -175.050003051758 3.169530630112
-141.319366455078 -61.258064270020 -165.468688964844 10.107032775879
-30.557289123535 -59.568164825439 -167.134552001953 9.758195877075
-156.714035034180 -71.128593444824 -166.504257202148 10.544646263123
25.523124694824 -58.054679870605 -179.337234497070 9.024948120117
-33.998638153076 -66.827529907227 -164.212554931641 3.946661949158
-105.857177734375 -59.405811309814 -166.064376831055 2.982725143433
-106.925598144531 -71.050476074219 -175.212936401367 2.786314249039
-30.915706634521 -57.350055694580 -181.028839111328 10.991683959961
-24.567560195923 -71.595771789551 -176.229751586914 0.929077267647
11.443935394287 -64.355247497559 -185.773712158203 5.572247028351
14.739231109619 -61.914985656738 -196.806076049805 4.881381988525
12.657966613770 -66.739952087402 -184.511840820313 3.323207616806
-142.369857788086 -59.720767974854 -175.772613525391 2.852331399918
24.944396972656 -60.174434661865 -187.352416992188 8.393361091614
4.190776824951 -64.691543579102 -193.306594848633 7.946525573730
-134.400192260742 -60.617130279541 -182.568389892578 8.459425926208
-112.468055725098 -62.708572387695 -185.937438964844 3.643806934357
13.883897781372 -63.568588256836 -202.043350219727 4.215742111206
-120.159660339355 -60.932846069336 -187.333450317383 8.876612663269
-107.756149291992 -54.509986877441 -183.896102905273 7.047157287598
-168.234039306641 -64.539009094238 -190.287673950195 10.169958114624
-25.244781494141 -63.012397766113 -194.970535278320 4.741516113281
8.990036010742 -63.394306182861 -196.236953735352 5.431013107300
-146.863098144531 -64.231857299805 -193.278869628906 1.336145162582
-139.792694091797 -68.165840148926 -196.881210327148 1.695438623428
-23.770889282227 -62.802253723145 -203.438858032227 6.663598060608
-13.848088264465 -66.734939575195 -201.354309082031 1.672211647034
-14.541677474976 -67.696273803711 -201.331176757813 1.707999587059
-138.640396118164 -69.531570434570 -191.192581176758 4.188912391663
-19.242094039917 -65.367034912109 -208.264434814453 2.342699050903
-10.211116790771 -73.646583557129 -210.267089843750 1.459024548531
16.874301910400 -62.032001495361 -208.696166992188 4.106243610382
-19.668354034424 -72.826408386230 -207.027282714844 1.693888664246
8.826295852661 -68.172332763672 -205.344558715820 2.706547737122
-13.181254386902 -68.284729003906 -210.580017089844 0.546199083328
-25.877492904663 -60.738338470459 -206.674057006836 8.905131340027
9.117812156677 -75.509323120117 -217.030960083008 2.243531942368
-4.883386135101 -74.370590209961 -214.650329589844 2.733160257339
9.248120307922 -60.956878662109 -217.099121093750 7.090803623199
-9.220682144165 -71.002380371094 -224.774887084961 0.852293908596
-163.367523193359 -65.882179260254 -215.645263671875 1.120121836662
78.308120727539 -72.115699768066 -219.405029296875 3.635488033295
-137.878372192383 -60.895820617676 -213.341659545898 8.338941574097
-137.315292358398 -67.705970764160 -210.649765014648 6.546215534210
-10.021800041199 -67.748413085938 -220.860290527344 2.003257751465
2.968697071075 -66.616783142090 -232.622070312500 1.316338181496
-161.297927856445 -64.050613403320 -220.644653320313 3.470593690872
88.178009033203 -65.897506713867 -220.873809814453 3.701226949692
-3.556521892548 -64.863334655762 -223.049621582031 1.471587181091
-1.212013006210 -67.288879394531 -216.807632446289 2.764915943146
71.216529846191 -72.902153015137 -231.414291381836 1.386772632599
-2.703630924225 -63.250698089600 -233.398666381836 3.843970775604
-15.499599456787 -68.173568725586 -219.409515380859 3.098587512970
-130.463516235352 -60.049507141113 -223.784591674805 5.798209190369
-8.673823356628 -66.669738769531 -234.451522827148 2.075616836548
0.191092997789 -63.722389221191 -225.913131713867 4.575343608856
63.284576416016 -64.408935546875 -237.551666259766 2.118232965469
-160.691787719727 -67.918701171875 -225.310775756836 1.189289569855
-16.973562240601 -64.693222045898 -241.581863403320 4.822616577148
-173.685455322266 -68.429267883301 -227.065780639648 6.885844230652
7.904586791992 -61.065067291260 -238.126174926758 3.073964595795
-165.909454345703 -66.967056274414 -227.003158569336 2.005408525467
-162.992462158203 -67.767341613770 -236.031799316406 1.126345872879
55.214061737061 -69.617164611816 -243.722061157227 1.759921550751
57.176700592041 -71.699699401855 -240.910690307617 1.648437619209
51.777565002441 -70.079475402832 -245.203292846680 1.612101912498
47.655357360840 -68.743957519531 -248.263977050781 0.692869663239
-155.036697387695 -67.182052612305 -231.307250976563 1.237379789352
-159.228118896484 -59.824966430664 -234.850067138672 4.686241149902
-15.823263168335 -73.799407958984 -244.831542968750 3.426923751831
-153.707870483398 -64.156089782715 -236.804672241211 2.392319440842
13.739250183105 -68.163665771484 -248.023681640625 4.269492626190
-175.496963500977 -73.085311889648 -239.298324584961 7.890680789948
-172.949569702148 -62.663856506348 -239.450073242188 8.756313323975
-85.566764831543 -69.250297546387 -238.627304077148 11.212911605835
-175.006561279297 -63.703521728516 -245.300872802734 9.509651184082
-88.973510742188 -66.393737792969 -250.983520507813 4.380914211273
39.322204589844 -67.203933715820 -252.165817260742 1.254035353661
17.421045303345 -72.332290649414 -254.709350585938 4.209252834320
-161.826507568359 -67.497627258301 -252.528427124023 2.573544979095
-105.286987304688 -57.152961730957 -251.967300415039 10.630188941956
36.253700256348 -68.021163940430 -252.424880981445 1.174451828003
-112.131248474121 -77.235214233398 -248.596405029297 9.054002761841
-157.531860351563 -62.040393829346 -255.513397216797 3.313419580460
-107.176383972168 -65.299133300781 -247.326339721680 8.123822212219
-174.028213500977 -69.499931335449 -247.305572509766 7.327655792236
-117.485076904297 -67.360473632813 -255.068313598633 1.934317827225
-158.144805908203 -68.923271179199 -255.343429565430 2.874394178391
-163.868728637695 -61.492393493652 -251.204772949219 6.919360160828
-169.688171386719 -64.310035705566 -252.291824340820 5.428953170776
-170.006927490234 -63.276432037354 -250.708816528320 6.204475879669
-170.021286010742 -65.695808410645 -252.272674560547 4.849116325378
-173.953887939453 -66.468872070313 -246.787445068359 7.843918800354
22.582700729370 -70.432716369629 -263.242431640625 1.875320911407
-151.507232666016 -72.339378356934 -251.179077148438 1.833995223045
-157.657135009766 -66.627952575684 -274.685607910156 3.262569665909
24.506353378296 -68.760986328125 -272.882141113281 1.466179609299
-17.660196304321 -72.486396789551 -270.166656494141 4.073406696320
-130.258728027344 -63.433109283447 -275.435668945313 11.228717803955
-141.842620849609 -66.849838256836 -276.412353515625 4.564854621887
-138.743545532227 -66.491432189941 -279.869201660156 5.869022846222
-134.081710815430 -67.084609985352 -275.916076660156 8.538156509399
-118.004028320313 -65.800270080566 -283.856475830078 5.270577907562
-108.678260803223 -61.543365478516 -274.951293945313 14.092912673950
0.964226007462 -74.518180847168 -292.452423095703 2.533156633377
-89.705261230469 -69.591201782227 -283.313476562500 5.726866245270
-153.881042480469 -67.307319641113 -274.846710205078 2.963852882385
-108.432868957520 -69.014373779297 -282.534301757813 5.315803050995
-139.603439331055 -64.075462341309 -282.756439208984 4.720321178436
4.651326179504 -71.736618041992 -283.792358398438 4.583687782288
-115.736351013184 -58.110233306885 -277.663116455078 14.293652534485
-0.856440007687 -69.987388610840 -290.713989257813 2.111435174942
-148.576110839844 -66.384109497070 -275.089813232422 2.303198575974
-157.897644042969 -66.860824584961 -283.787231445313 3.050116062164
-167.006820678711 -65.848144531250 -306.487670898438 11.828935623169
-162.825103759766 -64.451240539551 -299.659088134766 9.186419487000
53.735130310059 -63.762256622314 -23.807554244995 5.537461757660
32.881038665771 -59.016059875488 -35.819046020508 1.889931201935
35.451084136963 -60.841365814209 -34.401428222656 1.262145161629
-34.203456878662 -62.872085571289 -41.572830200195 5.218564987183
-3.954763889313 -56.812297821045 -59.680801391602 4.478899955750
100.870445251465 -62.789714813232 -68.930389404297 1.113896131516
73.947845458984 -54.410343170166 -68.700195312500 4.464701652527
-20.321542739868 -58.586555480957 -69.541580200195 5.095304012299
-96.655181884766 -64.766616821289 -80.666107177734 4.016839504242
-38.013496398926 -59.669311523438 -81.130935668945 2.786751270294
61.916522979736 -61.702682495117 -79.015960693359 1.335196495056
70.747146606445 -66.534332275391 -83.869338989258 4.541169166565
55.459739685059 -58.652847290039 -86.996414184570 2.819885253906
-55.013351440430 -59.149097442627 -84.759490966797 3.818673372269
72.481063842773 -56.192775726318 -89.312393188477 1.682001471519
46.525791168213 -67.587745666504 -97.363807678223 0.974286973476
73.835975646973 -66.242538452148 -95.112930297852 4.987396240234
-55.241058349609 -58.209079742432 -90.626342773438 6.484420776367
56.269062042236 -64.529121398926 -90.056762695313 1.545920729637
51.328201293945 -66.031898498535 -96.720001220703 2.501711130142
107.081390380859 -58.737464904785 -105.333602905273 5.907641410828
-60.164588928223 -60.190917968750 -91.440925598145 4.073878288269
116.108871459961 -62.883613586426 -101.579483032227 8.981088638306
-74.995605468750 -64.930313110352 -94.468933105469 5.505393981934
56.960723876953 -66.425643920898 -106.549377441406 5.022927284241
52.266441345215 -60.623371124268 -100.553642272949 2.499637603760
94.359748840332 -57.781410217285 -105.697654724121 2.334021091461
86.386421203613 -64.405143737793 -106.339317321777 2.099072933197
61.110702514648 -64.491531372070 -104.657104492188 6.258143424988
-73.850334167480 -61.657867431641 -105.653976440430 1.146924257278
-75.808456420898 -60.387680053711 -110.669792175293 1.250676631927
-78.236717224121 -61.838459014893 -110.072349548340 1.635742545128
-91.213150024414 -68.169387817383 -108.695625305176 4.884917736053
105.211608886719 -55.757831573486 -119.975189208984 11.959457397461
-88.292526245117 -64.825073242188 -109.976310729980 3.387783527374
-71.408599853516 -54.995353698730 -115.006370544434 1.285469412804
111.770576477051 -63.265079498291 -119.041793823242 4.553369045258
-55.588333129883 -50.200817108154 -110.872390747070 6.112377643585
115.359924316406 -71.324905395508 -133.545989990234 1.478405237198
112.245018005371 -67.668830871582 -131.748519897461 1.730280399323
106.798553466797 -67.563369750977 -130.374633789063 2.119991302490
-91.667724609375 -62.238647460938 -128.267028808594 4.857233047485
-42.867313385010 -62.448619842529 -136.242050170898 7.369396209717
-80.192626953125 -57.435649871826 -135.646591186523 7.350799083710
-67.651435852051 -61.839160919189 -141.148422241211 7.705514431000
-66.347000122070 -61.036064147949 -143.480148315430 7.991320610046
-53.036827087402 -61.537879943848 -137.694396972656 2.582230329514
-43.634044647217 -69.171211242676 -137.376480102539 3.278716564178
13.853495597839 -63.885517120361 -145.047256469727 2.711354255676
-91.389984130859 -55.464305877686 -132.392440795898 8.921661376953
-44.982326507568 -60.181846618652 -140.130508422852 7.093424797058
-48.622749328613 -51.363204956055 -140.560638427734 12.334212303162
-41.272769927979 -59.642574310303 -148.306518554688 9.334810256958
27.414747238159 -68.031517028809 -157.409103393555 2.837407112122
-50.042999267578 -64.751686096191 -145.860580444336 2.923412322998
-101.457572937012 -53.854003906250 -139.359725952148 11.915946006775
-47.175975799561 -57.765182495117 -148.216537475586 8.853871345520
26.657117843628 -68.308715820313 -142.168624877930 1.524366617203
-93.989608764648 -71.675788879395 -155.483551025391 4.641550064087
24.165143966675 -68.083816528320 -155.675018310547 1.669741988182
-107.724662780762 -56.889217376709 -159.354064941406 8.034520149231
-101.038475036621 -62.844249725342 -155.526687622070 1.933957695961
22.480983734131 -65.206527709961 -164.516815185547 3.842377424240
27.307394027710 -62.295181274414 -165.035751342773 4.827015399933
-111.638275146484 -66.300262451172 -163.496215820313 4.424108982086
-142.115814208984 -57.223308563232 -162.124450683594 14.553221702576
-18.028577804565 -65.522758483887 -186.813491821289 5.756560325623
-27.737943649292 -62.911487579346 -174.734863281250 6.788774490356
-118.223678588867 -65.229515075684 -177.025253295898 7.882606983185
-143.739532470703 -56.892627716064 -174.866607666016 5.271422386169
-100.501083374023 -58.102859497070 -172.508819580078 6.938838005066
-160.779586791992 -62.274021148682 -176.184005737305 8.495813369751
-131.779754638672 -69.658584594727 -185.163085937500 9.178968429565
-133.531066894531 -66.468864440918 -185.986282348633 7.728558540344
-19.380010604858 -62.265186309814 -181.740234375000 9.081697463989
-119.035430908203 -64.264526367188 -190.357604980469 5.671397209167
-120.348190307617 -57.629493713379 -191.637252807617 7.007402420044
-30.217401504517 -68.626251220703 -186.670806884766 2.743618965149
-154.844497680664 -58.606769561768 -183.023223876953 5.417094230652
-134.150009155273 -64.340011596680 -194.706680297852 2.738547563553
-125.947448730469 -59.423542022705 -193.530761718750 4.910773277283
17.611526489258 -70.546951293945 -198.790756225586 1.597900748253
-163.748474121094 -63.404914855957 -189.302658081055 8.967429161072
12.244351387024 -63.508556365967 -214.787170410156 4.902139186859
12.767548561096 -68.652458190918 -212.690475463867 1.603102564812
-16.052473068237 -59.621761322021 -206.910949707031 7.253773689270
-6.771386146545 -65.797843933105 -213.050415039063 2.293129205704
-174.954772949219 -58.294281005859 -199.016921997070 11.922450065613
-160.832855224609 -56.552562713623 -200.537567138672 7.050413131714
-96.871368408203 -63.254901885986 -210.890853881836 8.306087493896
-97.735336303711 -67.564437866211 -212.054214477539 5.750208854675
-163.185897827148 -65.557907104492 -215.860839843750 1.465117335320
-112.011283874512 -60.210628509521 -209.654708862305 8.509622573853
-13.002388000488 -63.045387268066 -206.190444946289 4.064987182617
-130.703918457031 -66.420753479004 -210.410400390625 5.573548316956
-145.666137695313 -63.708133697510 -211.504760742188 0.809233188629
-5.360534191132 -69.646331787109 -217.247100830078 1.926382184029
-136.200317382813 -60.905925750732 -213.428710937500 8.855395317078
-125.639244079590 -70.248069763184 -211.210983276367 5.345876216888
-116.420562744141 -68.735580444336 -213.550079345703 9.287527084351
-5.022956848145 -57.405570983887 -226.298614501953 9.388159751892
-110.328216552734 -61.028881072998 -223.535430908203 4.923751831055
-164.190826416016 -54.301750183105 -210.879318237305 11.938652992249
-147.392395019531 -62.863338470459 -214.946548461914 1.354936718941
-166.807281494141 -62.702747344971 -214.342697143555 4.304691314697
-10.730195045471 -63.126354217529 -220.733184814453 5.705176353455
-10.726453781128 -67.337722778320 -230.060653686523 1.623989582062
75.939865112305 -72.110725402832 -224.782196044922 1.764975547791
-4.649599075317 -70.252952575684 -224.598632812500 1.579305768013
-146.353973388672 -64.056625366211 -228.295318603516 2.555004835129
-17.294782638550 -62.762722015381 -225.300354003906 6.582095146179
71.296615600586 -68.444107055664 -227.218688964844 1.310812950134
70.892478942871 -68.683982849121 -233.168060302734 1.540048956871
-136.781906127930 -61.420639038086 -221.292419433594 6.447623729706
-158.057083129883 -69.351905822754 -216.776214599609 1.932334542274
-116.175537109375 -61.375740051270 -223.551101684570 5.786405563354
-128.445510864258 -57.447570800781 -227.393310546875 7.297737598419
-164.800125122070 -61.842620849609 -223.616195678711 4.804420471191
-164.063766479492 -64.866027832031 -223.467987060547 2.874890804291
-151.116104125977 -56.123626708984 -221.212860107422 5.428172111511
-18.904911041260 -62.561912536621 -229.531860351563 7.540349960327
-9.521959304810 -64.852355957031 -238.952224731445 2.140617847443
-163.205642700195 -62.452651977539 -231.968734741211 5.873745441437
2.796869039536 -67.317100524902 -232.949325561523 0.712234437466
-3.399080038071 -68.832191467285 -235.098022460938 1.518171310425
-161.436828613281 -63.305130004883 -224.996414184570 2.154671907425
15.987001419067 -73.345367431641 -236.716613769531 2.218494892120
47.402545928955 -71.591812133789 -245.271057128906 3.030884742737
44.870670318604 -72.666435241699 -241.692489624023 5.825891494751
