0.461304008961 -78.409988403320 -163.061096191406 1.789124369621
110.219894409180 -77.848739624023 -153.328521728516 2.430388450623
-64.926605224609 -77.045349121094 -166.334884643555 1.222917556763
-39.859066009521 -79.294357299805 -166.579605102539 1.748531222343
110.312332153320 -79.055397033691 -166.648117065430 2.226755619049
26.539524078369 -71.351844787598 -159.252609252930 1.882864713669
-62.014919281006 -69.874374389648 -163.636337280273 1.638857364655
112.386093139648 -78.146194458008 -167.267318725586 1.312448978424
-66.368232727051 -79.098487854004 -168.613174438477 1.383040785789
-49.174247741699 -81.090377807617 -183.062179565430 1.793314218521
105.345901489258 -77.245429992676 -172.714797973633 2.338777780533
-60.277942657471 -75.824707031250 -172.648391723633 1.898033857346
112.049896240234 -76.559768676758 -180.369567871094 2.750441074371
-62.493297576904 -76.289375305176 -176.566757202148 1.892293214798
-17.189872741699 -74.520919799805 -177.652954101563 1.983727574348
-10.178729057312 -83.957450866699 -183.431564331055 6.133322238922
106.945632934570 -80.076370239258 -166.982177734375 4.727482795715
20.910247802734 -79.309883117676 -171.685302734375 1.483931779861
30.480939865112 -71.646903991699 -169.479843139648 2.191604137421
-59.296455383301 -76.453636169434 -177.349594116211 1.942827105522
16.106521606445 -75.293251037598 -182.207077026367 1.004412651062
-58.238693237305 -78.550148010254 -173.938125610352 1.081881999969
-53.750484466553 -75.795181274414 -195.325836181641 5.075758934021
9.094264984131 -74.870445251465 -185.730377197266 3.630662202835
-56.256805419922 -71.583854675293 -178.789077758789 2.986816883087
104.933898925781 -74.644485473633 -190.891357421875 1.506428003311
25.625814437866 -81.255691528320 -182.844223022461 3.512826919556
-36.783382415771 -74.678077697754 -188.121368408203 4.055468082428
-44.224899291992 -80.743812561035 -189.081146240234 3.050501108170
10.303257942200 -80.600997924805 -191.388504028320 5.211196422577
-21.127355575562 -78.969535827637 -187.355239868164 2.003710269928
-47.930377960205 -79.308471679688 -195.783172607422 1.699391603470
100.568580627441 -82.760498046875 -183.602767944336 6.439799785614
7.303223133087 -82.078521728516 -190.517807006836 8.328814506531
-133.026657104492 -85.122879028320 -199.508575439453 3.961892127991
-51.174095153809 -80.181877136230 -195.846771240234 2.246960163116
92.896972656250 -76.731941223145 -200.094345092773 3.630589485168
-151.221603393555 -84.016227722168 -201.401351928711 0.880904436111
17.220090866089 -78.406692504883 -202.173583984375 1.796251654625
-44.936553955078 -73.966773986816 -206.157669067383 5.398387432098
-30.891588211060 -81.459114074707 -207.827468872070 3.629079103470
-38.376220703125 -79.209045410156 -200.513122558594 1.373983979225
-47.310661315918 -85.516105651855 -198.074569702148 1.738673329353
99.789131164551 -77.640800476074 -206.755706787109 1.737575054169
-22.608766555786 -82.755134582520 -199.671798706055 3.689182281494
-151.369186401367 -77.704978942871 -198.858367919922 1.928950548172
14.609602928162 -81.037269592285 -201.137878417969 2.966938018799
-78.632415771484 -82.677299499512 -204.449890136719 5.106595993042
-143.803588867188 -75.041587829590 -213.546203613281 2.110785007477
92.023757934570 -81.166221618652 -215.915191650391 4.360563755035
-34.290035247803 -76.100379943848 -206.956146240234 1.353801488876
-30.092407226563 -78.714065551758 -210.265716552734 1.653424143791
9.186710357666 -78.451568603516 -210.097640991211 1.495156049728
-73.106002807617 -82.896667480469 -206.168197631836 3.792348861694
-27.816522598267 -87.444595336914 -204.843246459961 9.213418960571
-10.294236183167 -79.917869567871 -217.760147094727 0.814437448978
-70.480171203613 -78.858535766602 -213.521224975586 1.085975646973
-15.189034461975 -78.630180358887 -217.778091430664 2.281028747559
6.366864204407 -68.158599853516 -211.328475952148 2.962414741516
10.360434532166 -81.500236511230 -222.117141723633 1.089689373970
-153.657455444336 -80.242149353027 -216.918792724609 4.123980522156
-10.718772888184 -77.977783203125 -214.291992187500 0.769060671329
-104.510345458984 -73.960266113281 -219.231842041016 1.913959860802
-23.369823455811 -77.685928344727 -219.382827758789 0.845572471619
86.712768554688 -84.935531616211 -213.474395751953 8.449262619019
8.520772933960 -75.699783325195 -224.487854003906 1.920280933380
21.087306976318 -77.906929016113 -216.830444335938 3.704005718231
78.335479736328 -80.093482971191 -213.640228271484 6.990574359894
-0.021864000708 -83.563423156738 -230.939437866211 4.713797569275
83.803848266602 -78.713706970215 -217.805877685547 2.925703048706
-23.390729904175 -72.907394409180 -225.213211059570 2.217302322388
15.514978408813 -73.957725524902 -218.518203735352 1.764882802963
-150.526733398438 -79.589134216309 -216.611923217773 1.773681998253
-28.807155609131 -79.754409790039 -226.687637329102 5.399830818176
0.629042983055 -74.656532287598 -232.099731445313 2.882643461227
-158.110321044922 -84.331054687500 -223.484634399414 6.937761783600
-139.169662475586 -82.068367004395 -226.676483154297 1.928573131561
0.797501981258 -77.706192016602 -223.149185180664 1.727398395538
-4.976478099823 -73.728691101074 -223.913589477539 3.790085554123
-138.881179809570 -73.824150085449 -227.643692016602 2.352376222610
-149.167510986328 -78.462310791016 -242.303771972656 0.854842066765
-150.848983764648 -79.041603088379 -234.383163452148 2.015567541122
-32.819122314453 -79.793151855469 -236.365386962891 2.375892877579
-142.809402465820 -82.399230957031 -242.450073242188 1.837236046791
12.785524368286 -80.205337524414 -241.744171142578 1.680079698563
4.413231849670 -77.803863525391 -245.576080322266 1.199813961983
-152.442153930664 -71.582603454590 -237.569396972656 2.090298414230
-151.378967285156 -77.574661254883 -244.140716552734 1.724959254265
-46.671230316162 -80.733062744141 -246.576309204102 2.020293235779
-33.199783325195 -79.037406921387 -247.674438476563 4.989301204681
2.338426113129 -77.799972534180 -242.137863159180 0.843348145485
-37.066646575928 -80.742759704590 -245.344161987305 3.439974546432
20.194381713867 -78.516983032227 -246.766632080078 1.029318928719
-7.788159847260 -80.902801513672 -253.870620727539 1.544202208519
-144.723709106445 -79.700653076172 -251.986526489258 2.340260028839
-12.097749710083 -84.406822204590 -253.613525390625 4.641812801361
-150.282241821289 -75.510810852051 -244.692520141602 1.528695940971
-66.297050476074 -80.866668701172 -250.087142944336 3.014966964722
-147.860458374023 -86.081016540527 -257.655700683594 1.792919754982
-129.487213134766 -78.617492675781 -257.016998291016 3.191212415695
-155.389297485352 -78.702705383301 -255.113937377930 2.533021688461
-11.636288642883 -75.669532775879 -268.002929687500 2.856396436691
-147.283065795898 -85.876670837402 -272.766113281250 2.804098367691
-150.676818847656 -78.979705810547 -269.032775878906 2.181252002716
-13.948233604431 -78.717346191406 -271.261596679688 2.210216283798
-145.370758056641 -78.775520324707 -268.685974121094 1.936369299889
-8.763881683350 -76.793830871582 -276.190124511719 0.905428647995
-47.257896423340 -77.724327087402 -283.107940673828 3.469747304916
-136.979293823242 -75.454940795898 -287.394683837891 1.234384894371
-138.033264160156 -78.144577026367 -284.736816406250 2.740494489670
-124.199203491211 -74.531814575195 -279.752258300781 4.564069747925
-53.251331329346 -77.686965942383 -285.981903076172 1.709318995476
-112.947608947754 -77.314102172852 -281.939483642578 6.404616355896
14.836232185364 -77.824378967285 -293.669250488281 0.406778126955
-57.959938049316 -76.183456420898 -288.228057861328 0.708726823330
-142.395431518555 -78.513816833496 -292.895935058594 1.781791567802
-65.359642028809 -77.136100769043 -290.275878906250 3.093619585037
-147.019882202148 -84.816581726074 -293.025878906250 1.973206758499
-117.982688903809 -75.497802734375 -290.385894775391 1.559429049492
-47.296779632568 -81.917037963867 -290.112670898438 6.103476524353
-34.786125183105 -78.515602111816 -291.731567382813 0.589891135693
-140.656295776367 -73.195480346680 -296.377716064453 3.868674278259
-16.539049148560 -71.781730651855 -280.683502197266 5.955460548401
4.031560897827 -77.917053222656 -286.802886962891 2.428004741669
5.105218887329 -76.409576416016 -290.444519042969 1.435919046402
13.633453369141 -79.701187133789 -296.452758789063 3.446109533310
-151.549545288086 -84.085769653320 -297.473541259766 2.585408687592
-145.884262084961 -75.764671325684 -290.573974609375 1.916904568672
-65.179916381836 -74.216697692871 -62.445869445801 4.219195365906
89.747436523438 -78.964874267578 -73.080238342285 3.875092506409
79.203025817871 -78.261833190918 -78.782646179199 2.672546148300
-27.904525756836 -79.698326110840 -76.356437683105 1.190678119659
83.804580688477 -74.961540222168 -75.217834472656 1.584593176842
-38.292587280273 -79.870002746582 -79.626991271973 2.015674352646
81.811531066895 -71.941246032715 -83.925300598145 5.762479305267
97.317794799805 -71.992042541504 -80.634750366211 2.310433387756
-64.230621337891 -70.292373657227 -96.331222534180 2.902262449265
72.244468688965 -77.637992858887 -95.445510864258 2.996188640594
79.926704406738 -74.267799377441 -98.929206848145 0.882753908634
97.992279052734 -80.401771545410 -96.669204711914 6.105150699615
55.505954742432 -79.194908142090 -97.494018554688 3.163260936737
-64.809547424316 -73.068649291992 -101.008178710938 4.483085632324
-73.622909545898 -72.920738220215 -100.547828674316 1.210005998611
51.139945983887 -79.349792480469 -103.798713684082 1.631569027901
-86.808876037598 -78.096504211426 -100.973419189453 3.301605701447
47.776874542236 -73.124771118164 -119.064826965332 0.832905828953
110.642135620117 -76.247375488281 -121.624649047852 1.655757546425
113.041442871094 -79.642005920410 -131.285263061523 3.609740257263
19.016656875610 -74.502532958984 -137.106674194336 6.685970783234
110.171279907227 -79.326789855957 -128.142440795898 3.290253639221
29.017702102661 -73.651695251465 -133.621719360352 1.657827854156
112.471931457520 -70.102554321289 -134.400604248047 0.969113707542
36.548564910889 -73.978248596191 -135.271865844727 2.162160158157
-57.776840209961 -75.914382934570 -139.481323242188 2.163110017776
36.271259307861 -82.004020690918 -146.726745605469 4.557946205139
108.419158935547 -74.805969238281 -135.233062744141 2.549232006073
-45.247833251953 -74.652816772461 -143.485885620117 1.384232044220
31.671119689941 -75.202072143555 -151.323547363281 0.923983633518
-57.141727447510 -70.166404724121 -141.487945556641 0.826847672462
-60.850803375244 -76.243011474609 -143.575607299805 3.716549873352
-53.461589813232 -80.595672607422 -149.909317016602 3.305760622025
-64.642089843750 -80.201133728027 -155.268844604492 2.071627140045
110.905105590820 -82.219131469727 -148.059280395508 4.981555461884
-50.054122924805 -84.663589477539 -155.033615112305 5.902825355530
23.028223037720 -82.956420898438 -157.274810791016 4.525828838348
106.809165954590 -78.137474060059 -164.670837402344 3.319247484207
-65.394798278809 -76.984779357910 -153.906372070313 1.544543743134
-42.968791961670 -78.259651184082 -157.458267211914 2.575138568878
8.860844612122 -74.389122009277 -154.607543945313 0.852922499180
-68.973335266113 -77.606025695801 -153.477371215820 2.240570783615
-65.086776733398 -80.194137573242 -157.501754760742 1.590713739395
0.284108012915 -77.166580200195 -162.668014526367 2.013578891754
-45.028846740723 -72.363014221191 -167.889968872070 1.493693113327
28.013410568237 -74.577507019043 -168.674850463867 0.796025872231
-64.020530700684 -72.077339172363 -168.557693481445 1.405009388924
-56.142795562744 -79.475151062012 -165.873428344727 2.926135063171
13.360269546509 -80.949249267578 -159.964645385742 6.829937934875
-30.491765975952 -75.568038940430 -168.198638916016 0.644865810871
-28.701938629150 -80.022583007813 -166.316375732422 2.999063730240
14.048258781433 -78.850494384766 -175.032424926758 4.241597652435
-44.826812744141 -80.505760192871 -172.775909423828 4.070443630219
-10.702403068542 -78.933990478516 -172.284103393555 2.325290441513
-67.396759033203 -73.160789489746 -170.917251586914 2.363428831100
-8.514154434204 -74.352699279785 -174.853347778320 1.676924467087
-21.954713821411 -77.209938049316 -179.875793457031 1.989661097527
21.372611999512 -73.751319885254 -185.133743286133 2.386711835861
-39.348747253418 -79.318679809570 -172.253005981445 2.520597934723
21.014896392822 -72.428787231445 -175.613220214844 2.688817739487
-23.443542480469 -73.050437927246 -186.216903686523 0.597884118557
-32.601398468018 -80.141799926758 -176.903671264648 3.191946983337
-149.217666625977 -73.662437438965 -192.421646118164 0.728881478310
-17.687437057495 -82.474609375000 -183.403808593750 2.777025699615
-140.588775634766 -75.277908325195 -188.849105834961 3.396209478378
-155.347061157227 -77.748954772949 -186.077667236328 6.387859344482
-50.855251312256 -75.151855468750 -188.843032836914 1.530683636665
97.650711059570 -76.666763305664 -196.066360473633 2.082329988480
-145.711669921875 -78.689224243164 -188.924789428711 2.281357765198
-145.545227050781 -74.618125915527 -194.551162719727 1.708463311195
22.184701919556 -75.114372253418 -196.427139282227 1.910588264465
-139.851486206055 -77.943122863770 -194.680709838867 1.877117037773
11.737704277039 -72.742401123047 -199.690444946289 1.592505216599
-138.453735351563 -80.950553894043 -198.906204223633 2.046484947205
12.452132225037 -72.656547546387 -198.313491821289 0.670570433140
-133.287109375000 -73.281059265137 -193.888946533203 1.882943987846
3.871814012527 -73.053329467773 -201.749282836914 4.008864879608
-153.207626342773 -77.333747863770 -200.610076904297 1.503698468208
94.856513977051 -77.456268310547 -208.091369628906 1.620158910751
-18.120889663696 -80.265548706055 -209.494934082031 3.237130880356
-31.405349731445 -76.048439025879 -209.135208129883 0.834066808224
-13.363884925842 -71.234481811523 -205.301239013672 1.432968258858
-145.571777343750 -82.740188598633 -209.296813964844 1.301547408104
-36.323322296143 -77.251007080078 -202.593902587891 0.785139977932
-85.378196716309 -79.535881042480 -201.630355834961 10.374463081360
-27.717287063599 -78.980888366699 -207.995941162109 1.668392062187
12.938427925110 -78.070190429688 -214.801742553711 1.389549016953
-147.058853149414 -74.501533508301 -214.485473632813 2.182081699371
-89.692214965820 -80.261657714844 -219.204956054688 3.937900066376
-30.087917327881 -76.037338256836 -220.667404174805 3.218336820602
-28.626295089722 -77.481414794922 -221.049972534180 1.884759783745
-8.126776695251 -79.341148376465 -208.566329956055 2.330894231796
-28.146633148193 -76.381317138672 -207.032852172852 1.406251788139
-85.659255981445 -77.835990905762 -222.077941894531 4.698495388031
-91.491477966309 -83.730537414551 -219.359100341797 7.324429988861
-23.631298065186 -76.498596191406 -222.167572021484 2.133943080902
-2.893511056900 -87.392456054688 -225.756454467773 8.044678688049
-158.363388061523 -80.051261901855 -216.037887573242 8.020904541016
-3.404772996902 -79.167366027832 -222.279983520508 0.517850577831
87.346710205078 -82.770957946777 -229.257949829102 8.652397155762
-139.726150512695 -80.267066955566 -221.649887084961 4.621073246002
-3.826071977615 -77.992866516113 -220.899612426758 1.003080844879
-139.875274658203 -79.280906677246 -224.443725585938 1.882989883423
-148.126800537109 -86.176429748535 -223.499221801758 2.352983474731
-6.542946815491 -76.378089904785 -228.080535888672 1.853929758072
21.860103607178 -78.756210327148 -213.337066650391 4.892907142639
-139.523620605469 -75.212272644043 -228.240798950195 2.288915634155
-19.341810226440 -79.576828002930 -227.462966918945 1.550715446472
69.922798156738 -78.751258850098 -225.763931274414 7.028712272644
73.399803161621 -78.122741699219 -235.315963745117 4.593949317932
10.010806083679 -80.045745849609 -229.963302612305 0.421934604645
-36.439868927002 -78.830787658691 -235.274642944336 4.129285812378
-25.955986022949 -86.711441040039 -242.595840454102 7.237349510193
0.994268000126 -75.784194946289 -243.424652099609 1.618084907532
-47.608097076416 -72.277519226074 -243.691619873047 2.192478895187
-21.523260116577 -75.073493957520 -242.926177978516 2.382746934891
9.682885169983 -73.791854858398 -238.197982788086 2.122754812241
-64.194610595703 -78.230049133301 -245.166595458984 2.000991582870
-38.336223602295 -83.551483154297 -243.732574462891 2.776471376419
-38.701095581055 -76.329956054688 -245.358352661133 1.349157810211
-148.549438476563 -74.766777038574 -244.641433715820 1.946581959724
-45.569301605225 -81.185447692871 -248.467956542969 3.518164634705
-53.452911376953 -68.554000854492 -246.814819335938 3.950752496719
-66.585342407227 -77.283500671387 -248.047988891602 0.880446612835
-11.502825737000 -82.948333740234 -244.889617919922 8.859168052673
-79.643226623535 -79.517868041992 -255.119308471680 3.273931503296
-158.058349609375 -84.561874389648 -251.426437377930 4.904816150665
-141.299224853516 -75.824783325195 -251.777679443359 4.020680427551
-121.762290954590 -79.770706176758 -256.976074218750 4.824281215668
-160.700775146484 -73.915046691895 -255.826202392578 1.558900594711
17.358079910278 -85.669570922852 -267.448150634766 4.624144554138
-16.265937805176 -80.542915344238 -268.994903564453 4.616503238678
-157.098648071289 -80.940711975098 -273.462768554688 4.198970794678
-154.495864868164 -85.480644226074 -277.456298828125 3.414917469025
-147.605270385742 -80.155975341797 -284.620605468750 2.408348321915
-60.176677703857 -72.390914916992 -278.284637451172 7.440978527069
-40.185211181641 -71.560707092285 -285.109680175781 1.732451796532
-18.529966354370 -75.264106750488 -290.014190673828 2.057062387466
-9.831302642822 -72.993156433105 -277.396484375000 1.557205438614
-67.674560546875 -81.661911010742 -284.147491455078 5.321862220764
-82.752571105957 -83.239646911621 -285.127136230469 7.728196144104
-2.966938972473 -78.989059448242 -281.581268310547 1.648955941200
0.600602984428 -79.778343200684 -293.097442626953 2.833369493484
-141.967636108398 -76.127204895020 -284.020416259766 2.815463542938
-82.497856140137 -73.815986633301 -284.798278808594 1.775986313820
-148.278762817383 -76.404563903809 -285.980804443359 1.326642274857
-96.030609130859 -88.492713928223 -283.877899169922 14.190156936646
-80.141075134277 -77.155502319336 -284.273468017578 3.064140796661
-87.896591186523 -74.683204650879 -296.015167236328 5.302382469177
-65.094612121582 -77.388832092285 -291.565429687500 3.173632621765
-32.887939453125 -70.243774414063 -295.803710937500 4.156653881073
-10.792899131775 -77.352073669434 -290.187988281250 1.357120275497
-151.937408447266 -69.800781250000 -298.968688964844 2.020621299744
-149.573928833008 -75.070091247559 -299.746398925781 2.126603841782
-144.919448852539 -76.043670654297 -304.765167236328 1.449617028236
-159.902450561523 -77.303451538086 -302.954254150391 5.471819400787
-55.716152191162 -71.085823059082 -56.083793640137 3.989582300186
-48.392002105713 -74.873298645020 -52.545265197754 1.976025223732
-39.223670959473 -77.465881347656 -53.059207916260 3.851665496826
-77.218978881836 -78.763771057129 -62.615016937256 2.812221527100
-29.024478912354 -73.761291503906 -65.237411499023 3.328318119049
-35.199161529541 -74.614067077637 -79.744079589844 2.379371643066
74.400466918945 -80.541687011719 -84.378929138184 5.060506820679
75.384910583496 -75.773757934570 -79.770439147949 0.711851239204
72.248229980469 -72.535781860352 -84.068862915039 2.457561016083
101.276992797852 -71.624824523926 -91.520698547363 2.593493223190
67.593528747559 -78.540603637695 -89.686401367188 5.511640548706
47.155422210693 -79.412368774414 -88.535873413086 7.771493434906
52.918506622314 -82.424003601074 -102.361427307129 4.623663425446
-66.091567993164 -73.619514465332 -102.249969482422 3.310028791428
-74.469444274902 -70.871963500977 -102.218338012695 2.243669986725
44.987102508545 -77.375350952148 -103.551330566406 1.445729017258
-81.919479370117 -81.929428100586 -109.852035522461 2.462783098221
-92.618812561035 -73.601509094238 -109.412536621094 2.550530433655
51.414142608643 -75.932548522949 -109.706756591797 2.199839591980
107.377555847168 -74.833145141602 -118.027366638184 2.154808998108
33.255592346191 -78.216125488281 -127.197486877441 1.987484574318
42.027790069580 -77.873146057129 -119.056388854980 1.600092649460
39.521976470947 -73.987434387207 -122.895881652832 2.206642627716
30.161491394043 -77.903259277344 -121.875000000000 1.871483683586
109.361610412598 -76.188575744629 -122.684333801270 3.125259160995
39.074756622314 -79.619895935059 -132.648193359375 2.495394229889
35.542766571045 -71.227813720703 -133.329315185547 2.363446712494
-44.054756164551 -74.375045776367 -141.302825927734 1.350993633270
-69.868705749512 -79.964935302734 -142.198623657227 5.541913509369
-52.825927734375 -75.010055541992 -149.725646972656 1.403683304787
-75.724540710449 -81.661499023438 -145.340850830078 6.583676815033
-38.034374237061 -75.982215881348 -147.860458374023 3.227479457855
105.208908081055 -77.490768432617 -158.860275268555 3.874413013458
-71.996109008789 -78.885276794434 -156.225830078125 2.800668239594
23.080080032349 -82.469924926758 -145.996719360352 5.226867198944
27.296508789063 -79.335533142090 -149.272552490234 1.223027467728
110.064552307129 -80.433952331543 -164.517822265625 3.696188688278
9.574065208435 -80.453819274902 -159.502166748047 4.085921287537
33.317802429199 -73.256195068359 -155.934738159180 0.787873268127
-62.828403472900 -79.416084289551 -159.120315551758 2.240674734116
-40.104225158691 -78.997772216797 -174.595077514648 2.171211242676
21.733263015747 -76.640197753906 -163.558853149414 1.951205730438
-65.884384155273 -75.149971008301 -154.779037475586 1.793919086456
-70.992095947266 -76.245491027832 -165.345550537109 4.401071548462
115.038665771484 -79.145294189453 -167.295333862305 2.063146829605
-8.901331901550 -78.358642578125 -164.432601928711 3.416110992432
-66.882713317871 -74.341659545898 -170.509033203125 2.144108295441
-36.642498016357 -78.841247558594 -165.979537963867 1.303073883057
-54.528415679932 -75.067939758301 -170.956542968750 2.961668252945
30.595884323120 -75.502449035645 -176.839813232422 4.271813869476
111.222274780273 -73.330520629883 -173.877319335938 1.759546995163
101.500839233398 -74.659095764160 -184.385299682617 2.522755861282
103.614456176758 -76.002929687500 -190.314483642578 0.951088786125
105.891708374023 -73.429878234863 -176.744247436523 1.345167040825
-51.452709197998 -74.849418640137 -192.790359497070 2.428447246552
-47.539276123047 -72.482795715332 -183.177093505859 3.567730903625
27.167760848999 -76.117462158203 -184.239700317383 1.914628386497
-48.115776062012 -75.120445251465 -184.740371704102 1.620837092400
-21.566902160645 -76.693458557129 -183.544754028320 2.154676914215
-51.833332061768 -80.277534484863 -191.050231933594 2.830775499344
-153.124908447266 -75.194259643555 -191.239868164063 3.884721517563
100.203201293945 -79.533683776855 -193.166305541992 3.317928791046
-44.924869537354 -73.185852050781 -195.024520874023 2.597486019135
-12.285594940186 -78.459815979004 -199.590484619141 2.584942102432
-139.976150512695 -75.524353027344 -190.911209106445 4.215988636017
-41.477848052979 -73.684135437012 -199.140029907227 2.082269906998
99.894958496094 -74.864181518555 -197.171905517578 1.302594304085
107.428688049316 -74.054840087891 -185.604705810547 1.944337248802
-43.166667938232 -76.179626464844 -194.877624511719 2.360231161118
-22.851266860962 -85.482711791992 -199.749816894531 6.231883049011
-147.590499877930 -79.483215332031 -199.226013183594 2.083127975464
-25.874858856201 -75.912414550781 -194.705856323242 1.326337099075
-161.619995117188 -76.856971740723 -195.061431884766 6.124843597412
-153.553634643555 -85.238769531250 -204.494781494141 4.562997817993
-146.247512817383 -79.054664611816 -200.663574218750 2.642967224121
-39.431991577148 -77.618354797363 -201.154495239258 0.591499745846
101.201354980469 -78.295211791992 -204.869094848633 1.829938769341
-43.482738494873 -74.267715454102 -199.704940795898 1.331366896629
-142.850570678711 -80.829002380371 -203.653900146484 0.900110423565
-38.034202575684 -71.823593139648 -205.007339477539 1.781045794487
-23.710309982300 -83.319854736328 -209.733154296875 4.929547786713
97.268600463867 -80.393821716309 -206.873367309570 3.884690999985
88.829948425293 -79.002456665039 -216.248428344727 2.428196191788
-39.262580871582 -74.402023315430 -216.988967895508 7.223138809204
-89.551620483398 -78.594223022461 -208.950683593750 4.722671508789
-76.705802917480 -78.293533325195 -211.085220336914 1.945213794708
-20.507358551025 -76.793785095215 -208.172531127930 2.972809553146
-150.907363891602 -79.723884582520 -198.938735961914 1.469195485115
91.261466979980 -75.849502563477 -215.058761596680 0.726615965366
87.301895141602 -72.403205871582 -218.654495239258 1.428082585335
88.647872924805 -77.692840576172 -221.900009155273 2.491204738617
-104.001396179199 -78.462501525879 -216.986572265625 6.939149856567
-156.387603759766 -79.532524108887 -219.209243774414 6.751325607300
-21.528942108154 -74.346870422363 -224.360580444336 1.539785027504
79.962600708008 -72.394989013672 -228.808319091797 1.245722055435
-151.626541137695 -81.664047241211 -219.525833129883 2.246352434158
-30.718830108643 -78.665306091309 -216.223739624023 1.072241663933
-135.790435791016 -74.788223266602 -232.593978881836 1.893601059914
-12.113711357117 -80.169624328613 -232.318618774414 4.645512580872
15.880866050720 -75.325401306152 -230.570251464844 2.171967744827
19.200225830078 -77.927032470703 -233.973602294922 1.360206007957
-157.041000366211 -80.186744689941 -234.655059814453 4.851781845093
-128.051589965820 -72.264793395996 -231.662811279297 1.744731307030
-9.561612129211 -76.640846252441 -235.828643798828 3.195241689682
-1.050626993179 -75.772544860840 -238.086944580078 1.203876495361
67.881958007813 -76.560180664063 -231.057525634766 3.745491266251
67.341018676758 -72.646804809570 -240.477188110352 1.026982069016
-1.503268003464 -73.835510253906 -240.375167846680 0.978720784187
14.529861450195 -71.726020812988 -240.539215087891 1.447131395340
-33.260589599609 -67.002738952637 -241.765838623047 7.399402618408
-33.176406860352 -88.153778076172 -242.426193237305 7.942694664001
-50.950843811035 -77.101791381836 -234.401123046875 7.287597656250
-42.428665161133 -74.299575805664 -239.151657104492 3.146630764008
-17.254102706909 -78.388641357422 -243.103866577148 2.653795003891
-53.009677886963 -74.605598449707 -244.216751098633 2.097250699997
0.288883000612 -77.791213989258 -245.548599243164 2.258635520935
-69.872917175293 -80.264907836914 -241.622253417969 6.828032970428
20.523221969604 -78.700210571289 -247.619369506836 1.144321680069
-142.857696533203 -80.101112365723 -242.218460083008 2.372811555862
-74.700767517090 -80.314979553223 -254.012069702148 3.998100996017
15.578182220459 -77.786857604980 -250.728881835938 1.622278332710
-162.438049316406 -75.839057922363 -247.875320434570 2.114791393280
10.676416397095 -82.156356811523 -254.491729736328 2.553919076920
-82.082382202148 -69.381240844727 -250.382812500000 1.953136682510
-77.548179626465 -77.483428955078 -249.656341552734 2.497115612030
16.472883224487 -79.478912353516 -254.084396362305 1.762432456017
-91.124382019043 -76.378570556641 -249.577835083008 3.368592262268
-127.377563476563 -72.531639099121 -253.167480468750 2.094404697418
-133.339385986328 -82.409751892090 -259.824310302734 2.226451158524
-138.239242553711 -81.105232238770 -250.193481445313 5.999560356140
-148.300445556641 -80.209922790527 -260.669799804688 2.143137216568
-148.478836059570 -72.942047119141 -249.704208374023 3.324314594269
-135.426269531250 -75.353408813477 -260.584106445313 0.691490530968
-163.356201171875 -72.754577636719 -258.741973876953 2.110549211502
-130.244232177734 -77.720275878906 -266.744903564453 5.135695457458
-138.574768066406 -70.254051208496 -262.018066406250 3.438279390335
-163.405776977539 -73.417152404785 -270.127258300781 3.359115123749
-156.613739013672 -74.036491394043 -263.456359863281 1.711964130402
-149.022415161133 -75.075080871582 -264.576324462891 2.649659156799
-150.829635620117 -78.393493652344 -264.395935058594 1.381615519524
15.821343421936 -79.811523437500 -279.596405029297 2.823952436447
-168.233901977539 -77.570121765137 -263.582122802734 3.124772310257
-152.910537719727 -79.723205566406 -272.076019287109 1.301546692848
-6.343719005585 -86.438049316406 -272.460144042969 5.199572563171
-155.561767578125 -74.249435424805 -275.159820556641 3.208552598953
10.083079338074 -80.982994079590 -284.440063476563 3.802500009537
-154.734573364258 -76.782981872559 -279.882049560547 4.492568969727
-168.635055541992 -79.279243469238 -287.591186523438 5.605282783508
-157.431381225586 -81.239135742188 -275.292266845703 5.707255363464
-166.058975219727 -74.394187927246 -288.412567138672 2.380942821503
-1.715144991875 -81.898239135742 -287.054779052734 5.260775089264
5.532060146332 -83.548622131348 -280.941772460938 2.949422836304
-108.833702087402 -74.811119079590 -292.838256835938 2.330504179001
-159.162170410156 -85.741775512695 -286.315612792969 5.423176765442
-149.673355102539 -74.329139709473 -283.318908691406 2.022888422012
-107.072914123535 -76.030387878418 -291.753265380859 2.382538795471
-155.664718627930 -81.783088684082 -292.278045654297 2.020479917526
-150.033737182617 -83.135704040527 -286.920288085938 1.195900201797
-78.463417053223 -82.032592773438 -293.303192138672 6.570937156677
-170.911254882813 -80.543754577637 -287.000122070313 6.750708580017
-124.069931030273 -72.773422241211 -290.544647216797 1.239046692848
-44.446720123291 -83.115715026855 -284.340057373047 6.086758136749
-152.035980224609 -77.040451049805 -285.870330810547 2.383860826492
-132.336700439453 -71.399963378906 -292.758178710938 2.168737173080
-22.709173202515 -74.417182922363 -295.391082763672 4.161148071289
-131.539886474609 -72.235809326172 -291.773529052734 3.464582681656
4.640649795532 -78.869873046875 -295.758026123047 4.358167648315
13.238036155701 -74.015914916992 -292.780944824219 1.449440121651
-134.982818603516 -71.814567565918 -289.246124267578 2.504477262497
-147.257598876953 -80.068908691406 -298.105621337891 0.939088344574
-158.405838012695 -82.401092529297 -314.723297119141 7.546656131744
-70.878433227539 -69.214881896973 -52.639034271240 2.821657896042
-20.964622497559 -67.428359985352 -67.298202514648 4.245573520660
-18.506364822388 -78.710403442383 -65.172996520996 4.553303241730
70.806961059570 -72.029960632324 -80.602409362793 0.829482913017
90.393066406250 -73.826698303223 -77.232383728027 2.247372627258
-35.445514678955 -75.111320495605 -80.484207153320 1.882064580917
76.938056945801 -73.577743530273 -82.745056152344 2.676056861877
90.902854919434 -79.309776306152 -84.578834533691 2.250227451324
65.703178405762 -75.475845336914 -85.758796691895 4.690869808197
73.883979797363 -73.127037048340 -92.913078308105 1.800796508789
-49.908142089844 -75.250747680664 -84.242767333984 3.052728891373
-91.481948852539 -78.352424621582 -89.609931945801 2.055374860764
59.959140777588 -78.914039611816 -95.038642883301 5.161831855774
50.741905212402 -78.201194763184 -101.688804626465 1.803788423538
92.507148742676 -70.034683227539 -104.070030212402 1.358472704887
-89.855926513672 -68.408851623535 -101.160675048828 6.199180126190
79.332160949707 -68.394927978516 -102.322807312012 2.436907529831
71.191215515137 -76.088279724121 -103.272705078125 5.871968746185
91.273200988770 -78.504226684570 -99.326431274414 3.908078193665
84.246444702148 -75.621215820313 -96.977432250977 1.608080625534
79.548934936523 -78.472007751465 -100.582275390625 4.756260871887
-89.924385070801 -77.139251708984 -102.259880065918 4.283374786377
45.134483337402 -71.247215270996 -104.806571960449 1.459495425224
104.632789611816 -76.966911315918 -112.378021240234 3.019306659698
106.248901367188 -76.292762756348 -112.238601684570 2.145470142365
50.707675933838 -79.619621276855 -122.245529174805 6.172158241272
114.235916137695 -79.825981140137 -120.387512207031 5.285135269165
117.608810424805 -80.107208251953 -136.913543701172 5.219593048096
-50.355609893799 -71.681846618652 -128.226882934570 3.855638980865
27.753641128540 -74.881797790527 -135.881820678711 1.471153497696
41.142845153809 -80.168296813965 -134.742309570313 4.233803272247
23.950971603394 -72.320335388184 -142.351547241211 1.536350250244
112.430374145508 -80.739624023438 -137.856231689453 4.166193008423
111.095298767090 -77.677589416504 -130.947662353516 2.395981073380
-73.955062866211 -74.906257629395 -148.065826416016 2.238573789597
-43.664299011230 -73.788139343262 -139.212371826172 2.884267568588
-71.878067016602 -72.908126831055 -153.126052856445 2.055021286011
17.571805953979 -72.675575256348 -147.864410400391 2.395813226700
111.390609741211 -71.734458923340 -149.000427246094 2.995219469070
-54.855857849121 -77.678222656250 -152.768341064453 4.313117504120
-73.426315307617 -74.155036926270 -152.776382446289 1.300096750259
-39.898845672607 -78.921966552734 -150.846847534180 2.328796625137
30.823957443237 -68.731590270996 -155.190689086914 1.419686198235
107.589210510254 -70.540695190430 -151.607879638672 3.970705509186
117.105308532715 -74.317878723145 -164.389648437500 2.710451841354
-68.812049865723 -71.478530883789 -156.493026733398 1.987211346626
-76.783226013184 -78.589530944824 -159.372787475586 6.784525394440
21.450092315674 -81.344833374023 -164.277603149414 3.781731843948
-61.083099365234 -72.302352905273 -167.173095703125 1.491179227829
-32.868614196777 -72.225967407227 -164.272003173828 1.039425134659
8.388856887817 -77.789855957031 -165.019393920898 3.419310569763
105.950012207031 -71.808952331543 -163.037521362305 2.504936933517
10.595941543579 -80.526504516602 -169.756530761719 7.955114364624
-32.803493499756 -75.668006896973 -166.214950561523 1.674077033997
-4.920041084290 -68.264175415039 -164.677490234375 6.011701583862
105.483741760254 -70.470909118652 -167.739135742188 2.627753257751
-42.573131561279 -72.568473815918 -162.614395141602 1.471937537193
30.308441162109 -72.598266601563 -175.052185058594 2.971511840820
114.670974731445 -81.647499084473 -173.989883422852 4.969333648682
-57.798538208008 -71.273117065430 -175.326004028320 2.493649959564
-28.378898620605 -79.749610900879 -176.433441162109 1.591074824333
100.179183959961 -76.743011474609 -176.165740966797 5.987021923065
28.872224807739 -72.264801025391 -167.584869384766 1.574071049690
102.056686401367 -77.553337097168 -177.823684692383 4.236860752106
-37.601470947266 -69.887420654297 -180.112609863281 2.513634920120
109.765808105469 -80.796516418457 -182.479507446289 5.453233718872
-64.864936828613 -70.933517456055 -177.465972900391 5.987309455872
-26.657440185547 -80.783569335938 -177.347625732422 0.742637753487
-148.895828247070 -67.199890136719 -184.128448486328 3.200501680374
-54.669666290283 -74.099723815918 -177.968322753906 2.171997070313
-148.395904541016 -75.861335754395 -184.664337158203 2.210866212845
-36.331649780273 -72.501525878906 -182.708953857422 1.744508147240
29.704660415649 -82.388038635254 -177.734893798828 5.835857391357
104.578224182129 -77.265350341797 -185.272003173828 2.542149543762
-38.591949462891 -74.064735412598 -180.955642700195 2.995608806610
9.313630104065 -76.065391540527 -191.614990234375 2.253374338150
14.444590568542 -75.099853515625 -207.297348022461 3.350209712982
-150.771881103516 -75.847808837891 -185.958297729492 3.216274738312
106.535804748535 -80.105300903320 -197.711349487305 3.070613622665
-25.471082687378 -73.133796691895 -192.923187255859 1.405700683594
99.334144592285 -77.749847412109 -187.926559448242 3.705548763275
10.500956535339 -71.836639404297 -191.675613403320 2.537836313248
-142.893066406250 -75.285507202148 -205.945159912109 1.952129244804
-137.965637207031 -73.957443237305 -198.177963256836 2.895015478134
102.529098510742 -80.957786560059 -203.212127685547 4.138952732086
-12.667595863342 -80.874481201172 -199.918151855469 3.311246633530
-18.852329254150 -75.948188781738 -205.411819458008 1.656199336052
10.890008926392 -78.685386657715 -208.112457275391 1.241096258163
-150.885589599609 -74.777420043945 -205.298645019531 2.019706487656
-147.681259155273 -76.656227111816 -209.297348022461 1.926685571671
100.704956054688 -68.290184020996 -207.826446533203 4.579063415527
-87.102447509766 -75.138809204102 -206.625793457031 4.936210632324
-35.695381164551 -77.303680419922 -199.913558959961 1.935693621635
19.824710845947 -80.321472167969 -216.814071655273 3.914049386978
-25.220617294312 -76.383918762207 -210.843627929688 1.654402136803
-75.005332946777 -72.980949401855 -204.153884887695 5.729040622711
90.019752502441 -76.093971252441 -209.956085205078 2.498724460602
-79.479408264160 -71.933143615723 -211.672607421875 1.277551889420
-149.487854003906 -74.819160461426 -218.456466674805 1.634851574898
-81.558593750000 -73.003074645996 -211.685440063477 1.239489912987
-11.718922615051 -68.117904663086 -206.572387695313 2.492651224136
-21.463666915894 -72.072868347168 -221.044738769531 1.928257584572
17.247295379639 -76.754257202148 -216.017684936523 0.657578647137
-6.096384048462 -77.648796081543 -223.825576782227 2.023858070374
-89.611427307129 -83.050460815430 -218.863220214844 6.186390399933
92.250900268555 -74.685234069824 -215.296264648438 1.497092604637
-102.121315002441 -73.164237976074 -214.620162963867 4.616968154907
-155.939682006836 -72.518531799316 -224.856155395508 2.123435735703
-32.302127838135 -74.793601989746 -225.170227050781 5.937722682953
18.595245361328 -77.424880981445 -216.110366821289 1.186430931091
-103.390319824219 -76.578414916992 -219.361083984375 4.312037467957
6.246734142303 -69.464958190918 -217.227737426758 2.661185026169
-29.073886871338 -75.286949157715 -214.175384521484 1.552370309830
81.013298034668 -72.982208251953 -226.473770141602 2.197786569595
-145.094467163086 -72.884323120117 -215.250213623047 2.714066982269
15.221342086792 -75.088684082031 -226.449905395508 2.073027610779
-10.618149757385 -80.091918945313 -229.394546508789 2.278941392899
16.765239715576 -66.201766967773 -224.759094238281 4.348588943481
83.012924194336 -77.669853210449 -224.240402221680 2.732776165009
-16.108261108398 -80.435737609863 -229.822433471680 4.720706939697
-131.531341552734 -78.134109497070 -226.310897827148 1.571358919144
-16.733253479004 -75.045440673828 -224.256362915039 1.586551189423
15.535329818726 -74.996276855469 -228.779693603516 1.690606236458
-129.482543945313 -79.139099121094 -226.025604248047 3.641360521317
-155.625015258789 -71.229797363281 -230.812698364258 1.362228274345
-144.673080444336 -73.926277160645 -228.241043090820 2.317084312439
-128.235748291016 -72.498504638672 -224.662734985352 1.855857968330
-11.604280471802 -71.595687866211 -223.886398315430 1.898048400879
70.830375671387 -75.495903015137 -227.671829223633 3.438414573669
-146.376083374023 -69.695259094238 -240.138198852539 2.230465650558
66.266426086426 -76.725212097168 -228.955291748047 5.658910274506
-22.786104202271 -80.472084045410 -232.248443603516 5.565798282623
-143.862670898438 -78.239341735840 -226.420150756836 2.396498680115
74.947128295898 -85.736228942871 -230.542816162109 10.220441818237
9.299098968506 -81.910980224609 -231.637435913086 2.600005865097
-140.475311279297 -79.152160644531 -235.618133544922 3.714575767517
-150.502349853516 -74.312522888184 -231.626861572266 1.650923252106
17.021749496460 -70.387794494629 -230.793014526367 1.328405022621
-3.571060895920 -80.512687683105 -240.273666381836 4.575947761536
-31.892251968384 -74.230361938477 -236.652847290039 1.712676286697
-2.634149074554 -69.964477539063 -235.926284790039 0.231943234801
-161.653442382813 -79.594879150391 -236.764907836914 5.866513729095
3.384195089340 -72.495834350586 -242.668273925781 1.549843072891
-166.152679443359 -77.193840026855 -240.792480468750 2.991453647614
-12.646691322327 -76.881027221680 -237.575119018555 3.072323322296
56.068927764893 -76.973953247070 -240.062377929688 3.762365341187
-15.004044532776 -73.560455322266 -235.932159423828 1.382006525993
-26.411748886108 -75.507080078125 -248.994628906250 6.033295631409
-25.285943984985 -75.098731994629 -241.837768554688 1.981868863106
-10.970739364624 -80.895217895508 -239.704544067383 6.918289661407
-147.558502197266 -76.473968505859 -225.675201416016 1.772860050201
6.469720840454 -74.002624511719 -241.399536132813 1.892779231071
62.750682830811 -75.525459289551 -246.350662231445 4.646828651428
14.891725540161 -71.909233093262 -245.784698486328 1.858643174171
-171.789031982422 -72.940475463867 -242.219573974609 5.382218837738
-53.410442352295 -74.222343444824 -237.568145751953 5.086744308472
4.359412193298 -83.446784973145 -249.713775634766 2.608428001404
16.208553314209 -76.334854125977 -243.205902099609 3.410294055939
-54.891422271729 -75.358657836914 -247.414291381836 1.442926883698
-2.830776929855 -69.064437866211 -251.518539428711 4.878560066223
19.141839981079 -84.660461425781 -249.740341186523 2.659607648849
-174.717605590820 -72.066703796387 -248.046936035156 8.476819038391
-65.478599548340 -80.755416870117 -249.340393066406 2.599797725677
-54.154869079590 -72.932121276855 -247.770019531250 1.855224728584
-84.933822631836 -73.008300781250 -253.333663940430 2.061396121979
-163.773254394531 -77.504631042480 -244.884872436523 4.019548416138
-151.929794311523 -63.912208557129 -246.047500610352 3.204043149948
-62.210697174072 -78.144699096680 -249.719863891602 2.020221948624
-69.919898986816 -74.841186523438 -248.018325805664 1.172787070274
-155.041671752930 -72.062675476074 -250.787261962891 2.295426368713
-153.529388427734 -77.202896118164 -250.980407714844 3.264435291290
-75.484291076660 -69.273468017578 -255.043579101563 3.148009777069
-94.996894836426 -71.110237121582 -256.942626953125 1.418382287025
-164.033218383789 -66.754905700684 -253.254074096680 3.422334432602
-159.166778564453 -76.021903991699 -261.017517089844 2.740947008133
-137.224761962891 -78.116645812988 -260.393096923828 0.281597256660
-84.756553649902 -74.479385375977 -248.637939453125 2.003012657166
-162.893737792969 -70.037376403809 -252.964141845703 1.033258914948
-142.972579956055 -71.715820312500 -256.575866699219 2.298996686935
-85.897895812988 -74.019241333008 -246.882125854492 2.879339694977
-99.364486694336 -73.320701599121 -262.110839843750 3.509030342102
-143.510147094727 -76.881790161133 -253.877273559570 2.918154716492
-93.323585510254 -75.143775939941 -255.120697021484 1.472000598907
-157.066146850586 -72.379142761230 -253.996856689453 3.436211824417
-106.025657653809 -74.751174926758 -253.579193115234 3.719387531281
-173.815551757813 -73.617721557617 -257.349365234375 7.296109676361
-164.089309692383 -78.106628417969 -266.684356689453 2.172772884369
-130.187149047852 -80.904930114746 -255.033554077148 5.120998859406
-154.418090820313 -76.060806274414 -258.675415039063 1.842624902725
-110.241828918457 -70.340164184570 -262.800140380859 1.555093526840
-15.201475143433 -72.637580871582 -262.483489990234 0.296158611774
-141.828765869141 -74.772155761719 -259.504241943359 1.212465047836
-128.962005615234 -73.954170227051 -259.369110107422 2.439776420593
-154.411621093750 -72.336509704590 -262.787933349609 2.540008544922
23.782007217407 -77.071296691895 -273.738922119141 4.013535976410
-151.811126708984 -78.636108398438 -278.853851318359 1.614522576332
-171.176055908203 -75.796836853027 -282.227478027344 3.551850795746
-10.955082893372 -73.741058349609 -280.325714111328 2.790786743164
-146.184326171875 -74.119857788086 -278.002136230469 1.826937437057
-13.037987709045 -73.244949340820 -284.268829345703 1.752607703209
11.156266212463 -77.495384216309 -287.724578857422 0.707584559917
-139.047393798828 -71.809333801270 -285.047088623047 1.912396311760
-66.684272766113 -78.965858459473 -287.607452392578 2.211219072342
-35.002506256104 -79.862083435059 -290.168273925781 1.684893727303
-113.732048034668 -75.816009521484 -281.159576416016 6.247090816498
-99.713699340820 -81.974159240723 -289.385986328125 6.971872329712
-89.704780578613 -76.460845947266 -291.365020751953 3.270946025848
-53.265506744385 -77.723526000977 -293.067779541016 3.393795490265
-117.693801879883 -83.043411254883 -285.760986328125 6.021638870239
-118.332153320313 -77.598281860352 -289.689453125000 0.987954616547
-35.748046875000 -71.570480346680 -287.417266845703 1.879522562027
-119.054603576660 -77.637107849121 -293.762878417969 4.465247154236
-130.828445434570 -68.775146484375 -287.624786376953 2.562897443771
-146.899475097656 -79.164482116699 -294.130187988281 2.285603761673
5.211206912994 -76.564445495605 -291.020843505859 0.984735965729
17.326745986938 -78.437751770020 -293.307830810547 2.698352813721
-164.276580810547 -74.798339843750 -290.863739013672 1.112225294113
-163.597534179688 -80.646141052246 -299.796722412109 10.097057342529
-151.227111816406 -77.556427001953 -308.732330322266 2.356457710266
-155.517257690430 -74.879096984863 -309.009033203125 1.834647536278
-154.748321533203 -75.601730346680 -314.080749511719 3.556690216064
28.903713226318 -79.150596618652 -13.994812011719 6.356414318085
37.692665100098 -69.932113647461 -21.105743408203 2.448614597321
22.129247665405 -73.790435791016 -26.882089614868 1.977180361748
30.411233901978 -69.712753295898 -40.073997497559 0.890817821026
-58.573772430420 -72.683204650879 -50.615665435791 3.539598464966
-63.823230743408 -73.481582641602 -50.938610076904 2.306018829346
-38.608814239502 -79.201225280762 -48.321357727051 7.313846588135
-87.241325378418 -65.116264343262 -67.246543884277 6.723392486572
80.319122314453 -78.304672241211 -77.539390563965 2.613195657730
-11.080617904663 -68.516723632813 -72.159622192383 4.749152660370
90.126686096191 -74.861930847168 -62.933582305908 5.817783355713
101.886650085449 -74.261016845703 -76.591560363770 3.409501314163
-91.191810607910 -70.031585693359 -73.787284851074 2.978293895721
65.431343078613 -74.412162780762 -81.932975769043 4.193840026855
-38.825347900391 -78.001815795898 -87.592330932617 2.963016271591
102.444305419922 -74.734870910645 -81.825340270996 4.182264328003
-57.986026763916 -69.826080322266 -88.169242858887 2.380494832993
49.581657409668 -75.250389099121 -92.007835388184 2.688460350037
69.883071899414 -83.684486389160 -90.885093688965 8.678198814392
53.453804016113 -72.548904418945 -96.573280334473 1.970808625221
52.880104064941 -76.190620422363 -100.258644104004 1.670917391777
76.252586364746 -79.265029907227 -97.854133605957 4.053522109985
47.727535247803 -73.398674011230 -111.300155639648 1.261081218719
96.891166687012 -75.639739990234 -104.473274230957 5.362826347351
104.967147827148 -81.669410705566 -110.109237670898 7.152107715607
76.600280761719 -72.429992675781 -105.629028320313 2.890494823456
95.101562500000 -76.476104736328 -107.446121215820 6.230350494385
100.050704956055 -75.365951538086 -94.287666320801 4.113862514496
110.476844787598 -76.968215942383 -106.453918457031 3.486420154572
40.080986022949 -73.142753601074 -107.936210632324 1.510224461555
114.182960510254 -71.926422119141 -119.225196838379 1.432964682579
114.909828186035 -77.238822937012 -121.754013061523 3.972425460815
29.363193511963 -71.718536376953 -126.184974670410 2.267629384995
44.474952697754 -76.714630126953 -118.941055297852 0.972371518612
115.266227722168 -76.690879821777 -135.273880004883 2.148699522018
32.762210845947 -73.657981872559 -127.938430786133 3.292561054230
117.603103637695 -82.565711975098 -128.477600097656 7.751868247986
107.319160461426 -77.456260681152 -124.584335327148 3.066735506058
27.376058578491 -77.844299316406 -133.897521972656 2.528151750565
-46.465339660645 -75.037773132324 -133.096679687500 3.440011739731
-52.149124145508 -71.903228759766 -134.572280883789 1.330133199692
111.489494323730 -75.341102600098 -137.663223266602 1.921730875969
