-20.789516448975 -65.329322814941 -67.286956787109 3.082832813263
104.442131042480 -66.408729553223 -75.690010070801 1.925599932671
92.521560668945 -72.037513732910 -77.331871032715 2.795593261719
67.443145751953 -68.213752746582 -80.541084289551 1.277987837791
72.475418090820 -72.669578552246 -83.290702819824 2.308027029037
-44.708431243896 -74.957046508789 -82.273826599121 2.201759576797
59.935142517090 -74.539863586426 -81.962997436523 5.389863491058
-93.623214721680 -72.231208801270 -89.609329223633 1.878266453743
-47.495708465576 -67.412498474121 -84.410324096680 1.831434011459
-57.068401336670 -78.136596679688 -84.337150573730 7.201995372772
102.774856567383 -74.812698364258 -100.888702392578 2.132081270218
59.979549407959 -71.861297607422 -90.943641662598 2.025240421295
67.371002197266 -66.470718383789 -92.082466125488 1.655917167664
-94.907989501953 -63.254600524902 -97.502502441406 3.830420732498
107.524124145508 -68.813232421875 -91.751098632813 3.599363565445
40.805458068848 -65.813796997070 -100.540077209473 3.868486166000
101.943130493164 -65.683265686035 -100.009971618652 2.304916143417
106.581222534180 -61.998348236084 -108.236968994141 4.616961479187
98.789482116699 -66.662139892578 -104.723419189453 1.817844033241
73.832733154297 -71.815330505371 -99.673538208008 0.418501198292
86.032653808594 -69.428695678711 -110.136955261230 4.113399505615
49.742313385010 -65.324142456055 -112.294334411621 4.311129570007
109.648300170898 -60.391948699951 -103.125404357910 6.579035282135
47.724082946777 -73.216400146484 -104.979690551758 2.924923419952
36.693553924561 -66.159515380859 -103.351280212402 4.974489688873
113.041908264160 -66.938873291016 -112.257247924805 3.112540245056
-78.922889709473 -65.689010620117 -108.602035522461 1.816596269608
44.494735717773 -65.806503295898 -113.808280944824 2.879793643951
31.713451385498 -71.939178466797 -117.671974182129 1.595099568367
105.404136657715 -62.659671783447 -112.438705444336 4.501834869385
35.587009429932 -64.456031799316 -112.636207580566 6.182591438293
-87.474487304688 -71.000839233398 -110.394706726074 1.775579690933
-95.821586608887 -65.926048278809 -114.060234069824 2.691210746765
100.447257995605 -72.880737304688 -121.985946655273 5.888081073761
-95.706733703613 -71.667915344238 -119.004081726074 2.264948844910
39.062496185303 -72.577873229980 -121.874351501465 2.149556636810
35.543151855469 -68.119865417480 -124.598548889160 2.491013765335
-86.572052001953 -70.903373718262 -123.770988464355 0.322805196047
32.776622772217 -65.120468139648 -134.639526367188 1.807558417320
112.002723693848 -67.012168884277 -133.065902709961 2.549430370331
-54.451202392578 -69.743743896484 -139.983154296875 3.004706144333
-88.683090209961 -68.517417907715 -133.914077758789 1.893522262573
37.775764465332 -73.419624328613 -130.914978027344 2.094055414200
-86.783218383789 -64.367263793945 -136.891235351563 1.342625021935
-88.525550842285 -74.808807373047 -141.566436767578 6.916893005371
-51.336929321289 -69.610679626465 -136.345458984375 1.378777623177
-72.203414916992 -66.760765075684 -138.705749511719 2.276760816574
-51.584480285645 -69.069007873535 -132.300231933594 1.710495114326
117.004348754883 -61.065258026123 -137.828582763672 8.372071266174
-72.043037414551 -73.103080749512 -133.698852539063 2.882501602173
37.221031188965 -69.143737792969 -131.273071289063 1.908299207687
-79.469169616699 -67.421531677246 -141.645431518555 2.389702320099
-72.689666748047 -70.721351623535 -135.247589111328 1.626501560211
-96.197486877441 -67.880294799805 -142.977767944336 1.131706476212
-56.964328765869 -64.661537170410 -145.126785278320 1.904635667801
30.399297714233 -60.809562683105 -147.000518798828 7.427936553955
26.155830383301 -65.697212219238 -149.650207519531 2.583992958069
19.617444992065 -59.888973236084 -145.348724365234 3.461959362030
111.256919860840 -64.368759155273 -147.723327636719 4.708326816559
-91.111968994141 -68.151527404785 -151.179168701172 1.952559828758
9.066061019897 -69.433212280273 -153.219650268555 2.108702898026
-72.590583801270 -68.981498718262 -155.882720947266 2.921222209930
22.810247421265 -65.205810546875 -149.740646362305 3.024572372437
-50.567367553711 -67.488647460938 -155.739791870117 3.310486078262
8.871041297913 -65.810440063477 -155.028930664063 2.408069133759
16.621339797974 -71.355453491211 -160.437835693359 1.603563189507
15.746772766113 -74.345993041992 -164.835678100586 3.417487144470
-52.823364257813 -72.426445007324 -164.369125366211 5.564171314240
-39.369335174561 -66.702636718750 -156.163375854492 2.221049308777
-49.004512786865 -70.592979431152 -163.239593505859 2.430029392242
-104.171241760254 -71.567962646484 -173.538253784180 3.358698606491
20.755456924438 -69.413513183594 -176.322891235352 0.698791086674
-34.447921752930 -68.720718383789 -179.653182983398 3.293555736542
14.470703125000 -73.629707336426 -179.369567871094 2.048305511475
-143.080123901367 -70.120941162109 -176.114746093750 1.620396733284
-32.535114288330 -63.572418212891 -172.828811645508 4.122158050537
-157.954681396484 -80.572753906250 -178.351470947266 10.980938911438
23.876245498657 -58.970867156982 -182.461853027344 8.956335067749
-35.761489868164 -71.124076843262 -170.453430175781 2.911608695984
-107.744361877441 -66.712905883789 -175.054672241211 2.752283811569
-107.903022766113 -77.867706298828 -184.851669311523 8.404734611511
-32.417778015137 -60.604988098145 -186.586715698242 8.731763839722
-25.633792877197 -74.808189392090 -182.283538818359 1.295562863350
10.376421928406 -65.505462646484 -189.837692260742 5.700047969818
14.011880874634 -62.317718505859 -200.568420410156 4.398756980896
11.644125938416 -67.901954650879 -188.653289794922 4.400506019592
-143.771423339844 -68.061485290527 -186.357711791992 2.102487564087
23.726984024048 -60.665992736816 -190.596694946289 7.684922218323
3.464400053024 -65.735733032227 -197.688598632813 6.155829429626
-135.494522094727 -68.235664367676 -192.835693359375 2.145708322525
-113.369285583496 -69.190582275391 -195.346832275391 2.143268823624
13.450262069702 -63.713752746582 -205.919174194336 3.418230533600
-121.069107055664 -67.673118591309 -196.981719970703 1.576028704643
-109.123069763184 -60.922439575195 -192.664764404297 4.910535335541
-168.766479492188 -73.177146911621 -202.230194091797 3.262369871140
-25.922786712646 -65.236259460449 -200.549484252930 3.586260080338
8.317127227783 -64.072547912598 -200.331985473633 4.692100048065
-147.325927734375 -71.784500122070 -204.260574340820 1.705121517181
-139.941009521484 -75.204566955566 -207.754867553711 4.474140644073
-24.110298156738 -64.493713378906 -208.921600341797 5.832488536835
-14.114107131958 -68.104881286621 -206.617492675781 1.676993966103
-14.763701438904 -69.095001220703 -206.676300048828 1.650742888451
-138.964630126953 -76.832649230957 -202.102478027344 1.819431900978
-19.273664474487 -66.589607238770 -213.674346923828 4.456891059875
-9.800904273987 -74.348754882813 -215.719482421875 3.700653314590
16.640945434570 -61.683361053467 -212.342620849609 5.588505268097
-19.411750793457 -74.117523193359 -212.858276367188 1.997018933296
8.748018264771 -68.340957641602 -209.680786132813 1.852458357811
-12.995871543884 -69.110702514648 -215.874816894531 2.095259666443
-26.172552108765 -62.346271514893 -212.130920410156 9.898450851440
9.856337547302 -74.999458312988 -221.719238281250 1.730703949928
-4.268739223480 -74.598533630371 -219.897338867188 1.705357789993
9.328585624695 -60.473522186279 -221.002304077148 7.157324790955
-8.331188201904 -70.864173889160 -230.007476806641 1.414167881012
-162.797378540039 -72.901702880859 -227.385482788086 1.165543675423
78.860160827637 -68.502624511719 -220.871658325195 3.428362369537
-137.678237915039 -66.957542419434 -223.702606201172 3.182481288910
-136.918624877930 -73.875869750977 -221.357131958008 4.914388179779
-9.440729141235 -67.869750976563 -225.963165283203 2.435193300247
3.961236000061 -65.529403686523 -237.066467285156 1.336312890053
-160.607681274414 -70.708381652832 -232.184051513672 3.372027158737
88.489967346191 -61.793262481689 -221.571121215820 7.450265884399
-3.027924060822 -64.591964721680 -227.709243774414 3.272559165955
-0.836399018764 -67.256576538086 -221.509277343750 2.350298881531
72.315338134766 -68.926834106445 -233.205230712891 2.163544654846
-1.820996046066 -62.372871398926 -237.909713745117 1.814153194427
-14.948990821838 -68.610206604004 -224.778854370117 2.358515262604
-129.883071899414 -65.215065002441 -233.750015258789 2.085852146149
-7.581058979034 -65.982238769531 -239.404937744141 1.859345555305
0.779471993446 -63.133682250977 -230.340438842773 4.085253238678
64.267135620117 -60.455963134766 -239.220947265625 6.205962657928
-159.633712768555 -74.282150268555 -237.019531250000 1.954833030701
-15.659358024597 -63.972797393799 -246.776306152344 4.863395214081
-172.506927490234 -75.253799438477 -239.367477416992 5.976991176605
8.863849639893 -59.473670959473 -242.043655395508 1.630827903748
-164.814590454102 -73.463760375977 -238.885696411133 1.343269824982
-161.492660522461 -73.635932922363 -247.807632446289 1.088770508766
56.704017639160 -65.656883239746 -246.009338378906 2.353136062622
58.640987396240 -67.805595397949 -243.230148315430 1.103314638138
53.356384277344 -66.183944702148 -247.662490844727 1.508548855782
49.308174133301 -64.859588623047 -250.825088500977 2.129028797150
-153.774276733398 -72.971343994141 -242.714187622070 3.934803009033
-158.144943237305 -65.616531372070 -246.038375854492 3.148659944534
-13.963175773621 -72.826828002930 -250.455352783203 1.676681041718
-152.357528686523 -69.590866088867 -247.978118896484 0.736794054508
15.419883728027 -65.754791259766 -252.041641235352 6.654237747192
-173.596725463867 -79.298263549805 -251.899429321289 8.896368026733
-171.520965576172 -68.784385681152 -251.381088256836 4.597826957703
-84.038452148438 -71.636672973633 -247.080917358398 2.699861526489
-173.284408569336 -69.585739135742 -257.363739013672 6.167910575867
-87.056396484375 -68.248916625977 -259.403961181641 3.191113233566
41.082553863525 -63.465969085693 -255.000549316406 1.601490974426
19.561012268066 -69.383941650391 -258.773040771484 4.666402816772
-159.657531738281 -72.402168273926 -264.199127197266 2.241930723190
-103.717765808105 -59.679012298584 -260.605957031250 5.371844768524
38.067684173584 -64.398979187012 -255.437316894531 1.781539916992
-109.777099609375 -80.193374633789 -258.618591308594 6.329378128052
-155.495040893555 -66.607955932617 -266.696380615234 3.613445043564
-105.426101684570 -68.143737792969 -256.495178222656 1.755770564079
-171.961700439453 -75.214584350586 -259.631103515625 6.218559265137
-115.300903320313 -70.214805603027 -264.781036376953 2.283568620682
-155.801406860352 -73.509681701660 -266.922241210938 1.475916624069
-162.023376464844 -66.573089599609 -262.646636962891 2.719335317612
-167.658859252930 -69.574150085449 -264.137176513672 1.294361114502
-168.089523315430 -68.644584655762 -262.516571044922 0.720436453819
-167.929214477539 -70.971923828125 -264.206878662109 1.753381490707
-172.046600341797 -72.216522216797 -258.948638916016 4.900655746460
24.980278015137 -66.793708801270 -266.957580566406 1.982085704803
-149.193878173828 -76.862335205078 -262.659729003906 1.696680307388
-154.617340087891 -70.126777648926 -286.073760986328 1.184958577156
27.223865509033 -64.508872985840 -276.400299072266 4.285321235657
-14.806373596191 -70.191719055176 -275.739959716797 2.624738454819
-127.384696960449 -65.718208312988 -285.449432373047 1.770282030106
-138.751098632813 -69.571281433105 -287.114715576172 2.606559038162
-135.530899047852 -68.888648986816 -290.408172607422 1.558983206749
-131.014770507813 -69.498725891113 -286.291870117188 1.720540046692
-114.696746826172 -67.084922790527 -293.439392089844 1.700393199921
-105.950881958008 -62.930526733398 -283.918640136719 6.246006488800
4.798583030701 -70.180931091309 -297.264343261719 4.281670093536
-86.301879882813 -69.677795410156 -291.859680175781 2.090152740479
-150.810882568359 -70.632911682129 -286.105255126953 2.947015762329
-105.052551269531 -69.952163696289 -291.872741699219 2.268671035767
-136.379211425781 -66.355621337891 -293.196838378906 3.128612041473
7.993569850922 -67.727500915527 -288.314392089844 3.586813449860
-113.039100646973 -59.659515380859 -286.749664306641 8.013242721558
2.703634977341 -65.836105346680 -295.367279052734 3.122043132782
-145.547805786133 -69.470024108887 -286.065673828125 2.504035711288
-154.469665527344 -69.864891052246 -295.176574707031 0.860627472401
-162.666900634766 -67.988632202148 -318.167816162109 9.474120140076
-158.839477539063 -66.793609619141 -311.097442626953 3.664083003998
45.848979949951 -72.071105957031 -26.373559951782 0.685248553753
25.316598892212 -67.568931579590 -39.016639709473 2.987589120865
27.905904769897 -69.357627868652 -37.587451934814 2.159831285477
-41.227592468262 -73.985763549805 -47.904994964600 3.171298980713
-10.560795783997 -65.634315490723 -64.318557739258 1.775908470154
94.720901489258 -66.569488525391 -69.269058227539 3.043065309525
67.459251403809 -59.383083343506 -69.771392822266 2.486390590668
-26.407464981079 -67.562469482422 -74.968437194824 0.622587740421
-101.855247497559 -76.398223876953 -89.744705200195 8.318393707275
-43.536560058594 -68.762077331543 -87.363830566406 4.626695632935
56.209209442139 -66.603759765625 -80.980506896973 3.738231420517
65.443603515625 -70.774108886719 -85.693702697754 1.919485449791
49.956882476807 -63.397136688232 -89.061676025391 2.435277223587
-60.377529144287 -68.774169921875 -91.701332092285 1.412418127060
66.930313110352 -60.081653594971 -90.493927001953 1.663108110428
41.875057220459 -72.120056152344 -100.274414062500 2.322184324265
68.979270935059 -69.726715087891 -96.759254455566 1.582308411598
-60.404361724854 -67.521041870117 -97.513771057129 4.905062675476
51.158256530762 -69.054405212402 -92.393836975098 1.606271147728
46.571079254150 -70.396896362305 -99.338233947754 1.755839467049
102.244667053223 -60.241714477539 -105.095619201660 3.544941425323
-65.194862365723 -69.664886474609 -98.648429870605 1.200443148613
111.287734985352 -64.196937561035 -101.176628112793 4.605455398560
-79.657203674316 -74.863494873047 -102.573341369629 2.015080928802
52.618152618408 -70.002197265625 -108.918121337891 2.735422372818
47.420879364014 -64.748786926270 -102.831939697266 2.403408527374
89.518760681152 -59.815750122070 -105.965499877930 4.041402816772
81.887794494629 -66.730979919434 -107.309951782227 2.176504373550
56.594066619873 -67.999015808105 -106.744827270508 3.777145862579
-78.199157714844 -70.929756164551 -113.506111145020 1.045258283615
-80.003395080566 -69.468978881836 -118.527763366699 1.862347483635
-82.385963439941 -71.053886413574 -118.115921020508 0.683508574963
-95.107505798340 -78.004402160645 -117.650558471680 5.283775329590
100.849891662598 -56.538299560547 -119.624542236328 11.707777976990
-92.291152954102 -74.471549987793 -118.621017456055 2.160613775253
-75.676940917969 -63.660060882568 -122.372253417969 1.067971825600
107.698585510254 -63.796283721924 -118.807739257813 4.321012020111
-60.275550842285 -58.425148010254 -117.297683715820 1.867093205452
112.248077392578 -70.877593994141 -133.551315307617 2.101317882538
108.898605346680 -67.464340209961 -131.698989868164 1.979509592056
103.400718688965 -67.669876098633 -130.561599731445 4.835106372833
-95.019432067871 -71.022926330566 -136.877395629883 4.252361297607
-45.971267700195 -68.688484191895 -142.704452514648 1.517360568047
-83.478263854980 -65.328468322754 -143.478866577148 5.505119800568
-70.532882690430 -68.875976562500 -148.653305053711 1.439121842384
-69.170753479004 -67.889419555664 -150.879241943359 1.376697897911
-56.102714538574 -68.137474060059 -144.550521850586 0.759306788445
-46.384353637695 -75.364624023438 -144.229751586914 1.847254395485
11.072426795959 -67.190795898438 -149.078079223633 2.136603116989
-94.878791809082 -64.024642944336 -140.617996215820 1.815945863724
-48.024047851563 -66.302833557129 -146.554962158203 0.295745998621
-52.040107727051 -57.638896942139 -146.671524047852 8.641437530518
-44.007179260254 -65.151885986328 -154.519821166992 2.492676258087
25.308523178101 -70.057212829590 -161.037567138672 1.515076518059
-52.630249023438 -70.761711120605 -152.737915039063 1.154325366020
-104.711738586426 -62.465682983398 -147.923858642578 5.925104141235
-49.988182067871 -63.538360595703 -154.588409423828 5.586701393127
23.933355331421 -71.211212158203 -145.881698608398 1.708077669144
-95.780677795410 -79.028038024902 -164.635787963867 11.484600067139
21.995578765869 -70.345466613770 -159.452957153320 1.966238856316
-110.000640869141 -64.654937744141 -168.307601928711 2.623686552048
-103.215347290039 -70.519485473633 -164.515060424805 2.327704429626
20.550380706787 -67.057662963867 -168.193328857422 1.229953050613
25.257003784180 -63.916866302490 -168.343475341797 4.122982978821
-113.307975769043 -73.981704711914 -173.115371704102 6.811394214630
-144.196792602539 -66.315834045410 -172.597396850586 2.514216423035
-18.944284439087 -67.881820678711 -192.229965209961 1.041065692902
-29.254367828369 -66.364746093750 -180.466278076172 2.197155237198
-119.368896484375 -72.447235107422 -186.843414306641 7.568499565125
-145.304443359375 -65.349533081055 -185.362503051758 2.754846096039
-102.190490722656 -64.825233459473 -181.179016113281 3.429184913635
-162.013381958008 -71.378524780273 -187.712173461914 7.976381778717
-132.361053466797 -76.998115539551 -195.793365478516 0.230769678950
-134.219757080078 -73.846054077148 -196.520599365234 1.341306209564
-20.651279449463 -64.971717834473 -187.053710937500 4.054073333740
-119.670440673828 -70.780517578125 -200.127716064453 2.619757175446
-121.228904724121 -64.147453308105 -201.106597900391 1.869485735893
-30.975088119507 -71.510528564453 -192.788330078125 2.433179855347
-155.972595214844 -67.085563659668 -194.078353881836 0.846172571182
-134.572799682617 -71.265693664551 -205.133255004883 1.203845381737
-126.657669067383 -66.073265075684 -203.337173461914 1.486123681068
17.352855682373 -70.694664001465 -202.884582519531 1.181362628937
-164.381698608398 -71.907264709473 -200.990112304688 1.606499195099
12.339185714722 -63.018024444580 -218.701141357422 5.810772895813
13.008025169373 -68.242935180664 -216.861953735352 1.810234069824
-16.406980514526 -60.796161651611 -211.876602172852 6.423177719116
-6.608645915985 -66.216941833496 -217.925033569336 2.589353799820
-175.396255493164 -66.753372192383 -210.898864746094 9.148025512695
-161.317108154297 -64.323432922363 -211.703292846680 3.370803356171
-96.743232727051 -67.680526733398 -219.585693359375 2.005815029144
-97.361717224121 -71.952148437500 -221.014907836914 2.527278661728
-162.621887207031 -72.558456420898 -227.575210571289 1.160787940025
-112.043945312500 -65.364349365234 -218.853454589844 5.619975566864
-13.237094879150 -64.119918823242 -211.207382202148 3.472137451172
-130.388000488281 -72.322341918945 -220.759582519531 4.360787391663
-145.399734497070 -70.200164794922 -222.362228393555 1.881559610367
-4.851843833923 -69.762519836426 -222.255844116211 2.797928810120
-135.999298095703 -66.890525817871 -223.716415405273 2.177072048187
-125.125984191895 -75.877708435059 -221.541091918945 4.463413715363
-115.896461486816 -73.842239379883 -223.389312744141 2.636440753937
-4.695510864258 -57.035648345947 -230.615417480469 7.527490139008
-109.751708984375 -65.338615417480 -232.670898437500 3.335604429245
-164.342346191406 -61.649497985840 -222.046997070313 5.120892524719
-147.018463134766 -69.241004943848 -225.826232910156 2.920391798019
-166.428955078125 -69.950469970703 -226.066650390625 2.223886489868
-10.362880706787 -63.296646118164 -225.619934082031 3.841247558594
-9.781438827515 -66.980392456055 -235.150375366211 1.913910746574
76.718986511230 -68.301574707031 -226.339508056641 1.091889500618
-3.810071945190 -69.929489135742 -229.591064453125 2.050703525543
-145.374664306641 -69.646636962891 -239.161346435547 2.448811292648
-16.742305755615 -62.963462829590 -230.444564819336 6.923163414001
72.019027709961 -64.708915710449 -228.777450561523 4.624672412872
71.873077392578 -64.635803222656 -234.743133544922 2.345008373260
-136.230545043945 -66.993095397949 -231.614334106445 2.066247940063
-157.292617797852 -76.071456909180 -228.466629028320 3.951919078827
-115.571586608887 -65.935592651367 -232.961532592773 1.001283407211
-127.837471008301 -62.332576751709 -237.122268676758 4.375197410583
-164.080352783203 -68.491943359375 -235.183822631836 0.442481577396
-163.214279174805 -71.484390258789 -235.165573120117 2.857225656509
-150.781417846680 -62.330921173096 -231.879928588867 1.286355495453
-18.183155059814 -62.597915649414 -234.725784301758 8.010115623474
-8.323589324951 -63.956375122070 -243.834716796875 1.405948638916
-162.115066528320 -68.568771362305 -243.479080200195 1.793588042259
3.835086107254 -66.217247009277 -237.437973022461 1.644295215607
-2.191328048706 -67.876342773438 -239.934356689453 1.953374981880
-160.599822998047 -69.729469299316 -236.491561889648 2.894563913345
17.430063247681 -71.453712463379 -240.940567016602 1.297417402267
49.061103820801 -67.877227783203 -248.002929687500 1.168094396591
46.434501647949 -69.256614685059 -244.601516723633 1.951012969017
-19.867589950562 -67.271682739258 -248.200714111328 5.310910701752
44.794425964355 -63.192066192627 -251.418960571289 2.037729501724
-161.369369506836 -63.969707489014 -248.069015502930 4.179361343384
-157.712677001953 -70.793746948242 -246.176620483398 2.199553728104
-163.415573120117 -76.930831909180 -249.083511352539 2.130128145218
54.325832366943 -62.985877990723 -248.183578491211 3.444201469421
-96.858757019043 -66.130607604980 -253.029495239258 1.746548652649
-126.172882080078 -66.559684753418 -254.935562133789 0.765619397163
-108.490936279297 -75.293991088867 -252.456787109375 5.701291561127
21.903169631958 -71.215072631836 -258.985809326172 3.368329524994
36.650581359863 -60.989227294922 -252.951599121094 2.826139450073
-102.705268859863 -64.333328247070 -254.616836547852 4.095467090607
-95.197052001953 -61.458778381348 -248.265167236328 6.222005367279
43.738525390625 -71.326438903809 -257.491882324219 3.337880373001
37.974792480469 -61.611976623535 -258.598632812500 3.127694129944
-155.958007812500 -77.235916137695 -257.130310058594 3.031816959381
25.499553680420 -64.905105590820 -261.707702636719 0.241893962026
-146.219039916992 -72.474983215332 -265.368164062500 0.853092789650
-114.629890441895 -68.419433593750 -263.093475341797 2.620114088058
-141.237670898438 -65.219291687012 -261.654663085938 2.000033378601
31.355232238770 -63.046173095703 -264.181823730469 3.458894729614
-128.678421020508 -67.275070190430 -262.395660400391 2.173853158951
-14.009238243103 -63.655784606934 -256.534484863281 4.281383514404
17.182664871216 -69.104484558105 -272.423675537109 5.681412220001
-5.278800010681 -74.018791198730 -264.669799804688 7.110874652863
16.227609634399 -67.956764221191 -281.865478515625 2.819073677063
-157.627334594727 -73.389602661133 -282.322814941406 3.784138202667
-14.780403137207 -62.402935028076 -281.798309326172 7.113705158234
-154.704315185547 -73.684432983398 -281.008697509766 2.981497049332
-124.120857238770 -72.859306335449 -285.037963867188 1.741940617561
-167.498641967773 -78.347084045410 -285.886230468750 4.295753002167
-117.931724548340 -67.647476196289 -286.822814941406 2.347641944885
-105.748321533203 -68.933456420898 -290.791137695313 1.684378385544
-9.719082832336 -63.076507568359 -284.836730957031 5.329061031342
-109.941329956055 -70.970016479492 -287.973327636719 2.441876411438
-119.958320617676 -65.429145812988 -282.100189208984 6.804962158203
-126.978187561035 -63.658058166504 -291.983856201172 2.330960750580
-143.160018920898 -69.616386413574 -290.171081542969 1.469884157181
-130.566436767578 -62.959289550781 -290.506317138672 3.845282077789
-161.595672607422 -76.641334533691 -288.963684082031 1.599002361298
-150.320129394531 -64.287986755371 -290.341674804688 1.461165428162
-164.186553955078 -64.941909790039 -303.258850097656 10.942983627319
-157.729492187500 -66.665504455566 -310.358428955078 3.358826637268
-164.580169677734 -65.554824829102 -300.953094482422 9.840846061707
-141.187530517578 -69.918891906738 -309.744659423828 3.415373086929
-151.275573730469 -73.047889709473 -315.144927978516 2.306595563889
35.130290985107 -68.406402587891 -6.985457897186 4.839809417725
49.682922363281 -73.899414062500 -18.803733825684 2.708603143692
23.097200393677 -66.887557983398 -21.875965118408 3.981412410736
51.200355529785 -68.082023620605 -26.210397720337 2.388263940811
27.169219970703 -70.683837890625 -34.779735565186 1.657810330391
30.740880966187 -68.592292785645 -33.242366790771 1.811243414879
-57.871078491211 -64.309471130371 -49.582050323486 4.894563674927
75.060455322266 -60.089931488037 -59.709049224854 1.180940747261
83.094848632813 -67.595809936523 -69.418563842773 4.512212753296
-89.690551757813 -73.543289184570 -63.743171691895 3.721977949142
-13.723956108093 -65.163024902344 -59.401557922363 2.392934083939
-93.015464782715 -72.392013549805 -72.859771728516 2.562161684036
96.412788391113 -69.236137390137 -67.781372070313 2.401520967484
-11.737857818604 -64.991470336914 -67.467132568359 1.818850517273
67.091514587402 -70.339637756348 -83.887054443359 1.347242951393
-45.742153167725 -74.117019653320 -82.549858093262 1.900666832924
-26.163604736328 -71.649917602539 -73.860198974609 2.531160116196
54.592960357666 -59.390586853027 -87.817466735840 2.028005123138
-42.873451232910 -80.039085388184 -83.894630432129 1.900383353233
64.069305419922 -53.881278991699 -88.657752990723 0.976719558239
51.437927246094 -73.016525268555 -93.171531677246 1.615879416466
55.511928558350 -64.557830810547 -95.989509582520 2.248881340027
56.857563018799 -75.320495605469 -91.616813659668 2.743645668030
54.833797454834 -59.620899200439 -96.580581665039 3.281790733337
97.495468139648 -59.887119293213 -99.942123413086 4.488860607147
106.668792724609 -57.531452178955 -101.632911682129 4.050258159637
60.507564544678 -69.347236633301 -102.419288635254 4.101705074310
107.197769165039 -58.944766998291 -102.489341735840 4.815850734711
-79.118583679199 -68.860328674316 -98.723915100098 0.702798187733
-74.596832275391 -70.319633483887 -104.077293395996 2.356088638306
99.293182373047 -60.062675476074 -99.539085388184 3.146279096603
52.527618408203 -67.580421447754 -102.185600280762 1.482473254204
69.503616333008 -68.352035522461 -97.729507446289 2.125061988831
-71.548675537109 -69.806961059570 -110.024528503418 3.454497575760
-86.957290649414 -68.164367675781 -108.757713317871 2.174854278564
85.000144958496 -70.540809631348 -103.849700927734 1.405525803566
37.499897003174 -69.702049255371 -102.923294067383 3.541188478470
105.662635803223 -59.373355865479 -109.612243652344 6.950821399689
48.246845245361 -70.258056640625 -114.828514099121 1.158196449280
110.559989929199 -65.676445007324 -102.760681152344 2.688204288483
-78.175682067871 -70.110366821289 -113.106002807617 0.644996225834
101.125686645508 -58.351879119873 -110.153724670410 4.110203742981
-83.700897216797 -66.079605102539 -122.179840087891 1.763174653053
-59.089855194092 -71.932533264160 -128.193969726563 1.918858408928
-58.587329864502 -68.607162475586 -123.790588378906 1.497190952301
-71.589050292969 -72.189056396484 -131.251296997070 1.319602251053
-51.202636718750 -70.227798461914 -131.846405029297 1.828055739403
-84.770469665527 -71.485061645508 -135.108795166016 1.626298785210
-78.791595458984 -63.869800567627 -131.308425903320 1.384201645851
-79.552070617676 -70.592567443848 -134.026519775391 1.430259585381
-62.722614288330 -75.073455810547 -143.254562377930 4.561676025391
-71.275428771973 -69.731803894043 -142.278808593750 1.799145698547
-61.622592926025 -76.274002075195 -132.524551391602 5.552632331848
-57.502792358398 -68.057540893555 -143.789123535156 1.119544267654
9.490922927856 -60.857280731201 -147.042541503906 5.758093833923
-92.520149230957 -71.043060302734 -140.148422241211 3.757361173630
-49.850368499756 -75.373229980469 -150.614761352539 1.289131522179
-95.028556823730 -67.771179199219 -150.231521606445 1.914291620255
-103.587219238281 -65.777229309082 -146.711547851563 5.221270084381
19.563196182251 -69.538169860840 -156.258377075195 3.846800565720
13.958655357361 -67.872802734375 -160.257431030273 2.352832078934
-96.019912719727 -73.102455139160 -161.420730590820 5.347100257874
-105.675765991211 -70.993995666504 -150.438354492188 6.595767974854
-100.717758178711 -67.608581542969 -167.361862182617 1.522059917450
19.801242828369 -65.371505737305 -171.607147216797 2.820540904999
-114.317787170410 -69.551498413086 -173.880569458008 5.114397048950
24.480659484863 -65.498397827148 -164.892761230469 3.290596246719
-149.599746704102 -71.303321838379 -176.859558105469 1.771880149841
16.726219177246 -65.081756591797 -176.703689575195 3.645201683044
23.843229293823 -67.059288024902 -187.044128417969 1.908692479134
-153.099411010742 -68.539505004883 -185.453887939453 2.985741615295
19.427591323853 -68.488456726074 -175.006027221680 1.033102273941
17.306102752686 -56.135807037354 -182.428817749023 10.839073181152
-147.522354125977 -75.786186218262 -181.616134643555 1.595853924751
-153.679931640625 -65.889999389648 -189.337844848633 1.637266397476
18.126089096069 -66.835639953613 -188.146179199219 2.151685714722
17.201059341431 -70.167129516602 -191.348083496094 1.092568755150
-142.861831665039 -73.489898681641 -194.508300781250 1.855829834938
-111.594558715820 -69.795639038086 -197.614303588867 1.479093432426
25.541217803955 -65.743705749512 -200.826492309570 6.120354652405
-127.461372375488 -70.991958618164 -194.612854003906 1.200082540512
7.244639873505 -69.973159790039 -202.482742309570 2.236674308777
-129.960067749023 -61.275562286377 -193.515335083008 4.115876197815
-165.412216186523 -67.932556152344 -186.880599975586 10.038046836853
-161.598571777344 -68.450057983398 -195.816955566406 1.437213301659
-157.239700317383 -73.808929443359 -191.743515014648 3.794860124588
-23.816658020020 -67.723686218262 -209.403930664063 4.391938209534
-171.278137207031 -74.215942382813 -198.425949096680 6.704412937164
-30.558032989502 -61.355609893799 -193.524826049805 7.931872367859
-17.621721267700 -68.596160888672 -193.020004272461 1.330149650574
3.002080917358 -58.179241180420 -196.854690551758 11.901350021362
-158.113967895508 -71.739189147949 -207.671905517578 3.099575042725
-107.712623596191 -66.852218627930 -203.075195312500 2.602626562119
-18.218666076660 -61.835880279541 -198.889038085938 5.962998867035
-164.073028564453 -62.323154449463 -200.214355468750 3.692448377609
15.965834617615 -66.844306945801 -203.674896240234 2.158793687820
-174.353988647461 -68.003013610840 -206.200241088867 7.272849082947
-120.942314147949 -72.334945678711 -202.104644775391 0.706163823605
-118.347160339355 -65.677009582520 -209.820358276367 5.385241985321
-124.480262756348 -69.545974731445 -203.288452148438 1.579886674881
-18.487846374512 -64.834732055664 -202.577178955078 3.346694469452
-22.040494918823 -67.976333618164 -203.567520141602 2.095046758652
-165.943008422852 -70.090049743652 -211.824096679688 1.880485296249
-161.641815185547 -67.110038757324 -210.671234130859 2.078410148621
-166.739166259766 -71.490730285645 -219.020385742188 1.013114571571
-140.233001708984 -73.376029968262 -213.248168945313 5.518612861633
-147.743255615234 -68.490226745605 -225.241088867188 3.296297311783
-2.213831901550 -63.409542083740 -219.068695068359 4.615050315857
-10.277764320374 -73.467063903809 -217.903198242188 2.504042625427
-103.666488647461 -65.173110961914 -220.194595336914 3.203125953674
-10.413687705994 -63.055496215820 -237.483566284180 3.646006822586
-172.258926391602 -65.974510192871 -231.103073120117 6.637520313263
-106.096580505371 -65.649253845215 -234.992584228516 5.759124755859
0.697050988674 -66.269470214844 -227.221267700195 2.300975084305
-0.628360986710 -64.978469848633 -229.835449218750 2.691107988358
-114.178062438965 -68.256256103516 -234.274093627930 2.236204862595
-3.694889068604 -67.578544616699 -227.054534912109 2.333264112473
-121.495689392090 -64.110382080078 -233.672698974609 2.785964012146
-10.687965393066 -60.942630767822 -231.279190063477 6.692354202271
-3.683660984039 -63.925945281982 -235.664398193359 2.167287588120
-5.396629810333 -63.881454467773 -240.354324340820 1.601316213608
70.573547363281 -58.039783477783 -237.894515991211 9.587818145752
-10.914308547974 -69.508827209473 -238.393371582031 1.852625966072
9.505951881409 -66.039985656738 -235.970062255859 1.813216805458
9.132195472717 -64.016128540039 -237.716674804688 1.408118724823
2.761972904205 -67.282058715820 -239.370300292969 0.213946580887
3.015216112137 -67.784286499023 -242.772735595703 1.953957557678
60.039337158203 -56.214439392090 -241.198806762695 9.154013633728
66.303222656250 -56.986564636230 -241.970870971680 9.657405853271
3.177203893661 -63.719486236572 -250.369628906250 4.529603004456
48.216270446777 -66.426094055176 -243.858215332031 2.768901109695
52.948886871338 -69.752388000488 -241.255554199219 3.217156648636
44.337825775146 -57.812164306641 -252.993759155273 5.645390510559
40.483116149902 -58.799354553223 -252.721481323242 5.258502960205
38.323738098145 -61.947895050049 -261.028900146484 3.573272466660
-131.678283691406 -60.522720336914 -260.770874023438 4.401540756226
-10.331701278687 -63.833534240723 -246.884887695313 2.645141839981
29.246437072754 -60.717361450195 -258.015045166016 2.623855590820
40.472194671631 -61.672706604004 -245.035003662109 5.988207340240
28.375120162964 -68.070938110352 -252.949829101563 3.798599243164
-107.149353027344 -71.345306396484 -260.216186523438 1.147511243820
26.958784103394 -65.803459167480 -256.708160400391 1.321354389191
-146.326766967773 -71.376846313477 -262.297485351563 3.188048839569
-119.064506530762 -72.097137451172 -255.425506591797 1.485674500465
-114.548400878906 -68.192825317383 -258.856109619141 1.913651823997
-2.967664957047 -69.257171630859 -259.379913330078 4.627791404724
-155.378494262695 -70.705764770508 -256.674468994141 1.125902533531
35.643951416016 -64.379722595215 -264.624114990234 3.994453191757
-109.358093261719 -66.092605590820 -255.021881103516 2.715575695038
23.236946105957 -70.710456848145 -259.295501708984 2.443554878235
-136.864578247070 -73.147888183594 -265.739990234375 3.051738500595
-119.359916687012 -67.417114257813 -267.665435791016 3.419963359833
-114.496124267578 -67.489036560059 -263.214508056641 2.095732688904
-115.451988220215 -77.470497131348 -260.917907714844 4.108249664307
-145.019607543945 -71.694610595703 -253.253204345703 1.747714400291
27.750963211060 -64.787109375000 -259.016448974609 1.891448140144
-119.205505371094 -65.328971862793 -261.945159912109 1.441841840744
-147.429824829102 -70.560401916504 -263.307373046875 3.492060184479
-7.528648853302 -61.268795013428 -270.879486083984 5.555912017822
-151.823959350586 -71.669998168945 -279.190490722656 1.438823938370
-11.925589561462 -65.855575561523 -291.299987792969 5.552793502808
-8.360899925232 -61.561149597168 -280.766906738281 4.190132141113
-137.138595581055 -67.087348937988 -290.170257568359 0.740104079247
-133.162948608398 -68.410842895508 -293.088806152344 1.750801086426
-138.240020751953 -66.619590759277 -295.422668457031 4.540440559387
-129.685165405273 -63.760940551758 -288.562164306641 1.759962201118
-159.281112670898 -67.923828125000 -293.789276123047 3.462683916092
-161.703628540039 -69.445663452148 -299.250396728516 4.843575954437
-151.464324951172 -73.285301208496 -301.761779785156 3.918647289276
-151.706665039063 -71.106124877930 -305.329284667969 3.391263961792
-147.680892944336 -67.327507019043 -296.964416503906 1.798047780991
-154.384048461914 -67.726593017578 -306.759033203125 1.406038880348
-148.262832641602 -63.947658538818 -317.131164550781 5.181727409363
18.927156448364 -70.793228149414 -25.644617080688 1.699652194977
51.013908386230 -70.342231750488 -37.755313873291 2.754614591599
23.660943984985 -75.310081481934 -36.532020568848 3.779882669449
31.244997024536 -66.648880004883 -45.280559539795 3.431676864624
-41.970230102539 -60.036907196045 -49.174415588379 3.455745220184
-74.341156005859 -64.644989013672 -50.016159057617 2.756166934967
79.390571594238 -65.377166748047 -62.285243988037 2.301335811615
72.639945983887 -66.865745544434 -62.250534057617 2.665433645248
72.590614318848 -69.140563964844 -64.935813903809 2.871036052704
-102.378585815430 -70.240867614746 -70.925003051758 7.836945533752
97.490592956543 -70.638359069824 -76.486671447754 2.309733390808
-27.429225921631 -71.204566955566 -87.191505432129 8.727190017700
59.878715515137 -62.906242370605 -75.150123596191 5.045763492584
-42.547290802002 -63.491889953613 -84.675605773926 3.603056907654
-57.874378204346 -66.528083801270 -80.873085021973 3.762252569199
51.075355529785 -65.724006652832 -91.313377380371 1.309310436249
101.472900390625 -61.371440887451 -91.823219299316 2.963971138000
61.500797271729 -63.048564910889 -92.808250427246 0.755226850510
54.826675415039 -63.554641723633 -91.334892272949 1.637130498886
46.458038330078 -61.032054901123 -103.141471862793 4.909340381622
54.869415283203 -60.552345275879 -103.841384887695 2.519068002701
101.206230163574 -61.666358947754 -98.619132995605 2.130773305893
67.449577331543 -64.160400390625 -109.617340087891 5.694181919098
51.975410461426 -65.654403686523 -106.967475891113 2.876092910767
74.420524597168 -72.113929748535 -109.029609680176 5.269731521606
99.457847595215 -59.330635070801 -108.292739868164 3.233072757721
-74.417366027832 -65.142623901367 -97.494689941406 2.835546255112
-87.508872985840 -68.832153320313 -110.096633911133 1.414446949959
-82.857696533203 -69.291084289551 -111.762619018555 2.945486307144
-61.926414489746 -68.433097839355 -119.225349426270 2.572932720184
-58.462142944336 -72.609199523926 -126.930053710938 2.522024154663
-95.979713439941 -68.110946655273 -121.204681396484 2.029114246368
-74.326988220215 -72.052528381348 -118.776657104492 4.516652584076
-78.306381225586 -73.174522399902 -133.449981689453 1.822666168213
-61.624504089355 -63.492946624756 -127.436965942383 1.195971131325
-89.130577087402 -64.109580993652 -130.702407836914 1.844104170799
-91.146377563477 -66.966644287109 -131.248825073242 1.617309093475
-49.878726959229 -70.976203918457 -135.223663330078 0.629808127880
-51.571182250977 -70.084617614746 -138.236312866211 2.690795421600
-79.093719482422 -73.087440490723 -138.349716186523 2.782355785370
-56.363925933838 -70.840698242188 -141.509078979492 0.427155256271
-74.401733398438 -74.201118469238 -146.015457153320 0.611874938011
17.152324676514 -62.736061096191 -140.385879516602 2.003648996353
-59.418731689453 -73.683403015137 -144.144042968750 2.598867177963
-57.727676391602 -63.285587310791 -146.640258789063 3.614604711533
7.467539787292 -71.017333984375 -156.011611938477 1.843731760979
16.319599151611 -63.803989410400 -151.182235717773 1.485427260399
-142.556137084961 -71.178642272949 -172.533767700195 3.045671224594
-111.628173828125 -66.425140380859 -177.375885009766 1.621789693832
-113.939147949219 -63.653629302979 -190.396194458008 1.917111873627
-154.960159301758 -72.592163085938 -189.103988647461 3.654514312744
-115.094505310059 -68.017311096191 -186.284393310547 1.736276268959
-152.905426025391 -63.482692718506 -196.500213623047 1.458176374435
-116.054946899414 -67.609451293945 -199.184295654297 3.029893159866
-153.276809692383 -65.387229919434 -201.132415771484 1.772261619568
-151.043045043945 -68.590835571289 -206.536087036133 1.737196326256
-155.836013793945 -75.621299743652 -203.787033081055 3.624913930893
-151.773086547852 -69.157341003418 -224.650054931641 1.340174555779
-150.509262084961 -72.954620361328 -226.677169799805 1.683524489403
-107.570137023926 -63.713874816895 -229.442245483398 2.984450340271
-100.945220947266 -67.917404174805 -219.832839965820 1.084323644638
-124.997665405273 -61.658954620361 -232.928131103516 3.490453243256
-108.563072204590 -68.274642944336 -225.106460571289 2.064155101776
-159.640228271484 -69.426696777344 -230.339202880859 2.255199193954
-5.502980232239 -64.328147888184 -224.449539184570 2.670849323273
-134.574569702148 -73.352142333984 -229.378662109375 2.332372426987
-155.773849487305 -69.391510009766 -235.412353515625 1.693675518036
-141.765533447266 -73.410202026367 -231.794128417969 1.425977349281
-12.203735351563 -62.661884307861 -233.549133300781 5.281128883362
6.840250015259 -63.912105560303 -245.382278442383 1.739604592323
60.472915649414 -55.417907714844 -240.789810180664 10.098831176758
15.597232818604 -69.287857055664 -250.812835693359 4.452316284180
51.095916748047 -62.556171417236 -242.431762695313 3.417425394058
38.029525756836 -66.901351928711 -250.784271240234 1.762222766876
60.868049621582 -57.392902374268 -254.081207275391 11.810688018799
-155.968109130859 -69.012474060059 -247.689987182617 2.188186645508
-148.107894897461 -72.854400634766 -254.718460083008 2.677043199539
41.904735565186 -61.256908416748 -256.994812011719 2.667435884476
24.702501296997 -63.744617462158 -254.268844604492 2.271041154861
46.482444763184 -58.093349456787 -255.160903930664 5.699460506439
-147.693267822266 -71.850143432617 -264.332550048828 2.673944950104
-140.742080688477 -66.632774353027 -253.791305541992 2.679214954376
-125.971275329590 -64.720230102539 -259.773498535156 0.525261163712
-135.156250000000 -67.696128845215 -255.568572998047 0.782351553440
-141.711349487305 -69.866882324219 -257.971923828125 2.856331825256
-125.031013488770 -66.758369445801 -259.994415283203 0.809708237648
-145.720626831055 -65.799034118652 -259.712829589844 2.319228649139
-130.044860839844 -71.548187255859 -257.133880615234 3.910816431046
-121.230567932129 -69.214042663574 -265.383972167969 3.502191066742
-132.375000000000 -68.235534667969 -265.456848144531 2.964608669281
-125.720344543457 -62.910049438477 -264.061401367188 2.414389848709
-7.500162124634 -64.792564392090 -267.430755615234 2.415361404419
27.632373809814 -57.777450561523 -261.658020019531 1.603183865547
-148.012588500977 -60.654117584229 -267.289337158203 2.250103473663
23.888139724731 -65.463943481445 -273.054504394531 2.004807710648
-9.449444770813 -56.361183166504 -277.855590820313 1.523269176483
15.399939537048 -70.441955566406 -283.726135253906 2.422114610672
-143.336151123047 -68.469429016113 -289.411773681641 2.239059209824
-126.700538635254 -71.000869750977 -286.824218750000 1.550377964973
-132.724044799805 -61.391555786133 -290.592346191406 4.294080734253
-163.123046875000 -62.689483642578 -292.921691894531 7.403691291809
-129.906906127930 -60.376705169678 -289.221160888672 4.976399898529
-120.645790100098 -64.924240112305 -288.627624511719 2.110731601715
-126.584968566895 -71.186813354492 -298.549468994141 2.705199956894
-155.661315917969 -72.255805969238 -290.678100585938 1.458917021751
29.355842590332 -71.067169189453 -11.604677200317 1.528229475021
27.795112609863 -72.069000244141 -18.727098464966 1.407165765762
36.534622192383 -64.787384033203 -22.564405441284 3.641281127930
46.462074279785 -61.270236968994 -23.816484451294 3.373075962067
29.060586929321 -73.877471923828 -28.887813568115 2.623559236526
17.671823501587 -70.727760314941 -33.724510192871 3.075364589691
-33.973941802979 -71.202148437500 -45.519561767578 4.627991676331
-80.934234619141 -72.922340393066 -54.064102172852 3.900790691376
-18.368440628052 -68.002601623535 -60.358383178711 1.583115339279
73.889770507813 -62.411907196045 -65.506050109863 3.785423517227
104.013504028320 -63.002391815186 -70.033210754395 2.121584415436
63.306144714355 -61.174884796143 -85.231689453125 1.901809573174
59.667400360107 -58.243999481201 -85.652557373047 2.450183868408
95.581413269043 -65.321990966797 -85.900459289551 5.781130313873
-65.926185607910 -65.232833862305 -91.514083862305 2.287109851837
-67.639328002930 -69.198272705078 -89.005401611328 5.170730590820
50.587200164795 -61.198066711426 -91.976737976074 2.417261838913
-69.259620666504 -72.791931152344 -96.200592041016 2.817438840866
-75.107673645020 -68.048774719238 -102.574035644531 2.244590520859
-95.397285461426 -69.680168151855 -103.545890808105 2.354044675827
-77.755157470703 -63.046520233154 -99.022941589355 3.814106225967
45.608398437500 -59.466384887695 -103.358047485352 5.402330398560
-65.648124694824 -71.665176391602 -103.807678222656 4.813667774200
45.719898223877 -61.893104553223 -105.793922424316 4.804609298706
93.824745178223 -61.889259338379 -106.261871337891 2.843922615051
87.684928894043 -63.712913513184 -116.114036560059 7.658032417297
-72.295387268066 -67.406326293945 -116.498481750488 3.071844577789
-89.092567443848 -71.019096374512 -112.061927795410 3.356391906738
-63.365947723389 -67.269119262695 -119.049140930176 1.660641312599
-97.014114379883 -62.531871795654 -118.108131408691 2.739723205566
-77.313041687012 -71.223052978516 -127.472358703613 0.993208825588
-96.031959533691 -58.814529418945 -127.429527282715 4.421137332916
-66.001983642578 -66.486732482910 -116.533233642578 2.251536369324
-61.903015136719 -59.791374206543 -122.449043273926 3.131344556808
-92.093742370605 -70.857475280762 -131.124710083008 2.623148679733
-65.343910217285 -70.918060302734 -126.363319396973 5.200846195221
-85.259750366211 -66.883247375488 -134.177154541016 2.038241147995
-87.112731933594 -68.520767211914 -135.596054077148 1.804185867310
-61.891525268555 -73.999107360840 -138.333953857422 4.139746665955
-61.644199371338 -63.089080810547 -133.896209716797 1.881673574448
-57.151893615723 -58.496315002441 -133.012985229492 2.160115957260
-102.208221435547 -64.311988830566 -130.426849365234 9.342353820801
-99.405113220215 -62.189079284668 -145.105438232422 3.606734037399
-93.743644714355 -68.225944519043 -137.028213500977 1.812936186790
16.995491027832 -67.959419250488 -152.539428710938 2.061302185059
-51.996704101563 -67.765701293945 -139.988159179688 1.055843234062
19.053960800171 -65.447441101074 -153.064193725586 0.694776773453
-99.569534301758 -68.970680236816 -166.224929809570 1.692986488342
-104.972900390625 -75.195716857910 -170.665695190430 6.093615531921
-104.374420166016 -62.991088867188 -171.149124145508 1.698139786720
-110.790275573730 -58.883586883545 -175.556060791016 4.474273681641
-111.531646728516 -68.481185913086 -178.284698486328 1.974274039268
-112.343383789063 -67.497978210449 -179.384109497070 2.230256080627
-144.662307739258 -65.098777770996 -186.015853881836 1.963781833649
-113.227104187012 -66.301925659180 -185.423278808594 2.017881631851
-136.410507202148 -64.562385559082 -202.754272460938 2.669928550720
-153.368850708008 -72.107192993164 -198.333786010742 0.501000642776
-131.857086181641 -68.561676025391 -198.640441894531 2.495752573013
-160.891967773438 -71.674507141113 -194.590774536133 1.589267611504
-148.986663818359 -73.798522949219 -202.544815063477 2.595400810242
-129.649810791016 -60.597736358643 -196.103195190430 3.089729070663
-136.909164428711 -65.115264892578 -198.898849487305 3.282056331635
-140.285034179688 -76.383789062500 -206.805358886719 3.367628574371
-132.231704711914 -69.877296447754 -222.451629638672 2.468951702118
-110.019699096680 -70.289794921875 -231.370590209961 1.533364415169
-143.334152221680 -68.656135559082 -226.836700439453 1.092126488686
-123.191848754883 -65.394737243652 -232.913375854492 1.434264302254
-119.769905090332 -60.018238067627 -230.488632202148 4.965836524963
-122.956054687500 -69.302536010742 -232.019454956055 1.976181268692
-136.883728027344 -66.530784606934 -233.666366577148 2.733367919922
-117.071640014648 -62.362796783447 -239.545852661133 6.378615856171
3.640678882599 -62.008552551270 -237.808731079102 2.090302944183
-155.103485107422 -70.417694091797 -239.559280395508 1.341610193253
3.358242034912 -63.336620330811 -238.378845214844 1.559888124466
0.669857978821 -57.744018554688 -246.530487060547 1.647231578827
