-2.290756225586 -73.199272155762 -249.907302856445 4.888927936554
-5.487152099609 -71.568267822266 -231.874938964844 1.262075781822
62.226531982422 -75.168479919434 -287.151336669922 36.603134155273
55.928527832031 -74.686141967773 -291.584167480469 37.376949310303
-82.967041015625 -64.093620300293 -169.377700805664 16.715705871582
-62.180992126465 -64.910331726074 -188.055664062500 12.984838485718
-79.243576049805 -63.667015075684 -169.065704345703 15.843075752258
-5.619720458984 -71.903236389160 -223.538772583008 2.766949653625
66.629394531250 -75.682716369629 -278.045654296875 31.070386886597
-66.035507202148 -65.285888671875 -182.392761230469 12.635572433472
-79.571540832520 -65.961921691895 -171.117019653320 15.766282081604
-51.003929138184 -64.769058227539 -185.788604736328 9.478729248047
4.411743164063 -72.516296386719 -231.320053100586 1.116861939430
68.600952148438 -77.408630371094 -276.142242431641 30.779565811157
71.967147827148 -73.893157958984 -272.687988281250 28.445123672485
-76.146827697754 -65.981445312500 -168.125534057617 11.899840354919
-70.924079895020 -65.739387512207 -162.926727294922 6.879029273987
-0.089721679688 -68.687812805176 -214.967864990234 4.186168670654
-61.867630004883 -65.092559814453 -162.967666625977 6.714079380035
-42.829879760742 -65.637672424316 -184.136840820313 9.821406364441
-11.077941894531 -68.680992126465 -206.475662231445 2.467763662338
72.264968872070 -76.515266418457 -268.127258300781 25.330152511597
-11.119148254395 -67.329673767090 -204.161514282227 2.042957067490
-40.860618591309 -67.854293823242 -180.072952270508 5.926393508911
-11.927330017090 -68.609107971191 -198.629699707031 3.357914447784
75.661056518555 -76.298294067383 -261.669616699219 21.638874053955
-44.530357360840 -68.863578796387 -171.890365600586 4.814947128296
10.473251342773 -72.113822937012 -211.885223388672 2.180291652679
78.268890380859 -75.942092895508 -259.251464843750 21.110368728638
-52.098937988281 -65.283149719238 -155.899627685547 4.772281169891
-32.684860229492 -67.631278991699 -176.141571044922 2.798940896988
72.702209472656 -74.922332763672 -255.723724365234 14.903694152832
11.549148559570 -70.520942687988 -212.881927490234 1.215414047241
80.014739990234 -73.566459655762 -258.711334228516 21.235559463501
-38.779670715332 -64.556213378906 -170.086364746094 3.917085886002
78.210693359375 -74.728416442871 -251.297668457031 14.526471138000
-54.516563415527 -64.374023437500 -155.864822387695 7.010260581970
-26.896675109863 -65.581298828125 -173.240692138672 4.567361354828
-121.005096435547 -60.051506042480 -100.265472412109 21.411544799805
-47.903732299805 -65.344131469727 -152.594238281250 3.639987945557
-118.836296081543 -60.678062438965 -95.579223632813 19.061159133911
-25.730293273926 -66.001327514648 -162.039276123047 8.881221771240
16.695678710938 -70.230628967285 -197.464981079102 1.831467270851
83.412673950195 -76.430015563965 -249.260925292969 16.444286346436
-25.171325683594 -65.002212524414 -165.391693115234 8.426755905151
11.035034179688 -69.738746643066 -186.417022705078 2.730224847794
21.971298217773 -69.827758789063 -181.710144042969 2.059444665909
-115.354293823242 -58.474754333496 -90.216247558594 15.147889137268
85.865661621094 -74.770446777344 -238.353546142578 9.593837738037
-11.409744262695 -69.318641662598 -167.068572998047 7.398951053619
82.382888793945 -74.015892028809 -241.517898559570 9.563042640686
8.632034301758 -70.183891296387 -190.074661254883 3.976288795471
-97.834983825684 -61.024795532227 -92.642547607422 1.853258132935
-105.371879577637 -59.584884643555 -88.071258544922 5.925637245178
84.371276855469 -74.157234191895 -229.237930297852 2.555556297302
-4.598037719727 -65.328384399414 -165.664794921875 8.545198440552
-5.415428161621 -66.399581909180 -161.998794555664 8.203955650330
17.116943359375 -68.086524963379 -171.778259277344 2.513325452805
-109.083808898926 -61.084747314453 -77.723846435547 10.085197448730
-106.147796630859 -58.540672302246 -80.196899414063 7.327986240387
86.713272094727 -72.416465759277 -228.075195312500 3.943808555603
-49.597091674805 -62.783859252930 -118.749252319336 6.204651832581
-21.623558044434 -64.587547302246 -146.755050659180 19.490991592407
27.605941772461 -69.496780395508 -173.785537719727 1.438265681267
-7.873199462891 -65.970809936523 -148.302337646484 16.132558822632
-49.060089111328 -63.733871459961 -116.014694213867 8.311601638794
86.364883422852 -72.902801513672 -217.398132324219 0.363591670990
-51.557380676270 -63.647003173828 -110.506347656250 8.421444892883
-99.548538208008 -57.217956542969 -69.712341308594 1.352048277855
-49.116706848145 -63.251022338867 -113.586944580078 8.891031265259
2.278350830078 -69.234443664551 -151.921020507813 5.834847450256
-1.869316101074 -68.395996093750 -145.529418945313 12.631618499756
29.226623535156 -70.332572937012 -176.025070190430 3.101376056671
11.703491210938 -65.932937622070 -156.512100219727 2.088195800781
-51.349815368652 -62.028022766113 -104.566482543945 10.728116989136
87.334304809570 -73.834030151367 -215.739318847656 2.106953382492
-60.410942077637 -61.227455139160 -102.218505859375 4.736301898956
-98.653327941895 -58.264320373535 -66.095153808594 0.854734778404
5.207595825195 -67.623855590820 -141.052978515625 10.697996139526
28.621673583984 -69.459434509277 -168.496734619141 1.416756987572
-60.163909912109 -62.410835266113 -96.413742065430 4.658607006073
25.776214599609 -68.449241638184 -157.190719604492 2.267399549484
-1.556587219238 -66.238227844238 -145.788116455078 12.835318565369
88.125076293945 -73.694900512695 -201.412536621094 5.934945583344
-98.191879272461 -58.780113220215 -66.141876220703 0.698722481728
24.664718627930 -70.983688354492 -154.977996826172 0.729748606682
12.882415771484 -65.769607543945 -148.467636108398 1.610411047935
32.254318237305 -69.339752197266 -164.330841064453 2.776728391647
85.513900756836 -72.378845214844 -203.546356201172 6.596725940704
13.986831665039 -67.538688659668 -143.580078125000 2.838988780975
-83.212188720703 -59.359970092773 -73.818603515625 14.975232124329
11.587768554688 -66.248138427734 -144.676788330078 3.404224395752
39.195587158203 -67.559356689453 -154.649597167969 7.825452327728
-76.358459472656 -61.035675048828 -73.188079833984 10.791663169861
-95.306945800781 -60.414154052734 -61.914123535156 1.397017240524
-88.419090270996 -60.131225585938 -64.796630859375 7.836299419403
-82.338165283203 -60.929405212402 -69.408599853516 13.316180229187
12.178817749023 -67.087608337402 -140.615081787109 5.703019142151
83.541183471680 -71.118240356445 -191.832748413086 14.192673683167
-88.028625488281 -59.421630859375 -61.571655273438 6.905164241791
84.635086059570 -71.154624938965 -191.709671020508 13.396524429321
5.725425720215 -64.427101135254 -139.394927978516 11.485136985779
-88.606369018555 -55.855262756348 -62.108398437500 7.919032096863
87.896713256836 -74.021331787109 -196.396697998047 7.898621082306
33.484100341797 -66.603775024414 -148.096725463867 3.498196125031
-88.252296447754 -54.094429016113 -60.125396728516 7.668697357178
-92.504753112793 -57.405014038086 -55.692138671875 1.147498250008
39.590484619141 -71.303886413574 -155.779556274414 6.735343933105
25.362594604492 -67.828422546387 -140.760177612305 1.920452356339
9.773391723633 -65.133232116699 -126.165222167969 17.043455123901
28.173690795898 -69.067955017090 -138.906127929688 2.302319526672
-100.362892150879 -58.602592468262 -45.695251464844 11.740682601929
42.211975097656 -67.447242736816 -143.501159667969 7.603502273560
-104.956619262695 -58.321418762207 -44.734130859375 15.534235954285
18.809371948242 -65.808258056641 -133.137893676758 5.975432872772
83.507141113281 -70.846458435059 -177.925216674805 20.018487930298
21.120178222656 -67.059364318848 -131.852203369141 6.261742115021
12.511581420898 -68.228965759277 -124.653808593750 16.678819656372
10.872573852539 -67.020347595215 -123.925704956055 17.998617172241
20.027130126953 -68.393005371094 -128.507614135742 9.504381179810
-88.757568359375 -59.314331054688 -57.319793701172 4.127997875214
39.983535766602 -69.764472961426 -142.218353271484 4.504305839539
83.803115844727 -73.252944946289 -176.539245605469 20.037790298462
45.354949951172 -68.395248413086 -143.916290283203 9.816038131714
-99.858505249023 -58.862899780273 -44.077728271484 12.254007339478
-6.122894287109 -64.839263916016 -108.037689208984 37.240619659424
35.457229614258 -61.080421447754 -135.981170654297 4.041639328003
48.095794677734 -70.608512878418 -143.272674560547 11.321836471558
-9.407501220703 -64.916328430176 -99.947586059570 28.851778030396
29.157928466797 -69.686302185059 -132.229293823242 0.986305475235
52.460968017578 -67.513046264648 -147.686706542969 17.666034698486
-96.799118041992 -57.289123535156 -35.444885253906 16.273292541504
-21.670448303223 -61.238189697266 -92.716964721680 18.458114624023
-6.449089050293 -65.323547363281 -103.675094604492 33.393646240234
-27.973892211914 -62.227432250977 -84.245025634766 8.272017478943
-92.909729003906 -57.568481445313 -38.130371093750 12.022438049316
-82.297821044922 -58.538932800293 -40.030883789063 5.862071990967
-10.543998718262 -62.759391784668 -96.978515625000 26.546285629272
-17.070144653320 -62.214492797852 -91.201797485352 19.143482208252
-84.356414794922 -58.912231445313 -38.828643798828 7.998237133026
-83.476394653320 -58.787200927734 -38.729644775391 7.627205371857
-22.687240600586 -61.822372436523 -81.739974975586 10.128206253052
-35.473526000977 -62.929290771484 -74.046539306641 2.924412250519
-97.054168701172 -57.994995117188 -33.397125244141 18.168889999390
-82.571197509766 -58.668792724609 -32.809478759766 12.458378791809
-66.393211364746 -58.192474365234 -48.829864501953 6.581234931946
-27.105606079102 -62.380332946777 -80.599884033203 6.266091346741
-90.169464111328 -58.090843200684 -32.030548095703 16.043245315552
-72.972000122070 -58.012481689453 -42.530090332031 1.152106285095
-29.288391113281 -63.577262878418 -75.094635009766 2.520062446594
-35.314025878906 -63.302017211914 -67.564422607422 5.345131874084
-78.460327148438 -59.248802185059 -37.530914306641 6.854516983032
-34.371246337891 -62.198982238770 -69.725616455078 2.973016023636
-78.843559265137 -61.001831054688 -37.202331542969 7.542242527008
-37.722785949707 -60.822120666504 -66.296020507813 6.505011081696
-90.917533874512 -57.555763244629 -25.871978759766 21.751596450806
-86.424720764160 -57.923973083496 -29.235900878906 16.982843399048
-59.136718750000 -58.346656799316 -54.229034423828 8.121717453003
-78.391586303711 -56.975036621094 -34.174407958984 9.986993789673
-46.595748901367 -60.719367980957 -54.688751220703 9.338745117188
31.309753417969 -65.888748168945 -112.931259155273 6.853271961212
-70.997100830078 -56.996459960938 -38.278900146484 4.509918212891
-57.771537780762 -57.835723876953 -48.883422851563 6.148649692535
-80.753036499023 -59.487457275391 -29.246093750000 15.438831329346
64.446029663086 -67.467231750488 -131.207992553711 22.647443771362
-63.662483215332 -57.593704223633 -22.252319335938 20.049507141113
-82.091445922852 -58.478439331055 -11.706268310547 32.643169403076
49.218292236328 -63.808860778809 -103.873992919922 2.590603351593
-63.155235290527 -56.507217407227 -18.087005615234 24.163890838623
50.897674560547 -67.294189453125 -101.288482666016 1.896849870682
68.729888916016 -68.626579284668 -111.794464111328 8.153177261353
-50.693695068359 -57.283279418945 -21.141448974609 21.940641403198
0.749832153320 -63.912872314453 -58.790130615234 9.938435554504
31.405914306641 -63.673065185547 -82.043945312500 20.720338821411
-32.469352722168 -61.906204223633 -33.930816650391 13.314130783081
-12.910537719727 -61.238449096680 -44.272613525391 7.948046684265
-12.493919372559 -60.982788085938 -43.295074462891 8.812276840210
22.233795166016 -62.677185058594 -69.502655029297 29.948764801025
-31.953369140625 -58.265884399414 -30.503112792969 17.174327850342
-27.038658142090 -60.628326416016 -33.159851074219 15.320649147034
36.238189697266 -65.199218750000 -78.589447021484 18.691539764404
-28.030624389648 -60.904632568359 -29.819213867188 18.452680587769
-39.973274230957 -60.585128784180 -22.673492431641 22.627258300781
-52.050476074219 -57.868927001953 -11.325744628906 31.460308074951
68.973907470703 -68.207839965820 -101.273223876953 1.913252353668
73.823333740234 -64.695587158203 -104.556793212891 1.557967543602
-62.175674438477 -57.283386230469 -3.048706054688 39.177207946777
-56.454246520996 -55.641326904297 1.984191894531 44.323951721191
-42.519081115723 -57.995620727539 2.142395019531 46.084552764893
-46.702194213867 -58.999725341797 6.562927246094 49.788673400879
-46.648193359375 -53.989913940430 6.893005371094 50.454349517822
-78.337280273438 -74.221900939941 -337.948455810547 46.695339202881
-82.902145385742 -74.616981506348 -331.613861083984 40.423107147217
-80.569366455078 -74.405120849609 -328.354431152344 37.162548065186
-66.312210083008 -75.900466918945 -318.066070556641 27.203292846680
-130.857315063477 -71.539871215820 -259.888671875000 4.353209495544
-136.051391601563 -68.848342895508 -253.481002807617 1.901876091957
-113.165084838867 -68.973640441895 -267.162506103516 5.433393001556
-143.447860717773 -67.239646911621 -236.517074584961 2.188488960266
-2.443305969238 -75.308380126953 -324.853637695313 32.455280303955
-86.965972900391 -69.732604980469 -265.987854003906 9.508141517639
0.224784851074 -76.334869384766 -327.973632812500 35.361389160156
12.180435180664 -78.886795043945 -328.192230224609 34.297451019287
-139.938079833984 -66.178825378418 -215.605072021484 4.824406147003
-9.439224243164 -75.225616455078 -310.163940429688 18.234338760376
-97.368873596191 -65.467491149902 -240.938247680664 13.180607795715
17.006118774414 -79.770568847656 -324.736572265625 31.002231597900
-102.186447143555 -68.004478454590 -228.680786132813 3.115547895432
-18.565307617188 -74.738899230957 -290.789459228516 1.448561668396
1.213127136230 -74.419212341309 -302.619689941406 10.135496139526
-9.549400329590 -74.301727294922 -289.569335937500 2.699014186859
-12.009277343750 -71.484672546387 -286.048767089844 2.520483493805
1.585594177246 -75.554397583008 -299.965209960938 7.476665019989
-17.621673583984 -72.485527038574 -278.848846435547 6.393479347229
28.213714599609 -78.046875000000 -316.492309570313 26.349264144897
33.366958618164 -76.178932189941 -312.283538818359 26.155004501343
15.292999267578 -78.984985351563 -298.813049316406 5.696385860443
17.419876098633 -73.984161376953 -303.881134033203 10.228492736816
28.138748168945 -77.426452636719 -314.950622558594 24.954223632813
33.889678955078 -77.252883911133 -314.433654785156 28.119718551636
-17.336647033691 -71.476104736328 -270.131866455078 3.179091930389
46.720367431641 -79.465240478516 -301.153442382813 32.090213775635
46.277420043945 -77.883659362793 -306.929046630859 33.561004638672
-12.196792602539 -71.948699951172 -254.913970947266 2.695248365402
-5.595062255859 -71.881050109863 -264.483215332031 5.261710643768
55.117111206055 -76.803588867188 -299.414428710938 39.386638641357
-5.580192565918 -71.146385192871 -254.699401855469 5.893838405609
54.823684692383 -76.688514709473 -296.832885742188 38.545314788818
47.672531127930 -76.908370971680 -300.589782714844 32.604404449463
-11.312332153320 -71.872444152832 -236.590087890625 0.470020741224
-72.597534179688 -67.976104736328 -193.719619750977 17.435016632080
-74.587783813477 -68.847343444824 -193.488525390625 16.995706558228
57.622329711914 -78.106697082520 -291.953674316406 39.218307495117
-84.619262695313 -63.416656494141 -175.044937133789 17.569681167603
-87.967346191406 -64.546287536621 -176.234283447266 14.689780235291
-71.785301208496 -65.644760131836 -183.186431884766 16.008272171021
-0.232109069824 -74.165245056152 -240.244232177734 1.527605414391
61.696685791016 -75.881790161133 -284.030487060547 33.770866394043
-80.658081054688 -65.322349548340 -176.677825927734 19.604001998901
-63.090015411377 -68.973457336426 -188.052139282227 10.687760353088
3.215515136719 -70.887870788574 -233.645599365234 2.391446352005
-79.328559875488 -65.868247985840 -173.330352783203 16.800527572632
64.017303466797 -76.741836547852 -287.153869628906 37.698612213135
71.742187500000 -76.094985961914 -275.276702880859 30.977430343628
68.784988403320 -76.534042358398 -281.137359619141 34.896911621094
-51.576950073242 -66.566635131836 -186.280303955078 7.835683345795
-68.216720581055 -65.467124938965 -161.431961059570 5.735155105591
-76.811126708984 -64.249717712402 -162.976501464844 11.463782310486
2.070426940918 -70.941711425781 -230.916778564453 2.656539440155
-16.866806030273 -68.090866088867 -200.374145507813 2.466682910919
69.666275024414 -75.661499023438 -269.844421386719 25.235530853271
69.221359252930 -78.599533081055 -275.314239501953 30.617347717285
70.972915649414 -76.963363647461 -274.149475097656 29.848999023438
-66.919403076172 -66.633377075195 -163.163894653320 5.297328948975
-52.683853149414 -65.672187805176 -175.646774291992 8.508231163025
-14.150878906250 -70.264419555664 -199.567199707031 2.021716117859
-29.453926086426 -69.319145202637 -178.405090332031 1.587285637856
72.337631225586 -75.543853759766 -263.078704833984 20.836984634399
-44.817535400391 -67.509918212891 -182.863250732422 8.746560096741
77.556655883789 -77.536735534668 -261.933837890625 23.152194976807
-42.157836914063 -66.827575683594 -169.032745361328 3.849552392960
75.094116210938 -76.362457275391 -265.006195068359 24.041542053223
-122.766052246094 -59.302940368652 -98.364807128906 22.909690856934
-29.260818481445 -66.470451354980 -174.632705688477 3.493543624878
-21.406250000000 -67.844146728516 -174.951187133789 5.603339672089
14.150970458984 -69.956054687500 -205.064315795898 1.786391258240
6.644897460938 -70.377471923828 -197.323669433594 3.266465902328
19.354812622070 -70.316810607910 -201.730346679688 1.826679348946
83.056503295898 -76.344772338867 -249.548919677734 16.376264572144
-121.823356628418 -59.980339050293 -92.711151123047 21.964876174927
-14.359100341797 -65.735237121582 -167.248611450195 11.738272666931
76.866363525391 -74.532028198242 -251.515167236328 13.762684822083
84.218399047852 -75.776290893555 -243.452102661133 12.493554115295
81.200820922852 -75.873977661133 -252.022811889648 17.014446258545
81.005950927734 -75.351318359375 -234.671356201172 3.898213386536
-117.429008483887 -56.737472534180 -87.230667114258 17.187808990479
90.116897583008 -74.174728393555 -228.412109375000 5.546812057495
-18.549041748047 -69.312225341797 -159.542617797852 14.158716201782
85.385040283203 -77.225250244141 -233.948272705078 7.406060695648
-92.862556457520 -60.771163940430 -101.048858642578 6.379224777222
-22.250236511230 -64.434059143066 -161.579147338867 12.472787857056
-106.646881103516 -62.848052978516 -88.237030029297 7.792783260345
82.517715454102 -74.632987976074 -228.105651855469 2.135030269623
12.882278442383 -69.309844970703 -179.412307739258 2.465261936188
22.647430419922 -71.071540832520 -191.442565917969 1.239641427994
-111.580291748047 -62.689086914063 -82.841506958008 12.481314659119
-104.311500549316 -61.696693420410 -85.554214477539 5.160091876984
0.397994995117 -68.873962402344 -161.368011474609 3.308105945587
-94.022285461426 -60.390998840332 -96.786361694336 5.580166816711
-103.989952087402 -56.719032287598 -83.745330810547 4.947694778442
14.569992065430 -69.100677490234 -175.552688598633 2.124087095261
-7.914802551270 -65.981971740723 -157.895858764648 11.332831382751
25.313308715820 -71.016296386719 -180.496505737305 0.965671122074
19.851470947266 -70.209320068359 -170.836608886719 2.429849624634
83.332794189453 -74.333793640137 -218.533035278320 1.960625171661
-1.888870239258 -68.872497558594 -151.556518554688 8.775776863098
85.432617187500 -75.262680053711 -220.016265869141 2.065843105316
86.870162963867 -75.529304504395 -222.603149414063 2.496518135071
-104.330177307129 -59.180778503418 -70.709838867188 5.667405128479
92.474578857422 -74.720954895020 -220.182586669922 2.286585569382
18.111160278320 -68.906044006348 -166.996459960938 2.033021211624
20.524276733398 -68.005783081055 -164.149337768555 2.891280651093
-14.899040222168 -67.805145263672 -141.854934692383 24.820312500000
-57.388801574707 -64.076477050781 -109.270233154297 5.208343029022
-7.983306884766 -67.077537536621 -146.376113891602 16.935771942139
84.190399169922 -73.749687194824 -210.248809814453 3.613070249557
87.475341796875 -73.711517333984 -209.174667358398 2.377758979797
-12.462364196777 -65.493614196777 -143.768478393555 22.312688827515
-52.673973083496 -63.828849792480 -107.277725219727 9.165363311768
14.025405883789 -65.909675598145 -157.289138793945 2.891259908676
86.503738403320 -75.326911926270 -211.995666503906 1.413286209106
-101.201080322266 -59.446189880371 -63.797363281250 4.361325263977
-117.333908081055 -59.005821228027 -62.886688232422 19.109941482544
-107.153785705566 -59.419387817383 -58.559539794922 10.927608489990
6.307586669922 -67.268211364746 -138.233505249023 11.714109420776
-100.478317260742 -61.105003356934 -62.735687255859 4.064604759216
15.393676757813 -65.315055847168 -146.028915405273 1.190528988838
22.813690185547 -70.150093078613 -161.708236694336 2.273375988007
-112.060020446777 -58.329734802246 -53.688293457031 16.962230682373
-106.038543701172 -56.915893554688 -54.432586669922 11.002847671509
87.850753784180 -72.418754577637 -194.484130859375 9.009720802307
24.894393920898 -69.504875183105 -152.279876708984 2.131850957870
-102.197425842285 -60.119369506836 -60.167633056641 6.275460720062
-90.550369262695 -61.271209716797 -66.135986328125 5.854345798492
6.643020629883 -66.314788818359 -141.403228759766 9.284751892090
22.604736328125 -64.181198120117 -153.328933715820 2.833166837692
85.069473266602 -73.749893188477 -201.358245849609 8.386121749878
-105.377288818359 -61.306632995605 -53.720458984375 11.709897041321
-95.245018005371 -60.503700256348 -60.517486572266 1.872741341591
-74.768829345703 -62.308563232422 -73.953491210938 10.260334014893
88.411087036133 -73.980598449707 -198.174118041992 6.786838054657
-67.916946411133 -62.786819458008 -80.364440917969 7.264828205109
-94.581207275391 -59.672554016113 -58.861572265625 1.611226558685
-92.996078491211 -59.503814697266 -59.781372070313 2.517813920975
-91.476715087891 -59.652862548828 -59.598602294922 3.412724256516
-99.157272338867 -60.060470581055 -55.976379394531 5.249522209167
-106.663230895996 -58.352210998535 -50.389312744141 13.627266883850
-81.676483154297 -61.270164489746 -65.401092529297 11.809880256653
-81.099731445313 -58.671417236328 -67.175048828125 14.585967063904
-98.076065063477 -59.757194519043 -54.502868652344 5.305995941162
-87.125129699707 -62.761672973633 -55.856109619141 2.479615211487
-95.387405395508 -59.126953125000 -53.445068359375 3.267329216003
84.301895141602 -73.048927307129 -192.176223754883 13.172623634338
83.553970336914 -74.037322998047 -181.009994506836 18.984361648560
-98.223815917969 -60.031822204590 -49.221343994141 8.103982925415
81.800445556641 -73.712646484375 -184.789566040039 18.731542587280
14.613601684570 -65.881652832031 -131.962799072266 9.673397064209
35.893478393555 -70.181793212891 -149.676574707031 2.490058660507
33.770980834961 -68.299713134766 -146.025558471680 1.866235494614
-87.992340087891 -59.416519165039 -45.046539306641 4.349510669708
42.396133422852 -69.793022155762 -147.556610107422 7.720808029175
79.786087036133 -71.764289855957 -182.760604858398 21.523134231567
40.150085449219 -70.681167602539 -150.834854125977 6.263421058655
36.804138183594 -68.496688842773 -141.173645019531 2.094480514526
26.232879638672 -67.521995544434 -137.087158203125 2.349520921707
16.183654785156 -66.813652038574 -124.879989624023 13.655072212219
31.902542114258 -68.587707519531 -136.361297607422 0.791694760323
34.051956176758 -67.139701843262 -140.276702880859 1.864131093025
77.534393310547 -70.757278442383 -173.499237060547 27.138690948486
-11.345214843750 -65.777801513672 -104.424697875977 31.460668563843
48.400848388672 -71.284004211426 -146.265274047852 12.658127784729
-16.377120971680 -64.889869689941 -99.925018310547 25.677852630615
29.369186401367 -68.431701660156 -129.063461303711 3.534125566483
-14.199035644531 -66.384101867676 -93.290863037109 20.550788879395
-31.139533996582 -61.515029907227 -79.983154296875 4.888245582581
-30.577049255371 -64.987915039063 -84.268157958984 6.693943023682
28.293365478516 -68.903289794922 -123.136260986328 4.048861503601
-57.756500244141 -62.019546508789 -53.691345214844 9.835365295410
28.726715087891 -66.842147827148 -118.989669799805 6.202620506287
-52.116630554199 -61.266876220703 -55.791564941406 11.699537277222
-49.105079650879 -60.528274536133 -57.131378173828 12.435320854187
-41.546569824219 -62.029541015625 -63.456451416016 10.963428497314
-71.996047973633 -59.858642578125 -33.446563720703 9.750123023987
-71.556625366211 -58.633773803711 -31.818664550781 11.063903808594
-88.227783203125 -57.297195434570 -20.067810058594 26.136917114258
67.914855957031 -67.231948852539 -118.732116699219 13.424431800842
14.506561279297 -65.138931274414 -72.666503906250 26.293848037720
4.069900512695 -64.503021240234 -65.897888183594 14.286671638489
25.190170288086 -65.857299804688 -77.842529296875 27.747358322144
33.969833374023 -64.389610290527 -84.676773071289 17.045135498047
-20.379135131836 -61.803550720215 -44.297088623047 5.991837978363
35.253890991211 -68.266716003418 -83.229766845703 16.291450500488
55.245269775391 -66.816802978516 -98.574996948242 1.691056966782
-73.290145874023 -57.439826965332 -2.267944335938 40.548526763916
49.449951171875 -67.071403503418 -95.646469116211 1.523190617561
65.398574829102 -66.754058837891 -105.114761352539 5.732678413391
71.418197631836 -67.727416992188 -109.254486083984 4.625702857971
15.840164184570 -64.062637329102 -66.716491699219 25.621852874756
36.407974243164 -65.150428771973 -82.306365966797 16.231443405151
73.207672119141 -69.647445678711 -107.542633056641 3.517452716827
4.953880310059 -63.472213745117 -57.846588134766 14.122494697571
32.565124511719 -65.294395446777 -76.515838623047 22.841146469116
46.481399536133 -68.157150268555 -89.054016113281 3.986344575882
75.977539062500 -67.578796386719 -108.667526245117 2.672003507614
53.307510375977 -66.806442260742 -92.723724365234 1.710856556892
64.622940063477 -69.260429382324 -100.538940429688 4.905550479889
74.559402465820 -68.447250366211 -105.351898193359 1.135907769203
-44.786918640137 -60.771926879883 -17.995635986328 25.769704818726
-49.770072937012 -56.699661254883 -3.343048095703 39.680122375488
-43.114471435547 -55.491050720215 5.683013916016 49.701587677002
-71.913619995117 -74.100463867188 -347.179260253906 55.969806671143
-79.377571105957 -75.866912841797 -339.993011474609 48.787727355957
-72.414932250977 -76.036476135254 -342.470031738281 51.331428527832
-84.153511047363 -76.404701232910 -330.461090087891 39.275669097900
-64.171554565430 -77.229438781738 -342.991607666016 52.110721588135
-78.827636718750 -74.084686279297 -327.925811767578 36.673439025879
-75.262237548828 -74.633865356445 -323.108306884766 32.000267028809
-73.335296630859 -74.926185607910 -318.392486572266 27.231071472168
-58.181320190430 -76.703018188477 -333.629241943359 42.984504699707
-68.722381591797 -76.285888671875 -321.244995117188 30.425441741943
-57.635025024414 -75.783584594727 -330.003906250000 39.278850555420
-65.062553405762 -75.412895202637 -321.989013671875 31.039493560791
-61.475997924805 -74.487129211426 -324.425323486328 33.588077545166
-64.265777587891 -74.273483276367 -319.245269775391 28.259870529175
-55.418403625488 -76.599624633789 -324.285888671875 33.495422363281
-58.848758697510 -75.061485290527 -321.041473388672 30.375272750854
-114.023475646973 -73.925384521484 -268.265563964844 5.946812152863
-108.078857421875 -72.620254516602 -273.091033935547 11.406956672668
-147.927383422852 -72.524459838867 -234.475524902344 2.497034788132
-144.764541625977 -65.661010742188 -229.556182861328 2.355643272400
-7.634483337402 -75.513221740723 -324.612945556641 32.561588287354
-2.082893371582 -74.013854980469 -323.827880859375 31.460111618042
-84.339698791504 -71.961303710938 -266.718231201172 10.824501991272
-139.958969116211 -65.137069702148 -221.237731933594 5.328207492828
-87.675827026367 -71.087081909180 -256.001159667969 1.454164743423
-101.974914550781 -67.500747680664 -234.107543945313 7.010667324066
-9.433219909668 -79.467758178711 -303.723419189453 12.497562408447
-13.635414123535 -75.955947875977 -291.244445800781 2.139585256577
20.614639282227 -78.182006835938 -319.224334716797 25.958381652832
0.909820556641 -77.899536132813 -298.611389160156 7.044494628906
-108.954933166504 -66.553298950195 -218.384750366211 5.119347572327
-106.599937438965 -66.044616699219 -215.785095214844 6.589624881744
-19.448852539063 -72.922538757324 -281.631225585938 7.757991313934
11.017333984375 -77.132858276367 -296.405364990234 4.296191215515
-5.978721618652 -73.168540954590 -280.140045166016 3.495023012161
26.071121215820 -78.010147094727 -314.315307617188 23.397184371948
-125.731117248535 -65.982009887695 -189.678268432617 5.345698833466
-15.908348083496 -72.240364074707 -265.649597167969 1.534891724586
36.100738525391 -79.021774291992 -310.307556152344 27.035881042480
-8.494117736816 -73.641067504883 -270.838623046875 4.045122146606
33.855789184570 -79.119277954102 -308.948822021484 24.478496551514
-114.357147216797 -65.587051391602 -191.349380493164 1.704786777496
-18.127632141113 -72.692695617676 -266.499206542969 3.654498100281
41.590927124023 -77.674484252930 -301.927124023438 27.332859039307
39.300369262695 -78.235664367676 -302.405364990234 25.431711196899
43.109161376953 -78.410797119141 -306.443084716797 30.592182159424
42.529785156250 -76.729080200195 -305.395965576172 29.421045303345
-13.734504699707 -74.634010314941 -265.117553710938 1.306003570557
-17.069862365723 -73.243423461914 -256.400939941406 3.417830228806
-9.153861999512 -74.766036987305 -264.111846923828 4.226908206940
47.736526489258 -77.934738159180 -299.928833007813 32.536010742188
-6.825859069824 -75.080474853516 -255.435333251953 5.232800483704
52.724197387695 -78.257461547852 -292.242187500000 35.715080261230
54.307708740234 -77.788566589355 -295.187683105469 37.841644287109
-11.941474914551 -73.894355773926 -254.077819824219 2.275097846985
-96.757476806641 -66.466575622559 -183.836929321289 9.053260803223
61.805099487305 -77.374938964844 -293.439819335938 42.250179290771
-77.335525512695 -68.613098144531 -189.648086547852 20.436517715454
-3.027954101563 -72.495048522949 -246.118377685547 1.603142857552
-88.767471313477 -66.979080200195 -179.608642578125 15.063615798950
-9.019439697266 -73.140556335449 -241.606460571289 2.146068811417
-90.073944091797 -67.559249877930 -172.386764526367 11.584545135498
-65.114089965820 -67.381889343262 -190.867095947266 14.389578819275
-87.881942749023 -68.534225463867 -180.015136718750 16.157028198242
59.987609863281 -77.901153564453 -289.136657714844 37.843433380127
64.089462280273 -77.130844116211 -285.637664794922 36.519012451172
65.755020141602 -77.107955932617 -286.828613281250 38.311439514160
-84.714645385742 -69.032249450684 -173.843170166016 17.287794113159
-13.758018493652 -73.685592651367 -215.911163330078 1.625876188278
-66.719726562500 -66.642883300781 -178.278884887695 10.153265953064
-59.145103454590 -67.661903381348 -176.415740966797 5.806466102600
69.691406250000 -77.360015869141 -269.558105468750 25.446567535400
-56.855285644531 -69.512107849121 -186.943847656250 6.209378719330
-9.111480712891 -70.274230957031 -214.314178466797 1.829732298851
-0.163284301758 -72.156616210938 -220.893493652344 0.915413081646
77.191482543945 -76.852546691895 -272.159088134766 31.159057617188
8.342880249023 -71.260887145996 -218.269653320313 2.185148477554
-15.830986022949 -69.595046997070 -201.541259765625 0.835202932358
9.566482543945 -71.259651184082 -221.776672363281 1.561798810959
-72.597770690918 -68.334373474121 -163.609359741211 6.410710811615
-69.567230224609 -69.358253479004 -166.765930175781 5.124456405640
-68.313369750977 -64.107536315918 -160.637634277344 6.916099548340
75.300979614258 -78.252212524414 -272.607635498047 31.008356094360
-50.842697143555 -67.087425231934 -176.843261718750 8.254336357117
3.478149414063 -70.003120422363 -211.287200927734 4.234519004822
-62.943962097168 -66.433792114258 -157.895339965820 5.419602394104
-57.921463012695 -66.460113525391 -159.492202758789 8.134072303772
-48.654548645020 -69.769416809082 -182.042816162109 5.868821620941
-36.506179809570 -67.671310424805 -177.467254638672 2.134758472443
79.544403076172 -76.950592041016 -262.903991699219 24.956399917603
-36.584037780762 -69.528839111328 -168.694168090820 2.086334705353
4.555068969727 -71.048255920410 -203.325500488281 4.244671344757
84.481643676758 -74.631454467773 -252.205627441406 18.996831893921
-125.333908081055 -59.034919738770 -101.966415405273 25.642675399780
-123.750503540039 -58.939949035645 -104.523895263672 24.229789733887
-127.923843383789 -60.528671264648 -100.568420410156 28.316841125488
-119.810844421387 -59.730918884277 -102.344924926758 20.466949462891
-25.587776184082 -67.435585021973 -164.629043579102 7.062450408936
-19.902236938477 -69.930084228516 -169.370300292969 8.529200553894
18.995330810547 -72.489967346191 -193.855117797852 2.809941053391
-114.554298400879 -62.229522705078 -96.123901367188 15.173795700073
-117.705429077148 -61.068122863770 -93.346435546875 18.079305648804
-16.210876464844 -71.624359130859 -170.543853759766 7.043942451477
6.519912719727 -68.193717956543 -195.245529174805 5.160281181335
-115.661148071289 -62.035064697266 -89.681808471680 16.391960144043
-27.024520874023 -66.511886596680 -166.536071777344 5.821798324585
80.936981201172 -77.512069702148 -240.452133178711 9.330587387085
86.375106811523 -76.244026184082 -244.956283569336 14.995704650879
20.591934204102 -72.690040588379 -190.905242919922 2.001445055008
-13.418266296387 -67.427642822266 -171.605911254883 8.870804786682
-17.540847778320 -66.605033874512 -162.469985961914 14.577921867371
-117.236892700195 -61.186477661133 -84.541763305664 17.649484634399
-99.713829040527 -60.494194030762 -96.617401123047 1.643441319466
-96.739936828613 -62.990539550781 -100.950714111328 2.443511724472
-92.760124206543 -64.305244445801 -98.593933105469 6.098985671997
-13.195671081543 -70.050369262695 -159.075225830078 12.517287254333
10.683929443359 -70.540985107422 -181.946853637695 4.170911788940
82.278930664063 -75.574768066406 -228.313079833984 2.954476118088
-112.658866882324 -63.541984558105 -85.379074096680 13.599155426025
-110.986137390137 -61.311668395996 -86.838027954102 11.625988006592
-113.243652343750 -63.519836425781 -84.477005004883 14.147979736328
-117.487991333008 -61.481346130371 -78.893798828125 18.417196273804
-15.845489501953 -67.696746826172 -155.822006225586 16.992784500122
-6.214019775391 -67.125610351563 -165.358062744141 7.261372566223
-110.786140441895 -62.318084716797 -79.394470214844 11.868662834167
-6.580917358398 -70.140403747559 -163.907012939453 5.560938835144
-125.208068847656 -59.888641357422 -76.921813964844 25.882360458374
-100.228561401367 -60.525238037109 -91.348556518555 1.616667270660
24.069717407227 -71.440742492676 -175.736999511719 3.685835123062
-122.528167724609 -59.916442871094 -71.311584472656 23.324666976929
-105.946731567383 -60.134597778320 -79.215728759766 6.835698604584
14.874023437500 -71.052322387695 -177.392379760742 1.927760004997
-113.320373535156 -60.751953125000 -77.261688232422 14.318254470825
-12.017234802246 -67.751350402832 -158.719619750977 12.808311462402
90.213043212891 -78.133102416992 -233.045227050781 9.773165702820
-107.966735839844 -59.996505737305 -65.025543212891 10.078261375427
-119.105026245117 -60.589546203613 -66.627441406250 20.643516540527
-50.503715515137 -64.287879943848 -117.799362182617 6.267705440521
83.956604003906 -75.200477600098 -216.709548950195 1.088500618935
14.765213012695 -70.558151245117 -156.706878662109 1.636248230934
-106.750495910645 -59.940109252930 -70.422760009766 8.042242050171
-56.436553955078 -64.252540588379 -107.302124023438 7.091042041779
5.150718688965 -69.377822875977 -158.673156738281 1.402758479118
34.466751098633 -70.610855102539 -162.816497802734 3.701388359070
-98.272430419922 -60.039321899414 -71.193847656250 1.074844121933
17.459960937500 -68.992568969727 -153.518707275391 1.668366551399
2.572441101074 -70.452484130859 -141.600173950195 11.964605331421
5.179756164551 -71.427787780762 -148.821548461914 5.115268230438
87.120010375977 -74.970718383789 -210.284667968750 2.426144361496
0.414009094238 -68.405540466309 -145.572708129883 10.912300109863
-5.167518615723 -66.971008300781 -142.379577636719 17.368862152100
-64.783233642578 -63.405418395996 -88.484939575195 1.646420359612
8.902297973633 -71.060180664063 -144.330993652344 6.144559860229
89.958251953125 -75.732986450195 -212.520614624023 1.394623398781
82.198165893555 -75.272926330566 -206.320602416992 7.921784400940
23.591567993164 -68.117767333984 -157.287094116211 1.727022767067
13.906509399414 -66.564567565918 -146.791809082031 0.263038486242
81.781524658203 -74.445838928223 -200.548217773438 11.204792976379
-75.979675292969 -62.784400939941 -78.794250488281 13.232512474060
1.914436340332 -67.988807678223 -140.139602661133 13.572993278503
-58.597591400146 -65.267097473145 -93.054428100586 4.648715019226
-62.078075408936 -62.459411621094 -88.273040771484 1.321093678474
-84.952949523926 -59.116912841797 -69.041107177734 12.515746116638
87.793304443359 -74.536087036133 -201.687637329102 6.317886352539
-75.816223144531 -63.736129760742 -76.059570312500 12.474985122681
27.652694702148 -69.491180419922 -153.407623291016 0.417226880789
87.103530883789 -75.535629272461 -201.674285888672 6.727437496185
10.509490966797 -69.530342102051 -143.750381469727 5.131608009338
15.828735351563 -68.003341674805 -139.643539428711 4.782250881195
19.528549194336 -67.672470092773 -144.063751220703 1.859426379204
29.874740600586 -69.930038452148 -158.371856689453 1.408520340919
91.677307128906 -75.782455444336 -203.191085815430 2.014308929443
34.033706665039 -72.166259765625 -153.298263549805 2.601303100586
27.097702026367 -69.267982482910 -149.578720092773 1.462133288383
17.262496948242 -66.301361083984 -142.048736572266 2.238948583603
21.151916503906 -67.713661193848 -139.735229492188 1.811860084534
38.086059570313 -72.159500122070 -157.650344848633 5.523786067963
16.391204833984 -68.226654052734 -136.727264404297 6.104333877563
87.323013305664 -74.248504638672 -185.029342651367 13.644535064697
23.090225219727 -69.199234008789 -136.080856323242 4.400354862213
43.575103759766 -67.938713073730 -154.566513061523 11.650269508362
-100.054870605469 -59.442741394043 -39.057800292969 15.754398345947
26.367630004883 -69.794227600098 -138.790252685547 1.780500054359
23.111801147461 -69.665916442871 -132.407089233398 5.673276901245
-98.431381225586 -60.091369628906 -29.047576904297 22.934289932251
27.124542236328 -66.716186523438 -131.102813720703 3.536842107773
47.888748168945 -71.769012451172 -144.996765136719 11.687148094177
-78.124740600586 -58.227249145508 -42.343444824219 2.542928218842
-19.572616577148 -67.740814208984 -93.209808349609 17.786451339722
-14.287673950195 -65.254211425781 -97.207015991211 24.042081832886
77.772094726563 -72.879425048828 -167.420547485352 28.376939773560
-27.260147094727 -64.486984252930 -85.382049560547 8.801414489746
49.869262695313 -67.904083251953 -142.927276611328 13.554674148560
-18.453552246094 -64.620811462402 -84.338943481445 12.078181266785
26.032318115234 -68.257583618164 -123.745422363281 6.076797485352
-78.092994689941 -59.320556640625 -42.536804199219 2.490049600601
76.031097412109 -72.954742431641 -162.405426025391 31.356641769409
-23.585212707520 -64.619323730469 -82.074432373047 8.306992530823
-41.883804321289 -64.021766662598 -67.106445312500 10.569654464722
-39.127792358398 -62.422309875488 -69.874359130859 6.434734344482
-54.928108215332 -60.085289001465 -57.417846679688 10.454478263855
-44.257881164551 -62.531227111816 -63.051086425781 13.368331909180
-43.034637451172 -61.830978393555 -60.611114501953 13.456191062927
60.726318359375 -68.679092407227 -140.477447509766 22.635875701904
-54.989669799805 -61.265983581543 -41.681213378906 1.915896892548
43.471588134766 -67.445426940918 -103.400848388672 2.859045267105
-62.207271575928 -59.767326354980 -20.061462402344 22.140495300293
-79.453216552734 -58.461112976074 -4.318481445313 39.311721801758
-41.246215820313 -60.454948425293 -28.158508300781 17.121255874634
-33.167572021484 -61.234947204590 -34.297607421875 12.793523788452
-0.262565612793 -65.364822387695 -57.618438720703 9.651447296143
12.471206665039 -66.918998718262 -67.380432128906 22.985942840576
24.995498657227 -66.356491088867 -77.540222167969 28.041688919067
46.566085815430 -66.946800231934 -94.070449829102 2.276714324951
49.174362182617 -68.444328308105 -92.389984130859 0.404604792595
29.724685668945 -67.558761596680 -79.075714111328 23.214027404785
31.851318359375 -66.309204101563 -81.158432006836 20.375986099243
44.974487304688 -68.698028564453 -90.215179443359 4.357401847839
5.374267578125 -64.731750488281 -57.540039062500 14.777462005615
16.337539672852 -65.473777770996 -67.941528320313 26.582864761353
49.019958496094 -68.228385925293 -91.837768554688 0.535356581211
50.160720825195 -67.853919982910 -91.992126464844 1.404874205589
58.409652709961 -70.592048645020 -96.632614135742 0.724514245987
62.184432983398 -69.874069213867 -101.033981323242 4.424449443817
-10.386039733887 -61.922119140625 -44.084716796875 9.395057678223
-51.489105224609 -60.047668457031 -11.962341308594 30.809654235840
-30.673347473145 -59.294021606445 -27.837738037109 19.904592514038
-58.743179321289 -57.394073486328 -2.492950439453 39.749916076660
-58.272598266602 -59.081932067871 0.685394287109 42.978160858154
-48.668258666992 -58.001480102539 -4.262603759766 38.827705383301
-63.352703094482 -77.216110229492 -344.564575195313 53.692768096924
-82.058227539063 -75.587158203125 -325.102233886719 34.079898834229
-58.108169555664 -76.344818115234 -340.246398925781 49.546062469482
-53.637145996094 -76.072753906250 -333.739013671875 42.903472900391
-1.474586486816 -78.210250854492 -329.020721435547 36.718120574951
7.053115844727 -77.721664428711 -329.695434570313 36.385444641113
16.751907348633 -79.323455810547 -327.269561767578 33.427639007568
14.521087646484 -76.284584045410 -325.840179443359 31.692073822021
-13.074417114258 -75.597602844238 -297.738067626953 5.804074764252
-18.438102722168 -70.585235595703 -287.057464599609 3.168037414551
-8.455741882324 -77.318923950195 -297.290405273438 6.346394062042
-111.346626281738 -72.231231689453 -219.095825195313 5.800285339355
-4.659454345703 -75.396629333496 -302.481323242188 10.398544311523
26.801223754883 -78.920104980469 -315.088287353516 24.543998718262
6.624221801758 -73.741119384766 -297.310424804688 4.674362182617
23.958572387695 -79.620864868164 -308.479003906250 17.698631286621
-116.230850219727 -67.778137207031 -204.422424316406 1.267206311226
-15.668029785156 -73.275588989258 -276.671508789063 4.415959835052
-116.455955505371 -66.449859619141 -196.275894165039 2.507799625397
-6.180641174316 -74.479110717773 -274.153503417969 3.258922100067
-19.072914123535 -75.427963256836 -272.317596435547 5.954449653625
35.119812011719 -80.445571899414 -313.436462402344 28.679691314697
-17.246925354004 -74.506492614746 -267.737701416016 4.047422409058
-12.508720397949 -74.650596618652 -264.709564208984 1.391848206520
-10.114021301270 -76.338821411133 -265.875915527344 2.792901754379
40.107986450195 -79.637130737305 -306.810119628906 28.258903503418
-107.180046081543 -67.853370666504 -186.793930053711 1.304771542549
49.448348999023 -79.316940307617 -297.484832763672 33.676067352295
-9.543586730957 -75.995399475098 -255.242553710938 3.440299510956
-6.296379089355 -75.650825500488 -260.036468505859 5.848378181458
-10.774490356445 -75.362518310547 -255.038787841797 2.416029691696
-79.381134033203 -68.493873596191 -194.257141113281 16.014623641968
-13.050636291504 -71.597457885742 -251.567443847656 1.764940977097
-92.574829101563 -67.961112976074 -178.076080322266 11.048648834229
-79.701660156250 -67.337577819824 -192.501312255859 18.000503540039
-96.384201049805 -67.824508666992 -176.977813720703 7.135146617889
-8.263969421387 -75.223373413086 -250.667694091797 1.721317648888
-79.569900512695 -68.844711303711 -188.293762207031 21.677747726440
-6.933128356934 -74.932495117188 -246.232849121094 2.075536012650
-87.999786376953 -68.623176574707 -176.352294921875 14.883280754089
-77.683433532715 -67.227607727051 -186.941116333008 21.552036285400
-8.727828979492 -73.802505493164 -238.376190185547 1.534251809120
60.637191772461 -76.598129272461 -284.013916015625 33.488025665283
59.073898315430 -81.009643554688 -291.256286621094 40.068347930908
-3.389602661133 -75.445877075195 -238.955642700195 2.296734809875
-64.948165893555 -72.186180114746 -191.853454589844 12.929350852966
64.786987304688 -78.277099609375 -276.429107666016 29.561880111694
-85.001419067383 -67.475273132324 -172.514572143555 16.541477203369
-75.742759704590 -67.022407531738 -186.021469116211 19.670900344849
2.125297546387 -72.071342468262 -229.057983398438 2.098679780960
-86.033889770508 -66.703582763672 -169.366012573242 13.898201942444
-79.959693908691 -66.594161987305 -169.669754028320 15.169208526611
70.266952514648 -78.665779113770 -280.846984863281 35.838088989258
-72.535034179688 -67.169082641602 -168.910034179688 9.236494064331
-51.815124511719 -69.834083557129 -186.290374755859 4.842750549316
-2.321037292480 -74.964149475098 -230.155502319336 1.568529605865
-83.655136108398 -67.105262756348 -166.401245117188 15.033593177795
-13.944732666016 -70.887382507324 -219.119628906250 1.294411778450
5.098091125488 -74.664840698242 -227.382263183594 1.668639302254
1.347434997559 -74.814926147461 -233.359222412109 2.937545299530
-11.493736267090 -71.072555541992 -214.777282714844 2.410787105560
-60.273315429688 -69.444778442383 -179.661239624023 5.269309043884
1.288719177246 -74.587020874023 -225.282104492188 0.991795539856
-59.246971130371 -68.154190063477 -186.916152954102 8.509742736816
-16.395797729492 -70.183128356934 -212.523193359375 1.454302549362
-6.462402343750 -74.635864257813 -225.390991210938 1.089968442917
-77.107681274414 -66.737335205078 -165.678100585938 11.155107498169
-57.447456359863 -70.055107116699 -183.208648681641 4.988794803619
-73.148910522461 -67.728523254395 -167.991592407227 8.768066406250
-7.116645812988 -74.772018432617 -214.911560058594 1.706528782845
-3.437736511230 -73.458457946777 -228.063964843750 2.022491693497
-14.630882263184 -72.779434204102 -205.376129150391 2.933058500290
-4.738105773926 -71.346328735352 -218.909423828125 1.190714955330
10.260910034180 -73.177307128906 -218.874786376953 2.469226837158
-54.181335449219 -65.981071472168 -173.351745605469 8.286758422852
-42.885444641113 -70.154678344727 -182.624954223633 7.330389499664
-49.454833984375 -68.254959106445 -179.905242919922 6.664088726044
4.492904663086 -73.471817016602 -219.247451782227 1.894424200058
-48.376083374023 -68.782440185547 -170.190277099609 6.312378406525
-47.842163085938 -68.718757629395 -178.973129272461 7.227449417114
2.989952087402 -74.308280944824 -210.160644531250 3.774665117264
-42.925514221191 -68.320426940918 -169.690338134766 3.328904628754
12.505569458008 -73.241477966309 -212.686370849609 3.337356090546
78.928512573242 -78.920059204102 -266.547607421875 27.938800811768
-35.790199279785 -70.526443481445 -174.579528808594 1.970284342766
76.615264892578 -80.177398681641 -257.784759521484 20.327550888062
-34.716056823730 -69.086364746094 -171.429550170898 1.985255360603
-34.434097290039 -67.906715393066 -166.714492797852 4.033059120178
7.158966064453 -71.212989807129 -204.041290283203 2.306539535522
