# This PCD file was generated using the MATLAB® pcwrite function
# from Computer Vision Toolbox®.
# .PCD v.7 - Point Cloud Data file format
VERSION .7
FIELDS x y z
SIZE 4 4 4
TYPE F F F
COUNT 1 1 1
WIDTH 1496
HEIGHT 1
VIEWPOINT 0 0 0 1 0 0 0
POINTS 1496
DATA ascii
90.891251 -51.445805 92.745865
90.220764 -51.666332 97.616661
90.678505 -51.515102 95.715271
91.650352 -51.752956 92.122559
92.469360 -52.413006 -56.173767
91.980537 -52.330410 89.849495
92.900818 -51.909790 96.612129
92.589943 -52.436798 115.294296
92.758690 -53.180687 -90.447510
92.080551 -51.896847 92.685913
91.909546 -52.995132 74.965660
92.440826 -53.488239 88.564774
91.003883 -51.453125 100.035370
92.911850 -52.429802 94.237770
93.108093 -51.884869 99.693336
92.944847 -54.217793 114.204010
93.138832 -51.399487 74.578796
92.831863 -52.654133 91.545753
93.252960 -52.138863 93.938858
93.809410 -51.800747 88.688255
94.144058 -53.318531 90.361916
94.338257 -55.214340 115.237984
94.057594 -51.867798 85.445732
93.746239 -53.196541 88.492325
94.593857 -52.642227 90.480354
95.156326 -51.790504 -89.824364
95.202362 -52.496849 -58.128159
94.641266 -52.280422 84.022690
94.326775 -51.744133 86.726166
95.019646 -52.611717 75.263161
96.985359 -52.070549 -90.424210
95.774422 -53.358032 75.610291
96.550659 -51.717632 -89.480759
95.779930 -52.663704 75.978508
99.016312 -53.314484 76.221817
97.928810 -52.970547 76.894844
98.162567 -52.492306 87.093849
98.084801 -51.916313 88.947739
98.134415 -52.589119 91.914841
99.546768 -52.297680 96.099228
99.160843 -53.108688 113.702126
100.008369 -52.809067 87.266998
99.252426 -52.247143 96.945778
99.237030 -52.478031 73.532433
99.834885 -51.879360 85.365707
100.875137 -52.107685 94.548096
99.785591 -52.517048 97.533463
100.907654 -53.146004 113.153679
99.772903 -53.735527 103.649582
100.247002 -52.375771 81.353157
101.380539 -52.346943 84.057365
100.377159 -52.267105 95.953018
99.747963 -51.408340 100.540749
100.494438 -52.787949 77.690041
101.300995 -52.769802 85.933098
100.324532 -52.901142 94.151726
101.064728 -53.266865 70.807831
101.175392 -52.959641 77.261307
100.448334 -52.405125 96.425339
100.546585 -51.633999 98.311371
102.746727 -54.351406 -62.371609
102.935051 -52.508408 77.363747
101.050407 -51.414082 81.010994
103.384560 -53.378986 65.574318
101.417587 -51.876621 82.338554
102.664780 -52.371502 95.993378
102.508278 -51.797302 101.008278
102.809288 -52.831650 73.662178
102.532227 -52.115131 81.387733
102.210869 -52.739235 85.512352
101.649414 -52.298271 99.822006
103.038528 -54.502514 -63.582798
103.290886 -53.346558 72.171455
104.645950 -51.445004 -53.382515
103.354965 -53.028618 64.143227
103.204422 -52.786236 81.298683
103.219246 -51.689419 82.083359
104.864479 -52.061485 98.348732
104.705284 -52.442497 110.209518
104.035408 -52.273834 -52.723114
103.391022 -52.405746 86.472740
103.284676 -52.697056 96.294487
104.363121 -53.993828 -56.345940
104.662285 -52.977757 83.117859
104.980125 -52.168835 85.778229
105.442650 -53.158169 94.174911
104.806305 -52.457508 -88.955917
105.224266 -53.125702 70.297882
104.691055 -52.046589 109.618507
105.563675 -53.143143 -54.462826
105.766754 -52.398064 93.153130
106.172691 -52.647141 107.655922
107.747887 -52.891335 -52.647007
107.286247 -52.280579 95.057137
107.255730 -53.637020 106.302452
107.821693 -53.213314 66.442673
107.949120 -51.990402 96.270683
108.537498 -52.700420 -88.591545
108.029480 -53.191280 -50.111282
108.515411 -52.580776 57.778255
108.868279 -54.786728 97.021873
109.147636 -52.334850 101.711205
108.785240 -54.122467 103.518387
110.686760 -52.856476 -63.092865
109.250664 -52.150890 56.212711
109.840050 -53.130672 64.167000
109.637787 -54.431313 -66.154671
110.398666 -51.983894 -63.728794
110.233559 -53.263813 63.547729
112.484833 -52.351337 61.432919
110.290596 -52.418888 -52.529587
111.798721 -52.530846 -63.357494
111.691650 -52.833885 54.574429
113.114479 -52.758232 -68.532135
113.467522 -53.255978 -48.997562
113.866249 -53.597599 -69.064087
112.981056 -53.935410 -68.119499
113.615150 -53.392475 -62.261169
113.176430 -53.777401 -49.806900
112.960556 -52.438572 60.888264
114.531624 -51.835796 -62.467503
115.291641 -54.351677 -49.720524
114.896706 -52.887939 -47.464729
116.043854 -53.146027 -69.240097
113.344986 -52.674168 52.783722
117.194534 -50.455330 -71.124214
114.747330 -52.003250 -60.491375
115.947838 -52.938423 -48.991982
116.847687 -52.920033 -86.408867
116.334999 -52.350758 -61.611172
115.520180 -53.673122 -58.524063
117.224068 -54.236179 -86.691902
116.391586 -52.543362 -73.006165
118.043411 -52.129158 -60.292400
117.248322 -53.535427 -59.134434
116.122719 -52.377277 58.715004
117.814339 -53.528591 -74.549965
117.206306 -51.361500 -86.074310
118.262466 -52.972092 -50.276066
117.646332 -51.053131 -47.097252
118.756783 -52.945621 -76.113899
118.927986 -53.209808 -60.357227
118.044579 -53.325317 -49.093636
119.190308 -53.237911 -86.328468
119.626869 -54.325539 47.079731
117.785194 -53.637939 56.307968
119.302467 -52.622787 -48.614182
120.655785 -55.376553 -86.232925
118.687096 -52.405647 -57.262016
119.425224 -53.028690 47.090752
119.712898 -52.482765 -59.244148
120.781830 -53.540768 53.737888
120.490150 -52.288120 -56.379887
120.132103 -53.626030 -45.637363
121.024384 -52.989548 -55.971207
121.231277 -53.054852 53.267212
121.480286 -53.334690 52.940842
122.363716 -53.625317 -84.413330
121.997437 -53.177341 -79.509682
122.497757 -52.661602 -54.371624
120.608757 -53.518559 -48.571735
123.147469 -53.678452 -82.180962
122.006622 -52.140076 -57.765274
122.183456 -52.637196 45.436062
122.643112 -52.946175 -84.807777
123.298943 -52.866245 44.134792
123.015808 -53.355106 52.392754
122.385139 -52.805557 52.609360
122.404457 -52.182522 -45.564472
123.687431 -52.348728 -57.086437
123.346603 -52.971558 52.597969
123.606567 -52.730843 -54.088490
125.183907 -51.106682 -52.338455
124.101761 -51.982983 -50.490063
124.631767 -52.409378 -45.448952
123.101471 -52.781975 43.775818
124.167572 -52.748264 -53.972752
124.371704 -51.740864 -55.708443
124.302551 -51.706108 -48.383213
124.047554 -53.332581 50.902664
126.986191 -52.088280 -54.772655
125.159401 -52.150780 -52.693176
125.422508 -52.500114 -51.130569
125.083702 -52.783638 50.720600
127.104828 -52.693291 -50.693081
127.518517 -53.110870 -54.420006
126.748993 -49.935646 -46.103397
127.402435 -52.444962 48.632446
128.126755 -52.743240 41.350983
129.883240 -52.007595 41.190891
130.586044 -52.135490 41.100616
128.595840 -52.321804 -51.035217
130.283005 -54.007969 -53.397495
129.171402 -52.446068 -46.268616
131.924210 -53.638386 -51.065868
131.520874 -51.457687 -47.035984
131.442444 -52.126740 42.898670
129.786148 -52.577003 45.207291
131.398468 -52.686218 -49.301212
130.946533 -53.272972 -46.411736
131.292404 -52.659084 41.382153
130.862305 -53.350563 39.424652
132.308044 -52.280521 40.502613
131.219116 -52.682476 41.503937
237.505966 -53.569420 13.532276
237.897141 -53.085617 11.869203
237.879486 -53.293091 10.532201
240.095688 -53.297478 17.274870
238.719757 -52.834999 8.836996
241.470779 -52.994423 16.380877
241.972260 -52.044434 16.966148
242.726944 -52.776894 25.419634
242.015320 -53.676250 31.352825
242.489517 -53.261467 11.973090
242.551468 -52.190960 15.357884
243.531204 -50.850964 31.427538
243.336121 -53.196945 22.577497
244.890289 -52.568386 22.232098
244.974411 -53.580975 22.621143
244.650894 -51.787819 21.753092
245.218246 -51.818577 31.993952
246.551147 -51.401543 19.814978
246.416733 -51.552582 19.647266
245.618210 -53.429131 21.981556
246.598969 -52.110397 12.971099
245.569031 -53.233616 16.173655
245.375870 -51.893764 13.921554
246.099380 -51.587231 32.678131
246.774277 -51.982201 13.850509
250.114365 -52.810394 32.302666
250.190155 -52.803520 14.078274
249.551132 -52.080940 15.885365
249.427246 -51.340595 32.869755
250.914520 -54.045483 32.853897
253.880432 -52.352634 17.941319
253.482910 -52.369541 32.487625
255.520981 -51.895035 33.188713
255.272141 -53.189671 19.275475
256.040985 -52.245167 -4.410306
256.951721 -53.679092 19.228844
257.410645 -52.970932 33.991261
259.589233 -53.248886 -7.518856
257.715515 -52.820599 -4.779776
258.964233 -53.537071 20.486923
258.122131 -53.286739 35.301403
257.340912 -52.548138 -6.050845
257.778137 -52.521961 22.623777
259.032410 -51.555359 -9.258445
260.283447 -52.762394 -4.489181
258.459106 -51.439816 -3.488223
261.412109 -53.290810 -7.146542
260.941559 -52.100189 -5.967206
261.409912 -51.910694 -5.527304
261.014008 -53.268620 -7.537050
262.775665 -52.247749 -7.830537
261.660675 -52.439667 -7.617115
261.114380 -50.610188 -6.865097
262.336487 -53.655933 -6.540376
262.036652 -52.130276 -8.337145
261.618286 -53.542683 21.947252
262.587616 -52.646149 -9.048079
262.537445 -52.805485 -4.260642
263.086700 -52.256359 -5.258971
263.534760 -53.058937 -9.274930
264.259827 -51.552197 -6.919826
263.127136 -52.136681 -6.466020
264.795105 -52.416889 21.432476
265.130859 -53.430164 -7.883980
266.163025 -52.974121 36.552288
264.866333 -52.928139 -5.329452
265.558075 -51.558659 23.287369
266.557770 -51.839146 -7.220553
265.359436 -52.646526 -3.739432
267.457825 -53.800385 37.586441
267.068420 -52.407673 -5.613200
267.056580 -52.716759 19.757057
267.798309 -52.448540 -8.411938
267.376526 -52.382240 -7.076207
268.274292 -52.634235 -4.762155
269.067657 -52.499187 36.079288
268.955872 -52.911129 -6.932952
269.018707 -54.760265 19.922606
269.682129 -52.211327 -6.733793
269.894287 -53.180450 -4.350820
269.166748 -51.769253 -2.265800
269.648956 -51.928905 -2.589745
270.278687 -51.875874 23.524849
269.827332 -53.656570 34.772293
271.354980 -52.062748 -3.019204
270.266693 -52.632347 21.446562
270.615112 -51.983700 -5.804715
270.786865 -54.072613 19.474621
269.961487 -51.742908 35.077576
270.615906 -53.106411 -6.645541
272.155762 -51.094181 -6.730638
272.282501 -52.279266 -2.720595
272.438690 -52.265438 -6.198271
273.003601 -52.507275 -3.260566
272.428558 -53.396053 -1.080831
272.660095 -51.436626 34.968163
273.172607 -51.474041 34.456356
274.139801 -54.824799 32.877480
272.817780 -52.038631 -6.520617
273.904449 -52.587601 -0.899974
274.044647 -51.796196 -1.832979
276.052460 -51.349705 -2.850216
276.667786 -52.730370 1.433302
276.193451 -52.474392 -0.912778
275.296539 -51.667912 32.540234
276.647552 -53.252953 1.684448
277.598877 -52.678459 -1.655077
278.063873 -53.081001 2.436216
278.690552 -53.689079 31.135290
277.607391 -52.218071 -0.870734
280.931335 -52.865368 2.690782
279.267334 -52.991425 20.129669
281.156464 -53.986252 29.537903
281.183075 -52.424152 29.871248
281.803375 -52.302826 2.096761
280.971954 -53.332417 4.120088
282.074677 -53.146336 3.474375
282.196320 -51.988522 28.773020
281.964905 -52.234131 18.690832
283.854889 -53.408672 28.707264
284.999817 -53.142666 27.025642
284.982086 -52.058701 5.499965
285.069550 -52.372383 5.028011
285.694183 -50.413811 25.504751
286.885803 -53.021286 24.784882
285.790680 -52.149071 6.841421
285.867706 -52.330906 19.240955
286.911255 -51.590160 5.198559
285.677887 -51.581764 20.318584
287.621704 -52.634071 23.725929
288.074158 -52.296028 8.047655
289.230042 -53.046001 23.271509
287.815857 -52.725346 21.061167
289.420898 -53.220531 22.871111
288.242035 -51.779919 22.111778
289.267242 -51.625763 6.833230
290.380737 -51.959282 8.344124
11.633161 -53.386078 44.504795
12.797861 -52.001656 46.791252
13.314373 -51.229893 48.810390
13.348541 -52.536133 37.641376
14.147228 -51.895756 36.188900
14.552949 -55.371731 52.792225
14.896951 -50.499073 55.169064
16.095179 -50.999058 56.574303
16.913357 -51.532696 41.364883
17.892464 -50.798241 33.297188
18.314016 -52.370544 40.946827
17.558363 -52.624619 31.929752
17.639059 -52.498726 40.198135
18.706430 -52.599316 38.874962
19.440044 -51.321453 39.108574
19.766293 -55.637650 56.983627
18.224638 -50.621990 51.128349
21.688768 -51.026752 36.587208
22.737041 -54.394970 30.446733
25.652058 -54.281384 60.201191
27.330994 -53.495300 29.351482
28.768259 -49.272129 29.461107
29.316139 -51.321293 30.408274
28.622536 -51.734234 36.164089
29.356750 -51.911190 54.603092
28.384396 -54.739323 59.515171
32.110329 -54.642551 58.890007
32.984623 -52.877647 32.148472
33.356400 -53.644131 58.091125
33.196335 -52.163055 31.016296
33.470760 -55.281509 58.389309
35.349529 -51.456406 40.692734
36.257801 -50.956703 48.506443
34.786629 -53.058994 57.619366
36.501240 -53.226574 42.868420
36.608902 -52.560291 45.553074
37.173573 -51.667759 56.027206
37.510963 -52.673389 43.745220
37.465797 -54.134483 35.201302
37.977806 -50.693359 36.218594
39.228722 -57.139114 37.323376
37.710358 -51.445343 53.615547
39.726673 -53.667259 44.569988
39.833534 -54.849373 42.811241
41.943649 -55.696369 42.707108
41.281593 -52.839344 45.041180
40.832989 -48.006306 48.092251
42.819038 -51.986668 -56.910664
42.563545 -51.886620 -51.829918
42.877140 -52.315319 -49.279503
43.638680 -52.777222 -44.774048
43.817730 -51.871414 -63.923271
45.451469 -52.727924 -70.362572
45.505371 -50.432083 -39.102940
46.260971 -51.000744 -32.472050
48.270191 -51.588371 -29.037359
47.441231 -52.752579 -25.590813
47.969311 -51.055286 -25.187937
49.340923 -52.999084 -76.174255
48.212486 -51.366901 -21.904259
49.032028 -51.537670 -77.412216
48.839340 -52.814308 -20.226332
49.057938 -51.405418 -15.912307
49.906853 -52.730858 -78.082336
49.866238 -52.564346 -79.088272
50.360680 -51.877609 -9.080812
50.278149 -52.131348 -8.179207
51.164562 -52.534199 -5.493065
51.009052 -50.958336 -78.757637
52.709454 -52.395798 -1.218891
53.979923 -51.307816 -82.465645
55.537186 -53.198135 -83.979507
55.507763 -52.037991 1.563590
56.402164 -51.586346 1.842609
56.857109 -52.144848 -85.187874
57.751137 -51.786991 88.630226
58.250320 -51.661152 89.751099
58.229782 -51.292835 85.918442
58.809631 -53.014496 100.505096
58.708694 -53.681942 1.949071
59.777214 -52.298866 97.907600
58.986752 -50.201366 94.415024
58.986305 -52.350338 102.526962
60.147152 -51.330643 1.619248
59.905434 -51.822144 83.174599
60.683594 -52.254440 103.906509
60.645412 -51.933186 82.037163
60.115604 -51.063080 -87.004585
61.901035 -52.029629 0.673028
60.748329 -53.144535 105.420174
61.937656 -52.011604 -11.646554
61.182636 -52.174580 -7.508305
61.876083 -50.781120 79.273003
61.999371 -54.586399 -87.202316
62.537678 -50.599670 -13.860117
63.037987 -52.943398 108.544342
64.002792 -51.892124 78.282196
63.880299 -52.580669 -17.994823
63.623920 -50.984692 109.419632
64.984688 -52.244904 78.178116
65.554420 -52.527996 -87.593102
65.293549 -51.728245 -20.417591
67.489342 -52.377167 -52.372349
67.349197 -51.897736 76.714699
68.932312 -51.162132 -53.889198
67.731163 -49.813690 -56.014252
68.799805 -52.948788 112.754837
70.681351 -51.306465 -89.315880
69.697144 -52.153934 -55.186810
69.702950 -50.691601 -53.549084
71.414558 -53.042969 -54.571304
71.765175 -51.528191 -53.662609
73.316360 -51.683723 -53.104752
71.703651 -51.079781 74.902557
72.461319 -53.361500 113.664017
73.471817 -52.643253 -89.539337
73.055367 -51.523575 -26.267675
73.238419 -52.900517 115.453743
74.264137 -51.848801 113.879929
75.113670 -51.927147 -25.750906
72.944397 -51.487705 73.655792
77.018684 -51.940865 -90.232506
75.560646 -50.385937 -27.460218
76.215683 -52.202908 74.142967
76.562767 -51.314613 -27.512144
77.106003 -51.719723 -39.898842
76.988510 -51.493988 -39.105083
77.789894 -53.233555 73.342056
78.064095 -52.155403 -37.496292
78.556046 -51.945084 73.763329
78.691559 -53.193474 -38.992783
78.760201 -52.000034 115.630653
78.559166 -51.521702 74.304848
78.432907 -51.525543 -42.028046
81.430214 -52.150623 -34.763638
79.733711 -51.157005 73.878006
80.235313 -51.879910 -42.211250
79.832054 -50.843365 -32.451176
81.641945 -51.816856 -41.386200
81.693932 -51.151531 -43.183624
81.632141 -52.698517 73.497032
83.186958 -53.302353 115.271141
83.687889 -51.788441 -46.343605
83.076035 -52.558784 73.387047
84.835083 -51.537735 -48.345631
84.780136 -51.110348 71.576958
83.815819 -51.656822 72.873787
85.645966 -51.013523 93.975258
84.000488 -52.884701 114.876305
86.055870 -52.345219 -50.981880
83.788803 -49.949734 96.880363
86.182755 -51.976593 114.997261
85.720581 -51.070877 73.495361
86.650208 -52.615227 -50.197598
85.597969 -51.244907 70.957504
85.854149 -50.945419 115.698036
86.914368 -51.810730 71.908371
85.471062 -51.091179 71.984734
85.297546 -52.162457 93.778542
86.681694 -51.222958 86.279488
86.722122 -51.809311 94.145477
87.022255 -50.963245 96.880356
87.228989 -51.313305 -90.325310
86.255020 -51.542034 90.163727
87.966599 -51.863441 92.057030
87.782684 -50.991085 88.856964
89.036629 -52.166058 -89.984932
87.825081 -51.965778 71.893250
87.771484 -49.996841 83.005112
87.756714 -51.383770 100.910652
88.749130 -50.738770 87.851593
89.574760 -52.460411 115.290787
89.066437 -51.030125 85.698135
89.437714 -50.554867 99.084099
89.298714 -51.450260 95.711205
90.909164 -51.480297 87.385323
90.148445 -52.346405 76.005791
91.263466 -52.578003 74.601883
91.688133 -50.897270 86.331993
90.813431 -51.222557 83.651390
92.745178 -51.550945 84.603981
91.646820 -50.903103 100.521744
93.478203 -54.475292 -57.705978
92.929214 -51.688862 83.884148
95.608139 -53.779129 -58.572090
93.712875 -51.970047 95.901642
93.790771 -52.145172 101.771713
92.550850 -52.396351 102.467232
94.170410 -51.898193 113.640755
94.657982 -51.711800 89.558846
93.586472 -51.240292 93.468323
94.239182 -51.352264 87.307396
93.490997 -50.512558 113.674606
95.154480 -51.009594 80.302887
94.225250 -50.172298 82.056572
94.673943 -50.644688 83.283752
94.592850 -52.004826 88.957466
95.831253 -51.544018 76.544556
95.280800 -51.014629 82.413452
95.499535 -51.310661 77.336876
95.265358 -52.923508 113.509209
97.535828 -52.937363 -60.124298
97.087051 -51.341305 77.094719
98.305428 -51.458244 76.000008
95.956276 -51.724968 114.239822
98.662880 -52.139133 73.433937
98.317787 -51.423679 90.857445
98.611931 -50.763786 94.262192
97.354332 -51.719017 88.511612
98.431747 -50.516132 94.865990
97.412827 -52.388092 97.990692
99.261688 -51.089428 100.567360
99.168983 -50.232693 113.967827
99.338173 -52.218025 71.227974
99.186516 -51.877491 86.392784
99.983887 -52.433594 102.304581
99.204880 -51.780537 83.575577
99.301308 -51.405937 104.531044
100.138008 -51.379307 69.399521
101.307510 -51.967220 79.643791
100.852959 -52.096466 81.265251
100.558632 -52.951477 111.217903
102.126610 -53.328880 -89.779976
101.263138 -50.982132 78.160370
102.119431 -51.813137 79.152649
101.095505 -51.760456 103.571213
101.640144 -52.044991 67.060593
100.951309 -52.413296 102.111778
101.407883 -52.047409 111.025200
102.698677 -53.045994 111.375565
101.617111 -52.333549 66.420044
101.944550 -50.710594 104.778069
102.592781 -51.328274 -89.800034
103.696739 -52.454979 75.301254
101.128990 -51.229427 103.886993
102.056801 -52.061607 64.220474
102.993996 -52.228405 101.703667
104.495888 -52.347950 72.819763
105.421944 -52.373779 -53.930153
105.577400 -51.406017 99.959641
105.852333 -51.433731 -53.996735
105.237160 -52.217430 -51.866322
105.081863 -51.857639 61.713181
103.839348 -50.491360 102.451195
105.149185 -51.136154 108.788994
104.329628 -53.929737 -64.277512
105.232498 -51.753361 -55.195496
105.688332 -52.155151 71.055550
106.403236 -52.378353 95.447655
105.087540 -51.341293 95.833122
106.105957 -50.786762 98.166283
106.443474 -52.710892 -50.532581
106.432831 -51.580322 60.737183
104.789452 -50.737370 103.472069
106.978287 -52.014668 106.253860
106.606331 -51.228996 95.356674
105.851303 -52.185677 106.862625
106.495255 -51.685196 -53.433136
105.473831 -51.969097 93.910408
105.879608 -51.314419 69.950066
106.946693 -53.172512 -65.290977
108.730156 -53.387383 -65.660080
107.487335 -50.606201 59.408630
106.718185 -50.867237 -52.562241
107.643257 -50.239117 58.888046
107.646935 -51.617519 67.356155
107.106117 -52.428051 106.037086
108.990463 -51.232452 99.071007
108.761574 -51.742893 100.352631
109.178070 -52.274975 102.689842
108.732697 -51.376247 66.298073
109.181297 -51.231224 65.753632
109.617805 -51.939400 -49.862648
108.357361 -50.383938 -51.857464
110.190674 -51.063126 -63.254669
109.505386 -52.626705 -66.530663
111.189621 -51.780869 -61.120323
109.802925 -52.498581 56.639248
110.434937 -52.379658 -61.190651
112.670013 -51.017632 -49.087025
110.479630 -51.851585 62.737583
111.147705 -50.870094 -51.623798
111.356606 -52.230938 55.118797
113.368958 -52.101776 -62.734776
111.823280 -51.367500 -60.307510
113.218399 -52.065739 -67.681160
112.377579 -51.826157 -49.522518
113.339561 -51.564247 53.665173
112.114075 -51.956882 -50.859993
113.874298 -51.001553 -60.443798
114.306961 -52.947105 -68.569855
115.113480 -51.152020 -48.327217
115.379013 -51.898430 -69.746323
113.764954 -51.473358 -60.458920
114.709023 -51.038586 -49.395687
113.977997 -52.567776 51.532955
113.945488 -52.147148 60.036182
115.057770 -51.775665 50.984653
115.508545 -52.880936 60.234524
115.977310 -50.313057 -50.521141
116.052551 -52.727123 50.911228
115.318031 -52.170582 58.253799
116.854889 -52.317451 58.210857
116.426788 -49.989326 57.962959
116.605995 -52.055786 50.037834
116.968529 -51.678879 -58.054035
118.098877 -52.097832 56.220448
118.287689 -52.625923 -57.624470
117.210564 -51.843651 -50.041611
118.009865 -50.926220 -75.323303
117.797890 -51.732269 49.371414
118.145775 -51.891754 48.840359
118.537941 -50.893070 -51.813457
121.520233 -51.066803 -56.470764
117.502449 -52.638180 -45.999561
119.115723 -51.963825 47.419342
119.311745 -51.256821 55.042809
119.560753 -52.656200 -76.988037
118.975761 -51.497604 -49.752716
120.069901 -51.451111 54.251579
119.651817 -50.269550 53.944393
121.126434 -52.787685 -77.756607
120.264595 -51.948872 -49.332119
121.662521 -52.294571 -46.145626
120.760590 -51.491879 -85.150948
121.060509 -52.287025 -58.794422
119.907188 -51.650421 46.487766
121.421577 -52.566387 -78.706909
120.266945 -51.380283 -55.021133
122.038979 -51.135384 47.133183
121.581856 -52.346046 -85.182175
122.289764 -51.666470 -80.905487
121.964584 -51.445801 52.466263
122.520325 -50.567432 -81.953125
122.921791 -51.865707 -53.435650
122.156464 -51.819176 45.889492
121.594650 -50.811989 -80.925331
122.306694 -51.307632 -49.192463
123.334091 -51.941860 50.591305
122.538445 -50.434277 -51.611805
123.448341 -51.782238 -46.428440
123.486153 -50.617939 45.458645
123.720741 -51.555241 -47.312401
124.926880 -52.740932 44.645981
124.000275 -51.118118 46.105480
124.472702 -50.645439 51.039474
123.884804 -51.866337 -50.544945
125.603691 -51.536388 -45.245640
125.640511 -51.924461 -55.146790
125.129303 -51.107311 48.519699
125.452934 -51.160343 43.876781
127.192703 -50.672916 44.450695
125.940285 -52.327747 42.078876
126.650658 -50.677971 46.524773
126.573776 -51.844887 -53.188290
126.749062 -51.941982 48.163548
126.401756 -50.422874 47.274376
127.277985 -50.481628 -52.233513
126.387642 -51.992096 43.039459
127.659111 -51.220249 -51.222336
128.631775 -52.182156 -47.005901
126.332603 -50.743698 45.741177
128.137390 -52.184059 -52.789551
129.132675 -52.737202 45.636574
128.322998 -51.926006 -50.794502
127.957001 -51.182255 42.831532
128.090118 -50.556358 43.959080
127.409332 -52.505520 44.234707
129.355209 -51.861607 43.593296
129.682724 -51.664154 45.520565
129.847809 -52.261124 -49.401196
128.357224 -50.799606 -49.566257
129.795349 -51.536404 -47.558346
237.225952 -51.799252 14.627987
238.549042 -54.535389 7.716804
238.908539 -51.578350 16.050987
239.813751 -50.994930 15.408868
239.444351 -52.154797 17.084475
240.999390 -51.982891 10.473642
240.177200 -52.735222 13.552386
240.999969 -52.721954 29.298098
241.996216 -52.473675 9.832803
241.220367 -51.835545 17.527010
241.392654 -51.315079 28.314566
242.187576 -52.558853 16.601936
242.973053 -50.583618 15.065616
243.674240 -51.724483 32.002953
246.195862 -51.733429 21.140100
246.033737 -53.177353 23.023954
245.880600 -52.198380 15.843249
246.122543 -51.174122 18.688156
247.505280 -49.535461 21.511021
246.864838 -52.265701 14.289816
247.312195 -50.938183 14.993786
247.462097 -51.478737 32.375378
248.507584 -51.825890 15.888190
248.163513 -51.409622 31.955009
251.148422 -51.046650 19.154152
248.776093 -51.139488 -8.003744
252.477951 -52.184883 18.442287
252.219025 -51.061531 -8.957928
251.854172 -52.656254 33.300766
254.189850 -50.618576 -8.558185
253.174454 -51.344280 -7.876592
254.975739 -51.774471 -6.830504
253.919785 -51.812908 -4.684858
253.827896 -52.270103 20.549133
257.876648 -51.280155 -7.652330
255.432724 -52.288353 33.684525
255.568970 -52.410767 -5.895237
255.865906 -51.289013 21.935801
255.654816 -52.121887 -6.616004
255.671738 -52.374611 33.366329
258.340576 -51.767582 -9.183801
257.894928 -51.843849 21.881136
258.067322 -51.384064 -5.756949
259.609070 -51.942341 -9.170195
256.566284 -50.979095 -6.107576
259.004700 -51.519272 34.748371
258.835510 -50.438911 -8.330466
260.791565 -52.324341 -4.868816
261.484619 -51.552773 -9.088342
259.511505 -51.736675 -8.523069
260.653198 -51.448460 -6.199672
260.796021 -51.003674 -7.848158
262.395813 -51.618393 -6.202893
261.775055 -51.649483 -7.280511
262.624847 -51.552822 -9.029972
261.740601 -51.203671 -8.671078
264.152435 -52.229504 -7.984745
262.994385 -51.856628 -6.677316
263.887299 -51.921143 -4.938644
262.443695 -51.390820 37.182102
267.176117 -52.824383 -2.883529
266.754822 -52.928677 35.920189
268.118011 -52.059174 37.031910
268.832611 -51.891506 -3.976931
268.237885 -52.530327 -3.366610
270.831665 -51.712860 -2.555695
270.387726 -53.636078 -1.693904
272.395630 -51.546776 -0.771763
270.823822 -52.103996 -7.194609
272.058105 -52.582481 34.359673
272.604767 -51.579815 -4.338347
273.342499 -52.001793 -3.380666
273.354431 -51.676098 -6.498218
273.556641 -51.611065 32.112625
273.114624 -51.677593 -4.413514
273.036987 -51.761723 -2.445100
274.288300 -51.647125 -5.337948
274.603790 -51.685757 -4.403350
274.751892 -52.609715 -2.411111
274.649536 -52.090832 -3.512763
275.382813 -51.430672 -4.981196
275.415070 -52.011959 -1.147375
273.838806 -51.702152 0.389476
275.850250 -50.936794 -4.818309
276.638336 -51.707527 -3.754823
275.845093 -51.952019 -1.770131
276.193024 -51.687305 -3.056767
276.716705 -50.794392 2.217053
276.603424 -52.990536 31.808847
277.490814 -51.421600 -3.031081
276.719116 -51.741531 0.879066
278.491486 -52.071953 0.270232
278.278320 -49.999039 29.988211
278.763977 -52.087681 0.402927
277.761383 -51.073708 2.342850
277.929810 -52.497757 -2.800279
279.903107 -50.712551 -0.927007
278.746490 -52.411083 21.766548
279.505310 -52.439400 30.595671
279.048065 -51.189888 2.525601
280.839813 -52.078304 3.044975
278.816895 -51.140907 1.381719
280.048859 -50.651051 -1.764457
280.379272 -51.154827 -0.304151
280.625885 -51.290062 -0.192236
280.545807 -50.778889 2.123183
280.291534 -51.617157 -0.086637
280.098145 -51.363503 0.539479
280.455872 -50.402523 0.994648
282.084869 -51.197186 0.903854
281.033295 -51.720890 0.510998
281.547211 -51.376884 3.044245
280.353302 -51.200893 4.975481
282.521515 -52.420357 3.056594
283.172150 -51.620033 0.259853
282.684723 -52.049824 5.683468
283.296936 -51.633003 28.194857
283.167664 -51.160999 4.138287
284.244324 -52.739277 5.485921
281.305420 -51.613781 21.548426
284.727142 -52.403553 3.473230
283.203461 -51.059616 0.997527
284.031952 -51.933010 20.086456
284.124451 -51.391140 26.643465
285.704254 -50.484425 2.759196
284.718689 -52.258484 6.803744
284.808197 -50.484512 4.798378
284.456573 -50.654846 22.107244
287.009521 -50.330105 5.333394
285.965179 -51.864399 4.206380
287.022736 -51.543411 21.831394
287.678864 -51.528793 22.911526
286.693359 -52.188728 8.105055
287.173279 -52.112038 22.642139
287.038239 -52.057613 5.673328
287.852203 -51.271717 9.117430
289.394287 -51.270115 5.668579
290.368896 -52.248291 8.864547
290.464355 -51.726505 9.756237
290.699646 -51.331432 12.197105
290.609436 -52.360348 8.298111
291.886719 -51.874950 9.843758
292.833008 -51.388138 12.615608
292.117554 -51.655785 11.985349
294.108185 -51.845581 11.979609
293.764679 -51.491425 16.395641
294.514008 -50.711742 15.314579
12.415554 -55.999130 42.461617
13.312428 -53.536297 50.855915
13.985696 -49.794590 37.826283
13.835755 -51.390278 35.498192
15.492210 -50.700905 35.224529
16.894024 -52.388397 33.160275
17.529856 -53.101891 43.609303
18.099213 -50.362610 47.734772
17.912134 -52.194305 56.724625
18.515120 -49.403019 39.975418
18.996428 -51.322712 31.424606
19.699411 -50.041931 57.534954
20.218935 -52.225342 38.114582
20.736572 -49.603912 58.946770
21.926676 -50.579536 36.827255
21.019938 -54.307281 58.820339
22.333481 -51.306774 59.702133
23.618561 -53.389221 36.682121
23.478348 -51.554874 36.064938
23.849941 -52.093636 52.834869
25.385393 -55.128777 59.925663
25.604027 -51.878460 29.323072
26.130938 -52.949272 59.529686
31.957191 -51.592587 53.363003
30.044476 -51.575798 36.539631
31.684143 -53.288376 30.559994
32.112621 -51.777630 31.178612
32.253986 -49.901970 30.399706
32.523075 -52.682781 52.484798
34.624100 -50.874901 38.383915
35.133446 -50.963387 49.931499
35.481960 -53.298031 56.097786
35.343609 -52.759365 32.953396
36.282059 -47.621742 42.246941
37.535572 -52.043991 44.847210
37.722866 -54.745258 53.453732
39.003563 -51.260582 36.386559
40.668240 -50.001442 50.912571
40.757828 -49.916615 50.909977
41.370785 -52.116093 46.300167
42.842403 -51.583439 -59.637169
42.792896 -51.585457 -56.741760
43.154667 -51.608704 -54.626114
44.322174 -51.234501 -68.417259
44.700596 -50.721832 -42.282986
44.445004 -50.001579 -70.712601
45.833309 -51.282867 -37.397198
45.333229 -52.340363 -35.356388
46.290497 -51.902477 -73.526436
47.327991 -52.846474 -30.546658
48.594776 -51.445042 -77.562988
48.802139 -50.602085 -21.506216
49.583778 -53.236271 -77.318863
49.799644 -50.729740 -9.289748
51.605968 -51.356270 -8.464725
52.543255 -50.288258 -0.609939
52.861340 -53.230778 -82.177002
54.524818 -51.477428 0.747123
57.041054 -52.193989 1.730271
57.749355 -52.209129 2.359707
58.241650 -50.015530 88.128380
57.400440 -51.297462 92.010841
58.624168 -50.335236 2.097309
58.328377 -49.339870 101.344101
58.758324 -52.241684 92.780136
58.864609 -52.183830 95.780251
60.123665 -49.623920 -85.087753
59.130352 -50.988888 80.929810
59.058529 -51.008369 102.701035
60.808666 -50.721031 1.408437
61.571857 -50.384140 -8.823512
62.015179 -51.060726 -5.826575
60.741657 -50.185364 -3.894562
62.126350 -51.130482 -1.021386
62.752533 -51.249371 78.951859
62.675663 -50.498062 -17.014059
63.070438 -49.875549 77.611389
63.692390 -51.751266 -16.735193
63.729351 -50.763149 110.092300
63.767773 -51.051380 77.357231
64.284882 -51.762947 -20.756622
64.659691 -53.595310 110.020866
66.151314 -51.176598 -20.936291
66.506042 -51.888802 -53.776497
66.265442 -51.778854 76.698685
64.658920 -51.744026 110.743233
66.996086 -50.737125 -89.044197
66.854561 -50.283443 -52.201046
66.093620 -50.339378 -21.669340
65.793343 -52.112705 110.728874
67.094780 -53.104259 -88.938843
67.711143 -51.136749 -54.954857
67.509796 -51.936363 111.893341
69.128418 -51.331104 75.658875
67.283867 -50.573284 112.336662
68.059814 -52.576267 -88.491699
66.727905 -50.557838 -51.209263
67.795952 -51.114658 -50.519638
70.113419 -51.484413 -24.224573
69.443810 -50.748505 -55.968216
70.754196 -51.537960 75.061707
71.342377 -51.184639 -56.998356
71.202568 -50.864990 -52.140705
73.025314 -51.795769 -25.539211
71.474030 -50.521297 -53.175468
71.745529 -50.823318 -56.840321
72.122520 -49.505310 -54.891312
72.576790 -50.761684 74.287292
73.284698 -50.590282 115.277664
74.646164 -50.098244 114.493492
74.911835 -48.680920 -90.353172
75.155556 -50.334278 74.144402
76.131935 -49.071430 74.078461
77.505409 -49.793217 -27.503696
77.221954 -52.125896 114.906082
77.578842 -49.757263 -37.369469
78.730347 -50.798332 -36.614700
79.573090 -51.469963 -36.843689
79.757668 -51.510010 -29.333666
78.780815 -50.953823 -34.655125
78.940117 -50.416599 -39.205463
79.716148 -50.459782 116.365189
80.455246 -49.990238 89.635300
80.785980 -49.791794 93.966469
81.323769 -49.819679 91.476234
82.259926 -49.079224 -41.281010
82.172600 -49.824898 91.228737
81.277084 -50.218258 94.273476
82.734108 -51.682514 -45.066025
82.433891 -50.628368 93.725136
82.915985 -50.022427 96.623146
83.000725 -49.978447 83.474083
82.603241 -50.305012 89.040329
82.747131 -50.330967 91.475838
82.794258 -50.053177 -90.472305
82.735657 -49.532970 73.965851
82.969017 -51.453304 94.173912
84.099472 -51.390697 -89.069954
83.910545 -51.432323 -46.832417
83.104134 -50.635185 96.166321
83.890388 -50.422722 88.594223
84.087959 -50.794582 88.610397
85.130035 -50.859356 98.357018
85.594383 -50.538380 85.463028
84.810074 -50.646008 98.149010
88.056511 -50.899345 -89.395340
88.632774 -50.793518 73.616089
88.187172 -51.301804 114.759338
87.162415 -50.186749 -51.845779
86.886864 -50.591961 82.847153
87.956528 -50.507580 98.379959
87.495003 -50.966454 -52.336258
88.379311 -50.908020 75.000336
88.284645 -49.418442 -90.142235
88.551056 -53.964333 -53.298252
86.551865 -49.484428 99.913651
89.658646 -50.420551 -53.698067
90.195885 -50.542767 74.592155
88.679466 -50.697208 83.805473
87.861763 -50.342144 82.100906
90.895676 -51.157959 81.227356
89.219345 -50.499256 103.269066
90.825897 -51.088665 -55.980732
91.489784 -50.220310 81.195625
90.775757 -50.434879 115.304070
92.249847 -51.763569 -89.796600
90.769844 -52.917492 -55.536991
91.791298 -50.737804 74.804535
91.277908 -49.964100 76.366707
91.629944 -50.649948 79.492775
91.435997 -50.295483 77.656784
92.278145 -51.232426 80.885925
92.551720 -51.149170 74.667671
91.584290 -51.153301 102.184402
94.223534 -51.862503 75.419456
92.874687 -50.782700 103.680939
92.695557 -50.804672 114.749710
93.388382 -50.303349 77.351471
93.087067 -49.538227 77.291985
93.723999 -50.455738 92.293365
93.830566 -50.574600 96.013794
93.566757 -50.447948 -89.687775
94.394844 -51.705994 79.178902
94.142227 -50.761829 89.882133
93.449402 -50.607750 101.142860
94.202919 -50.864876 104.452393
93.800293 -49.201828 105.231445
94.425980 -49.923454 104.367767
93.486359 -51.012104 84.966911
95.136360 -49.733173 -90.515930
95.055740 -50.394386 82.258141
95.240578 -50.649544 81.398544
95.573349 -50.303329 113.497025
96.064392 -50.864677 78.622200
98.209656 -50.527847 -90.527573
97.278717 -50.150284 76.564636
98.378723 -51.297176 74.773575
98.688942 -51.020874 113.661461
97.960602 -51.326176 -89.968475
97.840446 -50.761307 72.463600
98.390564 -50.437386 72.488342
99.230766 -49.725170 88.274750
99.442879 -51.527733 100.581581
99.876404 -51.085785 104.341225
99.794609 -50.996098 105.672523
99.991310 -51.802650 112.494949
99.869415 -50.355736 70.239388
100.078873 -51.574268 85.662903
100.093819 -53.925240 -61.634941
99.806671 -52.306137 70.012321
100.616371 -50.079121 85.638535
100.349075 -50.890625 106.583298
100.254890 -50.478622 67.791466
101.055153 -50.876350 67.497787
101.727707 -50.735119 79.914398
102.278625 -50.525913 66.294746
101.558525 -49.909260 107.194000
102.124939 -50.169861 -62.867512
103.080421 -51.494946 64.729454
102.216133 -49.350330 107.103218
102.178345 -50.848339 111.371429
102.055305 -50.176731 110.507355
102.942253 -50.970284 75.703476
103.256973 -50.317051 106.407982
104.205978 -50.692352 109.657448
103.890594 -50.318748 109.082062
103.789108 -50.855999 105.233551
104.806923 -50.543190 63.761536
104.001953 -49.860367 106.082794
105.033173 -51.816483 71.875450
105.284470 -49.938210 105.281708
105.242523 -50.125271 107.010139
104.701752 -51.280621 -49.797947
105.791862 -50.497543 61.153999
106.177521 -50.977985 97.506500
105.584763 -50.579266 106.226151
106.550713 -50.782799 105.421036
106.878532 -50.133522 -64.347717
107.840141 -50.214024 60.042519
105.188530 -50.492226 70.495453
106.078529 -50.923813 101.437393
106.241997 -51.429710 97.306778
107.242378 -49.909374 98.977943
106.270943 -50.923882 104.304420
106.397942 -50.900005 101.429817
106.850578 -49.870113 103.162621
107.791267 -51.140739 -50.068748
108.401840 -50.460274 98.235535
107.103500 -49.815262 100.885857
107.365044 -50.886967 104.720490
108.456108 -50.831356 98.711548
108.216843 -51.406975 100.579926
108.264755 -51.725662 104.140030
108.732544 -49.524250 102.545280
109.670891 -51.080936 -66.152779
109.235207 -50.982334 -61.473026
107.999130 -50.298943 66.595230
109.090759 -51.254333 57.059574
108.616806 -49.862190 58.952320
109.441223 -51.585533 -64.239136
109.714714 -50.321095 -60.845310
108.861259 -51.564232 -50.634365
110.711296 -50.617985 65.404602
109.984703 -50.309891 -87.686066
110.526398 -50.075836 -66.358101
110.259979 -51.146313 -61.649124
109.542969 -51.215057 64.176910
111.372070 -52.022301 -64.889275
109.874031 -50.467491 -49.368851
109.641655 -50.744308 57.019936
111.677406 -50.864899 61.806915
111.470337 -48.381706 -87.335670
111.579430 -51.815014 -66.597893
111.611275 -50.300442 -61.252808
112.207352 -49.860073 -66.478775
113.582298 -51.110504 -63.666084
112.490173 -50.985199 -60.578911
112.017197 -51.015148 54.064289
112.082329 -51.565475 62.033436
114.129189 -50.790340 -67.000923
113.094131 -50.889240 -51.423576
114.044975 -50.291359 53.354141
113.646210 -50.567005 60.430527
114.627693 -50.571033 -62.467686
115.175674 -50.225582 -86.595375
113.474861 -51.113266 -68.674828
112.813232 -50.665180 -60.077919
115.890846 -50.317097 -51.222874
115.137634 -51.484783 60.609093
114.434471 -51.066292 59.059063
115.141685 -50.725441 -59.065125
115.021553 -50.228855 52.470528
115.721886 -50.058151 -69.213654
113.445038 -50.457195 -47.791847
114.674370 -50.860394 52.428619
117.971184 -50.689869 -71.643852
116.955238 -49.824158 -52.162308
116.514366 -51.315750 51.043480
117.468239 -50.508568 -60.745304
117.258133 -50.659092 -58.778183
117.310158 -51.329098 -51.345558
117.603470 -50.898411 -72.964264
118.329216 -50.167782 -59.934669
117.825356 -50.682690 50.114780
117.543556 -50.287502 51.599239
116.755760 -50.494961 56.504780
118.786598 -49.316128 -74.779175
117.876945 -50.359772 -57.487453
119.952492 -51.814842 -86.255753
118.551880 -49.044689 53.604565
118.688950 -50.855679 -58.658718
118.422874 -50.320301 -56.056831
119.598167 -49.404209 -84.894035
119.687416 -51.058601 -75.725868
118.005836 -49.951717 -52.584217
119.283279 -49.740128 49.397942
118.187302 -50.299820 50.448322
119.110672 -51.188271 55.096394
119.828667 -51.772839 -53.957882
118.279427 -50.857437 -48.608540
119.726318 -49.037781 51.673378
119.237869 -49.915264 -58.518925
121.677040 -50.606956 -47.221706
121.221779 -50.928234 52.383419
122.008873 -50.820984 -58.464996
119.924149 -49.738811 49.532970
120.631294 -49.823570 -84.231499
119.465912 -49.769604 -52.930473
120.414322 -50.275108 -50.475697
120.975311 -50.179611 49.084240
121.108017 -50.390137 -54.372822
122.287544 -50.946362 -51.798138
121.341774 -50.267246 50.971161
120.745750 -50.615749 49.983475
122.325218 -51.329521 -56.749943
121.798004 -50.577847 -57.750950
122.568184 -50.380306 50.954746
123.774475 -50.793777 -56.143364
122.573143 -50.610809 47.614391
123.371864 -50.292019 48.886433
123.672249 -49.998543 48.464642
124.497459 -51.721443 -56.168915
124.667542 -49.334759 -47.194580
124.195381 -50.387028 49.173737
124.256470 -50.580395 -55.298550
124.124443 -49.497902 -52.629768
124.070465 -50.382797 47.154808
123.735489 -50.372066 45.768215
125.125755 -50.762726 -48.082409
125.426636 -51.126038 -54.094318
126.053169 -50.211617 -53.080734
128.022263 -50.601307 -48.456470
125.499420 -50.718269 -48.441536
126.938522 -50.197086 -51.565746
127.006058 -50.526958 -49.882431
127.502258 -50.628342 -49.584721
238.104797 -51.107758 -1.747179
237.983505 -50.139549 14.179199
238.137238 -50.766869 15.398517
239.243515 -50.513351 12.339407
239.062347 -50.681351 -2.517308
239.076706 -50.735569 11.862832
238.794449 -51.305733 16.740385
240.025543 -50.424450 16.828995
239.121033 -50.544785 -4.191606
241.522797 -51.289471 16.344244
239.585068 -50.662640 11.595589
239.921036 -50.204872 -2.282060
239.784164 -49.477127 -1.587497
240.781067 -51.026810 15.333478
239.136490 -50.830048 -4.010725
240.756104 -51.105232 15.581444
240.128494 -50.209557 11.627593
241.461441 -50.634655 16.899822
241.701569 -50.508553 28.409761
241.185394 -49.654900 12.217889
241.815872 -51.112778 11.800496
241.871490 -51.067852 30.642139
241.881836 -50.393261 -5.900270
243.378250 -51.705780 13.776527
242.441711 -49.602634 14.062667
243.233810 -50.115032 15.711167
243.087845 -50.698364 31.018236
242.643845 -52.958359 24.670837
244.509735 -50.157036 -6.067839
244.277298 -52.712452 23.692850
244.477615 -50.257374 32.100842
245.643631 -50.911800 -6.431442
244.757080 -50.403755 23.600361
245.282547 -50.327789 32.726982
246.755188 -50.833412 -6.491242
247.791382 -50.378044 -6.178235
246.051056 -50.336575 -4.573915
246.877304 -49.563282 20.879911
248.105606 -49.783405 34.327885
247.915375 -50.879471 16.751553
247.719131 -51.517433 -8.542387
248.744934 -50.562366 31.527514
249.505890 -49.721886 -5.312572
248.959671 -51.239136 16.498068
248.462265 -49.288563 19.823067
249.904022 -50.067822 38.087524
251.054749 -50.714191 -8.794292
249.116867 -50.716541 -6.191766
250.607819 -51.240856 33.344025
251.885986 -51.054947 -7.457187
250.248825 -50.104336 -2.850807
251.825439 -50.527664 -6.327418
251.330963 -50.237762 -6.459151
250.313187 -50.588787 -5.531150
252.171432 -51.115597 20.663221
254.353516 -50.226334 -7.160276
251.432404 -49.744270 37.794689
251.373489 -50.417431 38.111237
251.055817 -51.093956 38.978008
251.763748 -50.367615 -4.492507
252.355011 -50.790245 33.801678
251.837509 -51.136559 -3.925859
252.585724 -50.562199 -8.882421
252.672470 -50.313789 20.317036
253.159622 -51.410786 34.402016
253.875397 -49.908119 -8.584555
254.924927 -50.768826 35.454395
252.699921 -49.930714 37.995125
254.750458 -50.146271 -7.155535
253.743713 -49.640240 -3.765128
255.210281 -50.298626 37.542065
253.808960 -50.174911 37.981384
254.627304 -49.707870 -6.455890
255.104218 -50.808430 -3.578404
254.425919 -50.075485 -7.827435
255.982635 -51.753990 33.899521
256.381866 -49.689434 -8.268423
256.846954 -50.903820 -5.460007
255.852005 -48.755669 -4.678336
257.133453 -50.803970 22.090586
257.241333 -51.689903 33.319942
257.656097 -49.628357 -8.097395
258.888397 -50.895069 -9.008813
258.058411 -50.113945 -3.213922
256.320435 -48.941208 24.912191
257.134338 -50.979153 35.033504
259.777313 -49.573231 35.510067
259.229156 -49.706547 37.520435
259.421570 -52.352684 22.606318
260.322998 -51.756310 35.961475
258.586487 -50.432373 -6.001347
259.578308 -50.225903 -3.704926
261.239502 -50.606548 -5.112098
261.541870 -51.164806 36.185783
260.092804 -50.513458 37.146469
261.254242 -50.939308 23.533836
262.493408 -51.428680 -3.743095
263.670929 -50.689426 37.149059
262.241547 -50.154945 25.085949
264.712830 -51.516289 -2.594818
265.807007 -50.929058 36.985741
264.083282 -49.938625 36.884041
265.476074 -51.677723 -4.345327
265.776367 -51.555710 -2.732839
266.202179 -50.318203 36.583015
267.771362 -52.340862 -4.124325
267.514709 -51.478542 36.229275
266.900482 -51.219810 -2.921945
266.716339 -50.250336 36.536793
266.730957 -49.801250 37.360435
268.264221 -51.659512 22.615377
268.847382 -49.938099 37.324074
268.009949 -49.829891 -3.776040
268.623199 -50.759529 35.337116
269.808899 -50.920040 -2.285984
269.705048 -50.289345 34.525318
270.984711 -49.689072 25.404730
270.740265 -49.715500 37.201935
270.190857 -49.884201 36.119083
271.850494 -50.457066 -1.069708
273.384644 -51.136158 -2.473959
274.459106 -51.329636 32.320896
274.164856 -48.546936 -0.962061
273.097443 -49.883678 36.185863
275.916534 -51.742222 22.710371
274.621124 -52.235352 -0.852880
273.297943 -50.508068 -0.316497
275.113037 -49.907848 34.981564
276.849396 -51.404034 0.172712
275.801392 -51.297245 1.850642
277.825745 -51.456863 -1.356258
277.895142 -50.749332 31.957640
276.725677 -50.694927 34.711948
278.335358 -51.140713 -2.542424
278.036682 -49.266663 2.382446
278.887665 -50.468258 -1.876054
277.393921 -51.067135 0.703867
280.127472 -51.959015 29.859447
278.238403 -49.776291 34.095299
278.942535 -51.322056 -1.927409
279.119537 -51.546108 3.030466
279.209259 -49.829128 23.785818
280.357971 -51.317108 5.185904
279.901917 -50.687218 29.665630
280.585510 -50.745461 1.057827
281.523682 -50.626724 2.833366
280.028961 -50.055302 32.917492
280.076385 -50.907936 23.742130
280.762390 -51.317383 29.207947
281.922821 -47.824707 27.443703
281.841675 -49.379387 34.223965
279.955170 -50.147316 -1.160293
282.099731 -52.002602 27.657917
280.732574 -51.896591 2.280170
281.826355 -49.753624 -0.569481
280.683411 -49.518124 -0.166574
281.961792 -49.740013 33.333454
283.099640 -51.513409 5.278506
281.595093 -50.417374 22.950829
282.662506 -49.961456 32.481400
281.289490 -50.061298 33.255260
283.130585 -48.764023 1.025925
282.456451 -49.981079 1.736629
282.825195 -50.574749 3.690320
283.631195 -50.101349 26.178093
281.954102 -50.555660 -0.365609
283.832062 -49.520317 25.416199
284.288940 -50.291245 32.916336
284.715393 -51.196445 0.918644
283.816315 -50.282593 2.178379
284.150452 -49.863720 22.535933
283.890198 -50.122780 23.679363
284.379730 -50.329399 31.139826
285.240723 -49.685959 29.526089
284.694489 -49.720688 2.763897
285.794769 -50.668335 5.068194
284.600128 -50.738079 5.789204
285.204865 -50.650387 22.291693
285.380310 -50.504742 24.450155
285.997467 -50.882648 2.779639
285.637177 -50.339691 6.162251
287.029205 -50.563324 8.102649
287.923798 -50.665428 6.118597
286.257385 -49.399395 30.708294
287.791779 -49.533478 2.764619
287.217773 -50.247196 4.237590
286.867554 -51.060371 9.297203
287.077576 -50.172722 29.024940
288.176605 -50.230251 30.421282
288.931000 -50.577621 7.036202
288.985962 -51.599056 9.464931
288.609802 -50.313107 25.651539
288.645050 -50.510490 27.381037
290.527161 -50.991787 26.559164
291.124115 -50.814087 6.581469
289.651947 -51.094788 10.482171
290.471649 -49.130909 12.291208
290.624573 -50.110744 24.573286
292.260101 -51.244362 11.728479
290.967163 -49.223347 23.136116
291.237183 -49.649780 24.011492
292.401703 -51.214302 8.418609
294.253510 -51.183868 10.122802
291.840240 -50.350628 14.573552
292.038788 -50.188637 22.939085
292.145416 -50.312199 23.840395
293.480743 -51.409180 14.442404
292.454254 -50.307232 16.535715
293.575867 -50.618244 15.817549
293.226685 -51.167202 20.647062
292.492310 -49.859268 18.374161
294.606262 -49.872852 22.725077
294.366882 -50.533157 18.493973
294.328400 -50.499657 20.065582
293.631683 -48.965439 22.412554
294.940521 -51.530239 12.858106
12.527955 -51.695778 40.001637
12.295544 -50.140903 44.469978
12.327438 -47.601337 47.706017
13.363126 -49.185814 52.153305
14.328779 -48.270496 36.650230
15.939792 -52.275558 33.559788
17.504898 -50.787384 44.950573
17.488119 -51.214123 44.966328
18.336840 -50.628017 39.909298
17.504118 -50.975464 49.569805
17.942350 -52.023521 57.198139
18.121550 -50.351616 49.526371
20.639050 -47.897133 37.288578
21.433838 -50.948872 37.616501
21.266874 -49.874317 59.325405
22.366476 -52.762348 53.913548
22.921541 -53.128704 59.394382
22.084824 -47.707577 37.606945
23.661245 -48.905869 60.624268
23.962595 -53.793404 59.165092
24.673489 -50.921631 60.071526
24.192514 -50.701351 36.010178
25.533915 -48.491966 58.951595
28.126682 -51.349876 53.919079
26.528694 -49.471264 28.987576
30.724703 -50.297482 30.282869
30.328831 -50.634365 34.974285
30.914755 -50.943260 36.662926
29.714331 -48.990116 53.691700
32.480103 -52.050827 36.769615
33.220779 -50.973381 51.665222
32.809441 -51.097347 37.859142
32.687737 -52.996983 58.271404
33.334698 -51.397655 51.074894
34.118954 -52.532608 31.486759
33.731331 -51.948154 50.735077
35.342480 -50.637505 32.439102
34.529037 -50.437141 39.909954
35.127033 -49.106819 32.708664
35.902084 -49.923439 49.296692
36.111908 -50.416241 32.101295
36.346447 -51.190231 47.133774
36.281109 -49.952003 34.110497
38.449589 -55.824200 43.587902
39.266407 -51.302814 43.074581
40.005249 -51.712440 43.389393
40.603550 -50.859226 40.676640
41.712284 -52.100368 41.167217
40.965893 -51.915413 44.957409
42.000732 -50.341713 -54.458450
43.248211 -50.462627 -60.501480
43.111454 -49.669441 -58.836945
42.873341 -50.656898 -63.556797
42.789089 -50.929253 -50.511330
42.909302 -50.538857 -46.955296
43.960361 -49.195038 -44.932652
44.912842 -51.011589 -68.796616
44.670628 -50.673485 -41.333614
45.989002 -48.335194 -40.611145
46.470196 -49.487984 -38.752125
46.974388 -51.559135 -35.018768
46.774189 -50.226978 -75.134239
47.068298 -51.235195 -32.536205
