# This PCD file was generated using the MATLAB® pcwrite function
# from Computer Vision Toolbox®.
# .PCD v.7 - Point Cloud Data file format
VERSION .7
FIELDS x y z
SIZE 4 4 4
TYPE F F F
COUNT 1 1 1
WIDTH 1504
HEIGHT 1
VIEWPOINT 0 0 0 1 0 0 0
POINTS 1504
DATA ascii
291.153320 -49.843842 7.701094
292.326599 -48.952057 11.557718
290.672668 -47.560196 22.210506
292.371796 -48.781303 21.493902
290.754913 -47.218651 25.221762
291.004486 -49.166058 8.725337
289.546417 -49.578979 14.723445
291.544037 -48.096104 17.333576
292.312317 -48.811897 19.701225
291.858551 -49.527405 12.208727
291.566620 -47.977982 25.292543
290.864838 -49.140789 26.535664
290.755493 -46.333363 6.550751
291.624664 -47.000706 9.147911
293.683289 -48.345413 23.911386
294.160126 -48.289276 12.399326
295.311951 -49.022961 16.463240
294.054657 -48.104828 20.845659
293.259338 -48.987728 22.774742
292.565460 -50.794994 21.561989
291.081146 -48.870438 23.112169
294.147675 -48.552502 9.494066
293.673035 -47.431076 13.813795
294.547180 -48.295502 14.048295
294.728455 -48.336998 15.810899
296.699005 -50.265182 17.219753
296.000946 -48.174877 18.577763
293.170410 -48.905243 22.112814
296.702179 -48.427975 14.837244
12.514210 -48.239319 44.197865
11.714116 -46.409454 42.657261
12.870253 -48.048092 38.550865
12.023530 -48.300003 41.269176
11.656948 -48.231583 38.685966
13.985914 -49.181820 37.886810
15.831325 -48.333076 34.122719
15.840800 -45.243469 54.403645
16.957525 -48.955959 34.986771
16.378834 -48.403500 45.610146
16.863329 -47.331226 32.498146
17.880131 -49.971798 41.273239
16.826475 -46.987072 55.534550
17.939835 -47.039845 31.636620
17.981321 -46.853962 33.434361
17.842287 -45.276642 50.030384
19.381908 -47.208179 39.223759
18.502016 -48.322994 30.271935
21.800581 -49.202126 30.717371
22.766111 -46.737656 35.407028
20.824629 -49.256325 59.084793
21.045118 -48.142456 29.511791
25.161804 -46.803989 30.661968
23.793020 -49.389828 35.309425
24.601591 -48.669498 35.340202
27.028362 -49.622456 54.417320
28.833361 -46.477871 30.565514
26.800760 -49.619774 35.229691
27.130171 -48.670425 58.678783
30.052433 -46.936577 53.137646
30.639235 -48.296997 27.524765
28.913427 -48.484093 35.144226
31.982075 -47.175468 35.895042
32.211315 -48.500122 30.158821
31.460211 -46.218288 37.469959
31.738598 -47.400402 31.230778
32.498352 -50.270817 31.870199
32.484676 -46.584385 58.167675
34.748417 -47.873268 38.478725
35.817654 -49.237232 40.257675
33.859745 -49.192589 59.476082
36.924751 -46.629459 33.684608
34.878914 -47.071621 39.927944
38.237625 -45.658913 42.250439
35.952320 -47.962128 44.198750
36.839642 -48.337322 48.953339
38.030010 -48.176807 41.367619
38.341476 -46.758022 32.580681
36.700321 -48.251762 44.400444
36.673325 -48.601429 42.732674
38.061264 -47.726524 44.998886
39.706203 -47.639534 35.497169
37.303265 -46.655060 36.162575
39.237667 -47.231106 42.850430
40.848053 -49.193333 53.015408
40.092178 -49.967953 36.830597
39.041279 -48.879444 45.617821
40.886093 -47.471310 39.609768
40.836079 -46.182674 45.319283
41.469177 -48.673607 51.135677
40.726501 -47.109844 44.029594
40.181480 -46.471107 50.529331
42.311577 -49.879757 46.454540
43.465252 -47.670620 -57.046791
43.004257 -49.352871 -60.801800
43.664375 -47.638821 -54.609467
41.881985 -48.259464 -65.916367
42.579071 -49.259510 -63.905506
45.751400 -48.352016 -66.872444
43.225887 -47.419983 -66.597649
46.223457 -46.083332 -42.166904
45.241982 -50.403416 -38.384640
46.556950 -48.269928 -74.685776
47.207336 -48.543320 -35.349468
47.125149 -48.303207 -35.897861
48.020458 -46.687248 -77.337814
50.170582 -47.654385 -32.319027
47.905079 -47.046211 -26.509514
50.328243 -47.410915 -22.438496
51.466072 -48.854626 -20.106075
50.371319 -50.457283 -81.928894
50.896091 -47.482887 -17.550459
50.480785 -47.585796 -11.090489
52.332088 -49.297169 -4.289563
52.139858 -47.364616 0.218548
52.401241 -46.063084 -83.090065
54.297718 -50.369209 0.597828
57.595078 -50.245770 -83.737999
56.671738 -49.627148 -85.112381
56.919292 -48.142960 2.240184
56.545776 -50.525185 2.522475
57.906090 -47.045635 1.884787
58.043213 -49.148579 89.468956
58.046661 -47.054157 83.841301
58.671047 -48.121368 86.185226
58.110985 -48.807373 92.960724
60.321922 -48.073490 2.001948
58.117168 -46.857388 93.573372
60.395161 -48.023811 99.731544
58.588394 -47.162792 83.072823
57.810520 -48.336678 95.265022
59.055485 -48.156132 -87.404297
58.335423 -46.612011 93.674492
58.406651 -49.374168 103.819702
59.754192 -47.701267 -52.012478
59.049747 -48.631592 -9.286815
58.200039 -47.635197 1.302222
59.231735 -48.636436 81.129669
59.740837 -47.407520 -87.602783
61.143784 -48.431316 -3.857307
61.490963 -48.270374 -2.349955
59.954983 -48.986691 -52.537117
61.517986 -45.546642 -55.800274
62.743572 -49.404434 -16.054523
60.204315 -48.298805 78.572815
62.600521 -46.850033 104.495384
62.273544 -47.402500 -51.586712
63.037964 -49.595963 -18.471342
63.561466 -47.714493 -88.237144
61.656986 -46.747475 -53.979553
63.360981 -49.272297 109.074570
63.483818 -48.866894 77.093132
63.419643 -46.218925 -51.064201
62.029110 -45.589825 -56.393005
64.109001 -49.293987 -22.266361
64.132828 -47.368134 109.626053
64.496994 -48.092304 -51.996925
67.028107 -48.823277 -56.031548
65.089577 -48.819355 109.986320
64.018501 -49.032864 -24.312500
64.897011 -48.697636 -88.843376
64.181709 -50.374428 -24.429441
65.375015 -49.050491 -23.094418
66.447723 -47.803410 110.833473
67.322807 -48.285942 -55.314846
66.423477 -47.482712 75.987747
68.627304 -48.690929 -52.458340
69.396332 -48.410793 -52.307095
70.259270 -48.963120 -53.388828
70.390366 -50.354610 -26.863644
70.278603 -48.085842 75.729881
70.370941 -46.385628 -27.213367
69.360344 -47.657825 112.181458
70.284569 -47.597450 74.889397
70.887383 -47.207035 74.756310
72.693703 -48.319138 113.695114
74.046059 -48.489677 -26.634548
73.559586 -47.993427 114.387665
75.186989 -47.237637 87.114914
71.543312 -46.063393 87.803574
74.392853 -47.983395 -25.725073
75.914879 -50.447762 77.717354
73.787651 -46.753849 86.021294
73.854721 -47.940735 91.131020
74.518524 -46.804531 85.928383
74.073929 -48.287422 91.960274
75.748405 -47.666481 91.530090
75.127716 -46.908806 93.926888
75.472313 -47.172688 99.251129
76.337173 -46.552708 75.763695
76.119057 -49.158920 83.463486
74.775398 -47.202679 73.295631
74.985710 -48.808048 83.229134
74.560822 -48.324253 96.630211
76.513687 -46.381588 99.214104
77.125633 -48.335896 -28.560476
75.948265 -47.511642 81.377663
75.077057 -47.982098 113.277191
78.074837 -51.441917 -89.412994
76.663170 -47.534218 74.609947
76.814499 -46.669674 79.613091
77.771912 -47.802410 79.302956
77.849007 -47.683681 81.085487
77.400017 -48.139523 101.250168
78.126083 -47.190002 -32.227634
78.186890 -45.450356 101.367920
78.650703 -47.405849 103.504059
79.164017 -49.688278 -34.995922
81.990326 -50.306583 -34.807838
78.652542 -48.254204 73.996468
79.629265 -48.290413 77.353622
77.954514 -48.208794 77.381699
80.047035 -47.592278 -34.745422
80.797020 -49.404728 -32.712635
79.682297 -46.099842 103.644218
80.847328 -48.354397 114.128014
80.717461 -49.942165 -36.884510
81.967026 -49.196941 -38.843346
79.884621 -48.302311 103.145317
83.119164 -48.366772 106.576942
84.232590 -47.770538 -89.957291
83.763214 -48.980663 -42.279312
83.577362 -46.969456 115.164406
86.686195 -49.585274 -91.223442
85.282745 -48.244022 -49.203793
85.499855 -46.403503 115.752029
85.910614 -50.626801 -90.202126
85.130959 -48.517895 112.903122
88.076866 -46.440395 -91.046944
88.010071 -46.809338 -49.371067
86.115456 -47.886524 -50.348015
87.584938 -47.553383 -52.357788
87.461464 -48.099648 107.404175
88.123840 -47.311882 114.236656
87.950150 -49.052013 -89.561111
87.711121 -48.431419 -52.044544
90.764183 -50.600910 -91.663055
91.574509 -49.308582 -56.271950
91.853958 -47.986652 113.632584
95.333458 -49.708355 -57.892948
94.041534 -49.823986 -58.320377
94.681023 -48.089664 94.474808
95.961182 -48.876347 89.620628
96.209686 -50.140976 -56.710030
94.576752 -47.915390 88.802322
95.657890 -47.508793 89.955261
94.173279 -48.627972 96.078758
96.193275 -49.965176 -89.470894
94.779976 -50.271957 -61.120209
97.039749 -47.081135 87.231010
94.467445 -47.341908 95.199081
94.986580 -47.904884 99.643852
94.015938 -46.671131 109.505142
94.977585 -47.350986 84.785233
95.979851 -48.036633 86.470810
94.539986 -47.643864 99.029419
96.550034 -49.172932 -91.347794
96.024574 -47.964016 82.501106
94.859741 -45.658615 90.720802
96.954887 -47.206161 95.882362
96.036720 -46.134533 98.210060
97.623032 -46.962193 113.036186
96.406624 -45.669304 -59.648506
98.069664 -46.808537 82.060432
95.959412 -45.770481 90.700813
98.078323 -47.956001 94.970360
97.651100 -47.707664 97.145935
95.938789 -47.709297 101.349236
96.740540 -48.153999 96.524216
98.047752 -48.266102 78.812973
96.088768 -47.377861 79.941788
100.439224 -47.481224 79.755478
98.640938 -47.334568 84.877731
97.576477 -46.434906 89.227509
95.326637 -47.929531 91.274429
96.828346 -48.076530 77.596855
99.510040 -46.391525 89.023537
99.129837 -48.471027 86.630249
96.871559 -46.963451 90.773056
98.708237 -50.179825 83.548271
97.464317 -46.526203 86.178810
98.869774 -47.374878 74.660774
98.027275 -46.023914 79.648262
98.857254 -47.118057 84.118225
98.921432 -47.694504 72.422646
100.128914 -45.487072 72.651367
99.935074 -47.788895 78.656929
100.437897 -47.664700 80.063385
99.271286 -46.787128 80.835373
99.910828 -47.372166 79.321701
101.157051 -47.716423 71.839256
101.402069 -48.421375 73.441452
100.162086 -47.691029 75.190140
101.812370 -48.657597 74.847076
102.803284 -51.021160 -62.099030
102.880760 -46.890919 75.142357
103.322540 -47.526184 69.845612
103.747780 -47.058727 72.295692
102.675430 -49.249996 74.238777
103.477409 -47.079185 72.669029
105.388382 -47.779247 71.616737
103.328346 -46.684883 69.021416
104.026535 -52.305901 -87.955727
106.435905 -49.336731 -65.939217
105.613213 -47.876282 -50.181694
107.830421 -47.342148 -61.423256
107.277542 -47.051525 -60.412502
107.812279 -46.238018 -55.810070
107.800385 -47.781612 -65.723099
106.625366 -46.300980 -52.286724
109.692123 -47.821224 -89.232643
107.734375 -48.970322 -61.160702
108.690300 -49.303741 -87.507942
109.502007 -49.539364 -61.219662
110.634766 -49.947746 -67.064293
111.914101 -47.679707 -60.951069
110.852280 -48.421413 -89.108177
109.898972 -46.480648 -70.489998
110.451508 -48.245548 -50.874016
112.183968 -45.169434 -60.612480
112.928284 -48.898380 -66.424545
112.506630 -46.824608 -61.065144
115.305145 -49.015697 -51.020092
113.930000 -47.115040 -51.861927
114.548965 -47.933208 -61.723007
117.150894 -47.751957 -48.568726
116.516411 -48.332905 -72.681496
114.242279 -46.855949 -56.831379
118.723434 -47.686165 -58.996281
118.766907 -46.017021 -56.635902
115.820351 -46.168934 -54.013199
114.970169 -48.016953 -51.926929
117.592072 -46.726704 -54.429623
118.250488 -47.396980 -54.631203
118.130104 -46.631725 -49.772202
120.333801 -48.100517 -56.230923
120.722908 -49.570534 -54.034363
119.294022 -48.154018 -52.711536
118.451721 -47.540932 -52.220245
120.074387 -47.791759 -83.683731
119.319550 -48.193363 -78.975060
120.623032 -47.841412 -81.878876
120.737694 -49.612209 -79.075638
121.944649 -46.843498 -80.961746
121.436028 -47.428993 -81.678726
237.230362 -50.351292 7.289515
235.829422 -46.864315 4.775713
237.265320 -48.845951 9.412105
235.973312 -47.893600 11.623716
235.995056 -47.338184 15.215085
236.936737 -47.640987 2.223296
236.978714 -47.730869 10.131649
237.000214 -47.517391 12.023051
236.448807 -48.389503 23.195576
238.004303 -47.623379 15.140055
235.733887 -49.034332 3.321542
238.442688 -46.609848 3.440822
239.577087 -49.903591 7.427501
238.351929 -48.195747 15.694757
237.574570 -47.944843 18.509079
238.244080 -47.152355 27.255503
238.037735 -48.142773 1.428337
238.604767 -48.275208 7.899410
237.069046 -46.452312 10.659490
239.104019 -48.731773 13.843356
237.955215 -46.568306 22.121597
238.715988 -47.012947 24.849789
238.019867 -49.324520 5.899272
240.768448 -47.637001 5.271533
240.934814 -47.056759 16.052540
238.994843 -48.376312 14.690024
239.762131 -47.724384 17.848972
237.960373 -48.262760 20.269661
237.080902 -46.605404 2.103151
238.894318 -47.429611 8.927263
239.289139 -48.847076 16.333584
236.673111 -47.819340 22.808245
237.960144 -47.002209 27.820452
238.779236 -47.890160 33.781734
240.028946 -50.417820 2.178437
241.069061 -48.800316 5.907255
240.578827 -47.572556 6.429760
240.357239 -47.750027 25.545706
238.375778 -48.322437 27.850246
241.078766 -48.506508 4.918648
239.941910 -46.082157 26.412714
239.681168 -48.960781 26.302341
240.309753 -49.410301 11.648346
240.713501 -47.007629 14.609250
238.589844 -45.981117 32.486195
240.235641 -47.921097 -4.228614
242.019318 -45.699577 7.663843
240.816513 -48.098942 19.275200
242.117249 -46.920101 24.449160
241.906967 -49.333897 25.676317
239.633713 -48.172108 29.417694
241.310730 -49.401306 30.295933
241.036392 -45.526169 28.955370
241.681793 -47.083130 -2.665061
239.323944 -47.326229 -0.855637
243.211594 -47.822639 6.070890
239.180328 -48.668091 20.312284
240.825409 -47.600262 27.992754
243.405960 -47.836864 10.077004
241.524765 -46.458752 13.693913
240.725204 -47.667797 14.658310
241.998062 -47.479046 27.263395
240.726364 -45.694366 32.149597
240.526932 -48.788021 13.209984
242.752197 -47.009808 16.517895
240.983490 -47.938095 27.385483
241.954437 -48.956589 32.708923
241.944229 -50.070755 30.604185
241.148376 -48.718658 2.290881
244.491272 -47.757442 28.841682
242.697388 -48.022068 -1.836123
241.188782 -46.713299 33.952785
243.426880 -46.632305 -1.924178
242.825546 -48.668873 14.700923
243.544220 -46.187477 14.547259
242.988129 -47.460476 17.755005
241.518600 -48.204967 28.014839
246.459274 -48.057236 23.254400
243.100571 -47.911674 26.650888
244.277664 -48.045334 27.326145
244.949600 -49.295517 30.228048
243.150772 -48.518135 31.312632
245.101471 -47.027878 28.803202
245.112671 -47.441483 -2.243831
244.345932 -46.594105 -2.411872
244.728836 -47.010372 24.081774
245.177383 -47.535408 33.053387
245.419998 -48.588875 36.564129
244.899994 -46.994598 -4.211766
244.771057 -49.387066 33.366291
247.707596 -46.306763 36.570068
248.655914 -47.210098 22.104605
247.375641 -47.047970 31.366808
245.707382 -47.603409 38.925854
247.668732 -46.963017 39.823475
249.118881 -47.607113 32.961388
246.519669 -47.847054 34.242508
247.661850 -46.988922 21.478542
250.526642 -48.179409 23.907776
249.422318 -47.368332 36.506008
249.797760 -50.296242 38.072540
249.886475 -46.726444 -3.542585
250.775131 -47.326958 -2.473996
251.213776 -48.051895 25.744890
252.528427 -47.253254 37.545769
252.101440 -48.436569 -2.088806
249.753098 -48.186592 36.147285
249.101669 -46.371212 23.640955
251.537292 -47.318913 -3.084453
249.225342 -48.848061 38.086590
251.007690 -46.045925 -2.762618
251.400208 -49.406887 41.377613
252.690857 -48.097095 24.165226
253.245361 -47.295574 38.605267
252.570602 -48.532578 -2.603202
253.099594 -47.638336 -1.749420
256.294952 -46.671360 39.990696
252.842590 -47.910851 -3.048999
253.391754 -46.101429 26.962587
255.016388 -46.990135 38.654312
254.049515 -46.318695 39.417698
255.761505 -47.559738 37.129910
254.758713 -47.435680 -2.150982
257.345978 -46.673069 27.022181
256.888733 -48.241684 -3.358939
252.969818 -48.431862 -5.106843
255.636658 -47.345078 -3.487166
258.237213 -48.497387 37.729877
256.809113 -49.280472 -2.238178
258.331635 -46.753979 -2.469102
255.301666 -47.988197 -2.618267
256.251770 -48.279324 -2.015165
257.244263 -47.343040 -2.613096
257.722809 -48.091438 29.166491
256.134888 -50.337975 40.428165
255.200745 -48.236237 -3.074302
256.900726 -47.664879 -4.294194
256.654968 -47.942280 -2.403938
258.520752 -47.255646 -2.771948
258.445465 -47.987942 36.488125
259.046448 -45.760345 0.831942
259.261688 -47.907398 34.006611
257.762207 -46.983768 38.817280
260.154724 -47.346882 -2.922803
261.180817 -47.951916 38.058960
259.119659 -50.578758 27.425545
260.515106 -47.815659 38.084908
261.135040 -48.957726 -3.684922
261.322815 -47.578720 0.197406
259.421631 -48.772617 37.305645
260.719482 -47.193108 -2.274323
260.464935 -47.318073 26.517216
262.775574 -48.387386 -4.209330
263.199738 -48.049511 38.273167
262.628845 -46.684052 -4.482142
260.847626 -47.118534 -0.718997
261.695679 -47.037979 0.663938
263.655762 -46.016293 28.375851
261.892700 -47.204216 -2.475630
262.376495 -48.336342 37.442394
264.371765 -47.876213 39.835381
265.954529 -48.322102 27.392469
265.544464 -47.524548 39.052151
264.109589 -46.839233 -0.366131
265.500763 -48.098003 38.148216
264.773071 -49.553303 1.014420
263.068207 -47.056992 -3.034876
265.839447 -45.621094 -0.394745
266.569824 -48.453445 2.314978
265.466431 -46.089840 36.913433
265.709412 -47.522160 0.545367
265.309052 -48.411228 39.490852
266.429840 -48.677181 34.748413
267.211304 -48.069626 33.997208
268.338989 -46.788658 32.855419
268.929749 -47.484554 37.486515
268.461182 -49.479904 33.948711
268.498901 -48.916473 38.088886
268.179840 -47.788395 -1.484578
268.610443 -48.303303 36.139317
268.629181 -46.791744 4.456053
268.484985 -49.040676 3.056643
268.550476 -45.797882 35.588326
270.184265 -47.732582 -0.114332
268.834930 -47.290836 27.341806
269.594666 -48.158691 34.472919
267.806854 -47.096493 4.751702
272.595337 -49.358433 32.270599
271.364960 -46.192932 33.602531
270.545563 -48.425724 35.664089
271.604340 -49.069248 5.323905
270.901550 -47.956123 2.267995
269.341705 -48.826252 36.672951
271.467377 -47.740704 27.873779
268.029541 -46.630764 33.276932
270.915009 -46.662800 2.610816
270.944977 -47.355797 5.634748
271.011261 -47.899158 0.932029
271.084900 -47.327671 28.187422
272.117310 -47.914986 31.390928
272.645050 -46.086094 33.288002
271.445465 -47.502224 32.510368
271.836273 -47.069984 0.623546
273.120392 -49.108158 39.553200
273.125977 -46.951351 3.263288
274.052094 -46.941936 6.477503
271.928589 -47.353333 35.955147
272.886932 -48.424561 34.984192
272.041748 -48.776997 36.789036
273.012634 -48.912052 5.891903
273.053528 -48.046600 37.380501
273.889526 -46.445267 32.674606
273.245544 -50.311695 35.093719
273.578583 -48.758621 36.239784
273.278687 -46.796619 30.829466
276.262085 -47.891090 29.218832
275.502594 -47.917110 33.943413
273.327820 -47.496284 0.604430
274.667450 -48.075703 35.575768
273.972168 -47.901516 35.062183
274.309631 -46.565582 6.970211
273.558502 -47.208118 1.895523
273.831970 -45.664188 11.416146
274.070099 -46.864677 33.503506
274.887878 -49.343597 37.866161
275.142090 -47.361111 29.784933
274.722748 -46.026886 32.606049
277.807617 -48.645157 5.067228
277.443604 -47.417542 6.213734
277.064209 -47.434921 6.583540
274.836761 -45.435894 12.661136
277.037048 -48.553062 26.356457
275.863800 -48.190224 28.174551
277.711334 -50.142300 30.900314
275.847748 -46.992897 32.249939
277.698242 -47.890522 33.979401
275.487396 -46.487736 35.184601
276.947449 -46.553444 30.251123
276.619659 -48.338779 33.774261
279.316925 -48.319313 31.601292
277.763855 -48.211296 33.244061
276.978760 -44.859180 34.630226
277.364990 -48.467285 24.764509
277.867706 -48.067554 26.896177
277.141205 -47.107559 31.760384
277.051178 -47.192993 33.113091
278.863281 -46.242722 3.153846
276.766510 -49.061485 8.754418
276.267731 -47.017872 14.427956
279.079773 -47.452507 25.765036
278.235718 -47.222549 26.296724
277.898254 -46.881866 29.842146
278.398621 -46.460957 34.261944
276.890198 -47.908001 34.831326
279.452240 -48.218224 8.400390
277.072601 -46.596531 12.718621
278.168610 -47.661140 33.048450
277.722107 -49.719460 34.953957
278.854126 -46.937553 4.555027
278.219055 -47.105213 2.660914
278.454346 -45.920254 6.514763
280.541779 -47.366680 3.934478
279.541687 -46.260208 13.076484
281.603271 -48.114388 30.334389
279.696136 -48.902084 33.393829
279.448425 -48.333897 34.776554
279.101868 -48.771523 4.169178
280.863434 -47.151264 7.361541
280.345032 -48.760262 8.874290
279.230225 -45.620140 9.381040
278.767090 -48.132751 32.533474
279.475372 -47.831432 35.246899
279.980957 -47.656246 4.841242
280.556885 -46.420219 18.102966
281.250793 -47.804100 31.097952
281.909424 -47.977463 9.133286
279.419312 -48.082615 12.175755
281.913666 -47.342651 35.199913
281.256744 -47.154133 19.055212
282.698578 -46.828156 11.471161
281.934601 -46.016079 28.278290
282.810364 -48.215729 30.051071
281.927643 -47.839520 15.813087
281.639252 -46.057034 25.134874
281.320831 -47.012009 31.349707
280.347900 -46.959091 34.180981
282.702637 -45.810360 12.763411
284.270752 -49.432037 14.984435
282.280884 -46.789608 22.583632
285.445190 -46.970032 27.536221
282.193939 -47.223240 29.261116
283.003143 -48.897762 34.614803
282.618500 -46.958908 4.804037
282.902893 -46.656029 12.068011
284.264709 -47.020756 23.256920
283.775940 -46.188435 7.697482
283.555511 -48.308285 27.190855
283.356873 -46.869072 29.493803
283.437317 -47.839767 31.142004
285.246521 -46.328201 13.903811
284.084015 -47.395302 14.625391
283.652069 -46.863998 20.509153
283.276642 -47.825993 21.181206
284.680511 -48.168186 26.026772
283.186890 -48.375648 27.099073
282.904175 -48.011345 33.850517
283.743713 -46.336025 13.200644
283.728973 -46.630928 23.313776
284.691467 -47.438995 28.148962
284.902771 -45.969646 7.043404
284.796356 -46.861057 8.481463
285.282715 -47.565426 14.769411
285.126068 -46.766224 23.149599
283.964661 -47.718620 32.528866
284.704651 -45.888367 15.817496
284.610046 -48.327213 22.258547
284.131927 -47.965813 25.939106
284.978271 -47.233719 29.103676
284.478699 -48.379330 29.366091
286.345032 -47.731129 21.618103
287.483276 -48.642151 29.065506
286.109802 -48.137051 27.193434
286.013489 -46.242851 32.003372
286.941925 -47.737564 11.673068
287.819977 -47.468346 14.423873
287.672974 -45.585709 27.044004
287.579346 -48.293705 30.559254
286.852997 -46.546806 9.238687
287.552795 -47.431526 19.063305
286.182983 -48.020550 25.296824
287.532104 -47.213516 29.072756
286.571228 -48.005936 31.900948
287.847900 -48.242943 10.193027
287.940552 -45.607590 13.357664
286.924133 -47.176620 17.106836
285.437622 -45.549587 21.666126
288.868958 -49.632233 28.655434
288.923920 -48.979977 9.669943
289.592224 -47.881771 16.031012
286.734650 -46.980518 18.270702
288.564697 -46.540985 22.228395
288.234100 -49.256535 24.289129
286.971405 -47.825199 23.888498
289.049744 -46.349583 14.678674
288.913788 -46.626369 27.058405
287.886780 -47.684887 29.297523
290.087097 -47.881714 26.329653
289.479218 -49.111797 30.709433
287.762878 -49.028961 10.121017
290.482513 -46.601929 16.144958
287.958435 -47.399269 23.219023
291.050476 -48.587067 24.351297
291.588196 -49.375504 26.945393
290.189606 -47.417374 11.371716
290.571228 -48.369385 24.538427
290.671936 -46.975605 23.550508
289.809296 -46.844311 16.770714
289.773254 -46.356033 21.406076
291.995514 -48.500591 10.845813
291.644775 -46.126865 12.331629
290.802734 -49.082577 19.542925
291.975983 -48.333900 16.801807
291.879303 -50.954308 24.113928
290.928070 -49.456013 27.154696
290.765778 -46.802895 12.038738
290.853302 -49.026699 15.725234
291.174744 -47.126194 20.083897
290.929688 -47.444027 26.561247
291.580231 -46.094784 13.921762
294.161591 -46.088886 19.951674
292.713318 -48.551529 9.432481
294.068787 -48.203152 16.633039
293.246277 -48.835068 17.082144
291.929688 -48.324070 10.293376
294.636353 -48.385452 14.169961
294.035980 -46.828087 21.830944
293.255280 -48.788380 24.722633
294.230225 -48.356495 10.648433
294.554871 -48.961338 18.515362
294.606232 -48.796253 11.206443
296.158691 -47.657345 9.953286
294.307098 -48.180523 22.723688
295.059967 -48.851124 13.266406
296.633972 -47.787907 20.594030
295.373871 -48.915962 14.115783
13.363080 -46.467560 43.165993
12.904106 -46.645081 46.015144
13.103826 -46.818176 47.097748
13.311675 -47.232422 47.313560
12.066936 -46.563629 40.369213
12.253068 -47.647591 52.304890
13.272554 -46.353489 38.896538
14.022719 -47.404377 52.366982
15.360884 -47.523098 36.450977
14.968186 -47.497467 38.116077
15.353006 -46.714653 52.457172
13.127320 -46.475723 54.371449
15.656272 -45.991592 34.956310
16.978479 -45.684361 33.603497
16.609669 -46.753323 32.636864
15.461017 -48.542747 55.744038
15.962815 -47.179798 35.439022
17.646494 -45.574577 43.821484
15.836517 -47.776653 44.591255
16.579500 -47.617878 55.079159
16.127810 -46.624111 34.341259
15.636787 -45.503132 45.455166
17.767368 -46.863247 48.219288
17.909090 -48.375942 41.344482
18.491308 -46.775608 33.906971
18.480104 -46.941849 49.851902
16.891041 -48.416283 55.360519
17.136452 -47.784527 33.217735
17.808205 -45.463894 48.968987
17.975121 -47.942219 56.518513
17.682009 -44.549957 37.034279
18.406424 -48.250607 40.897404
19.132547 -47.746841 31.138802
19.015305 -45.733528 31.986937
19.733021 -47.233841 37.742855
19.963322 -47.115925 51.858330
20.079525 -45.906498 59.367146
19.244476 -47.824596 31.597883
19.243940 -46.608665 30.570463
19.878653 -44.885139 37.352192
21.284292 -47.445080 57.721283
19.639336 -48.385662 35.264244
20.498196 -47.118210 52.390072
20.055317 -47.765854 58.906750
21.869207 -47.539619 30.253492
24.127985 -46.934193 35.729095
21.567774 -47.136055 52.468922
21.030216 -47.192196 60.063160
22.464214 -47.313034 31.322643
23.064743 -45.870552 51.797619
21.759981 -47.437714 30.501160
25.502899 -46.203415 30.586147
24.151533 -47.614796 34.025402
23.452055 -45.515469 58.991295
23.771303 -45.985268 32.644779
21.431307 -47.147152 35.936543
25.328857 -46.715153 30.913092
25.439760 -47.692558 53.683735
24.487625 -46.458393 58.506287
28.059471 -46.717758 61.344925
22.575199 -45.001011 34.359005
25.453228 -46.522541 52.896225
26.757496 -46.392685 31.351395
26.211941 -45.725376 31.812668
29.738956 -46.816231 59.517082
28.105724 -47.616764 30.851843
27.486702 -45.366711 32.777344
27.044493 -47.248703 36.178314
29.751904 -47.497578 30.865587
29.845285 -45.142738 32.051212
28.365967 -44.604935 33.552788
28.092066 -47.849911 54.028736
30.753410 -46.856361 33.015167
32.222935 -45.488338 34.974121
30.643190 -45.360054 34.824173
32.819984 -47.300816 52.890224
32.890827 -46.666378 31.740654
30.776953 -46.327698 59.080795
30.242535 -47.181801 30.493393
31.626146 -48.438133 30.804998
30.415691 -47.782719 35.469330
30.880840 -46.828968 58.742767
31.761347 -46.629593 33.386208
32.073429 -48.620228 51.634731
33.731655 -45.734230 36.250332
31.980028 -45.378216 52.265980
34.291096 -46.418011 33.244617
34.191498 -46.880833 36.681076
32.156044 -46.827232 35.208549
32.309021 -46.411385 34.148273
32.517479 -48.966682 50.164349
36.459621 -47.052639 57.847172
34.050186 -47.077633 34.435982
33.073284 -47.923965 49.654156
33.695801 -47.815044 32.342506
33.751236 -46.516644 39.436981
34.304852 -48.614426 49.900635
35.301216 -47.207695 37.134892
36.859303 -46.768570 39.044998
36.029625 -46.470234 47.891376
36.272648 -46.097450 56.627552
36.731983 -46.057095 34.087032
34.668064 -45.617062 38.280205
35.952370 -47.288029 41.335464
36.780804 -46.747444 46.709724
35.197964 -46.519474 55.652618
35.693909 -46.973412 36.753086
38.474998 -44.958241 41.605270
37.051483 -46.382973 44.758904
36.601215 -47.064587 56.669502
38.427624 -46.368870 35.047657
37.101830 -47.264057 35.612045
36.003609 -47.384583 53.902279
35.604664 -44.828300 38.832336
39.571857 -46.636753 44.574631
37.020454 -47.947567 36.290340
37.326626 -45.404701 42.974819
37.008106 -47.094177 36.054581
38.804264 -45.096066 38.785210
39.163467 -45.735279 53.587280
36.194241 -46.276028 42.715527
38.880825 -46.282127 37.117298
39.582836 -45.991367 36.693199
40.329731 -47.781391 43.100037
37.054485 -47.461563 45.563442
40.772808 -47.381016 39.545265
39.704182 -47.083035 42.853584
41.756821 -45.539246 49.148647
40.389442 -45.454819 50.609138
40.858604 -48.197819 41.599541
42.450829 -46.941170 41.684914
40.821369 -44.387241 44.015511
39.917679 -45.888145 48.792568
39.821949 -47.359138 44.211014
41.786537 -47.405720 46.078308
44.529594 -46.026108 -61.751575
42.818348 -47.836258 -55.254265
43.604855 -46.134262 -64.469955
42.583328 -45.359520 -63.327873
45.047321 -48.232487 -43.259617
46.614971 -47.484074 -40.981705
46.988033 -46.153557 -76.349838
46.797981 -47.248966 -35.986877
47.967754 -49.575565 -77.067589
49.512424 -44.938229 -35.333286
48.905254 -47.825340 -78.667503
49.440254 -44.705177 -32.571396
50.295536 -47.425251 -22.166933
51.282608 -45.790733 -17.050886
52.272015 -48.944092 -13.742395
49.984249 -45.909458 -9.646659
50.458744 -46.230392 -11.103628
50.494270 -46.495590 -6.626702
52.577499 -47.357258 -2.801876
50.151932 -47.039677 -81.952393
52.481785 -45.265732 -0.746205
54.011192 -46.023167 1.696292
54.811619 -47.849152 -83.346420
55.433434 -47.451683 -83.346222
55.974251 -47.256557 -83.834358
56.426296 -46.737656 90.596413
55.401329 -46.032913 -52.902496
57.472401 -48.853344 84.892822
60.372585 -50.310413 -83.547363
57.127041 -47.468533 -51.547451
58.754353 -47.844994 3.110718
58.278690 -46.228836 98.889313
59.242107 -48.467575 97.375275
59.478081 -45.941837 80.040909
57.982292 -46.495674 91.420448
58.395702 -46.374603 97.562080
56.250301 -47.939426 98.778954
59.508228 -48.196209 0.903882
57.218521 -47.561405 -54.080585
59.472229 -47.362537 -51.565369
58.834072 -47.430424 103.258430
60.124874 -46.493484 -54.177425
59.720512 -46.631931 -8.301039
60.161171 -45.398701 95.572792
59.717258 -47.343895 104.806961
60.002846 -47.438950 80.421974
60.145473 -46.780754 107.901939
63.392883 -50.638443 -87.256920
61.102470 -47.149960 -49.800453
63.393002 -46.288723 -53.320969
61.428062 -45.300346 -90.291389
63.876335 -47.057240 -19.212671
65.491364 -48.400265 -89.485329
65.149597 -46.974022 -51.015400
63.979145 -46.492046 -53.062588
65.736633 -48.080830 -54.795708
64.347145 -47.060406 75.506195
65.322113 -45.402245 109.456940
63.853912 -49.081833 75.328758
64.724747 -45.931477 -55.850830
67.924118 -47.341480 -53.383205
66.148117 -47.280735 76.168114
67.617104 -45.324783 -89.611862
68.463600 -47.782970 -55.428013
65.699867 -45.692650 -52.836056
68.167854 -47.605267 -50.227772
68.765495 -47.976254 -88.029221
67.365372 -47.150517 -25.954838
69.645905 -48.453400 75.645271
66.677254 -47.000244 112.343285
68.590324 -48.238785 111.300926
70.939255 -49.408340 -88.873344
70.589615 -47.603634 75.488991
70.620895 -48.148209 76.698059
68.986099 -45.021305 88.634956
71.588173 -48.942451 -26.333372
70.502350 -45.567085 82.245682
72.227585 -46.516010 88.872787
70.962631 -48.069248 116.249893
70.660522 -46.116863 78.301666
69.732468 -46.390427 83.856781
72.609039 -48.374748 90.512466
72.073814 -47.863499 87.034714
71.520248 -46.895233 75.011734
71.159233 -47.872337 81.576416
72.925446 -47.127754 94.853798
72.989014 -45.522938 76.674042
73.660469 -47.023144 78.443649
73.070984 -46.911308 76.339333
73.700760 -46.222633 94.916161
71.569618 -46.749874 98.998581
72.893105 -45.708939 99.497841
73.435417 -47.819462 81.642677
75.094490 -47.374317 -27.354136
74.737679 -47.251015 76.973740
73.036156 -47.195427 96.149437
74.485382 -46.725388 97.862213
74.385300 -46.222576 -27.062029
74.458153 -47.754242 79.025375
74.058479 -47.263763 99.799530
76.242348 -46.772160 114.208504
75.976349 -47.059639 101.174171
77.124664 -46.428734 107.487007
79.366631 -49.291790 -89.831039
77.166672 -45.410534 -30.525263
77.312477 -47.237503 105.334335
78.387413 -46.842983 109.373100
78.362335 -46.845043 104.847839
78.076263 -45.699364 114.517464
78.908821 -49.035473 -34.456108
78.921982 -46.857140 -34.847347
78.715721 -46.808460 106.924614
79.182617 -44.905163 111.556114
80.107491 -46.652462 -35.047604
80.994064 -43.971394 107.857452
82.516083 -45.268482 110.939835
81.863022 -46.856270 107.641777
79.425064 -45.979515 108.713623
81.434967 -49.651031 -90.718704
79.915947 -46.858952 -36.264561
79.776863 -45.604237 72.718018
81.728264 -46.162605 113.366982
82.317009 -46.004684 -38.847092
82.576485 -47.224396 -40.181206
80.676880 -47.158443 112.313118
82.071457 -48.188587 109.279984
83.676613 -45.872631 -40.837334
82.679062 -47.865562 109.547142
82.539513 -45.239044 113.500725
80.893509 -47.568890 108.214249
84.458366 -49.144623 113.872871
84.643913 -47.071056 -45.939579
86.289803 -45.942989 108.538528
84.564529 -46.160015 114.254532
84.406372 -46.525337 106.710106
84.862328 -47.698254 113.973763
85.629280 -45.581982 110.527206
85.827179 -49.429268 -91.494598
84.382408 -45.122471 73.098862
85.649864 -47.512844 107.168633
88.992973 -45.923656 70.887817
87.084541 -47.104633 107.833374
85.457901 -48.777287 -89.897659
89.009628 -45.466663 -52.259037
87.706406 -47.637138 114.006538
89.199684 -48.368759 -51.321262
87.599556 -45.805355 73.384888
88.773216 -48.735466 106.038895
89.199478 -47.091949 111.475021
90.446831 -44.987164 73.048599
90.299828 -47.149292 112.567009
90.205002 -47.775143 109.773834
89.404640 -47.369003 114.642159
91.876617 -47.651001 73.568420
91.940514 -47.096218 112.594505
94.322235 -45.300327 72.825676
93.547272 -46.152130 109.609245
96.279572 -45.451611 110.629646
95.819847 -47.290279 111.990837
95.585754 -46.570267 111.248779
94.124741 -45.047962 74.717148
95.016495 -47.123959 109.006981
95.904236 -45.759617 73.581017
97.578590 -46.915771 -59.921509
100.970863 -48.953918 -61.514854
99.693573 -48.507706 -91.419479
100.579811 -46.402107 -62.607422
98.571991 -44.221260 75.827896
102.258041 -45.935017 75.811028
100.390289 -45.692822 73.940773
104.644028 -47.060398 -64.594360
105.642052 -48.247036 -51.487801
107.026215 -44.715691 -55.329586
106.612358 -45.770298 -54.404144
107.115303 -48.201336 -88.427559
106.699554 -46.299316 -67.065224
108.128448 -46.258301 -57.670971
108.545456 -49.991615 -58.920986
108.554497 -46.595707 -54.393654
107.996544 -46.919044 -67.536636
109.201759 -49.206654 -59.637218
110.125954 -46.325268 -58.023613
111.245361 -48.058826 -67.611656
108.801994 -46.164696 -51.531704
110.783676 -47.126999 -68.539215
112.492523 -47.305870 -60.394966
113.040184 -46.234081 -53.795139
113.030952 -47.755836 -66.160278
111.818497 -45.486572 -59.288986
112.662643 -46.541683 -71.166092
110.662071 -47.687183 -50.175159
112.609398 -46.012856 -88.085251
115.506844 -47.538658 -69.691154
113.881500 -47.743729 -59.795849
113.109352 -47.553810 -70.705376
111.595352 -46.807236 -54.107067
115.418030 -46.603195 -56.927498
115.070076 -46.408230 -72.943237
116.132584 -47.513653 -53.327747
113.001854 -46.494930 -54.725655
115.386078 -45.347183 -86.124359
116.690468 -48.253635 -86.839066
117.983475 -48.491661 -85.143463
119.636444 -48.506054 -85.700363
120.358910 -47.898285 -85.439804
119.718262 -45.508457 -84.382919
120.555954 -45.406639 -82.264511
120.973618 -47.843025 -79.697456
235.256363 -46.531826 7.420038
234.448624 -45.063301 8.438593
236.865936 -48.904301 11.535231
235.562622 -46.898556 14.996601
237.758057 -46.099903 16.460741
237.743500 -46.399101 8.517362
235.963028 -47.132511 18.973520
237.543777 -45.618088 24.533314
238.024414 -46.795399 6.412093
238.315155 -46.577812 8.740806
235.804962 -45.587139 12.924946
235.299850 -44.229259 17.117994
234.874405 -46.345188 21.258961
236.610657 -47.238922 25.337276
238.148865 -47.268452 24.580292
235.507416 -45.622276 14.002559
238.528900 -48.823772 27.778011
238.223633 -45.340401 13.698462
238.705475 -46.386536 18.599125
237.539383 -47.208069 19.041723
237.652985 -48.658234 19.639072
239.079346 -48.568604 15.637979
237.854416 -46.327812 15.987702
237.474625 -45.969055 17.831493
238.466400 -44.967537 16.470556
237.029602 -46.109505 17.070084
238.939178 -45.910336 26.274910
238.922028 -46.067970 12.920541
236.830368 -46.779133 15.370899
239.456161 -47.517399 30.050119
239.644455 -46.500423 14.647575
238.894424 -46.630325 16.790648
240.147018 -47.302143 12.594007
239.573639 -47.247402 16.279943
239.971405 -47.127617 31.670334
241.077423 -46.751640 22.820313
238.717529 -47.163864 8.612988
242.737595 -46.977036 13.095227
239.073257 -45.210732 22.800905
240.220108 -48.791512 27.900158
240.667389 -46.181194 33.319393
242.555573 -46.338718 26.060711
240.537079 -47.057049 27.998613
242.328110 -45.600414 -1.285639
242.267212 -47.464409 -1.439664
241.362381 -47.710831 1.359935
242.410538 -47.668461 3.559345
239.407440 -47.639629 19.710075
242.685776 -48.439777 -3.462611
242.626633 -48.230621 29.854034
240.329269 -47.841927 7.315544
242.671921 -47.768181 9.941635
243.945648 -49.045780 15.251879
241.268494 -46.926216 30.554909
240.450775 -46.606346 34.378017
243.086334 -48.284714 0.646158
243.163208 -47.666584 1.234542
241.265518 -45.659336 11.775055
242.523468 -47.493805 20.342457
242.833405 -47.186928 33.445801
242.956818 -48.028069 18.507420
242.947464 -48.343807 32.169731
242.291092 -45.475067 -1.254242
244.197937 -47.582932 16.293997
243.186234 -45.610119 27.783594
242.084854 -45.237000 28.274982
242.615280 -47.709896 29.330179
243.271378 -48.234859 35.303947
244.301453 -46.056732 29.323635
243.330368 -44.684605 29.697653
243.278702 -44.571724 36.639263
245.067352 -46.160297 34.496597
245.871063 -47.208282 26.371000
244.806976 -44.997292 32.054863
245.531448 -48.833179 32.068047
243.480362 -46.460663 35.847775
245.359070 -46.130440 36.669243
246.717468 -46.468513 33.244408
245.951721 -44.577560 -1.206660
243.798157 -45.851665 34.835247
245.694046 -47.866661 39.119053
247.661423 -47.437756 -4.044870
246.807327 -46.853718 -2.394571
247.249420 -47.891773 23.476210
247.932999 -44.261074 36.219677
249.154205 -46.452755 -2.699699
247.071747 -48.106091 35.290733
245.584595 -46.215736 -2.288918
248.696304 -46.638737 25.607141
248.954498 -45.492973 23.913351
248.774063 -47.480713 41.093113
249.917343 -47.045307 24.263006
248.175400 -48.971603 35.111450
251.104645 -46.027348 -1.436823
248.865356 -45.312901 39.721527
249.287598 -48.708683 40.961658
250.546448 -47.047932 -2.160198
250.757126 -47.542591 -1.429336
248.379105 -47.126328 -3.137235
249.983536 -45.041470 -1.832182
250.751221 -45.577782 -1.191973
249.660995 -46.664093 36.207497
251.537735 -47.068939 41.545139
251.033371 -46.819904 -1.420896
250.356812 -48.448261 -3.543095
251.260269 -44.578938 -2.610616
252.842819 -47.934303 35.966469
252.319534 -46.309238 39.158993
249.819565 -47.616142 -1.677942
252.036804 -45.968616 -1.058625
252.145157 -46.578701 15.366228
252.826996 -47.083179 42.296196
252.096817 -47.188091 -1.968054
251.617599 -46.283535 -2.380239
251.862564 -46.675163 -3.675991
253.264160 -47.998573 -2.643140
252.159592 -47.040073 -1.353305
253.476227 -46.589844 -4.040493
253.432892 -46.619469 -1.593592
253.141876 -47.367409 -1.371084
254.726273 -45.756298 15.988360
253.379135 -44.963352 22.602354
252.256729 -46.412193 36.783249
251.054321 -48.887974 39.162685
254.609085 -46.000202 27.295769
254.439133 -49.236240 -1.338227
254.184021 -45.567665 -3.512757
255.043228 -45.663277 18.627222
255.081238 -47.104904 -3.202274
254.066589 -44.917515 1.839827
253.958084 -44.316025 20.915476
252.400192 -46.951839 23.307022
254.784195 -45.598091 -2.495747
256.579865 -46.904892 27.523434
254.764832 -47.139198 -0.979018
255.964401 -45.777863 27.270897
257.526672 -44.339828 36.334965
254.860672 -45.028149 38.868484
256.241211 -44.758968 19.182775
255.385132 -47.701244 20.976744
255.531693 -47.128536 23.666084
255.888245 -45.554432 27.848740
257.302643 -44.735348 37.697121
256.403320 -45.245857 38.991779
256.106110 -46.692497 -0.013187
255.361435 -45.884228 39.106949
257.934509 -45.613571 20.700680
258.473206 -46.762863 25.478127
258.443359 -46.063450 -4.682264
256.080109 -45.419968 1.599609
258.670197 -47.790497 36.950916
256.669891 -45.737823 -2.687453
257.856415 -47.575001 1.668505
258.912628 -46.234150 18.043148
259.477478 -46.944492 28.833736
255.876434 -46.314041 38.582855
258.794647 -45.617233 40.474106
257.853638 -45.769920 38.139515
260.433838 -45.462032 22.977621
258.580658 -46.168388 27.807449
260.814362 -47.638058 35.877087
258.309479 -46.436886 39.570755
258.540222 -47.684929 1.212133
261.581909 -46.285774 -2.322493
259.838928 -46.024296 16.122581
258.673859 -45.642864 18.107740
258.169861 -46.563549 35.740116
258.209656 -46.247036 39.971729
261.478729 -46.837257 -1.672397
259.659119 -47.206718 18.618616
259.216156 -45.415363 21.128979
259.513153 -46.839417 25.452698
260.919373 -46.683270 29.223572
260.240540 -46.201668 13.539371
260.926453 -47.440395 20.933025
261.202179 -47.799747 39.214859
260.975952 -46.888603 0.503643
261.163361 -46.278011 1.655114
262.705597 -46.279297 4.105302
262.406555 -48.262920 17.220955
261.569794 -48.200500 3.441576
261.648193 -46.194107 20.732573
262.244385 -46.653419 24.937853
260.747070 -47.867165 29.706831
262.061737 -46.548298 -2.499656
260.305115 -46.447853 16.449154
261.081421 -46.570557 35.896717
262.285339 -46.240845 20.189770
262.750153 -46.563873 28.917831
262.536652 -47.526165 36.709820
262.168274 -46.297417 38.929214
265.963806 -47.466160 -0.169435
261.831970 -45.843552 5.071889
262.046204 -46.087040 16.547680
263.923523 -47.152794 28.021107
262.929016 -46.390694 15.998951
263.244232 -47.772984 3.661708
263.852997 -44.515682 8.242386
262.428101 -47.718140 13.194272
263.498993 -46.856117 22.896214
262.194885 -44.333355 22.971016
262.328003 -45.766216 36.467636
264.672241 -45.074177 2.379296
264.397858 -44.940346 9.494809
264.601501 -46.566429 16.715675
264.133240 -47.737057 25.941214
264.207520 -47.410599 27.482759
263.726654 -47.614799 39.508011
262.238831 -47.487213 0.875969
264.515350 -46.491680 13.428033
266.979797 -47.543064 36.355247
264.597717 -44.302269 39.481766
266.124084 -47.392654 0.378980
265.024689 -46.332943 4.462432
262.653381 -44.508907 9.221122
264.104614 -47.774410 14.484315
263.708862 -45.009243 19.340725
263.921509 -46.757214 23.130503
264.905334 -46.973557 37.590057
266.254700 -46.706078 3.175603
265.120422 -45.693161 13.913320
264.655396 -45.669044 17.471237
266.589386 -45.090282 2.120194
264.885895 -46.015018 41.146767
264.664459 -47.522682 11.758172
264.350128 -45.588558 16.679869
265.676758 -45.413490 22.154263
267.391083 -46.149212 6.866130
266.310547 -45.092651 15.876671
268.584259 -47.055931 8.893491
267.693298 -46.848999 17.438828
267.777527 -44.568947 12.283379
266.335785 -46.107277 13.209012
266.786316 -47.101151 35.534702
267.391113 -47.168236 37.748440
265.955566 -48.068172 1.608392
265.334686 -48.121704 18.316902
267.246094 -46.725330 39.040806
268.604218 -46.209419 23.393797
265.580933 -47.982094 25.625572
268.695496 -46.036861 26.918669
269.356476 -46.650204 9.639019
270.029327 -46.756027 27.674713
267.282959 -46.354015 40.228004
268.771942 -47.999935 3.368512
269.854004 -45.326416 24.742830
267.697815 -47.444786 39.678074
268.292236 -45.642757 9.234962
270.096649 -46.535725 15.274523
270.909973 -46.199486 19.439491
268.401581 -47.969894 2.586847
270.596191 -47.180092 11.863572
272.201691 -45.293900 16.072697
269.094543 -47.084351 38.417042
270.311768 -47.374855 38.700417
266.224030 -46.236740 21.952610
268.301636 -45.533340 5.180724
269.087616 -45.075562 7.319642
269.190033 -47.982143 9.839153
271.155792 -46.882420 16.635796
270.356049 -45.618073 19.943958
270.962708 -45.712791 27.235813
271.119537 -45.476933 6.775101
271.886169 -47.201630 10.636576
269.723816 -45.868137 35.231541
271.476227 -47.131756 13.561406
271.149170 -46.917210 17.434217
269.640350 -46.913147 25.094725
271.498840 -48.667244 37.697372
271.720093 -45.922222 39.654140
271.325623 -47.364704 2.714165
271.681885 -44.588234 4.435000
271.973663 -45.948540 9.213868
271.388672 -47.946938 13.051578
272.126099 -48.313538 20.344414
270.174622 -45.405682 28.169645
270.798920 -46.170105 38.715340
271.834137 -47.614277 10.309534
271.631989 -46.205017 21.441093
273.220184 -46.393936 27.847919
271.642426 -44.532776 13.094688
272.569946 -47.211521 18.822868
272.283844 -46.585247 38.022236
271.067566 -46.233334 11.766007
272.126862 -44.813869 18.833864
271.197327 -47.766388 35.892807
272.687378 -47.040447 9.389351
273.539764 -45.136036 10.267830
273.801422 -46.774574 19.340902
274.204651 -46.875912 25.859213
271.789490 -47.950142 37.945858
274.473053 -47.244781 13.574080
273.775116 -47.156189 35.390759
271.239136 -47.634796 37.669308
275.245117 -46.464317 11.328783
273.601685 -45.688416 15.200336
274.522186 -46.292442 27.628386
273.518341 -46.337452 31.162203
275.329285 -47.876434 36.121742
275.697540 -46.022682 39.259830
274.613159 -44.148003 36.486694
275.249512 -47.091011 19.072037
274.644775 -48.371552 31.785061
273.884583 -46.541683 35.207191
273.459534 -46.698223 36.320015
273.321960 -45.722996 4.491331
274.509399 -46.607239 24.922806
275.645721 -45.663128 28.930803
276.069275 -46.639027 13.310865
277.110382 -47.227932 35.595440
275.894775 -48.994057 15.391420
274.487000 -48.006733 23.001532
275.870758 -47.879044 29.807837
278.053253 -46.885151 25.555517
277.278534 -45.367531 26.288397
276.566498 -45.589809 23.759031
274.646179 -46.723934 28.550270
277.511871 -45.633186 29.309967
277.247162 -45.782162 33.489422
276.868622 -45.794830 16.421825
276.479767 -46.860233 35.050560
278.306641 -45.281853 39.017509
274.227020 -45.585304 7.707342
276.280090 -46.150146 12.734485
278.823059 -46.101242 25.873531
277.642853 -46.029179 6.503384
280.414276 -46.817333 15.722113
278.045654 -46.522907 26.250500
277.831360 -48.650864 28.416502
278.633514 -47.854942 36.106495
277.009033 -47.327663 35.135635
280.583374 -46.583248 11.284929
281.428619 -48.188103 20.936317
277.925537 -46.992809 21.749741
279.656891 -45.711361 25.028038
279.423584 -45.537327 19.870960
278.751038 -46.578381 25.346172
279.299042 -47.063599 27.301048
278.453583 -47.412235 29.914728
279.594177 -45.406208 7.864131
280.362885 -47.218857 19.480644
279.683228 -48.158443 37.278629
281.741943 -45.597179 34.380478
281.612488 -47.718555 20.054956
281.139160 -46.755569 23.882626
280.662506 -46.630981 27.713428
278.674866 -47.350300 33.438541
282.923859 -46.739697 9.565383
279.699646 -45.777142 31.998535
281.205292 -47.553776 35.639801
281.450836 -48.412666 20.486435
281.041504 -47.925220 25.165705
282.231049 -45.825226 29.141182
280.286499 -46.380741 36.453415
280.249420 -47.686653 22.015633
282.299103 -46.983585 20.836613
280.455353 -46.914623 24.249018
281.578461 -45.581783 28.128736
280.324890 -46.516819 8.836517
281.939789 -46.969597 11.289903
281.120300 -45.320465 13.436373
281.169403 -47.211330 30.146370
283.533112 -47.137131 35.551155
283.648254 -47.302952 11.608960
282.972931 -46.174854 30.971668
283.072815 -45.738178 33.334534
283.480408 -47.049370 28.671816
282.801270 -47.476173 10.435616
285.777954 -45.881378 12.798534
282.364777 -48.431927 34.184528
284.991577 -44.161179 15.565616
285.127716 -45.069057 15.507146
284.689240 -46.318554 32.534447
284.802399 -46.015873 10.711664
285.618134 -45.674644 15.046825
284.559357 -46.201248 26.545042
286.750885 -46.990753 31.055393
285.971527 -45.440311 13.614061
286.803589 -46.316040 16.567608
288.679443 -47.921238 23.028639
287.555359 -47.910480 26.576923
287.611389 -46.584229 29.509188
288.455322 -46.326328 25.099646
287.832886 -47.678108 31.583290
287.556519 -50.235123 10.494070
289.594910 -45.778595 15.271893
288.319885 -45.902580 22.545904
290.707581 -45.239964 23.865244
287.536041 -47.177021 13.486855
290.613190 -46.808495 18.283680
288.450226 -46.462883 26.508993
286.798798 -47.447536 28.370960
288.087646 -46.661186 30.809713
290.558380 -46.392056 21.372290
290.276550 -48.262543 24.527353
289.894592 -46.743790 27.773602
290.500763 -48.120804 13.533439
290.108917 -46.422020 22.625425
289.827667 -48.230190 12.881847
291.140533 -47.396076 25.376419
290.873169 -46.597145 18.463192
291.375916 -47.410706 22.372459
291.899261 -45.703773 15.756792
290.516418 -47.133869 21.605520
290.554199 -47.112057 31.484491
293.137665 -47.141048 27.964600
291.354187 -45.651409 23.960825
293.966034 -46.312042 21.087484
293.633087 -46.770737 12.294516
295.309875 -48.770271 15.227180
293.578125 -47.100643 16.845510
293.004578 -49.047752 22.114506
295.190460 -45.868324 16.091402
295.438995 -45.612122 18.111351
294.171021 -46.437252 22.600834
292.976532 -46.320965 14.469150
296.838470 -46.856716 15.059512
297.418915 -46.052502 19.549400
12.047727 -45.756493 43.748432
12.476228 -45.606541 45.439087
12.728884 -46.140488 40.693577
13.200646 -45.505623 43.630322
13.850167 -45.970108 47.333649
13.539143 -45.403900 48.709454
13.601105 -45.508766 41.516605
14.051227 -43.499538 42.808392
14.618236 -45.321678 48.314739
12.099919 -46.384216 51.794743
14.044911 -45.055962 51.188374
14.773711 -45.399643 46.226540
14.543820 -46.081345 50.173645
15.588711 -44.185120 53.418629
