# This PCD file was generated using the MATLAB® pcwrite function
# from Computer Vision Toolbox®.
# .PCD v.7 - Point Cloud Data file format
VERSION .7
FIELDS x y z
SIZE 4 4 4
TYPE F F F
COUNT 1 1 1
WIDTH 1467
HEIGHT 1
VIEWPOINT 0 0 0 1 0 0 0
POINTS 1467
DATA ascii
222.867050 -66.514030 -86.666603
222.563385 -66.159576 -12.308974
222.592896 -66.094460 -2.126919
221.650589 -66.990280 16.718370
222.893555 -66.458389 97.920273
223.158707 -66.534607 -6.312033
222.733704 -67.432884 94.441505
224.510529 -66.882408 -154.348175
224.011688 -67.091629 -134.121735
225.067047 -66.452621 -96.767570
223.496216 -66.785027 -87.388954
222.949142 -66.996056 -10.574992
222.849167 -67.139069 -4.127045
224.217285 -68.215553 -1.123352
223.747345 -66.576149 9.174097
222.999039 -65.811844 22.883802
223.232162 -66.866386 90.817978
223.256989 -67.216469 87.635071
223.153717 -66.358025 97.595222
224.202530 -66.843018 -133.223282
224.150787 -67.463486 -96.223984
224.264267 -68.202393 -89.337303
223.950882 -67.008652 13.705465
224.587692 -66.750465 16.523035
224.646851 -67.156181 19.305492
223.345612 -66.650879 24.690664
223.122055 -66.890762 92.987213
225.983383 -66.619682 -117.277351
224.323853 -67.235130 -114.338196
224.580734 -67.044914 -89.936455
224.763992 -66.534966 -10.367162
224.374207 -68.334930 10.472237
225.599091 -64.593887 21.966236
224.787109 -66.539680 -110.440315
225.506714 -66.768837 -9.717816
224.690720 -67.414429 14.095059
224.584061 -66.663910 25.491825
223.892456 -67.237267 93.376717
224.679291 -67.065048 96.124756
225.615005 -66.929169 -132.104874
225.305679 -67.529114 -109.020302
224.855316 -65.921722 -107.457756
225.406296 -67.241127 -97.570236
225.212891 -67.498047 -92.426369
224.886841 -68.306076 0.758614
225.491180 -67.104446 3.112167
225.382004 -67.370300 86.262421
224.654465 -66.467163 90.641922
226.633682 -66.970901 -122.232994
225.734192 -65.687714 -104.617294
225.715012 -67.792076 -93.745293
225.618881 -67.212723 -11.303407
225.712250 -66.687393 -0.259374
225.050125 -67.590370 15.118129
224.819946 -67.368340 91.273880
227.292389 -68.206139 -155.148682
226.993469 -67.607384 -130.631302
226.487091 -66.864487 -129.243195
227.190353 -67.628807 -123.061432
226.696320 -67.793015 -106.321274
225.235153 -67.055458 0.631432
226.900055 -67.872498 4.659875
225.237122 -66.949951 21.035349
226.201263 -66.111115 89.239365
226.093689 -66.888062 91.649910
226.613571 -67.982170 -124.459579
226.405411 -66.921440 -107.887001
226.902710 -66.433144 -100.033966
227.561005 -66.019730 19.293482
226.538666 -67.110687 25.206985
226.694656 -68.125099 85.085266
228.299210 -66.316513 -103.868919
227.670425 -65.935944 -101.572746
227.713409 -67.202721 -94.910660
227.029388 -66.360817 1.616749
226.790146 -65.383827 4.317482
226.149277 -68.667931 16.107615
225.888931 -67.077133 22.031645
226.208908 -66.464958 89.501564
228.032425 -66.674446 -106.147820
227.274048 -66.978218 -9.114059
227.332565 -66.216270 13.440672
226.699982 -67.719200 16.241880
226.885681 -68.158279 88.339775
229.127655 -66.113548 -108.702324
228.097946 -67.262405 -99.983292
227.788147 -66.593811 -96.778389
227.443771 -67.597572 -3.841368
226.654556 -66.311401 -3.055814
227.458603 -66.322105 16.681543
225.205566 -65.982887 24.197287
226.572647 -67.302711 87.749130
228.098053 -65.881897 88.147469
228.200409 -66.900978 -103.020058
228.980362 -66.524483 -102.247353
227.885254 -67.493217 90.612907
228.962814 -67.602646 -101.815086
229.019791 -66.626099 -2.010140
229.831650 -67.619797 5.795640
228.805679 -67.341934 17.661495
228.490753 -67.618546 16.907730
226.844986 -66.966553 28.386951
226.800934 -66.262688 88.467484
227.208633 -67.528557 94.632042
230.742310 -66.387863 -5.735168
228.451828 -66.723915 -1.043890
228.228241 -67.436531 86.686768
228.581177 -66.668274 90.455048
230.105743 -67.248451 -99.589226
229.755127 -65.757896 -98.499451
229.908188 -66.918312 1.971750
229.830338 -67.194107 15.024668
231.750839 -67.017769 22.875679
228.694473 -67.050812 87.982430
229.243500 -67.184105 -155.499374
230.475937 -66.735718 -2.245370
229.662964 -66.219994 -0.516177
229.443329 -66.272362 6.055285
229.667404 -66.083778 17.075264
230.796738 -67.696785 20.266413
229.796219 -67.065155 89.152695
230.531693 -67.584694 91.339279
230.916367 -67.140450 -103.362892
226.974991 -67.239059 25.373659
231.179352 -67.292984 27.222528
228.966751 -67.505638 23.053352
229.775970 -66.670654 85.783707
230.382385 -66.586777 2.877835
231.462967 -67.353088 24.604227
231.654388 -65.923676 80.202896
231.677811 -65.643593 -113.089653
231.468094 -67.271393 -105.814156
231.416840 -66.846031 -103.611618
230.864212 -67.003281 21.886765
230.875381 -67.176735 87.243980
232.126419 -67.037132 -111.806137
232.997131 -67.372398 -109.203499
232.732208 -66.534157 23.211515
232.165100 -67.560883 16.403578
231.278687 -66.327065 15.350379
231.984070 -66.942871 -130.511627
231.571396 -66.705658 -127.477585
231.291519 -66.114105 9.637590
231.637222 -66.549713 83.409256
232.143036 -67.619835 88.420914
232.538376 -66.973892 -131.889694
232.842056 -66.239014 -131.202606
233.093307 -66.517410 -125.546112
231.771896 -67.355087 -3.698967
232.908401 -66.766289 1.783486
233.045441 -67.330055 -131.977676
234.416794 -67.446167 -132.241348
232.935120 -67.646278 -1.855516
232.629150 -67.129890 4.836611
232.131882 -66.400482 27.220024
231.932526 -66.894417 85.801682
233.742294 -67.319283 -119.500244
233.946426 -66.997391 4.782583
234.272812 -66.695518 80.924660
234.834213 -66.688927 -121.447586
234.907684 -67.260506 -114.285767
233.788635 -66.926285 76.216484
234.443863 -67.180878 -155.556229
233.423111 -67.307915 5.232986
235.397614 -68.684669 11.436472
235.790009 -66.354439 17.760061
233.220734 -67.340614 84.133865
235.732193 -66.948814 -134.551163
233.438873 -66.526283 27.246296
236.224442 -66.776009 82.048889
235.045258 -66.788788 -0.484692
235.176346 -66.773903 6.144595
235.362625 -65.756157 86.304832
235.926468 -66.614326 -156.072510
235.632584 -65.691963 27.210876
235.663239 -68.624763 85.171463
237.201126 -67.058144 0.843381
236.047211 -66.230171 11.632845
236.960892 -66.509171 27.413521
234.832138 -66.167557 75.848297
236.759201 -67.604469 83.813499
236.167419 -67.239609 -3.496944
236.838928 -67.017326 -0.088564
236.906143 -65.893639 17.958382
237.225555 -67.446480 72.321487
235.983856 -68.100342 77.745705
236.386002 -66.598907 6.857212
237.042831 -65.987038 80.767769
236.987030 -67.326927 84.119629
237.826569 -67.534187 -156.346741
237.917572 -65.977966 1.177207
238.511612 -67.479919 77.408592
238.104309 -66.935539 -7.870746
237.292816 -67.602318 5.315126
238.059692 -68.108391 28.554201
239.358353 -66.187492 2.670067
238.654556 -67.662498 6.743668
238.949493 -67.134926 71.092758
239.143524 -66.650085 -9.033650
238.927750 -67.610931 8.438894
238.342499 -67.493858 11.909721
238.999130 -66.250366 27.238384
239.343002 -66.577332 6.666711
238.904877 -67.170601 7.527493
238.304260 -68.114349 18.657059
239.703522 -66.910744 69.971298
239.241257 -67.113487 77.330231
240.472046 -67.188164 -155.670837
240.218781 -66.292336 -133.610687
238.968506 -66.508774 -9.227368
239.490616 -67.496590 9.123577
239.903351 -66.789604 75.227112
238.563522 -66.723122 81.266731
241.602310 -66.697098 2.327509
241.315796 -66.378632 9.843328
240.513962 -67.268562 -9.777346
240.557571 -67.834259 4.786328
240.452179 -66.175896 19.205996
240.393616 -65.928413 73.494415
239.938950 -67.034798 76.778854
241.294754 -67.230583 79.452271
240.843719 -67.222763 -156.702759
240.814987 -66.399193 3.317567
241.620331 -66.948463 19.076544
240.367828 -67.569229 74.147308
241.443115 -66.902245 67.801704
240.842377 -66.243431 74.485710
242.027451 -66.485878 -6.275350
241.247681 -68.023560 -1.647875
242.321732 -67.542923 -0.462977
242.246689 -66.362434 2.705708
241.053711 -67.256088 12.157820
240.626343 -65.574745 21.038982
241.230255 -64.896027 66.643219
242.384140 -67.204132 -8.240242
241.940414 -67.819199 -4.901503
241.810257 -66.699440 12.088212
242.755722 -67.116371 14.501276
242.654114 -66.013611 27.400040
242.217087 -65.725090 70.951324
242.032578 -67.484718 15.877028
241.029938 -66.725479 21.506683
242.057449 -65.612587 65.383720
242.814468 -66.528076 76.814125
242.841415 -66.131927 1.885117
243.063797 -65.767471 24.446714
242.745026 -65.771416 28.006916
242.210938 -65.624840 71.439629
243.971603 -66.656944 22.507704
242.962845 -66.720535 25.453226
243.147659 -67.149696 1.683936
243.554489 -68.082191 19.764353
242.523666 -67.431107 74.912109
245.069565 -68.127991 1.226991
243.575745 -66.131874 27.598133
244.881149 -67.459175 63.532131
243.408661 -67.841270 73.381607
245.538666 -66.917084 -0.968599
245.194611 -67.510712 0.363151
244.427521 -67.009476 24.987072
244.970200 -66.703850 71.877640
245.047684 -66.088936 26.346817
247.422531 -66.471901 -156.255951
244.377014 -67.649063 -134.411041
246.120331 -67.335251 -55.669601
245.623047 -67.154320 0.216299
246.554672 -65.884575 26.924288
246.418930 -67.160400 -54.077087
247.395599 -66.633514 -1.737258
246.140167 -68.057167 69.853188
246.789948 -66.930992 -57.908989
248.052063 -66.640602 -51.084198
247.561478 -66.448555 28.352314
246.426743 -66.828346 58.911518
246.909515 -66.850136 68.149796
247.478897 -66.061226 70.170761
247.667328 -66.945099 -133.958466
247.461624 -66.833511 -59.861977
247.677322 -65.964539 -58.258167
246.707138 -65.714966 -55.125572
246.694473 -66.154251 -53.906918
247.682800 -67.013725 60.362820
247.784973 -66.928879 -63.740376
247.909225 -66.401314 -61.260559
247.702255 -66.712357 -58.822197
246.976563 -67.246910 59.632118
247.514877 -66.830002 68.966240
248.733505 -67.265572 -68.592506
247.916199 -66.096558 -53.422886
247.456329 -66.969231 -51.698505
247.986404 -67.115120 57.512264
246.936554 -67.980667 63.599289
247.925064 -66.640266 66.643204
247.950378 -67.557877 -66.365440
248.191772 -67.048630 -51.660625
248.639969 -67.534424 28.822758
250.426361 -66.846436 -72.660950
248.772293 -66.163101 -53.797077
248.574249 -65.971077 -53.066578
248.886795 -66.761597 -3.147395
249.582245 -66.690094 57.049702
249.215439 -67.053665 57.910450
248.667908 -67.529419 29.296909
251.126694 -67.606079 -156.790680
250.158188 -66.625916 -55.185699
250.518967 -66.757698 55.641315
251.067429 -66.175140 -58.176563
250.911255 -68.035759 -3.095495
250.483353 -67.652069 59.674126
248.958984 -66.304428 -133.933975
251.696777 -67.267944 -79.840485
251.103287 -66.330841 -60.379227
252.110382 -67.613861 -58.454845
252.192627 -65.940979 31.844313
251.649628 -66.269882 55.383713
250.380386 -66.783760 53.392559
252.834732 -66.615051 -60.334419
251.769424 -66.821220 55.347137
252.190018 -66.566216 -81.147041
252.208908 -67.867287 -4.195981
250.692841 -66.992516 58.930454
252.995407 -66.983093 -133.989792
252.421982 -66.752663 -82.949486
250.908051 -67.216896 58.195354
252.300858 -66.846786 -63.808796
252.831848 -66.583511 -63.193764
253.330490 -67.374535 32.414101
252.365997 -65.913307 33.329247
252.324112 -66.084160 53.145470
254.476898 -67.065422 -67.400497
253.104965 -65.981903 -4.646243
253.786423 -66.608536 -132.754028
254.421799 -66.485130 -89.570198
252.751678 -66.800293 -157.235428
254.439438 -66.962318 -120.711067
253.978989 -66.715050 -115.076004
255.085571 -68.240196 -122.888428
254.545166 -67.385910 -124.397331
254.460556 -66.314514 52.448105
254.541382 -67.260574 -89.445168
254.932632 -67.539650 -71.389122
253.549393 -67.871735 -3.390992
256.882416 -67.390213 -130.174957
255.563477 -67.411812 -124.316437
256.063507 -67.590141 -125.116661
255.989288 -66.965149 -113.550247
255.183823 -66.646240 -106.124237
254.969681 -67.236168 -91.712364
255.904053 -67.590759 -93.977852
255.593887 -65.823318 -73.600578
256.188293 -67.476883 -4.525109
255.843155 -67.069099 -106.601593
255.857315 -68.308945 -103.956871
257.303680 -67.506378 -94.522133
257.565338 -67.294899 -156.971878
256.354980 -67.278229 -104.833649
256.703400 -67.261841 -97.384323
257.507141 -67.749298 -104.027779
257.845825 -67.813942 -100.157181
256.739075 -67.045105 -100.810333
258.589966 -67.214546 -82.681847
258.786652 -66.736961 -156.652634
257.838715 -68.113792 33.336617
258.628296 -67.671745 -86.775230
259.437347 -67.580551 -88.836639
258.222412 -67.001205 34.400093
260.660675 -66.127022 -156.216385
260.887268 -67.269424 -96.971977
261.986511 -66.555862 -102.839966
261.762634 -67.982224 -100.344070
262.062042 -66.065750 -103.141411
261.921600 -66.404076 -98.933250
261.628632 -67.284332 -113.795853
262.548431 -67.552917 -110.043076
261.780792 -67.153404 -130.907806
262.050171 -67.454590 -125.542160
263.877777 -67.969505 -125.275604
261.844788 -65.641441 -109.124023
262.493134 -66.550568 -4.592834
263.694824 -65.969208 -126.370842
263.232544 -67.614876 -5.263171
263.715454 -67.020546 -131.518524
262.675781 -67.074379 34.119648
264.209290 -67.886978 -114.126831
263.947205 -66.593155 -132.073807
264.157593 -67.012329 -123.342941
265.020325 -66.764664 -119.931969
265.649261 -66.791313 -4.334850
266.443390 -67.006340 34.430706
266.105591 -67.250122 -134.984756
265.945465 -66.944908 -156.484268
268.871307 -68.973045 -156.742737
269.035217 -66.767288 -3.412085
271.974762 -66.795219 -157.369766
272.820557 -67.025673 32.754868
269.466766 -66.936066 -134.545441
272.077301 -66.772980 -3.058365
273.653503 -66.932365 -135.635635
272.632751 -67.103920 -2.239159
273.527832 -67.129387 31.931772
275.335388 -67.077599 -157.418808
274.363922 -67.053719 -1.575620
277.433258 -67.667229 31.043844
276.296783 -67.664726 -157.381622
277.580719 -67.053642 -135.554886
276.526672 -67.121002 -0.575583
277.940948 -68.761177 0.372382
280.322266 -66.701332 -157.813217
280.150940 -66.627663 28.549847
280.614105 -66.942017 -134.183655
280.932159 -68.211479 27.274750
282.102539 -67.229767 -158.092804
281.675232 -65.896950 -149.986664
282.682800 -67.964981 -135.111389
282.344360 -66.057289 27.785187
282.684448 -67.547989 1.820492
282.633850 -68.426682 26.408873
283.580872 -65.820900 -144.061432
283.031128 -67.089394 -133.856064
284.787109 -66.815674 -132.409714
284.228333 -67.544884 -119.338654
284.136017 -65.463676 -115.749519
284.829132 -66.894615 -131.903671
284.926208 -67.630859 -123.205132
285.206848 -67.485832 -130.645248
285.904144 -68.915253 -124.754951
285.929016 -67.387115 3.502702
286.061584 -66.492844 -148.163483
286.284576 -67.179588 -128.833862
285.471130 -66.820534 -158.190247
286.217010 -65.495651 -145.270340
285.928650 -67.514832 -114.286003
285.549469 -67.046227 -112.850098
286.918823 -66.994194 -110.366714
287.018280 -66.872047 -105.960144
286.206360 -66.847160 -67.048035
285.816620 -67.142296 -58.540188
286.139771 -67.529861 -54.688049
286.399536 -67.285278 -46.833122
287.525574 -67.117714 -93.164970
287.742950 -67.294220 -87.227531
286.390289 -67.288284 -81.509018
286.896423 -66.411705 -74.080780
286.613098 -65.934837 -62.248951
287.078583 -65.904350 -58.257057
286.520264 -66.424599 -54.872002
286.154694 -66.677902 -50.481430
287.765015 -66.638992 -44.412632
287.555389 -66.485558 -101.677589
287.429291 -66.458786 -97.290771
287.196533 -65.961945 -46.163589
287.015717 -66.362396 -41.430084
287.282532 -66.358505 -38.990910
285.728699 -67.353195 -37.974281
286.359406 -66.846581 -34.275898
286.389801 -66.480827 -33.586971
287.363342 -67.329765 5.182544
287.384857 -67.374687 -156.884018
288.517578 -66.288826 -43.217274
288.187805 -66.864502 -6.429899
287.940796 -67.291183 -5.456994
287.679901 -66.555061 -1.661399
287.656952 -65.979126 -146.520920
287.365875 -66.252251 -36.819183
287.914063 -66.673576 -32.642311
287.606079 -67.826172 -32.196487
288.013763 -66.774017 -21.816181
287.335205 -67.086205 -18.745651
287.718811 -66.681351 -16.164806
287.441254 -65.869484 -4.832191
288.879059 -66.619499 -2.000907
288.779114 -66.335876 1.895188
288.775696 -65.752136 22.062580
288.218872 -67.763947 -154.845901
288.579865 -66.286896 -27.644209
288.877869 -66.186989 -22.830444
288.775726 -67.415436 -20.081768
289.291718 -67.454269 -13.122341
288.556763 -66.295067 -7.239804
289.373199 -66.638092 1.640089
289.089233 -67.588570 5.066974
288.794983 -65.797470 -42.315422
289.230530 -66.754356 -31.752453
289.716461 -66.810547 -32.007664
288.491241 -67.136063 -23.483603
289.322174 -66.435738 -19.013227
287.620239 -67.447311 -15.797692
289.647583 -66.381798 -13.885345
289.259033 -66.704025 -4.211058
289.040100 -66.358917 -0.936221
288.615387 -66.915604 2.166689
289.123047 -66.969131 20.125710
288.785461 -66.786552 -33.148476
289.285675 -65.896660 -27.213646
289.392639 -66.521019 -21.731243
289.187164 -66.998322 -18.426315
288.853149 -67.395355 -9.549691
290.055176 -66.609253 -2.642019
290.506561 -67.525673 19.250120
289.643555 -65.903511 -36.648670
288.610382 -67.169144 -30.559916
288.677795 -67.355087 -25.777151
289.926758 -67.518120 -13.598662
289.655823 -66.068932 -10.747889
290.686737 -67.447174 -8.020566
290.463867 -66.412247 0.481483
289.872192 -66.636360 5.762866
289.945953 -66.592949 4.972014
290.835602 -66.493279 -45.992634
290.023804 -66.772621 -42.268440
290.095459 -66.942467 -38.959457
289.493134 -67.804504 -34.459755
289.497772 -68.172226 -6.795394
289.715393 -67.040405 -5.503574
289.551605 -66.835716 19.037466
291.555542 -66.486618 -154.409454
290.716522 -65.974884 -56.762436
291.220490 -66.204414 -54.202042
291.615692 -67.329285 -47.915325
289.845032 -66.926819 -49.940563
290.715027 -66.860046 -43.827179
290.464325 -66.528412 -41.324810
290.539459 -66.319542 -3.834450
290.381744 -66.881927 -1.849422
291.021820 -66.424454 0.721896
290.262268 -67.216049 2.991404
290.212189 -67.184250 4.595710
291.185791 -66.560936 18.227133
291.669281 -66.734871 -77.201996
291.978638 -66.601501 -68.007088
290.480591 -67.137512 -61.418709
290.936218 -66.950035 -6.788616
290.144043 -65.993378 -4.355048
291.636292 -67.679031 -2.030672
291.133240 -66.705536 9.752212
291.173859 -67.064560 14.426684
291.596405 -66.211769 -79.761353
290.592285 -65.172348 13.051682
291.846832 -66.999641 -152.566071
292.690399 -66.414490 -101.537621
292.399658 -66.808289 -93.181442
292.508331 -67.542511 -87.579361
291.675507 -67.947754 -81.722916
292.347717 -66.097206 -77.884918
293.218842 -69.075188 -112.674538
293.405914 -67.484146 -111.435829
293.338348 -65.677139 -94.038544
292.892914 -67.486748 -150.765503
293.172577 -67.307671 -129.115875
293.273193 -67.267593 -126.201500
293.028625 -66.446304 -103.592949
292.393005 -67.602089 -105.480072
293.813599 -67.075821 -150.809875
293.931610 -68.252838 -149.114639
292.844818 -67.426300 -131.096344
292.851959 -66.336609 -114.012856
294.178223 -67.322914 -148.553131
294.182709 -66.386009 -132.967407
294.608154 -66.795090 -124.341454
293.435913 -67.686890 -115.823463
295.346924 -66.766525 -146.934692
294.512238 -66.739021 -125.045937
295.204132 -66.741386 -118.831520
295.513519 -67.758812 -135.013077
296.434692 -66.613632 -134.545715
296.148193 -67.300018 -144.805389
297.683014 -65.953056 -135.209244
297.722137 -66.528229 -143.407761
300.230438 -66.628288 -142.329269
299.814728 -66.185257 -135.033707
300.784729 -67.233299 -133.205429
301.960419 -68.133583 -144.687683
302.056396 -66.182655 -132.484482
303.596375 -67.045052 -133.210526
305.183624 -66.712769 -145.353836
305.055878 -66.516541 -132.992050
306.872864 -67.245018 -132.588852
309.173737 -67.886551 -145.246841
308.538696 -68.012886 -134.101288
312.008240 -66.676270 -133.357544
313.196960 -66.490067 -134.937714
312.158539 -67.334198 -143.656967
312.985474 -66.025696 -141.084564
313.720795 -68.070663 -141.866898
12.456286 -66.264725 44.423676
11.617464 -66.139542 45.915962
12.157697 -65.701897 41.349182
12.216106 -65.941628 48.576527
13.184544 -65.798515 50.644783
13.964436 -65.113800 52.115337
13.672292 -65.634995 37.864925
15.673327 -66.061981 54.749222
16.882196 -65.286400 55.797691
16.150665 -65.890289 45.490185
17.161074 -65.457275 41.946884
17.454361 -66.787430 43.680969
16.690996 -66.551765 47.421146
17.288078 -65.675140 33.430897
18.204823 -65.975464 57.084618
16.649828 -65.989388 50.234661
18.811155 -65.374146 40.002663
18.123760 -66.101532 51.458458
19.933426 -66.304192 39.040726
19.639936 -66.069298 57.915176
20.430870 -65.658524 53.395348
21.427637 -66.026047 37.980907
21.670895 -66.702034 54.338303
21.722450 -66.429443 57.986401
22.621174 -66.185097 37.473408
22.902132 -65.160553 30.322374
23.294319 -66.118713 54.353088
23.620600 -65.747803 59.449787
26.784443 -65.892082 36.348919
25.613424 -66.085091 59.966377
23.812605 -65.645584 29.981947
27.037870 -65.594841 30.496737
25.713282 -66.377655 55.312378
27.635595 -66.153816 36.164864
29.052252 -66.155365 30.137934
28.251966 -65.877678 54.121944
28.252829 -65.302826 59.786964
31.017849 -66.564407 36.475277
30.140724 -65.749435 54.274879
30.776793 -66.279724 59.767590
32.477730 -65.547546 52.782265
32.199596 -66.342094 59.030544
33.474239 -66.110237 57.546204
33.420250 -66.775490 39.253437
34.964222 -66.093346 51.443230
35.494633 -65.868179 57.183647
35.266151 -66.150253 41.365547
37.168850 -67.467751 43.588329
36.311333 -66.415085 55.336552
37.654125 -66.358406 55.143291
38.002533 -65.907784 43.620846
38.901062 -66.087234 36.874012
38.343983 -65.622116 54.380795
39.529800 -65.855614 45.746040
39.972301 -65.288994 52.455925
40.792221 -65.315208 46.112572
49.040070 -65.735023 -52.880867
48.429256 -65.859459 -46.912750
47.986195 -66.249214 -44.061893
49.342793 -65.524826 -55.968464
49.275337 -66.519783 -49.657532
48.701862 -66.422958 -44.252804
49.049076 -65.131805 -39.489731
48.329437 -65.461250 -35.701332
49.277122 -65.654793 -57.528763
49.531223 -65.903854 -55.341309
49.130905 -66.420509 -38.274643
49.571045 -65.355019 -34.851898
49.793144 -65.541977 -58.447498
49.787750 -65.933289 -33.341248
50.047504 -66.077705 -60.339268
50.046185 -65.697662 -30.903387
49.909168 -64.965698 -62.699345
51.790527 -65.278923 -62.338573
50.374161 -65.563690 -31.188171
50.575180 -66.386909 -28.517429
50.812939 -66.171570 -25.844650
51.419067 -65.829346 -64.130295
51.874706 -65.230461 -65.961182
52.863426 -66.558891 -23.839630
53.023903 -67.068741 -65.683670
54.059948 -64.704575 -69.200150
54.957047 -65.904404 -19.424244
52.646648 -65.497673 -20.730112
54.653313 -66.803780 -67.946968
55.620377 -67.287308 -68.941322
55.131382 -65.530838 -16.504869
56.469120 -66.061890 -71.136818
57.150803 -65.616104 -13.736892
57.638687 -66.771011 -73.721916
58.223537 -66.065468 -13.732871
58.145584 -65.185623 -10.578479
58.957142 -65.335815 -10.527879
58.524452 -66.102097 -10.151435
63.088314 -66.053558 -78.509544
63.406521 -66.034363 -5.236984
63.407894 -66.518135 -76.555229
62.281654 -66.037323 -6.610558
64.546577 -65.137535 -79.204361
65.598778 -64.465782 -80.586029
65.634354 -66.579468 -4.364596
66.292358 -67.139870 -79.317848
66.751236 -64.658508 89.981277
67.272018 -67.003380 93.106262
66.351845 -65.644989 86.768867
67.436066 -67.068069 94.201065
67.746674 -67.684540 97.281113
66.474770 -65.928566 98.396416
66.923119 -67.045853 98.909546
66.387016 -64.791267 100.904938
67.146530 -66.101234 -4.234443
67.860031 -66.898407 89.669235
68.237778 -66.103249 94.479218
67.861801 -65.961563 96.027527
69.316734 -66.239075 85.978035
67.448982 -65.851959 101.132675
68.751465 -66.600288 -81.330772
70.417046 -65.746605 -5.468190
68.654671 -65.717201 83.788353
68.422821 -66.800751 84.625290
70.939598 -65.771965 103.646576
72.005211 -65.118088 -8.193725
71.883224 -65.986115 105.354179
74.422585 -66.258041 107.191902
74.186630 -65.056641 109.371712
74.981667 -65.865211 -11.527965
75.269722 -65.474655 80.023727
75.748260 -65.247513 -84.277939
75.495605 -65.455017 -14.581252
75.503189 -67.488930 81.070892
76.969795 -66.330986 -16.521641
77.170502 -66.862846 -83.141159
77.177689 -66.131767 -25.154205
77.806984 -66.054413 109.434189
76.461693 -64.667564 -29.812605
77.670830 -67.129356 -17.177776
78.264755 -66.955254 -30.511602
78.212891 -65.788956 78.468880
78.215355 -66.584595 109.682175
80.183792 -66.676483 -31.236946
80.473724 -68.510002 -32.550064
80.279404 -64.352058 111.385620
79.454620 -66.064247 79.049377
81.348602 -66.660286 80.351105
82.728798 -67.217728 -83.671104
80.151466 -66.085587 110.903625
82.725327 -66.759613 111.818077
81.473946 -66.921593 -83.675827
85.633247 -66.759872 110.742538
84.822670 -65.727951 -84.336601
85.383743 -64.858208 69.326157
85.885994 -65.505486 70.690117
86.538132 -65.838097 69.209007
86.378860 -67.701057 -38.651394
86.173233 -65.145287 78.361572
86.977226 -66.290382 68.092316
87.241447 -65.603516 70.790794
87.192780 -65.879234 73.265739
86.615822 -66.066978 66.361328
87.297974 -67.251900 71.937584
87.012054 -64.779648 74.907486
88.076973 -64.369873 -44.778313
87.836426 -65.389404 73.834381
88.635521 -66.059967 77.718498
89.612152 -65.431465 69.139580
89.620430 -66.653419 79.328041
89.899696 -65.851433 -46.513721
89.842903 -66.744125 63.389587
89.839355 -65.104820 67.062164
90.493484 -66.723022 69.689903
90.103195 -67.044250 73.357895
89.531807 -64.821663 73.243416
89.801094 -66.347893 110.717636
91.090385 -65.324219 110.919800
91.100624 -65.854744 71.571518
90.986496 -66.053169 77.962837
92.127556 -64.945946 -54.102814
93.222282 -65.943848 -53.723003
92.545151 -65.187576 63.233994
92.437302 -67.052002 79.870552
92.406136 -65.709053 -85.428299
93.478516 -65.363327 58.055824
93.558304 -65.975189 61.486256
94.722534 -65.621284 71.359100
93.325905 -66.172264 -85.069801
96.001366 -66.882736 59.738018
94.022247 -66.372368 111.330605
94.970428 -66.629555 68.791672
94.316772 -66.512802 80.051086
96.391670 -66.742958 58.737804
94.916489 -66.790184 67.777275
96.033539 -66.090553 116.865456
96.672783 -67.144272 -55.208176
97.537384 -67.342514 -55.445862
95.729141 -66.958130 115.568565
96.579994 -66.560555 80.654106
96.286850 -66.432259 114.101143
97.432114 -65.766548 55.716003
97.200691 -66.556808 58.360752
98.301521 -66.192680 108.582115
97.852722 -67.587898 112.297119
96.902992 -66.608192 113.600716
97.643494 -66.176613 114.979652
96.079498 -65.496101 -85.130981
97.748634 -66.876717 66.560951
98.339722 -66.748749 81.775757
99.096916 -67.034981 -65.827545
99.235336 -65.504745 68.643082
98.029457 -65.810539 111.243385
101.327667 -65.982689 -85.199097
99.877060 -66.371201 -67.294830
99.323715 -66.324738 54.382126
98.777763 -64.896400 66.814781
99.149567 -66.066399 108.669579
99.685555 -66.635262 -65.667442
100.005623 -67.711510 -57.342789
99.375900 -67.506317 112.387321
99.602409 -66.125053 119.555878
100.574921 -66.759575 -69.631195
100.900299 -66.476234 53.127674
99.727592 -66.905334 83.633614
97.954964 -66.396294 114.029320
99.572006 -65.891281 115.860924
100.365326 -66.079781 85.524620
100.545807 -65.598274 115.353477
101.795853 -66.048439 51.545990
103.087532 -65.935669 86.584587
101.229683 -66.441681 94.795555
100.809875 -66.981300 105.549568
101.293213 -66.319794 117.020592
102.635292 -67.138130 -71.427834
102.577034 -67.881783 -71.865898
102.458511 -66.336510 54.129837
101.357025 -65.246582 94.700348
102.495705 -66.095917 120.152611
103.827934 -65.655563 51.172241
102.896713 -64.695343 54.491920
102.669296 -66.259933 64.122963
103.180573 -65.814095 88.287277
102.398262 -66.443420 97.044716
102.903915 -67.216347 102.775970
103.939430 -65.783157 103.581787
103.486450 -65.874405 105.712006
102.616646 -65.277557 90.200020
103.547760 -65.642303 50.454575
104.539268 -66.533943 -72.838638
103.174042 -65.772537 54.007206
103.393761 -67.240387 65.573044
103.613861 -65.558968 97.900429
103.977264 -66.021957 100.864365
105.279099 -65.687126 99.095642
105.569221 -66.250488 52.973736
105.567253 -66.029381 64.500732
105.613029 -65.052536 100.004532
104.629410 -66.222893 117.981987
105.014099 -65.156799 116.591377
104.553886 -66.879196 50.804073
107.846878 -66.464554 49.278202
106.436043 -66.896652 61.130333
108.590118 -65.570099 52.458927
108.026291 -66.450844 59.786060
107.068398 -65.949310 118.867638
106.819046 -65.279007 116.122581
108.860977 -65.929070 119.137177
108.219200 -65.773338 61.147118
108.476303 -65.920937 59.119167
107.689651 -66.347481 114.980026
109.496490 -67.002563 -73.941154
108.762939 -66.819214 116.952736
109.035759 -65.894203 50.855518
109.699272 -66.741966 122.803734
111.243530 -67.146622 -75.596786
108.851761 -66.720406 48.196121
110.067802 -65.785805 57.977062
111.214043 -66.461693 117.652115
111.121307 -65.898918 119.290108
111.530037 -65.603333 -76.046501
111.145500 -65.222191 50.265575
112.852081 -68.511276 -76.590935
111.750099 -64.687065 55.996651
112.655952 -65.184959 55.829716
111.314980 -65.348557 47.727745
111.783333 -66.617867 59.324825
112.781975 -66.444679 118.667404
113.101639 -65.794334 49.479378
113.690865 -66.129944 58.238934
111.128571 -66.276451 119.626869
114.413971 -67.744576 -77.027084
115.263809 -65.842323 -69.008865
112.931976 -65.361740 -68.230553
114.359772 -65.661407 46.207355
113.101715 -65.778893 115.212601
114.946404 -66.262344 -77.339111
113.692757 -66.028908 56.461269
113.909996 -66.060539 118.297287
115.141800 -65.347305 -85.147209
114.426270 -65.258934 -66.954445
114.465851 -65.642761 49.273483
115.222260 -65.253960 53.100922
114.730949 -66.146828 -70.716217
114.189545 -65.505699 50.054104
115.741447 -65.573189 118.213135
114.758827 -65.523018 120.272942
114.401711 -66.022919 119.828094
116.313728 -65.346962 -68.706467
115.620644 -64.998978 49.566231
115.175865 -66.300194 53.717243
114.931633 -66.044769 56.646523
115.455887 -66.677513 124.301483
116.816528 -65.942345 119.650116
114.928520 -66.059456 45.400517
116.839500 -65.173386 47.960220
117.010696 -65.474052 -86.274956
118.562958 -66.620209 -71.688629
116.661201 -66.778687 -70.302505
115.994247 -66.162804 119.460426
116.404274 -66.849289 120.924446
120.999207 -66.137360 -71.123253
119.466232 -65.896782 48.646755
118.332382 -65.612961 120.744705
117.925621 -65.072830 -70.143845
116.411026 -66.482346 52.954689
117.815285 -66.918259 115.921745
118.340935 -66.779922 -85.328964
119.623436 -65.934067 -70.344231
118.337364 -66.497787 47.054092
118.551491 -65.116211 50.339588
119.204231 -66.256332 43.561550
118.523819 -66.185005 120.684814
119.787560 -66.058647 -83.768990
119.687790 -65.589767 -72.497444
120.694496 -65.452293 50.687210
119.446541 -66.181915 121.308456
121.119377 -65.701744 -71.091133
121.374336 -65.918251 121.375526
120.606743 -67.120865 124.910858
121.418144 -66.736549 50.264809
120.584496 -66.172455 120.563675
121.830406 -65.829071 124.941956
121.026222 -66.365845 -72.399742
121.538025 -66.286926 48.063889
118.882919 -66.624924 116.743767
122.277046 -65.343216 49.145966
121.431854 -65.320724 -73.727448
121.000572 -66.154686 120.043167
123.734695 -65.693497 120.063614
122.984932 -66.503510 122.060661
122.620056 -65.973808 -74.366280
125.375053 -66.575676 -73.565132
123.746452 -66.693855 -71.601891
122.973000 -64.662888 118.257912
122.336227 -66.270599 42.397953
123.115540 -66.539749 117.360580
124.208351 -66.569084 -72.761635
124.450607 -65.433342 117.710022
125.249603 -64.487236 -76.326668
123.614265 -66.340126 -75.092216
124.907410 -66.650764 122.002014
124.161987 -66.028404 48.109402
125.284836 -66.680275 51.758118
125.880997 -64.758850 -73.061432
127.031578 -65.405052 51.314365
126.027603 -65.740974 -48.226730
125.754883 -65.931221 41.361771
125.979729 -65.941933 45.391865
127.203255 -65.928635 46.099010
126.203491 -65.002243 121.454788
127.385803 -64.160423 -76.340073
126.625580 -64.937302 -75.644371
127.363663 -66.458527 44.078812
128.228836 -67.046913 45.500156
125.532227 -64.680016 126.375008
125.993576 -65.503281 -74.361382
128.151428 -66.163521 -67.846664
127.928223 -65.241234 -49.202110
127.633499 -65.859177 -46.859230
128.681198 -65.847916 -46.129982
125.681946 -65.749657 46.326878
128.396729 -65.571426 41.190052
127.626762 -66.151283 117.971916
128.577362 -65.438377 -75.816681
128.771606 -65.934593 -74.624306
129.716370 -65.243217 -67.841049
129.153183 -65.499939 -50.115173
129.911453 -66.293556 46.782520
127.466133 -65.352608 51.647144
127.957344 -66.236809 126.177681
129.037445 -66.296761 -65.552582
129.757370 -65.409355 -64.060547
128.777206 -64.903053 -44.951103
130.144043 -66.208893 119.600098
130.373322 -65.647278 50.117897
130.337158 -66.817558 -48.132561
130.298630 -66.090469 -48.929947
130.562485 -67.682724 39.802593
130.613586 -65.813713 -68.142899
130.289154 -66.086098 -41.455605
129.910141 -65.479988 44.899952
131.792114 -65.984138 -49.803780
132.185394 -65.552139 40.159637
131.069672 -65.611809 46.351097
130.294769 -65.613174 125.931236
131.811584 -66.238258 -63.653381
131.611191 -66.482468 -45.803112
133.221695 -66.119225 -40.824833
131.514328 -65.115318 45.420685
134.158508 -66.440712 -46.406075
132.100082 -65.712952 -42.913548
132.023804 -66.265724 -49.425079
130.619492 -66.561348 42.961128
133.272919 -65.532150 -50.839985
133.564621 -66.156059 -42.100063
133.241486 -65.474869 -39.279766
132.781189 -65.986954 118.988739
132.893875 -66.102921 49.792686
131.997635 -66.098854 126.436562
134.724243 -65.191933 -62.637749
133.068466 -65.086281 42.845043
133.898697 -65.911621 -67.633659
133.677246 -65.080688 42.999123
134.291412 -66.107796 -50.241577
133.164001 -65.345352 38.595886
134.602310 -65.162323 44.324406
136.560059 -65.299294 -68.784317
135.824554 -66.923973 -38.435066
137.210846 -65.453049 -64.336502
136.266068 -66.485794 -61.885384
137.176437 -66.747864 -39.651955
135.187180 -65.717392 38.392521
133.631516 -66.101311 120.035400
135.252548 -66.999504 126.613968
135.530746 -66.222076 43.000015
137.070450 -65.756607 40.381756
136.597351 -66.681793 126.560684
136.451645 -65.702263 41.193634
135.269409 -66.153610 -69.183083
137.693649 -65.269585 -39.220051
138.207458 -65.473076 -36.628628
138.550415 -66.268677 -64.749702
138.039871 -65.690659 -60.884056
139.079712 -66.932022 -38.091553
137.398911 -65.511688 42.135498
139.021317 -65.403511 -64.667107
140.505112 -65.881187 39.951469
135.711090 -65.680214 45.698681
139.848190 -65.875801 -46.603680
140.125305 -66.560547 -37.428120
139.257004 -66.950127 -36.203697
140.602188 -64.405167 -35.600948
139.579102 -65.555084 43.592628
139.319046 -66.434662 -63.454662
139.626648 -66.134315 -49.298668
141.162033 -66.287369 -36.062775
141.254440 -65.656464 38.496376
140.331360 -65.155281 42.828831
140.001007 -65.441444 47.518501
137.904800 -66.074966 119.960953
142.492203 -66.022728 -64.048538
141.238266 -65.848335 -62.655952
140.224823 -65.466858 -49.716255
140.716217 -65.970879 -47.132195
140.846588 -66.015968 127.758781
139.386627 -66.311172 41.705181
141.509521 -66.148117 -48.242748
139.105499 -66.925476 36.455555
141.236252 -66.734612 120.201569
141.884415 -66.560204 -34.465298
141.263245 -65.408127 42.952435
142.311707 -65.506676 -63.373978
142.304565 -66.240128 -58.487705
143.384216 -66.441490 -61.624245
142.338104 -65.782448 -45.920341
143.456146 -65.639595 -36.022270
141.660019 -65.274796 41.141743
143.351120 -66.458641 -47.685768
142.647842 -65.622093 39.957043
142.897614 -67.066368 -33.116405
145.198273 -66.000450 120.513367
145.090149 -65.964836 -66.309425
143.617813 -66.293816 -63.713650
144.104874 -64.774612 -61.669884
145.279434 -66.716278 -47.745522
144.369415 -67.331001 -45.144524
143.964249 -65.270050 38.678852
142.172073 -64.304184 41.192364
143.801910 -66.388596 43.991241
143.812500 -65.514442 -61.012695
144.065765 -64.838089 -58.566948
144.061188 -65.266220 37.620659
146.159927 -65.934158 -61.511757
145.042130 -65.612846 -33.054382
145.614624 -64.554741 38.863869
144.749283 -66.311157 35.458248
145.341492 -65.753723 -62.617748
146.204834 -65.463844 -61.181431
146.107162 -65.826897 -46.583851
145.438812 -65.590523 35.103203
145.496414 -66.202042 39.925518
146.371643 -65.824951 -66.161034
147.246017 -65.302177 -61.916103
145.767303 -65.196083 -60.184982
144.929550 -65.634430 -58.124554
147.321640 -66.040993 -34.514019
147.287704 -66.263000 41.572342
147.622604 -66.522423 -59.731094
146.900375 -66.907265 -56.727230
147.487305 -66.376938 -45.847145
146.604355 -66.503548 -43.139256
146.978622 -65.538727 -31.174629
146.608597 -66.919563 32.975700
145.823578 -65.977707 38.122116
147.993210 -66.922440 -64.549255
147.313919 -65.655243 -61.742489
148.846420 -66.571075 -44.811409
147.772049 -64.833069 37.239090
146.380829 -65.981689 126.652725
147.449188 -65.944580 -56.689411
148.788925 -66.085205 -43.521748
147.772568 -66.104355 -31.443483
148.005798 -66.077713 27.336199
147.978333 -65.024689 39.434742
147.618988 -66.116615 40.604660
148.630493 -66.101074 -64.744446
150.250092 -66.635170 -43.334095
148.696213 -65.896324 25.019468
149.865967 -65.541420 27.132023
148.652313 -64.923820 38.769539
148.838577 -65.552826 -33.811176
150.255814 -65.548553 24.283270
150.762512 -66.357658 -64.655319
149.621445 -65.818542 -41.417053
150.543655 -67.189255 -29.701906
149.938660 -65.574257 27.889036
148.877823 -65.310844 36.326000
148.902100 -65.325050 44.307510
151.915497 -65.843262 43.653576
151.061569 -65.763046 120.108948
150.624954 -66.774590 -56.583241
151.062988 -66.610435 21.440189
151.055023 -65.478172 32.521122
149.373276 -65.706352 36.430798
151.033875 -66.020882 -43.918388
151.036102 -66.397911 40.976021
148.833328 -65.831337 127.183960
151.565521 -66.340187 -32.745159
150.772583 -66.267960 27.339516
152.899551 -64.242256 38.596390
151.560135 -65.997574 -29.727869
151.171570 -65.844986 35.525681
152.144531 -65.689247 -39.879852
152.404480 -66.397346 20.608028
153.248505 -65.645248 -62.719902
150.899673 -65.943039 -38.178814
153.703537 -65.465858 42.908871
153.897141 -66.532211 18.719698
152.713531 -65.630455 27.171627
153.251480 -65.754341 33.238598
152.931610 -65.849594 -56.504135
153.316727 -66.228668 -32.184139
152.295685 -66.339973 41.039753
152.549301 -65.819336 127.143486
154.426605 -65.767944 -61.527920
152.385788 -66.074539 35.280697
156.658829 -65.596756 -56.040939
152.616806 -64.783905 119.599464
153.230347 -65.183090 125.858223
153.355881 -65.289932 -37.517784
154.478149 -64.919914 -60.343994
155.277649 -66.544891 -37.913548
154.823639 -66.285866 -27.480227
154.341797 -65.878761 25.959906
155.549454 -65.970024 24.530857
156.070969 -65.219856 34.759827
155.329376 -65.484291 -35.076290
155.136185 -65.359200 -31.435944
154.216049 -65.028900 34.648479
154.839172 -65.211479 37.690960
155.182144 -66.280235 42.207588
154.977783 -65.868423 -60.154346
157.888184 -65.317024 -56.975632
156.505905 -65.226982 -32.007439
155.671249 -66.671700 16.174435
155.578735 -66.255035 24.143742
153.699677 -65.604240 31.775631
156.012054 -66.412506 -40.006569
157.178391 -65.784790 31.599945
156.130798 -66.026550 40.192066
156.638992 -65.761002 -59.012444
156.104370 -65.034966 16.040474
156.095779 -65.777985 24.972525
156.642700 -65.999435 41.975163
156.841156 -64.984764 -58.956745
156.964371 -65.821144 -38.142338
156.038589 -66.018898 -37.183353
157.092941 -65.499428 -33.479160
157.704773 -65.890289 -25.326195
157.945206 -66.168716 22.637703
155.717529 -65.723969 119.339745
154.908340 -66.145988 126.523117
157.534653 -66.446014 -59.687401
159.388123 -65.506271 -38.088749
156.772934 -64.338814 -33.021790
158.378769 -64.924614 15.818328
157.718018 -66.562050 25.845907
159.529404 -66.259369 -32.354340
158.440445 -64.570816 -58.088779
158.732895 -67.253227 24.744707
158.624100 -65.876534 -31.041019
157.666946 -65.532143 -30.828436
160.253799 -67.051765 13.389616
159.335785 -65.222626 34.029488
157.586517 -65.452499 119.919312
159.556427 -66.424454 -57.172886
159.479828 -66.141350 -55.055698
159.004730 -65.652855 -56.671627
158.701065 -66.851555 -34.759487
158.870392 -66.155029 21.572693
160.092743 -64.706841 25.022121
158.294037 -64.956161 31.052706
157.357056 -66.401482 38.842056
161.564651 -66.037933 -32.977936
159.829575 -65.460770 14.726912
160.824326 -65.854225 -36.452030
158.583633 -65.839928 -33.598080
159.105972 -66.564987 -29.304937
159.122925 -65.243851 19.408691
160.459381 -66.188560 32.227680
159.846298 -66.285202 -28.728165
159.897095 -65.658012 15.583472
160.965393 -65.936172 38.853542
159.528854 -64.735916 17.074738
158.830551 -66.197647 41.076061
161.016006 -65.575676 125.451736
162.199097 -66.144859 14.920838
160.699509 -66.560677 30.053057
161.243256 -65.029114 -35.566898
162.430084 -66.675003 -35.576397
162.218384 -65.225258 -29.148453
162.161301 -66.147163 -23.917530
161.171249 -66.051498 29.425447
161.802856 -65.769035 40.837627
160.850143 -65.966644 -31.048843
163.523529 -67.462029 41.109924
163.906830 -65.792862 -35.043518
163.707794 -66.215248 -32.357803
161.445526 -66.067322 -26.721525
164.518021 -66.115189 -34.649029
164.607269 -66.370483 -21.455101
164.935104 -65.451546 29.323120
162.790405 -66.318619 118.973648
162.357605 -65.818291 -28.386831
163.718094 -67.120216 -31.934343
163.472595 -65.860626 32.120087
164.495636 -66.034065 119.065926
164.530106 -64.710930 125.418327
166.592239 -66.464111 30.894323
163.910995 -65.643539 -30.407719
166.827545 -67.144928 -33.881279
165.512329 -64.944458 -29.047794
165.012527 -65.097771 -25.685072
165.482147 -66.662338 -22.024857
164.691452 -66.300438 28.186747
165.388321 -65.063240 -28.412071
165.964859 -65.364372 -26.767637
167.119064 -65.474785 40.710846
165.444244 -66.421005 125.413628
167.147263 -66.194099 -32.385567
167.492874 -67.261917 -31.728479
168.924484 -67.272186 -27.907650
166.733383 -65.594902 118.887939
166.946503 -66.579346 -28.273212
168.118210 -67.082397 -19.980528
168.676926 -65.616447 29.003756
167.865143 -65.920296 37.002708
167.719421 -65.574898 123.691071
169.679688 -66.901382 -31.089975
167.834274 -66.522034 40.036495
170.372086 -66.071594 -18.739777
169.962357 -65.732971 37.303879
171.177124 -67.448860 -31.044104
169.533249 -66.023392 -26.353416
169.117142 -66.249008 -23.183641
168.078720 -66.607246 30.177984
168.661392 -65.757896 -27.274807
169.476273 -66.251801 124.130905
170.466263 -66.139427 -27.989799
169.090042 -66.391365 117.613419
171.159775 -65.583252 30.806107
170.099747 -66.815025 39.830269
169.225327 -64.748268 122.195305
170.958206 -65.783356 -18.152456
169.197968 -65.890686 28.270277
172.470566 -67.815819 39.480167
172.750916 -66.237114 117.038506
171.999237 -65.780991 -29.758987
171.841217 -64.837318 -22.621952
172.317413 -66.673607 -26.368340
171.240448 -65.642220 -25.699259
172.485718 -66.524544 30.155851
173.396713 -64.755722 38.655087
171.175674 -66.180351 122.854698
173.462723 -65.960213 -25.568426
174.309830 -64.985687 -23.611668
174.874420 -66.427589 -21.762381
172.226425 -65.791451 27.484928
172.836884 -65.742516 35.811249
173.538422 -66.597862 118.526253
174.142883 -66.114914 -28.895092
174.112885 -66.332870 -16.775759
172.654510 -66.367142 27.266409
174.204391 -66.590851 29.816908
172.933990 -65.642052 -19.826393
173.902008 -66.220184 116.619705
175.431091 -67.026176 -139.440918
175.536255 -65.441200 -27.482800
176.034271 -65.778435 -21.797750
175.173553 -65.621574 -19.217556
175.258957 -64.426361 119.483452
176.241791 -65.136421 -23.105343
175.789551 -65.876015 -25.034517
175.053177 -65.383392 -140.666000
174.449951 -66.741974 122.818893
177.806641 -65.830734 -140.903900
177.367783 -65.453842 -27.968748
178.933945 -65.522797 -20.543194
177.000015 -67.917641 28.259127
176.842743 -65.324966 116.601891
176.473480 -66.449760 122.214149
177.162262 -65.440987 -131.024445
177.845673 -65.669067 -27.487854
177.876144 -65.277023 117.363937
178.073517 -65.930641 -22.820501
178.355804 -65.975090 -22.375225
177.107544 -65.629692 26.181305
178.282410 -66.550850 -27.450039
177.363617 -66.650703 -17.637447
178.196213 -65.214767 -19.491112
178.535019 -65.511559 121.575241
178.419968 -65.807213 36.388222
177.437027 -65.748573 117.126671
179.007706 -65.774338 27.862070
179.272583 -65.758972 120.337914
179.440720 -66.500977 -25.541515
180.307571 -65.824738 -15.591447
180.242676 -65.930710 27.395178
179.963776 -66.182877 -11.910913
179.538101 -65.411926 24.975466
178.560104 -65.903152 120.282593
182.143982 -65.687752 -20.110891
179.768326 -65.759354 -19.679903
180.559418 -66.484192 114.890602
180.554764 -65.385834 115.541420
181.304825 -65.653275 -18.467016
180.966568 -65.696999 120.115166
181.596619 -65.661896 -24.734495
182.666367 -65.448662 -16.478260
181.634003 -66.388359 34.199566
182.408173 -66.044960 -20.218460
182.214447 -65.171318 114.483391
182.175323 -65.461403 120.051277
182.463882 -67.499901 -24.465286
183.053955 -65.644760 -22.747768
182.896255 -66.059052 -11.298907
184.129303 -65.567017 -141.642105
183.350266 -65.475914 -10.892228
181.836121 -65.973808 33.564178
183.225952 -65.552612 113.352692
181.849014 -66.108116 120.122276
183.719604 -65.422485 -131.308960
183.470291 -66.790894 -22.912193
184.454742 -65.194489 -141.446228
182.592697 -65.823654 -17.197042
183.182739 -65.498001 27.493338
185.932648 -65.754257 -141.659454
182.992294 -66.073631 -13.941090
183.355240 -67.120865 24.881714
184.835403 -65.272766 118.734016
184.028687 -66.045456 -21.544834
184.431747 -66.447731 -16.928204
185.986023 -65.697838 -13.120829
185.411667 -66.522461 113.646889
185.399078 -66.359001 120.050011
185.536789 -65.616707 -16.011431
185.571533 -65.696510 -15.359786
185.521759 -66.214073 34.101967
185.030197 -65.081917 118.414124
185.722214 -66.251480 -17.478754
186.045868 -65.459641 26.060719
185.369888 -65.591042 -21.609232
185.803925 -65.547684 113.435875
185.979996 -65.458252 114.447289
188.489151 -66.080498 -20.709431
187.753738 -65.810410 -132.315994
186.979584 -65.302109 -13.731431
188.774750 -66.798759 -8.627820
187.171570 -66.153313 33.224339
188.173721 -65.104012 112.207291
187.700256 -66.052284 -16.825874
189.323669 -64.516914 -11.378101
188.967865 -66.376930 -139.144669
189.403717 -66.171143 -133.123032
187.238220 -64.844170 -15.092463
188.463913 -63.871048 -140.896133
189.603897 -64.860748 -8.183504
188.261154 -65.695984 25.525917
186.983505 -66.272911 118.318512
189.073654 -64.961739 -99.488846
189.852570 -65.163208 -19.292385
188.299225 -65.787056 -11.016552
189.090958 -66.857239 34.236038
190.719101 -65.536613 23.156185
189.161621 -66.948006 24.190355
189.433884 -66.594910 116.279778
191.719070 -65.946449 -133.731583
190.506989 -66.363731 -16.239182
189.142563 -65.826187 112.305527
191.382874 -65.701988 -101.320961
189.778961 -65.674942 -10.642431
190.451370 -65.765190 -6.845908
190.668091 -66.458977 110.379768
192.094711 -65.349564 -140.392151
190.704559 -67.318298 -16.290749
191.849976 -65.855362 111.163033
191.381531 -65.869820 116.773254
192.527100 -66.595421 -15.176403
191.633057 -65.596992 -9.322320
190.718277 -66.414322 23.947151
190.576477 -66.552414 32.366280
193.453629 -64.192154 -99.601601
192.734711 -65.133804 22.680735
192.137268 -66.102959 24.228777
193.617096 -66.545227 33.247211
191.876190 -65.502029 115.634209
194.112579 -66.538361 -134.036224
192.175369 -66.360786 -17.234991
194.007904 -65.820641 -14.567990
193.578247 -64.023666 -141.271133
193.208237 -66.212616 -140.568893
193.827347 -67.402824 -18.273260
192.421875 -64.381065 -14.635100
193.751511 -66.529762 -5.242481
193.687927 -66.616051 24.183039
192.561493 -67.260452 31.708267
194.313980 -66.255653 -143.371719
194.297745 -65.377037 -140.807617
194.034225 -65.807312 -132.653641
193.353271 -65.997047 -8.694656
194.285492 -66.607452 -143.933853
194.649109 -65.261436 -100.321663
192.422485 -65.456764 -100.082985
194.280945 -66.000885 31.842905
192.999130 -65.215202 111.518318
193.950119 -66.632111 114.755653
194.796600 -65.980896 -143.900681
195.306564 -66.530739 -131.338409
195.214508 -65.717255 -17.485888
194.581985 -66.005959 33.786762
192.828674 -65.516640 110.389542
194.996567 -65.078209 -147.766876
196.118225 -66.289307 -145.902054
195.903671 -66.556892 -13.329210
194.756348 -65.940865 -6.957726
192.940094 -65.175476 21.959656
194.562744 -66.241913 23.670897
193.915344 -64.483513 114.838150
195.947357 -65.679100 -147.864517
196.392441 -66.400452 -146.929703
195.165787 -67.022652 -118.282417
195.049118 -66.336502 -113.360695
196.276978 -66.390640 -109.241386
196.004471 -66.164612 -105.935371
197.101303 -65.657921 -100.388168
195.707809 -66.841431 -16.868404
195.949860 -66.949089 -4.364958
196.325943 -66.650444 -129.728195
196.320969 -66.654037 -121.608330
195.352371 -65.966644 -100.103996
194.293686 -65.490250 110.545570
196.193924 -65.560249 -150.808411
196.739288 -65.186905 -130.410309
197.236191 -66.209862 -125.542854
196.076141 -65.648506 -123.213684
196.200546 -65.988022 -104.668304
