# This PCD file was generated using the MATLAB® pcwrite function
# from Computer Vision Toolbox®.
# .PCD v.7 - Point Cloud Data file format
VERSION .7
FIELDS x y z
SIZE 4 4 4
TYPE F F F
COUNT 1 1 1
WIDTH 1466
HEIGHT 1
VIEWPOINT 0 0 0 1 0 0 0
POINTS 1466
DATA ascii
195.883667 -66.648277 -142.539352
197.156250 -66.224815 -121.341599
197.445969 -66.090050 -110.635529
198.700119 -65.326721 -106.331078
195.432266 -67.341782 -16.326605
197.840240 -68.028603 -6.905599
195.562897 -66.935013 107.928474
196.755173 -67.122208 -149.335861
197.995895 -64.793121 -122.238152
197.118729 -68.255630 -109.620743
196.327026 -67.598770 23.367931
199.309189 -66.782608 -148.760101
197.264099 -67.326637 -143.285202
197.758682 -66.673294 -143.271988
198.059708 -67.279541 -135.080170
197.409134 -66.479439 -128.313629
197.970627 -65.707489 -110.957932
195.977386 -66.214386 -14.407923
199.053070 -66.831055 33.147808
196.341858 -66.748863 115.230827
198.096863 -67.222473 -149.012314
197.317749 -66.851898 -143.239502
195.356064 -66.215141 -137.095596
197.455124 -67.085403 -111.425293
198.660599 -65.732185 -111.292778
195.920425 -67.077332 -14.049276
195.531448 -66.746552 21.992840
197.636581 -67.113518 23.509695
199.120316 -66.661392 107.249634
197.827652 -66.751144 -149.107468
198.561890 -65.221825 -135.308609
198.573410 -65.959969 -111.805557
197.975357 -67.080811 -15.531252
197.151566 -66.095337 19.569094
198.232117 -64.349312 -144.548615
198.993576 -64.836266 -137.868561
198.201675 -66.162514 -109.986755
198.648438 -66.130188 -13.024323
197.069565 -70.472717 -6.306178
196.517578 -66.111725 -152.086746
199.638306 -69.692604 -150.230072
198.842667 -67.390030 -144.397781
198.982330 -65.544479 -136.523331
199.897751 -65.679634 -106.564087
198.558792 -66.537918 -103.308807
198.965302 -64.772453 29.277754
198.773132 -68.494049 -152.342819
200.203094 -65.553764 -144.708633
198.669464 -68.017700 -136.086502
198.908569 -66.849091 -111.944183
199.390686 -65.810905 -4.131442
196.932312 -68.006325 113.686996
199.027740 -66.354240 -145.527222
200.810440 -66.728058 -140.226151
201.561981 -65.721634 -135.961548
201.784576 -65.671066 -112.205269
200.112595 -67.624931 -107.484505
199.813370 -66.712662 -100.262917
198.410141 -66.001427 107.332314
200.358398 -65.813263 -143.937744
200.109924 -66.062592 -101.573776
198.885025 -68.192680 -13.940329
199.611542 -66.911598 -12.503773
202.247955 -65.755531 -154.345978
200.464005 -65.940506 -151.130768
201.656281 -66.294807 -148.259537
200.424744 -68.127327 -138.459900
201.581848 -66.051064 -136.662964
201.792786 -65.490189 -136.491760
201.561646 -66.796501 -111.837578
201.497940 -66.731834 -104.700119
199.724411 -66.183006 -1.885638
200.840729 -66.904564 29.260317
201.287415 -67.230186 -145.358582
200.485947 -68.063614 -137.129745
201.654266 -67.235039 -103.946083
201.486099 -68.653290 -12.651357
199.647949 -68.526215 -2.220000
200.381149 -68.235580 21.599043
199.444366 -65.609131 113.996941
201.853973 -66.362419 -147.966965
201.061951 -66.920250 -144.109222
201.152298 -66.545387 -124.493690
201.570465 -65.423592 -106.473289
203.089417 -67.241180 -3.471724
202.037567 -68.138649 -2.321563
203.358109 -67.391823 -148.979233
201.077774 -65.299393 -144.354279
202.214813 -66.348358 -129.671082
200.157486 -66.122055 -127.057770
202.392685 -66.329025 -125.130836
200.841415 -67.495529 -110.463303
198.013062 -67.853134 19.915871
201.133270 -67.326309 -153.511017
204.491623 -66.645195 -144.005249
202.213425 -68.963661 -132.145615
202.940857 -66.640999 -128.923264
203.196487 -66.197723 -13.699052
200.427505 -65.816269 -0.338219
204.405594 -68.533409 19.602171
203.620453 -65.870064 29.004128
200.856354 -66.565788 114.199936
201.932358 -66.447090 -110.985878
204.931274 -65.473579 32.181854
201.431900 -66.633705 104.686378
204.593246 -68.102913 -120.236816
202.448868 -67.216286 -111.472549
204.623245 -67.284050 -153.957275
204.291916 -66.909424 -152.897110
202.399307 -65.777588 -147.709915
203.882706 -68.507210 -143.073471
203.281174 -66.377838 -141.607422
204.868820 -65.267090 -121.688988
203.298019 -68.034569 -114.639458
205.239960 -68.052902 102.970200
204.117752 -69.014008 -143.736481
205.310577 -65.727707 -120.127518
205.319443 -66.759277 -117.087738
203.162613 -66.347176 -13.389817
204.488205 -68.156876 -0.556479
204.333267 -65.721405 -153.256226
202.905212 -66.341179 -148.417892
203.991791 -65.329796 -145.145584
202.570618 -66.283318 -142.088669
204.433105 -66.833588 -133.126419
205.758270 -66.187469 -9.204538
208.055359 -67.871452 -144.351166
204.038025 -65.763771 -139.120667
202.562622 -67.907600 27.529741
205.800308 -67.527130 -149.387909
206.292480 -66.745667 -141.252670
206.986282 -66.283897 104.418541
206.208023 -66.986366 111.201630
207.451080 -66.365013 -145.565430
207.158112 -67.094818 -138.929214
204.550888 -66.858238 -133.471313
204.726639 -67.411201 19.697062
207.444473 -65.545532 -150.195587
206.663971 -67.112968 -9.024791
207.528717 -66.310425 2.929923
207.062943 -67.593559 23.167675
209.572830 -66.092926 -145.000992
207.081787 -63.787445 -9.666192
207.472687 -64.847298 103.906868
206.379639 -67.654701 109.246368
209.289764 -66.071388 -148.780914
206.633926 -66.649139 -144.027878
206.618042 -67.797478 27.932621
206.119110 -66.858955 -153.902695
207.577942 -65.526505 -138.775833
208.921432 -66.102364 -8.134501
207.883408 -66.465462 1.462730
209.708405 -65.764252 -7.186917
208.290543 -65.637230 18.075245
210.758743 -68.322510 27.758762
213.091705 -66.499931 -155.502991
210.213364 -66.325844 -143.561081
208.134140 -68.304070 -9.475176
210.061142 -65.612717 0.476389
208.847778 -67.275681 5.333019
207.732224 -67.418213 17.659195
208.913223 -66.728088 107.426178
210.992920 -68.018669 -139.840500
208.212936 -67.872696 -8.001926
208.406860 -65.890938 99.839325
207.492691 -66.748283 -68.760735
209.524872 -65.719635 4.070900
208.831985 -64.852287 99.360161
212.784500 -69.039574 -148.063339
211.816422 -67.578056 -146.085129
209.191772 -66.176437 -69.359268
210.236847 -65.877701 -67.748230
210.272324 -66.500397 -9.431726
210.121140 -67.193283 27.953581
209.791092 -64.999886 -67.237732
210.435318 -67.411392 5.009768
210.019577 -67.218117 31.343754
209.934967 -67.839302 109.160210
210.754013 -67.139214 -68.842079
212.720139 -66.837090 -69.188156
212.181229 -66.988213 98.983635
209.170532 -67.933617 -135.267685
213.368088 -67.163246 -67.444725
211.153687 -66.593895 -4.772857
213.284103 -66.526230 19.081131
209.751068 -67.736694 2.835134
212.373657 -65.812134 4.644569
211.119949 -64.899895 5.411302
214.728973 -66.108513 -147.248932
212.770660 -66.857735 -144.873947
212.012955 -68.768387 -68.462837
213.187866 -65.543739 27.399958
212.963974 -66.761345 -133.305862
211.806534 -66.663742 -153.966537
213.705261 -68.610603 -140.703156
213.975693 -66.120552 -144.852524
214.498474 -65.592148 2.539490
212.419800 -67.413635 104.895149
214.725815 -66.784653 -140.747894
214.253006 -67.395340 -78.222908
214.086899 -67.608589 -4.862702
212.886749 -66.223801 106.916084
216.430832 -68.149597 -156.039566
214.004974 -67.501999 -6.156276
214.257614 -67.117203 3.177281
215.337280 -64.182579 7.122890
213.807205 -65.697456 97.723862
216.642746 -66.734085 -140.409058
214.429291 -65.906075 -140.461624
214.814835 -68.299644 -83.068352
215.011154 -63.961716 -80.217957
215.262222 -65.908226 -78.742554
215.593735 -67.018494 -76.944450
216.792023 -66.708481 -75.876389
216.342606 -67.175392 -85.426949
215.693115 -66.946312 3.961357
215.321442 -66.332878 26.257603
215.247055 -66.122292 103.643410
216.204254 -66.605171 20.441238
215.308823 -67.839058 94.971611
216.884064 -66.728806 -87.712761
218.035706 -68.209579 -77.859528
217.393753 -68.083305 -77.097038
215.662628 -68.433212 5.363805
214.565445 -65.262360 17.170076
217.449829 -68.280563 -154.758270
216.098404 -66.257309 -10.603044
216.410172 -68.861206 4.775638
216.607513 -67.547295 25.297991
217.273209 -66.800133 -89.807816
215.726196 -67.174416 -1.917223
216.927734 -63.935066 8.710452
216.408920 -66.303436 104.552376
217.956833 -65.758286 -135.361877
217.546082 -66.056473 -90.974358
217.836166 -66.169861 5.709222
218.706543 -67.733864 18.790754
216.949997 -66.140579 92.854744
220.384186 -65.959023 -78.536156
218.557861 -64.698532 -2.493947
219.509247 -65.863808 -1.929765
219.580734 -69.178490 7.673338
218.531158 -65.928711 -8.096799
216.814072 -66.991623 102.347969
219.607620 -66.775291 100.204674
221.202911 -65.867622 -90.016418
219.847458 -65.045265 -92.207260
220.120163 -67.253738 -79.044754
219.200195 -67.743675 -10.187468
220.262344 -67.739571 6.613227
220.665588 -67.428085 27.555321
219.056839 -66.907303 90.619789
221.878510 -67.036949 -134.027359
221.476807 -65.726669 -79.373177
221.055710 -66.046204 -12.627238
220.492310 -66.442650 -3.633878
218.614838 -66.490906 95.279457
221.008621 -67.554695 -92.731506
219.111633 -66.622009 -13.765475
220.923798 -66.596786 -9.962741
220.517319 -67.760651 -2.875582
220.463593 -67.821930 -92.748016
221.552170 -66.441933 -80.343414
219.333221 -66.993942 -16.744991
219.858521 -68.495102 6.717255
220.242584 -67.297691 89.228302
219.981125 -68.791504 95.757263
219.248489 -66.127708 -153.527023
218.089355 -67.915176 -92.673935
221.789169 -64.865166 -7.629099
221.768921 -67.825615 10.494916
219.686172 -67.404892 -13.327630
219.752304 -65.719521 -7.702085
221.252396 -66.691086 -6.383489
221.712585 -65.629356 -2.988089
219.319916 -66.766571 100.233322
223.506729 -66.500465 -95.455978
220.967239 -66.932320 -84.422958
221.367111 -66.535713 24.497406
222.829346 -65.397148 -0.841498
222.955963 -67.498123 11.726175
222.547638 -66.337471 25.235693
220.305466 -66.459564 89.196770
221.674469 -66.864212 95.096878
220.171539 -66.724640 92.682053
222.490112 -67.445587 -95.825485
222.481110 -66.963791 -88.283325
221.785690 -68.118950 -12.724831
223.067017 -68.449791 -2.439494
220.569824 -65.379723 16.842024
221.386612 -67.621773 98.481873
220.921768 -64.979958 -4.852030
221.999344 -66.565987 94.499916
224.337402 -66.299461 -155.913742
221.496796 -67.928574 -134.655258
224.072769 -66.359726 -96.766655
224.392380 -67.784737 -89.478844
222.323074 -64.288467 -11.620683
224.357788 -66.740952 -4.744861
226.458878 -67.924797 -0.017135
223.888855 -66.011284 8.142584
222.839142 -65.281067 22.460457
221.599426 -68.534142 91.528709
223.406982 -68.501511 87.621605
223.860779 -65.421906 97.765480
225.363983 -66.504387 -133.428329
224.241898 -66.659508 -97.026115
223.632217 -66.811584 -89.942055
224.949692 -68.827957 14.277202
224.127365 -67.969414 17.569199
222.858978 -66.580811 17.395287
223.686813 -66.067360 23.635979
223.177933 -65.347145 91.532829
226.012360 -65.371925 -117.938400
226.079910 -66.833557 -113.465218
224.916000 -68.237587 -89.138939
222.320419 -66.647568 -11.353222
224.162598 -68.635468 10.488156
224.230118 -67.166115 22.818300
225.279373 -67.556839 -112.639702
225.402756 -65.953804 -10.182343
224.838882 -66.063652 14.090420
225.703979 -67.684502 24.734171
224.747299 -67.520828 93.581619
225.734375 -67.183876 95.899559
224.291275 -67.601433 -130.055420
225.618347 -67.647186 -107.934868
225.720749 -68.578896 -107.727219
225.206284 -67.828247 -98.395668
225.592392 -67.365059 -91.973549
226.071259 -67.819382 1.383224
225.904465 -66.141945 3.508649
223.245438 -67.968262 87.102577
225.277267 -67.330971 91.573990
225.276917 -67.677696 -122.501442
224.634903 -66.937798 -105.119316
226.428345 -67.096527 -93.833267
227.927887 -66.900894 -8.659485
224.672684 -65.099640 -1.130362
225.522583 -67.947441 14.368943
222.876114 -66.798561 89.961090
225.053192 -65.238152 -155.487015
225.330444 -69.538216 -131.067383
225.796478 -68.609482 -127.724854
224.733078 -68.870567 -123.222282
224.462021 -67.591087 -106.041458
226.959229 -68.593086 2.620326
227.186539 -68.669945 4.980549
226.735001 -66.189468 22.542913
225.017807 -66.515076 89.990059
226.062714 -66.477295 91.823586
227.796890 -67.089897 -125.259155
225.132080 -66.303864 -105.396606
225.701401 -66.945099 -101.117943
228.061905 -67.209511 20.330885
226.335541 -66.516083 27.780495
227.709976 -67.486717 85.711052
227.205200 -68.069786 -104.628738
226.779709 -68.108124 -101.571640
228.857742 -68.040634 -95.301338
226.295776 -66.810905 1.634265
228.984283 -66.109375 4.227873
226.594116 -68.794312 15.676561
225.475662 -67.723564 20.621836
226.428787 -66.284447 89.689423
228.148346 -66.357681 -106.702431
227.770142 -66.712418 -9.910299
227.244858 -67.821609 12.733016
226.670654 -67.088837 17.379398
226.762848 -64.991074 87.877655
228.748627 -66.190872 -108.957329
229.402588 -67.196884 -98.125107
228.619934 -67.905167 -96.674667
227.766113 -68.291870 -5.609954
227.552002 -66.458359 -2.952026
228.527740 -67.440445 15.901619
225.668091 -66.745483 25.261009
225.864471 -66.896416 88.110947
227.800522 -65.019234 87.787605
229.841354 -67.038986 -103.288528
229.093979 -67.891846 -104.426857
227.637115 -66.663025 92.727890
228.612473 -67.380814 -101.060173
229.202408 -66.536469 -0.561035
229.565536 -66.565811 4.714368
227.837082 -66.204910 15.470097
229.752640 -66.891212 18.265738
225.993118 -66.359482 28.374271
228.821777 -66.196259 90.214081
226.701309 -67.501175 95.037682
230.204041 -66.655586 -7.388216
228.005005 -65.798416 -0.137627
227.971069 -65.437607 86.348770
228.974670 -67.256981 89.230698
229.385239 -66.619591 -96.112045
228.857712 -65.310974 -98.197449
227.893616 -65.625374 1.993703
228.524918 -65.841347 13.475152
231.154099 -67.950058 22.885567
229.294769 -67.297676 89.041870
228.171524 -66.651474 -155.098984
228.897720 -67.433411 -1.611556
229.418549 -65.304489 -1.869967
228.336838 -68.322273 5.369571
230.763229 -67.525452 18.613655
227.820618 -65.703407 20.767773
229.763214 -67.141266 90.625793
229.298737 -66.606178 91.787415
229.309265 -67.605797 -102.225945
226.929550 -65.433624 24.708941
231.965134 -65.827583 27.643475
228.303848 -65.928627 22.612312
228.418594 -66.549965 83.908859
229.454498 -67.110046 4.079176
233.454056 -66.584488 22.908764
230.887756 -65.692436 79.505348
231.943893 -69.078781 -113.019196
232.437729 -67.468544 -105.638161
231.304535 -68.689468 -104.203430
229.397034 -65.953949 21.975115
231.339264 -66.949455 87.080872
230.477585 -66.824829 -112.802979
232.078812 -65.184410 -109.000053
232.354187 -66.670692 22.244770
230.602402 -66.759224 14.836740
230.430511 -67.183121 16.481939
231.822052 -66.143661 -131.234665
233.017044 -68.968513 -127.167877
232.332306 -66.287285 9.225163
230.471405 -65.539429 83.833984
232.493423 -66.828728 87.984283
232.242020 -66.565308 -132.340820
234.203430 -67.007584 -130.828674
235.052383 -65.331245 -126.171272
231.552673 -66.320290 -1.736201
232.126572 -65.882057 2.669326
233.679367 -66.867943 -133.282562
233.395401 -66.873177 -132.127319
233.210861 -67.588661 -2.211630
231.729111 -67.957710 3.288671
230.628937 -67.204506 27.444496
231.923996 -66.041351 85.948708
233.604446 -66.342400 -118.920837
234.189026 -65.097534 2.971099
234.335403 -66.856400 80.667747
234.477554 -67.262825 -120.282448
234.156921 -67.032333 -113.104034
232.010040 -68.070488 76.732994
234.251862 -65.987328 -156.408142
232.762161 -67.361786 3.543488
234.683075 -67.717445 10.125364
233.292953 -67.369179 18.502739
234.726135 -67.114746 83.712051
235.303177 -67.307571 -135.491333
233.224350 -65.948875 26.839987
233.361359 -66.889000 81.773445
233.904160 -67.007904 -0.456229
235.187607 -67.670921 6.106514
235.805328 -67.740410 85.487442
236.179352 -67.407898 -155.298492
234.566223 -66.608459 27.888336
235.733719 -68.264801 87.010048
236.259293 -66.632088 0.638799
237.136856 -67.265831 11.814758
238.274719 -68.150307 28.610680
236.178314 -64.954460 74.387321
238.574951 -68.082420 83.251419
236.852356 -66.900757 -2.086635
237.846649 -66.643776 -0.391778
237.424286 -66.134521 18.413191
237.659470 -65.626968 73.307831
237.691147 -65.806320 79.055824
237.708237 -66.561821 5.452151
235.561432 -67.395409 80.018616
237.150864 -67.683693 82.803909
237.046356 -65.985718 -155.415695
236.714294 -66.495430 3.709030
238.111893 -65.784676 77.367981
237.298203 -67.675552 -7.323836
238.041672 -68.451973 2.871237
239.369080 -65.430237 29.553463
238.362076 -64.588226 3.646560
239.037231 -67.461769 8.335888
237.720139 -67.939835 71.644341
237.841553 -66.915977 -8.943652
240.012146 -64.146996 10.310330
237.796997 -66.873817 10.150133
239.770554 -65.291122 28.064320
238.359619 -66.787621 5.173046
240.256973 -66.469414 8.278997
240.444489 -67.094742 18.416155
238.203247 -65.949310 70.386368
237.522003 -66.198021 76.195953
238.991547 -69.498314 -154.526321
239.862457 -64.842949 -132.767120
239.497574 -66.653053 -8.464679
238.641449 -64.938339 8.709361
238.450699 -66.946983 74.564117
238.991165 -66.259995 82.503448
240.835648 -64.990219 3.261081
240.240646 -66.655586 8.086548
241.716446 -67.932442 -11.420368
239.591888 -68.935265 4.695108
240.931885 -66.147064 19.018450
240.430756 -65.674576 72.375214
239.442322 -66.079750 76.301498
239.987869 -65.770279 79.117149
242.290314 -68.244232 -155.834839
240.158081 -67.313133 2.315410
241.100266 -67.139771 19.872435
239.688065 -66.411644 75.084641
241.990356 -66.582108 66.099083
242.095245 -66.371002 73.609825
241.937759 -67.251450 -6.490411
241.670517 -67.871773 -1.467306
242.614929 -66.841759 -1.194516
239.739868 -65.610611 1.817040
240.011688 -67.575439 12.410818
242.882828 -63.774315 19.986403
239.791916 -65.540154 65.103569
241.954681 -65.920654 -7.556045
243.061295 -68.144218 -6.177996
242.626297 -67.186394 14.276574
242.512878 -67.141373 14.007895
239.892258 -67.214104 27.958214
240.704910 -65.121651 71.878151
241.057312 -66.350739 14.970431
242.504761 -65.368370 22.324520
241.691711 -66.940346 66.069435
243.112320 -68.161217 76.286652
242.728958 -65.813667 3.122638
243.342331 -65.491310 25.930698
241.474274 -65.192451 28.087389
241.543488 -65.372826 74.213326
241.392166 -66.349319 23.286568
244.051514 -66.210457 26.935804
244.356720 -66.247269 0.860525
244.728058 -66.207008 20.731880
243.489456 -67.494324 74.220619
245.125763 -68.524864 1.111607
244.099686 -67.947350 27.527481
243.469452 -68.956581 64.359718
245.228699 -65.121338 73.106201
244.589508 -65.632263 -0.415894
245.492142 -66.616814 0.400320
244.673569 -65.016273 24.844213
247.497238 -66.216331 71.547592
244.228378 -65.656174 27.311846
248.152496 -66.339066 -156.021118
245.206177 -66.137772 -131.639114
246.215988 -67.548782 -56.792168
246.950119 -66.716087 -0.091713
245.758896 -65.339577 27.510357
246.309921 -67.204727 -52.687752
246.939514 -67.056427 -3.205722
246.288162 -67.028069 68.789726
246.938385 -67.970360 -57.979870
247.172913 -68.356216 -52.124638
247.310837 -66.853981 27.411106
246.154724 -67.280518 59.442783
247.550674 -65.946182 68.202721
247.230225 -65.046028 68.309456
245.771973 -65.096550 -132.337967
247.023956 -66.929169 -59.413815
245.770172 -66.035904 -58.556065
246.588669 -65.434296 -57.581451
247.086136 -65.435013 -52.521179
248.650101 -67.827103 61.417080
247.329239 -68.088928 -62.972790
246.405396 -64.870209 -60.580128
248.833420 -66.492424 -58.843227
248.350800 -63.559803 58.846779
245.891937 -65.955750 68.923676
248.325027 -67.281776 -68.731133
247.446060 -64.841431 -53.359386
248.551819 -65.457169 -51.431454
248.360687 -65.844734 57.610146
246.803421 -68.367638 63.243614
246.544250 -65.311157 66.609634
247.188095 -67.930405 -63.725182
248.694199 -66.728394 -52.469021
248.900269 -68.405235 28.155678
248.998215 -66.474480 -71.527611
249.768051 -64.988579 -54.126339
249.842468 -67.416542 -52.104725
249.030838 -66.957832 -3.672748
249.216827 -64.947655 57.275208
247.576004 -67.772163 56.746010
249.568146 -67.803375 29.141010
250.783112 -68.168625 -156.005310
249.923431 -66.067337 -57.003853
250.596497 -66.840767 56.077221
251.548843 -66.100540 -56.718971
253.475098 -67.120659 -4.479082
250.732071 -65.834763 57.467358
250.607574 -66.328850 -133.053207
250.031876 -68.472382 -79.134216
251.749542 -67.025536 -60.397404
249.393723 -68.934814 -59.626030
249.832184 -67.232437 32.080963
250.218140 -65.567711 56.482330
247.484253 -66.475060 54.164963
251.242325 -66.290268 -59.847958
251.555191 -67.646324 55.794498
251.691925 -64.858337 -79.704239
252.543854 -66.857574 -3.682118
252.785538 -66.761978 59.430180
251.014069 -65.977859 -133.831726
250.378189 -66.950912 -82.201111
251.865158 -66.570328 58.295185
252.928085 -67.389969 -63.073212
251.911514 -66.256622 -62.424278
252.820831 -65.584656 33.060783
252.636581 -66.905525 33.415340
253.572678 -67.265511 52.639832
253.811081 -67.213310 -68.440292
252.649887 -68.376007 -4.894405
255.029892 -65.539810 -131.160675
254.506012 -66.721153 -88.377487
254.531143 -67.171715 -156.706436
256.240906 -66.867035 -122.092232
255.116028 -66.415276 -115.718895
254.710358 -68.768028 -122.947136
254.748352 -67.485085 -123.256058
253.145340 -67.775093 51.687782
255.062454 -66.652504 -88.372742
255.848923 -68.025169 -73.252525
253.876938 -65.603111 -4.352883
256.119110 -67.401497 -131.785233
255.602600 -69.384789 -123.616112
255.858673 -66.589218 -125.003197
255.464783 -67.022797 -112.146690
256.357361 -68.212440 -106.922440
255.250290 -68.406471 -91.532982
256.407928 -68.286301 -93.906265
254.625244 -65.662415 -72.006844
256.932953 -67.975929 -3.003396
254.740494 -67.107124 -106.937447
255.686691 -67.306496 -105.699043
255.513382 -66.816055 -95.445587
256.092285 -68.163544 -156.382553
254.322357 -65.076736 -104.023102
258.758606 -66.606087 -97.590523
259.231445 -67.075714 -103.118431
259.048706 -68.797554 -100.724930
256.752655 -67.083435 -100.349785
258.075317 -65.918610 -80.576141
259.150787 -65.889214 -155.320129
258.948578 -68.579697 34.183838
258.962646 -68.173386 -87.838799
259.327362 -67.257515 -87.687592
260.138245 -67.113075 34.401325
259.596405 -68.315102 -156.321442
260.640015 -68.891319 -99.305832
262.899719 -66.393349 -101.618462
261.338165 -68.898926 -100.948685
259.868896 -64.929428 -103.280952
263.404053 -66.388405 -99.305305
264.235840 -67.067719 -110.941025
263.092957 -65.877396 -111.726120
261.930206 -66.825981 -129.821671
263.286621 -68.611595 -124.903091
261.440125 -67.978836 -124.792519
262.848785 -67.938240 -108.763443
263.150787 -66.734238 -5.501326
263.427246 -66.904060 -126.896797
264.118011 -66.329788 -4.234750
262.702301 -64.597374 -131.160370
262.121765 -66.937767 34.433220
264.745850 -69.455818 -117.373474
262.971802 -67.265938 -131.811172
265.182281 -68.213005 -123.677032
265.829193 -68.336639 -120.569000
265.724030 -66.177559 -5.238492
266.050262 -67.015175 35.043526
265.304291 -66.879494 -134.147598
264.242218 -66.529335 -157.278107
270.295471 -67.476540 -154.615585
269.306915 -66.807457 -2.193032
273.786072 -66.441933 -159.085648
273.549164 -67.586403 33.360283
269.980469 -65.583405 -135.004501
272.783478 -66.712227 -4.632716
272.559113 -66.840546 -135.381668
273.086060 -66.411751 -3.022551
274.768585 -67.575661 32.039898
275.725494 -66.638649 -156.755157
275.589508 -68.247124 -0.673910
277.174469 -66.848831 30.898306
276.248413 -66.937065 -155.254410
276.193665 -67.235344 -132.635391
278.073212 -68.649651 -1.014829
277.977020 -68.590950 0.672153
278.796967 -66.141563 -156.477066
282.262024 -66.686226 27.763748
283.093781 -67.240784 -136.154083
281.853271 -67.947784 29.620050
281.596466 -67.079460 -158.074600
282.087250 -64.666176 -150.329056
283.078796 -65.725952 -133.077332
284.029083 -66.228012 30.175720
282.175110 -67.328316 2.194373
282.406891 -69.011246 23.944592
284.545074 -64.980087 -144.929428
282.809448 -66.274529 -134.440765
285.129883 -65.928596 -132.126816
283.282501 -67.778511 -118.885086
284.003448 -66.155869 -117.200424
283.147797 -67.201149 -133.227371
285.300934 -67.323204 -122.778458
287.379150 -65.656563 -129.234894
287.158386 -68.027138 -124.538651
286.189758 -68.026413 4.228365
286.651459 -66.504761 -149.648041
285.182861 -67.311348 -128.806931
287.133514 -65.721703 -157.514175
285.896301 -65.987411 -146.251251
284.738403 -67.009369 -113.181152
286.588654 -66.686028 -114.790947
286.422424 -66.677803 -110.265526
286.146423 -66.715775 -106.607826
285.153320 -67.753059 -69.112244
287.181732 -67.280594 -58.645149
286.206329 -66.970596 -53.625278
286.983398 -65.872772 -45.945564
286.177002 -67.007233 -94.258881
286.996613 -67.059303 -88.644112
288.212616 -67.915184 -81.138924
288.645142 -67.352615 -71.960457
286.978302 -66.006599 -62.483562
287.359192 -65.948547 -57.358032
286.027222 -66.473412 -53.172729
288.075439 -65.339508 -47.964287
287.782104 -65.982574 -43.228123
286.656647 -68.211205 -101.920181
289.069305 -65.288910 -97.409187
287.065674 -65.980690 -46.102898
287.896393 -65.090225 -42.260971
288.133881 -64.430458 -40.332169
287.689392 -66.069038 -37.356586
287.217651 -64.808723 -34.258957
287.429260 -67.738022 -35.392429
286.695740 -66.803169 5.227043
287.594727 -68.305283 -156.643600
286.206787 -66.234489 -41.695660
289.726318 -66.941002 -7.294763
286.877594 -66.334587 -4.324261
287.811493 -67.707367 -2.380192
287.966003 -65.850891 -147.307434
287.629578 -65.043976 -37.824211
288.655334 -65.559608 -34.389713
286.525452 -67.013718 -30.193123
289.414825 -66.357101 -22.945202
286.726227 -66.224739 -18.103851
287.403473 -67.826157 -15.690719
287.012817 -66.577126 -3.372761
288.300659 -66.311615 -2.264433
289.356598 -66.853577 0.750279
288.943268 -64.621361 22.748756
289.188141 -67.624275 -155.233566
287.802032 -65.193787 -28.036674
287.903076 -68.239075 -23.728006
288.270935 -66.866043 -19.452169
287.675293 -66.906853 -13.097955
286.810669 -67.159996 -7.115573
288.133881 -66.950317 1.982806
288.374664 -65.802658 6.370261
288.234619 -65.536118 -43.283447
289.429260 -66.553368 -33.830650
289.185638 -66.588036 -32.997444
287.763123 -67.478149 -22.431345
289.688934 -67.407921 -17.893301
289.263611 -65.759521 -16.388411
289.447906 -65.908852 -12.661408
288.529266 -66.485359 -4.926617
289.024384 -64.673111 -2.210742
288.710510 -65.599174 2.001595
289.076660 -68.756920 21.188959
289.440826 -66.462677 -32.855122
289.378265 -66.968781 -27.419872
288.036621 -66.791046 -20.827095
289.325165 -67.279823 -19.510063
290.107391 -66.164619 -9.460690
289.054565 -65.447441 -2.021300
289.368256 -66.924629 19.556625
289.468201 -65.152718 -37.864090
290.062103 -67.618607 -31.749588
290.222656 -67.544472 -25.453455
290.155121 -65.776428 -12.815758
290.379425 -65.975151 -11.491993
290.151733 -67.215073 -9.789922
290.364166 -66.971535 1.554178
288.955200 -64.545715 5.109169
288.490936 -64.367928 5.539321
291.188873 -65.610222 -47.006683
289.150970 -65.570000 -40.084312
290.588013 -67.053925 -37.629520
291.852661 -66.440788 -35.475689
290.562592 -66.995163 -5.830534
288.774506 -66.804268 -3.475518
289.556641 -64.877892 19.393181
292.474670 -68.540344 -153.220459
290.399933 -68.477013 -57.420528
291.465149 -67.456268 -55.609570
290.006958 -66.877518 -48.034706
291.624664 -68.449478 -49.529041
291.764801 -68.232826 -43.619278
290.830505 -68.116982 -42.590446
291.405945 -67.543182 -2.033669
290.558350 -66.600975 -1.388795
289.063110 -66.390182 1.573956
291.820038 -66.072029 3.243180
290.893463 -66.260658 5.228320
290.394684 -68.616417 16.635195
290.687164 -66.541206 -76.455994
291.967346 -67.514885 -66.501106
292.500610 -67.362579 -60.883873
291.163666 -68.202736 -6.637354
291.175049 -66.953171 -4.419250
290.330505 -69.237915 -1.892448
291.108215 -66.248352 8.795552
290.156311 -66.992249 12.814304
292.180603 -64.735756 -81.561043
292.046356 -65.236191 14.262746
291.755066 -66.635277 -153.333450
292.840424 -65.620720 -100.325470
293.056793 -66.115837 -93.500198
292.965881 -67.577774 -87.068604
293.956787 -67.063293 -82.465668
290.829468 -65.521393 -79.928261
292.172668 -67.486305 -113.002907
291.182648 -67.726036 -111.388794
291.153290 -66.401390 -94.888268
293.340149 -66.878197 -150.296097
293.208008 -67.130539 -128.615433
293.104797 -67.202927 -125.556450
291.585938 -65.367630 -104.575531
292.457703 -66.951103 -106.138741
292.857269 -67.898964 -151.083130
293.188660 -67.354057 -149.565063
294.190552 -66.543228 -131.504852
294.338898 -65.324173 -114.361237
294.089539 -68.160439 -149.291840
292.784821 -65.664864 -131.208145
294.576447 -68.422310 -124.478470
295.073975 -69.139832 -113.162842
295.864075 -68.889465 -147.287048
294.959198 -67.570313 -124.721146
293.414856 -66.586525 -119.185730
294.752808 -67.256119 -132.877502
298.014130 -66.971054 -132.533524
295.201782 -68.142693 -145.332443
297.954834 -67.304054 -134.927200
296.290497 -66.881317 -144.706558
301.218170 -66.337440 -142.129669
300.973755 -67.755119 -135.109192
300.891846 -66.591171 -132.963242
301.512177 -65.989021 -146.484924
300.914276 -66.413971 -134.236771
303.801666 -66.684692 -134.100708
305.030609 -68.179565 -146.884491
303.718781 -65.048653 -132.634521
306.534454 -67.163528 -132.435867
308.885376 -66.614517 -145.849564
309.466217 -68.254097 -133.279266
312.559326 -68.061653 -131.931656
314.016357 -68.212723 -134.991867
312.206299 -65.411049 -143.355728
312.294861 -65.172119 -140.405029
313.443207 -69.287354 -141.274612
11.175620 -67.148010 43.216103
11.745302 -65.950096 46.148499
13.015863 -65.907410 40.343517
12.778128 -65.622643 47.579681
13.210985 -65.584366 48.529869
13.603891 -65.831329 54.764194
14.415776 -65.124634 37.921329
14.512707 -66.553612 54.335804
16.762205 -69.017204 56.376461
16.593348 -64.507088 44.791931
16.937895 -65.660568 41.725479
16.713043 -67.457031 41.815998
15.827692 -65.930206 48.347496
17.220205 -66.369194 34.528103
17.788769 -65.989853 56.921570
18.495377 -67.077507 49.155071
18.382313 -65.810898 39.285500
18.045414 -65.003319 51.611385
19.382811 -66.255630 37.412418
19.337475 -67.545204 57.374268
20.341381 -65.915840 52.935448
21.155985 -66.018227 38.724586
20.791443 -65.917839 55.180855
20.826885 -64.898445 59.791389
22.911070 -65.715714 37.369965
22.168804 -65.529785 29.498257
24.286736 -66.763191 55.479614
23.189587 -67.359497 60.453964
25.269079 -65.164642 36.325993
23.915253 -67.653305 59.522396
25.209705 -66.065956 30.876867
26.568697 -67.456657 30.737597
25.209103 -64.369438 57.364323
27.573038 -66.370461 35.317375
28.390551 -66.474060 28.891987
27.766535 -65.725601 55.940205
27.377817 -66.371849 59.330975
30.122347 -65.913879 37.685204
30.064327 -65.620895 54.129902
30.508007 -67.343788 59.831207
32.321777 -64.980919 52.315323
31.951254 -65.746758 59.480621
33.938549 -64.469345 58.745575
35.153122 -65.945686 40.413101
34.380341 -66.966629 51.605415
35.221535 -64.470764 57.265411
34.007118 -67.550705 39.753716
35.700687 -64.810669 43.446434
36.150192 -66.346252 55.661812
36.968082 -65.716286 55.073929
35.741447 -66.083107 44.197094
38.630745 -63.868637 35.379555
39.067669 -65.553947 54.299824
38.508762 -66.363617 45.373482
40.545555 -68.028381 52.130440
41.892235 -64.644699 48.859982
49.187256 -63.707485 -53.656864
49.995678 -66.325653 -47.159443
48.944710 -67.475784 -44.067566
49.697262 -65.248978 -55.735554
47.721546 -64.441734 -50.417015
50.099030 -67.667465 -43.347645
47.123943 -65.368568 -40.042423
49.210075 -64.893570 -36.046425
49.351341 -65.385391 -57.114502
48.953228 -66.413834 -55.200676
50.649837 -66.519470 -40.266853
48.763142 -65.261444 -35.227497
50.464355 -65.443161 -58.887768
49.821548 -66.194023 -34.270164
51.808441 -66.138458 -60.929031
49.315681 -64.842499 -31.121422
50.655270 -66.787666 -61.943916
51.485931 -64.655975 -63.108234
51.094879 -66.865509 -30.883446
51.532879 -65.761864 -28.386637
51.844849 -66.292450 -24.995218
51.067364 -65.620689 -63.317894
51.484447 -64.463844 -64.357536
52.274323 -66.160286 -25.950083
53.827728 -66.938080 -64.784981
53.259163 -66.706673 -69.550812
54.198921 -65.873940 -19.900246
52.355942 -66.677422 -19.927782
54.593452 -67.610199 -67.732994
55.806549 -66.821266 -66.685692
55.822304 -66.216164 -16.737013
57.663841 -66.576088 -70.314293
56.021729 -65.983810 -14.909603
57.650253 -66.910629 -72.422134
58.934666 -64.999039 -12.839875
58.951801 -65.314415 -9.077971
60.130764 -63.708649 -9.635003
59.340202 -65.260788 -9.473703
62.960411 -66.975540 -78.787872
61.517143 -64.632759 -3.918643
64.547493 -67.017517 -76.983406
62.447735 -67.456192 -8.290159
63.621433 -66.935333 -78.953506
64.406334 -65.514900 -79.647491
66.052170 -68.158920 -4.068820
68.132149 -64.729790 -79.573814
65.973396 -65.866051 90.143982
68.359146 -65.551353 93.528397
66.143753 -66.245438 86.994270
65.493378 -65.571785 95.540771
66.808701 -66.597618 97.726166
66.970879 -66.054283 95.827667
68.406540 -67.512421 100.434753
66.914818 -65.427162 101.218903
68.141518 -65.199173 -3.499046
68.503159 -65.710999 88.994156
69.142303 -66.051338 95.082520
66.669006 -65.923546 95.157150
68.547958 -65.663399 85.679077
68.483139 -66.405060 100.345108
68.848404 -65.550217 -80.138374
71.461075 -67.888054 -6.440078
69.764755 -65.640320 82.888817
68.714523 -67.325058 84.301170
72.758095 -68.045639 104.215553
70.707817 -66.923309 -9.165545
72.085732 -65.132317 105.910858
74.315750 -67.347084 107.001122
75.246559 -64.651787 111.333344
73.365913 -67.232216 -14.042013
75.014954 -65.239334 78.693909
75.242302 -66.087265 -84.131737
75.949997 -65.414581 -13.971204
75.478043 -67.718697 80.340218
77.411194 -66.983910 -16.446041
77.523705 -66.859627 -83.606743
74.487709 -67.208092 -25.363379
78.418831 -67.273376 108.928535
76.276985 -64.286484 -28.877329
76.919678 -65.618607 -17.410482
77.715355 -66.397560 -31.360037
79.792130 -66.399849 78.453644
78.142670 -66.506088 109.501793
79.711075 -67.012199 -30.238001
80.575577 -67.900352 -31.638496
79.187035 -63.367935 111.726570
79.315369 -66.722610 80.034935
82.597748 -66.366768 79.400040
82.038872 -67.273323 -82.330864
80.666466 -66.452042 109.100945
80.979485 -67.152412 110.609154
81.940811 -65.225021 -83.422401
86.082359 -65.904793 109.554832
86.629028 -67.351784 -86.091446
84.774055 -64.927460 69.237991
85.177376 -64.873695 71.605713
86.468315 -64.865128 69.039597
86.212746 -68.053856 -39.922260
87.614418 -65.732124 79.657059
86.028572 -66.030540 68.356178
85.347748 -66.410683 69.677254
88.124641 -65.211845 74.379387
87.390518 -66.571930 66.311623
87.622299 -66.994423 73.242485
88.095482 -64.351204 74.768791
89.265366 -63.796738 -45.626915
88.180954 -66.514519 74.594353
88.045753 -65.681175 78.072075
90.506165 -65.398186 68.661217
89.458046 -67.790001 79.850418
88.257713 -65.783417 -45.120754
89.174599 -67.229103 62.381580
89.867767 -65.601959 68.051270
90.413223 -66.351456 69.404503
89.167183 -67.623772 72.072563
89.011536 -64.968140 74.617058
89.202660 -65.649651 109.879944
90.960114 -64.634361 113.666489
92.192436 -68.322350 71.709656
91.525490 -66.227242 77.872719
90.622871 -63.919582 -53.173897
93.364243 -66.925583 -53.876785
94.202698 -65.245239 64.123718
91.653358 -66.902092 79.072807
92.944595 -66.469124 -84.760315
92.181534 -65.175194 56.138172
94.531418 -66.525185 61.501972
96.603188 -66.817337 72.653320
94.837311 -68.676918 -82.857002
94.677063 -65.745216 61.281162
94.250198 -66.528107 110.523056
94.284134 -66.448044 69.512207
94.942619 -66.529373 81.101768
94.729996 -66.436943 58.531284
95.092888 -64.906235 68.030594
95.167999 -67.460037 117.795479
95.016136 -68.100861 -55.904144
96.261398 -67.350479 -54.777626
96.185478 -68.121254 113.657806
95.232338 -66.149567 80.543678
95.659401 -67.977745 112.664314
98.306480 -66.702591 54.350452
95.564323 -66.137291 58.851643
98.947601 -64.897972 108.850655
96.557716 -66.109612 112.615417
96.004608 -66.879524 113.750900
97.670296 -65.314560 114.867104
97.079071 -66.016739 -86.263245
97.605194 -67.386833 65.622185
97.277092 -65.022720 82.647339
98.613525 -67.180870 -65.183418
98.808578 -66.268524 67.767265
98.123283 -64.884537 110.909973
101.691658 -65.319061 -86.832916
98.729309 -67.850296 -67.140648
98.617508 -65.709602 54.049206
97.540741 -65.319420 67.583824
100.652519 -64.320862 108.183159
98.482018 -65.918381 -64.246910
100.012436 -66.631866 -56.515541
99.068985 -66.666817 112.093391
99.292900 -65.014778 118.501114
100.113495 -65.249161 -68.140236
102.046707 -67.116135 52.803101
100.047089 -68.000473 83.305870
98.610947 -66.394363 114.357109
100.023056 -67.975060 115.765732
98.684784 -66.955238 85.219215
99.378189 -65.809364 115.065483
101.770271 -66.632095 53.519749
101.471153 -64.866150 86.589607
102.480568 -65.517555 94.611862
99.838783 -67.972336 104.970924
101.589165 -66.815125 116.095169
102.360420 -67.979584 -71.389282
103.879272 -66.727348 -72.524651
101.120079 -67.697899 55.737610
101.813164 -64.648521 94.582542
100.556602 -66.533592 119.991722
103.885620 -63.974445 53.476849
103.090256 -65.620300 53.352215
102.038841 -66.937927 64.904869
102.175262 -65.228951 88.955780
102.656555 -64.961182 95.158394
101.810532 -67.135666 102.783783
104.262299 -65.938347 104.328064
103.807037 -66.362846 105.676598
103.965912 -66.759644 89.906303
103.747681 -65.749046 49.481968
105.047516 -67.084076 -73.217476
105.593910 -65.522018 54.168030
104.240005 -67.296982 64.271935
104.646759 -65.624825 98.195404
102.153198 -65.972511 100.325577
103.522163 -64.385483 100.240906
105.354492 -65.700813 51.379608
105.822197 -66.505836 62.696724
107.211243 -64.563156 99.591393
104.604996 -65.408028 118.043800
104.497887 -66.924187 116.893631
105.741814 -66.144241 47.982967
106.799927 -66.395462 49.821156
105.792198 -65.998077 62.508987
108.423500 -64.654297 50.726387
108.350815 -66.219978 59.062569
107.280350 -64.317467 120.106422
105.155174 -66.723969 115.049950
107.431946 -66.180351 118.190254
106.987434 -65.588890 62.411266
106.728477 -64.668694 59.056816
108.201996 -66.712326 116.058289
109.593246 -68.691231 -75.152931
106.316422 -66.256844 116.918694
107.613373 -67.003624 49.042614
109.077293 -66.259438 121.170029
109.880661 -66.946625 -75.530739
107.995789 -65.856071 47.960968
109.974846 -66.596161 57.123375
110.534447 -65.313431 116.746109
110.050858 -64.746925 118.903671
110.467369 -65.101440 -76.447945
111.317062 -65.060730 49.404926
113.519836 -66.909126 -76.625366
112.421364 -65.234085 54.692471
112.613762 -66.619507 54.832352
112.316750 -66.715759 47.487213
111.009140 -65.605118 59.736603
114.364319 -66.986229 118.602592
114.244667 -64.257797 51.257896
113.660614 -66.661118 58.048981
111.129242 -67.534584 118.622459
113.971535 -67.929329 -76.528458
115.977470 -66.911316 -68.119499
113.483414 -64.462334 -66.170502
113.335953 -66.555351 46.768856
113.113487 -65.979675 114.944778
115.900177 -66.381439 -77.527679
115.544777 -64.634033 57.297314
114.031715 -66.372498 118.706581
113.453194 -65.733261 -83.384323
114.894867 -65.157089 -66.876152
115.491119 -65.277672 49.532696
115.914162 -64.695442 52.248322
113.587952 -66.201080 -70.322380
113.962311 -64.743637 52.984764
114.086060 -65.831383 118.491112
114.401268 -65.160095 120.223366
115.379219 -67.310547 120.429428
116.566475 -66.683197 -66.297272
114.950722 -65.272156 49.620998
117.086472 -66.418594 53.534557
117.357513 -64.907394 57.356377
113.823044 -65.337341 123.971535
119.621773 -65.419456 121.050293
115.764145 -66.316147 45.521339
115.780304 -64.112236 47.435574
115.950188 -67.456680 -86.114616
118.606850 -65.607651 -71.669685
115.828163 -65.993515 -69.469009
116.814400 -65.263977 119.568878
116.731514 -65.539726 121.290192
121.280869 -66.407806 -70.794800
118.494743 -64.630997 49.262417
117.953552 -65.332672 120.674393
119.086189 -66.166855 -70.507912
115.462196 -66.636421 53.036755
116.679207 -67.549568 115.978821
119.599342 -66.336716 -84.456566
119.330872 -64.628120 -72.135887
118.335892 -66.425583 46.443443
118.694405 -65.885239 49.344685
119.530312 -66.499908 44.349297
119.760948 -65.328178 121.886810
120.249283 -64.891426 -82.958656
118.439880 -66.994812 -72.005394
120.154495 -67.195580 50.413837
119.862091 -65.336174 122.753090
120.819046 -66.451317 -70.153557
121.755203 -66.999062 122.202858
120.166328 -65.602089 123.206947
120.934799 -66.632637 49.047188
121.106720 -67.271439 120.995071
121.824272 -66.155952 124.706291
123.287056 -66.834633 -72.277847
120.907837 -65.639603 45.644146
120.050720 -66.767578 117.775230
122.671295 -64.892166 48.439369
119.400368 -66.136185 -72.731743
121.202637 -66.558144 120.194664
123.711227 -65.874176 120.866402
122.482231 -65.323090 121.051926
122.292221 -63.838467 -73.629944
125.211510 -64.192680 -74.781006
123.464706 -65.741112 -71.307487
122.816605 -63.905315 119.934586
122.610443 -65.750122 42.610821
123.993149 -66.917389 117.196434
123.083267 -65.950691 -73.274086
121.925728 -65.769402 118.240746
124.747520 -65.050812 -74.920067
124.172256 -65.755951 -73.733063
124.718719 -65.934326 120.527557
123.951912 -66.511452 46.747814
126.799515 -65.977005 52.575436
127.850693 -65.724831 -71.981186
124.182106 -65.380173 51.632122
126.543533 -67.506401 -48.038876
125.417114 -66.048424 40.376053
125.744675 -66.430168 45.737026
128.029602 -66.451088 46.936558
125.299500 -66.040237 121.650040
127.475311 -64.790031 -77.155746
125.869942 -65.023216 -75.443451
126.909149 -66.729996 44.211510
128.783691 -64.354347 45.129494
125.787117 -66.085388 125.564079
125.966263 -67.423004 -73.141823
127.556252 -66.551720 -65.100677
128.017410 -65.764755 -51.264709
127.241028 -66.449417 -47.860935
127.279991 -66.821480 -46.683662
125.905411 -67.218025 47.640671
129.093964 -66.791275 38.344574
127.110802 -66.494637 118.409523
129.026596 -66.573067 -76.351463
127.125099 -65.414650 -74.268860
131.092865 -65.903038 -68.071167
128.704407 -65.395485 -50.625839
130.036499 -65.777107 48.409698
129.434082 -64.183067 49.583294
128.275635 -66.092712 124.753616
129.699692 -66.667511 -65.563789
130.590134 -65.115112 -64.117592
128.967712 -67.833794 -43.084995
129.326294 -66.804420 118.362358
131.699341 -67.349602 48.794941
129.823105 -67.749992 -50.444653
128.939880 -66.649490 -48.705841
131.751587 -64.711807 40.222054
131.122009 -64.675888 -68.417961
131.421692 -65.375443 -40.102570
129.323242 -66.361229 44.300488
130.753754 -66.619675 -49.457592
130.011780 -64.262688 40.784931
131.424393 -65.846146 44.222050
130.872787 -66.468987 126.840256
132.930634 -64.987259 -65.167458
131.153137 -66.888985 -44.250607
130.933762 -67.296219 -41.141617
131.703873 -64.704834 43.887897
132.541290 -66.835007 -45.234737
130.692947 -67.212128 -42.189754
131.643066 -66.626778 -49.085926
131.913803 -66.918777 41.995060
134.146072 -65.686974 -52.252899
135.295074 -65.431206 -41.402134
133.848557 -66.312103 -38.841240
131.053802 -65.113533 118.296028
132.348068 -66.555374 50.171059
131.920547 -65.646126 126.944061
133.529648 -66.508102 -61.557606
132.675735 -66.682732 41.366920
135.440796 -67.107552 -66.893562
133.923950 -65.893051 43.671139
132.540375 -66.299545 -50.169498
132.126633 -64.054359 38.401279
134.714325 -64.990349 44.005264
134.465729 -65.443642 -68.368263
134.250381 -66.458672 -37.171116
138.164703 -66.673103 -65.222023
136.655090 -66.581512 -60.453060
137.120148 -68.627571 -40.250202
134.624817 -65.771523 39.665249
134.335190 -64.875862 119.056618
134.187820 -66.761467 128.407242
136.772263 -66.068047 41.738010
135.966492 -65.250702 41.842720
136.129211 -66.015579 127.502655
136.018768 -66.756447 42.948414
136.795197 -66.440422 -68.608566
137.691849 -64.144997 -38.116039
136.497162 -66.038696 -36.990528
137.311935 -65.300278 -62.983837
136.202484 -65.071716 -60.643791
137.822891 -66.555504 -37.229080
138.465530 -66.077026 42.948586
139.582397 -64.014091 -61.466385
138.109558 -66.954460 40.723099
136.684280 -64.737717 45.364418
138.506912 -67.446289 -47.656799
138.784164 -66.180519 -38.841030
138.315674 -66.793625 -34.072227
140.565308 -64.243340 -35.256126
139.257904 -65.384438 43.418808
140.129776 -68.072495 -61.976528
139.245163 -66.148956 -49.071804
142.059372 -64.937332 -34.031319
140.113403 -64.433823 37.634575
139.818176 -64.535164 43.745373
141.555893 -67.032898 47.465759
139.481293 -67.366287 120.934982
139.017792 -67.388184 -64.388954
140.418854 -65.731750 -61.790905
140.853958 -65.393356 -48.633682
140.291504 -68.098816 -47.679733
140.832642 -66.197815 127.104126
140.062439 -67.181511 40.755798
142.539444 -68.100288 -47.245113
140.113754 -67.060349 37.355133
142.373260 -66.380867 120.882133
142.840790 -68.582291 -34.313725
142.628998 -66.232269 43.175560
142.517593 -65.475426 -61.857460
143.452652 -66.378502 -59.215103
142.063217 -67.142830 -60.886932
140.836899 -64.744217 -46.641487
141.736847 -67.717102 -36.137230
140.922852 -64.798790 42.084377
143.193863 -65.713791 -48.400887
142.424271 -65.733513 40.894028
142.174667 -65.927826 -34.416843
143.903290 -67.019142 119.543663
143.801971 -67.299309 -66.259384
143.505905 -67.382538 -63.909557
144.034378 -64.061844 -61.736244
144.578552 -66.055077 -49.104477
145.591034 -65.843132 -46.483009
144.784973 -64.737358 39.398617
142.279922 -66.767410 41.035423
142.908264 -65.222069 41.408089
144.481445 -66.423416 -60.908089
144.983871 -64.962975 -58.413952
145.181046 -67.055458 37.658417
144.419922 -64.580154 -64.056816
146.229385 -65.654282 -31.757595
147.591232 -65.320854 40.416054
143.211227 -67.191505 33.403603
146.618668 -64.253960 -62.823215
146.503006 -66.777725 -61.578827
144.944580 -67.602806 -46.854458
147.999008 -67.233490 36.004128
143.215775 -66.522469 41.892338
147.315964 -65.126785 -65.330696
148.317642 -65.447556 -60.622829
144.934387 -64.621475 -60.994961
144.285980 -65.333725 -59.533588
146.312317 -66.097534 -34.746471
146.909317 -67.186256 42.667046
147.001373 -66.509247 -60.939548
147.235596 -65.289078 -57.348503
147.690567 -67.421936 -47.187477
147.336014 -66.308266 -43.260147
147.102829 -66.432228 -32.886570
146.434738 -64.849480 34.522499
146.000153 -67.013184 36.900890
149.520630 -65.689217 -64.608376
149.719543 -65.317261 -58.120846
148.931107 -65.074913 -44.641621
146.843719 -67.971809 37.406170
145.712219 -65.260002 127.316025
146.065277 -65.450935 -56.352737
147.638626 -65.907715 -41.900253
148.231766 -66.986229 -33.242321
148.338440 -65.967461 26.553049
148.400314 -65.250786 39.400970
149.540710 -68.188583 41.450802
148.797836 -65.292686 -63.910900
150.470993 -66.887985 -42.783699
150.369400 -67.150726 24.377739
149.647644 -64.203087 28.996082
148.429688 -65.278671 36.241001
150.061768 -65.926033 -33.888577
151.280624 -65.745605 22.564009
151.012482 -65.755676 -64.073578
149.689224 -65.531693 -41.646492
149.946884 -67.187218 -30.229239
148.991974 -64.087746 26.815403
148.464539 -66.258835 37.544174
149.188599 -65.638641 42.911610
149.983414 -65.890862 44.059391
151.279602 -66.051430 120.823387
149.622223 -64.909882 -56.551540
150.865097 -64.873138 22.401016
151.209503 -66.805611 32.187691
148.157761 -66.882622 37.946182
151.675278 -66.383118 -43.580559
152.423615 -65.212425 41.314411
150.567902 -65.785828 128.345932
151.922516 -65.612312 -30.857727
150.317612 -65.010147 27.529749
153.747864 -65.352966 38.312874
151.789474 -65.162048 -30.170929
150.235336 -66.142418 34.380585
152.369492 -65.591118 -39.078804
153.087509 -67.096077 20.335539
152.538239 -66.598282 -61.567390
151.788315 -65.843582 -37.435776
152.262177 -66.111038 42.814213
153.212067 -65.833076 17.971275
152.131271 -64.496330 27.367128
153.600479 -66.187820 34.137817
152.309052 -66.912743 -58.293770
153.271790 -64.149101 -31.516130
150.705017 -68.105431 40.721905
152.879303 -66.014481 126.580910
151.822250 -65.525612 -60.404404
152.636429 -65.016434 37.049942
156.792709 -64.591087 -55.455612
153.069794 -66.369110 121.016594
152.360352 -64.609253 127.291245
153.869110 -66.375374 -40.741657
154.883560 -65.402489 -60.556549
155.081863 -65.035995 -38.964195
154.118454 -65.496414 -28.959576
153.885132 -65.784012 24.663130
153.795944 -65.580986 24.740730
157.179794 -65.890717 34.086239
155.171677 -67.096779 -36.212219
156.645798 -68.214264 -30.738173
155.277512 -62.812016 34.646851
157.711899 -65.700691 38.117165
153.817139 -65.946129 42.956112
155.904343 -64.785118 -60.763966
157.407974 -64.825729 -57.613937
154.090057 -66.434875 -30.707359
155.536148 -66.892204 16.047419
155.258133 -65.454956 24.347139
153.831161 -63.868427 32.234287
155.688599 -65.321144 -39.330776
157.476089 -65.427696 31.237362
155.257278 -65.061035 37.099945
157.520844 -66.837120 -57.935760
159.491699 -65.441925 17.113647
155.877502 -64.905449 25.180971
156.799133 -64.491089 42.774338
156.615540 -63.622501 -58.885204
159.401581 -66.572235 -40.029942
155.867538 -66.748940 -36.868114
158.703125 -65.789352 -33.946091
157.304840 -66.473183 -25.055468
