# This PCD file was generated using the MATLAB® pcwrite function
# from Computer Vision Toolbox®.
# .PCD v.7 - Point Cloud Data file format
VERSION .7
FIELDS x y z
SIZE 4 4 4
TYPE F F F
COUNT 1 1 1
WIDTH 1498
HEIGHT 1
VIEWPOINT 0 0 0 1 0 0 0
POINTS 1498
DATA ascii
111.362694 -48.817928 -66.880661
110.189415 -51.733589 -60.710865
111.541817 -51.151554 65.001595
109.663216 -51.591469 -63.134010
113.031464 -49.504349 -52.561031
111.381409 -49.375675 57.448334
111.551292 -50.579197 62.945007
113.150497 -49.511166 -89.812126
112.425537 -52.405422 -66.407211
111.280289 -53.885269 -62.070915
112.844414 -49.300808 -67.420403
114.140541 -52.561707 -62.133774
115.283676 -50.494312 -58.973518
113.457558 -51.538757 54.662556
109.714310 -51.323002 63.864937
113.217918 -54.990692 -68.669273
112.352470 -52.502357 -49.332516
111.190849 -49.334255 55.070351
113.456673 -52.850285 63.079712
114.303429 -51.424889 -64.181236
114.907402 -53.047600 -88.961098
116.061028 -52.748421 -70.803650
112.542229 -52.015251 -59.191406
113.688316 -52.551682 -50.509712
111.661690 -50.138557 61.816105
112.684113 -52.544216 60.676628
116.281303 -49.161572 -60.851776
113.135826 -51.699146 53.423237
117.157036 -53.022545 -69.092773
111.993393 -50.132278 -49.093441
114.284996 -51.993439 50.077789
117.325600 -52.745224 -71.009377
115.595375 -49.586208 -51.184753
114.714973 -50.515163 50.931919
117.361832 -51.674969 -58.820297
116.223061 -52.991470 -56.626213
116.330200 -48.713528 -52.981163
117.296822 -51.523121 -73.466484
117.726784 -52.020908 -60.068764
117.779625 -50.170216 53.152397
119.911652 -51.369602 51.381088
116.857765 -50.900688 55.758713
116.862816 -50.053146 -73.035164
117.996239 -50.182808 -58.356052
120.438889 -51.449387 -85.037895
118.159012 -48.995205 55.138519
120.250900 -51.796391 -57.131290
118.163605 -49.935909 -56.309349
119.948158 -47.566360 -85.673737
120.807068 -51.823505 -78.828796
118.033112 -48.946167 -51.413361
118.791557 -47.879047 49.265034
119.889030 -49.874851 51.539040
116.610893 -50.972275 55.361675
117.722275 -51.374126 -56.296257
120.599197 -50.399403 -50.477940
118.846504 -51.046471 51.413139
119.588150 -50.666523 -58.696659
119.667023 -51.722767 -48.778442
116.766632 -49.809181 51.315430
121.278763 -53.412930 -56.946709
121.234917 -50.328289 50.984379
119.408020 -49.056213 -82.127563
122.018005 -49.374870 -55.891010
121.636986 -50.151646 -49.075928
123.077606 -48.033871 46.454494
122.323006 -52.405453 -56.584049
120.570274 -50.980263 -48.397850
120.121986 -54.035851 49.001728
121.750351 -49.339188 49.195896
121.174049 -51.837635 -58.616001
121.407486 -48.986736 -57.600502
122.966652 -51.645714 50.288696
126.146965 -49.516727 -54.142853
124.377197 -51.347279 48.880581
123.212791 -50.700546 49.720573
122.978813 -50.269276 48.441429
122.020683 -50.548058 -57.064384
124.589645 -47.559158 -47.715733
123.934624 -49.991364 50.196106
127.034622 -50.426533 -54.712227
121.951576 -48.476185 -54.179287
126.189240 -49.994049 46.844791
126.375198 -53.134884 47.776081
123.573189 -50.690117 -47.951111
125.185654 -51.743004 -54.629993
126.202606 -50.407993 -53.916679
127.680084 -52.326168 -47.533333
127.184174 -48.525906 -48.048775
127.415657 -51.048119 -52.579872
127.510986 -48.969383 -45.221577
128.967010 -50.030121 -50.175064
239.050674 -53.485260 -2.110484
238.917984 -50.315483 17.868435
238.206528 -50.573788 14.977532
239.613266 -52.652222 13.347146
241.422592 -50.789528 -1.480825
238.234421 -49.314915 10.598817
238.035080 -50.265503 14.954491
236.998123 -49.733349 15.661751
239.523834 -52.085667 -4.664533
241.741699 -51.309902 16.021683
239.134628 -52.419098 11.517570
241.725769 -49.762409 -0.749448
239.356323 -48.644474 2.368578
237.994736 -52.724579 16.857563
240.396072 -49.645092 -3.064029
239.251633 -51.551506 17.704393
239.300522 -51.014523 12.405638
240.956635 -48.817429 17.879662
240.633850 -52.056847 28.130272
241.902893 -49.911797 13.292713
245.868652 -50.497627 8.981606
242.569962 -49.663891 29.202662
241.465897 -51.355392 -4.296991
245.574768 -49.376648 13.640851
244.035583 -50.015507 14.777591
244.061493 -53.375664 15.887048
241.195526 -49.315060 31.569132
243.271271 -52.679028 24.487640
243.703873 -52.810268 -7.403282
244.008026 -51.942966 23.503590
246.254532 -51.597507 30.517420
244.605408 -51.940876 -7.060837
246.691589 -51.559479 22.652637
245.178116 -49.981171 33.555317
245.813354 -50.119579 -9.720360
246.130905 -49.539970 -5.528062
248.234116 -49.835033 -5.413925
247.265549 -49.666634 21.554613
247.668152 -49.638752 35.251125
250.143997 -53.055420 17.018032
247.426743 -50.977108 -9.603533
248.594177 -49.709129 31.678619
248.234268 -46.822487 -6.978759
249.973129 -49.053947 16.148607
248.049149 -49.002316 22.422073
252.103668 -49.930122 37.293678
251.293442 -51.205227 -7.237410
250.262131 -48.459492 -6.577372
248.331787 -49.967194 33.482384
251.098846 -51.410770 -7.758202
249.511612 -47.408627 -5.544878
250.718155 -52.052643 -4.499228
250.584061 -50.427425 -4.985430
250.543976 -49.154358 -3.483509
252.726364 -52.256237 21.977835
252.279190 -50.271870 -8.251698
248.887161 -50.269062 36.925655
252.028671 -52.406487 39.844452
249.229721 -49.025047 37.405380
252.481369 -49.591877 -3.570760
254.367966 -48.568962 35.825306
252.865753 -51.174904 -3.666905
252.192810 -50.031693 -8.008993
251.664627 -50.851089 20.443855
254.811874 -50.456459 34.251202
251.547241 -52.013905 -5.998105
252.887878 -51.589966 31.408169
252.630569 -51.843445 36.767967
253.236725 -50.538914 -7.850714
254.637192 -50.752102 -3.257302
257.242126 -49.126812 38.969959
255.947693 -52.763130 38.675888
252.171188 -48.088070 -6.075608
257.370941 -49.466434 -3.662474
254.594742 -49.239742 -7.351551
254.470734 -53.648197 33.930397
258.315552 -49.884651 -9.624188
255.411240 -48.657284 -4.765868
255.419800 -50.887772 -5.319106
259.345367 -51.008533 23.177210
255.456436 -52.228073 32.184921
257.331146 -48.541214 -8.750778
257.636047 -52.825714 -7.005291
260.083252 -49.930477 -2.605128
256.218231 -49.696243 24.542097
256.859253 -52.578148 32.518463
261.555786 -51.105789 36.804634
257.972260 -50.624992 36.916988
260.301788 -49.758305 22.042355
262.091461 -53.309814 37.961086
259.668365 -51.094025 -5.567375
261.845032 -50.680042 -4.462333
260.322083 -50.887993 -6.008187
260.448334 -50.469635 35.184757
261.614105 -50.543362 37.795139
262.599426 -51.730583 21.865749
262.889771 -51.528641 -2.956019
264.938171 -52.107754 38.631260
261.985748 -50.071365 26.877699
265.584991 -50.822834 -1.808951
266.714722 -47.949696 39.234146
263.905457 -50.147846 35.727596
265.088165 -51.194160 -5.678801
265.689178 -51.851131 -3.151993
263.890320 -51.286888 37.617161
265.365723 -52.669849 -5.612036
270.592957 -49.843208 37.260612
267.859680 -51.748276 -2.932265
265.880066 -47.971237 37.503555
269.075043 -51.717678 36.205067
270.724457 -51.332508 22.363544
267.010895 -48.659256 36.054150
267.927124 -50.263950 -2.665952
269.511444 -49.783657 35.029514
270.329742 -52.010975 -3.939036
268.509949 -53.108410 32.361797
270.792542 -52.216114 25.414156
269.206024 -49.394661 36.862637
272.391357 -51.301659 34.784309
271.866547 -49.950489 -0.131443
273.273773 -50.918941 -2.898086
275.359375 -51.076187 32.208298
273.687805 -50.927753 -4.051881
272.258453 -50.832520 35.881020
274.956177 -51.240829 22.266603
275.909668 -50.960190 0.064897
274.044128 -49.573730 -0.932752
275.437805 -50.601540 35.860565
273.347595 -53.713890 -0.675683
276.524261 -51.988441 1.588774
277.498962 -49.144905 -0.845028
276.964264 -51.216541 31.281277
275.646942 -50.642296 33.849144
281.312256 -52.232445 -0.807174
279.700317 -48.342968 4.807166
281.159363 -52.052395 -0.167104
279.446869 -51.381023 2.618914
278.860870 -53.682442 30.445053
278.713837 -49.634235 34.556259
281.856232 -48.689270 -2.519242
281.628662 -51.157135 4.511693
278.951233 -48.344547 21.681475
279.964081 -50.267246 4.175680
282.706879 -48.159248 29.917923
282.564362 -49.462513 1.082003
282.358124 -50.362587 2.937269
279.664337 -50.153175 33.751904
281.317657 -50.918674 22.269125
280.263885 -54.217258 27.869204
281.448608 -49.439575 25.665562
284.098114 -51.793491 32.693977
281.219910 -52.000523 -0.796638
280.358429 -53.155231 28.246338
280.844635 -50.200123 2.063667
283.364960 -51.338120 2.101984
280.042023 -48.230721 -0.648144
281.421844 -52.019974 34.998413
283.593658 -53.472084 8.060279
280.088654 -51.772110 23.714138
282.705200 -45.148441 31.823492
280.463287 -50.881310 33.072784
283.781799 -47.797031 0.352993
281.362030 -51.076546 2.380760
280.170471 -52.097725 3.083056
281.234558 -50.753708 25.706430
282.824646 -49.547981 -2.726381
284.599304 -50.608826 30.077457
283.359863 -49.702457 33.825722
284.861633 -50.613251 -0.123047
283.232941 -50.816162 1.859119
284.309906 -52.709427 22.780556
284.579987 -50.628971 23.227001
284.946411 -50.691708 29.186705
283.651337 -50.376495 28.935072
284.270020 -51.042309 0.402358
286.707031 -51.957150 5.926017
286.928375 -49.332493 8.236068
287.898315 -50.211620 23.621733
285.457397 -51.346142 23.459707
286.977386 -48.896469 1.388208
284.939301 -51.728695 4.892197
286.944702 -51.685078 8.898946
290.018738 -52.584179 7.354989
286.700684 -50.295155 30.067728
287.603394 -50.478367 1.915303
288.465729 -48.989307 4.236827
287.171814 -50.490479 7.848619
285.270660 -54.066620 28.945005
290.037415 -49.371910 30.323944
286.775146 -48.826595 8.214694
288.346466 -52.102917 11.349832
287.642334 -52.355515 27.064116
288.748444 -49.488304 26.074873
289.223999 -49.200924 25.808428
290.013489 -50.397705 4.752047
290.245605 -52.397743 11.419903
290.420197 -48.783562 13.113694
287.951508 -49.024933 25.927711
291.108154 -54.571198 12.111886
289.487152 -51.787464 20.323725
291.046478 -51.142891 23.008335
291.116455 -48.195351 10.089650
292.624451 -50.793617 8.210170
291.788574 -47.613842 11.290111
293.696136 -49.075626 23.638397
290.823181 -49.697975 24.601238
295.312958 -51.908211 13.550915
294.261658 -49.916592 17.398247
295.737732 -49.139812 15.953781
290.932861 -50.233456 20.306187
293.826294 -51.539646 20.550550
295.564667 -51.880486 23.395973
294.887787 -52.120785 19.728176
293.717133 -50.287571 22.196541
295.579315 -50.519909 21.250870
293.864868 -50.761105 13.824183
11.252059 -51.822582 41.471916
10.893508 -49.323166 44.291454
9.405889 -47.848228 46.411049
11.945066 -48.284725 51.842918
14.974661 -46.571743 37.668060
16.835358 -52.113312 34.558708
16.421629 -49.924137 45.526878
17.688198 -52.358841 44.573772
17.217279 -50.061558 42.577080
19.529720 -50.108479 49.764751
15.727733 -52.975491 59.180244
19.573977 -48.704304 47.751408
21.482204 -46.230789 37.815865
19.469000 -52.213688 35.415218
20.325434 -50.652363 57.153469
21.375259 -52.824139 55.757668
25.062168 -53.198196 58.504158
22.863039 -50.734192 36.290760
23.140480 -49.175289 60.235474
22.986881 -52.839607 59.345356
22.984241 -54.002132 57.612537
26.543177 -50.123901 33.035599
28.464468 -49.634136 59.328197
29.134176 -49.829197 55.945229
28.881588 -51.669842 32.595680
26.779875 -50.078835 30.520849
29.158516 -50.818497 36.631351
31.862343 -51.341019 36.815987
30.681187 -49.908672 53.448177
30.496439 -52.475933 36.945187
32.980148 -48.564888 50.676804
34.473110 -54.638336 35.044422
32.298180 -52.982628 59.553303
36.098354 -52.384220 51.192455
33.835220 -53.998707 32.013577
37.109661 -52.003166 50.090424
32.408325 -51.602764 33.279442
33.909672 -53.721127 39.376675
34.272766 -51.353699 31.892332
37.047173 -51.180065 47.551041
33.434677 -51.942196 33.966068
37.817593 -50.934391 44.933422
37.982796 -52.711483 32.637802
39.527916 -56.696480 43.706249
39.367794 -53.400558 43.846516
37.388054 -49.894466 44.508247
38.847996 -50.960339 39.944080
41.499928 -53.601341 40.940502
40.234200 -52.589928 46.399479
42.678818 -51.451454 -52.191814
41.416798 -48.602966 -58.589100
42.237587 -48.204277 -59.274990
41.972385 -49.852779 -59.838665
41.456547 -48.991558 -52.525566
41.921852 -49.092701 -45.039753
43.583912 -46.879120 -43.685749
43.016037 -50.617237 -70.542213
45.113579 -48.900860 -44.620373
46.212322 -50.609898 -39.018841
48.870041 -49.534012 -37.956211
45.569321 -51.059589 -34.280918
48.182041 -50.229351 -75.868484
47.912342 -51.064682 -33.770222
48.656929 -49.202782 -26.573696
48.643730 -49.000755 -25.945517
46.247868 -49.303623 -78.537865
49.503334 -50.268532 -22.692034
51.434547 -49.657364 -79.720245
48.557838 -50.785656 -16.859276
50.189255 -46.332928 -80.238640
51.033627 -51.551147 -13.595154
51.615395 -49.442890 -79.508347
47.442543 -50.402580 -13.712645
51.680683 -48.368217 -80.529167
50.798428 -49.091057 -83.129074
57.188461 -53.317684 -84.367050
52.977421 -51.242420 1.749470
54.025257 -50.229298 -85.339348
56.758434 -51.343166 -85.633080
56.584251 -50.922329 3.477542
57.377907 -48.578365 88.568581
58.394646 -51.226570 84.406303
57.752987 -51.042583 87.700439
58.734039 -50.600239 98.619362
59.106335 -48.658752 80.816551
58.585495 -51.035927 83.592430
60.796638 -50.517502 107.119896
61.220993 -52.079575 0.024287
59.923012 -50.355129 106.509087
60.399399 -50.768597 -86.236252
62.682068 -50.637711 -11.849833
62.216595 -50.163162 79.144249
60.950443 -51.402107 107.818085
63.513500 -52.244980 -89.932648
63.054817 -50.867710 109.501389
63.066868 -48.041058 -49.624020
61.483082 -51.040966 77.688408
66.207397 -48.370480 -88.823097
66.092201 -51.740864 -55.624107
65.305786 -50.690418 -55.940762
64.662811 -50.446323 108.089790
65.814499 -48.063053 -51.332493
63.889545 -49.015602 78.107018
65.526924 -49.046326 -56.772633
65.821198 -52.305485 -16.475672
62.274361 -51.350815 109.122177
65.958206 -50.677788 -54.488262
66.569153 -50.520920 77.666946
66.706627 -50.308842 -53.928440
66.525284 -51.060795 -23.623331
66.341805 -45.914787 111.004234
67.744240 -45.618080 -53.216991
68.784317 -50.937683 -24.850357
71.815521 -50.480759 -89.208618
69.621941 -51.102703 77.023834
70.720589 -49.560410 -90.932152
72.226166 -46.430477 77.844116
67.577515 -50.337971 112.337204
70.332275 -49.473637 -51.351078
69.902031 -48.822357 -52.858017
71.993935 -52.979134 -88.570763
69.773727 -50.015774 74.506348
72.032745 -50.314865 -51.675262
72.660240 -51.333519 111.951866
71.544868 -47.967052 -56.296230
72.763245 -50.569374 -56.628220
73.950623 -48.772106 -54.032341
70.567192 -49.825279 -27.513582
74.227745 -52.571507 -27.016975
74.933929 -50.065975 -25.807333
73.762329 -49.659927 113.778282
77.780289 -51.957539 114.823265
77.206772 -47.992535 -89.029724
78.719444 -48.642303 -29.196075
77.597641 -48.994686 73.999466
78.471298 -49.126694 88.423218
76.095139 -51.033855 -36.527710
76.073578 -49.374882 -36.897747
76.302338 -49.587566 93.802345
79.425529 -50.977516 115.851402
79.716194 -48.960331 72.661652
81.019974 -49.251484 90.623566
80.133301 -51.554935 -37.538910
78.705276 -53.157108 -31.423624
81.451874 -50.213360 -31.390295
79.426208 -47.597530 86.411987
79.952675 -50.060894 72.426865
78.709572 -47.202835 91.281372
79.821953 -51.051891 90.454666
80.991913 -51.476048 -38.400562
79.771141 -47.773628 95.247627
79.541428 -51.342388 95.735405
81.204613 -46.979771 87.087730
79.065529 -49.188553 85.949188
81.720139 -51.223911 96.648239
79.842384 -49.480705 116.159904
80.968773 -52.132893 -42.819866
79.799828 -49.046604 89.716362
80.815727 -47.218170 96.144287
82.928246 -52.261776 118.374962
81.053207 -49.278053 73.007332
82.665176 -50.649994 71.624344
79.984337 -47.907574 84.744354
83.533279 -49.063408 99.995125
83.398621 -47.406242 83.189629
81.553711 -51.104191 97.333000
82.894585 -51.730213 84.748878
83.607475 -48.816113 118.004669
85.778481 -49.054150 -91.623444
84.025673 -50.072628 79.028580
84.726524 -49.919762 102.114304
83.396957 -52.080940 117.489853
86.599510 -48.368420 -89.331642
86.774094 -46.976154 -45.329170
82.107819 -50.125057 73.528137
85.310394 -46.803806 74.700111
85.524864 -52.275974 80.809486
83.016121 -50.812794 100.930779
85.137360 -49.326008 113.587097
86.574722 -48.334480 78.949455
87.467484 -51.418999 76.453674
87.225044 -49.611782 79.275520
87.162781 -50.930824 73.476456
88.565018 -51.537636 79.245384
87.843323 -50.010643 115.260551
86.602364 -49.287865 102.970886
88.369194 -49.428017 72.181557
86.269493 -51.382374 103.123917
89.002625 -49.063496 77.687057
88.482452 -51.353355 104.329842
86.678932 -49.847221 72.462082
88.767014 -47.833157 80.606964
91.102280 -49.512039 78.605446
88.742355 -46.695599 78.517204
93.325150 -48.166351 -55.066429
90.969032 -48.967640 78.940201
90.042084 -49.578434 103.472824
90.492973 -49.115002 105.985176
91.551888 -50.047718 -91.061218
92.900299 -50.666054 -54.414593
90.289330 -48.017727 112.886032
89.165413 -50.530758 -55.583317
92.195938 -52.314651 113.328224
92.109032 -48.089165 115.695465
93.491844 -50.056286 103.864182
93.101479 -50.781837 93.014435
93.255417 -47.324272 107.079178
94.453613 -51.577381 94.737312
94.232323 -47.223572 97.436295
95.932777 -48.725750 100.024529
96.028481 -49.731319 85.205215
95.474274 -50.561985 84.724564
97.441010 -50.274799 81.846451
93.492477 -51.252853 -88.889748
93.767242 -50.176933 106.297272
95.222267 -49.114464 80.262024
97.232773 -50.888279 -60.511665
97.694221 -53.804031 -58.474449
95.924934 -49.718155 74.023972
97.421303 -51.381599 106.952644
97.152306 -46.039265 108.976768
99.731506 -50.457165 108.886765
98.511848 -51.608425 87.959373
96.001373 -51.544533 93.203186
94.758423 -50.170029 100.326614
95.786316 -49.209877 103.192688
98.912247 -49.015965 105.797539
97.032822 -50.624298 -91.660484
98.309097 -50.064953 70.511703
98.573166 -49.885456 85.544296
99.186523 -48.466190 115.185616
103.174141 -49.263233 111.228180
98.300842 -49.519905 70.784119
99.149452 -49.832333 81.740845
97.809380 -51.203758 109.640816
99.159920 -51.139431 113.135147
98.342300 -51.135822 -90.652725
98.859703 -47.145432 109.382523
100.907936 -51.723835 64.667534
103.079239 -50.555351 75.597237
101.449699 -50.556938 114.541855
103.643524 -50.383007 112.309471
102.625710 -49.047188 110.111786
104.569023 -52.220005 77.235909
102.994698 -49.971226 75.729073
101.462303 -49.790394 67.141617
104.070198 -49.423553 109.958954
102.836937 -49.355644 109.035515
103.787720 -51.393036 -86.927063
104.228874 -49.915154 -63.062744
104.454544 -48.767090 65.875618
105.809486 -51.844387 76.301262
104.389389 -50.034496 62.812004
105.550911 -47.417221 -88.436211
104.744797 -50.463341 -51.711220
104.876144 -47.304367 -52.103279
105.503616 -48.384995 -65.316811
103.222595 -50.807693 -53.031353
105.910606 -47.375340 72.228500
106.700096 -49.841454 -53.590446
104.573212 -50.773190 60.685837
107.837387 -49.341171 70.670578
104.600166 -48.384327 -66.861694
102.301727 -48.541199 -49.890285
105.630630 -46.946987 58.423786
109.770653 -50.550121 -52.118156
109.358505 -48.676472 60.340256
113.283745 -51.688385 -89.915428
108.069717 -48.997940 -64.372818
107.261261 -49.323933 -62.287334
108.398659 -50.813202 -58.288342
110.088318 -50.978275 55.608189
109.081444 -46.580341 65.749756
109.850380 -49.482639 -63.924644
111.858459 -48.372814 -53.847691
110.878769 -51.758110 -62.924946
109.865089 -49.558308 -65.298149
110.124825 -49.412136 57.076374
111.336937 -49.427849 -55.824211
108.694771 -49.027782 56.974255
112.087845 -51.867867 -60.071953
113.400146 -45.526180 60.476578
111.796066 -49.951057 -65.377678
111.904808 -48.063549 61.430950
112.366425 -50.113091 -65.151665
111.975273 -47.836254 54.573475
113.121483 -48.733246 -62.612965
111.981728 -49.784019 -48.480335
113.512718 -48.515705 -84.984932
111.892723 -51.254723 -64.537788
113.292099 -47.395622 55.569321
114.104630 -48.420185 56.183540
113.079308 -48.892475 -48.756821
112.305382 -49.925392 59.651970
111.446854 -48.289173 -64.668251
112.877525 -50.234337 -60.004410
111.958534 -48.145432 -55.044807
113.395782 -49.817371 59.454578
111.877380 -47.055313 53.101044
114.654541 -49.766640 -69.863106
114.062271 -49.996098 -60.092953
118.359924 -51.256145 -60.146954
115.533310 -49.495258 -57.279114
113.146805 -52.181805 53.599010
116.263908 -50.757908 58.458138
115.534538 -51.439667 58.860577
117.913757 -52.700264 -87.367447
116.605881 -49.998493 -46.516239
115.281097 -51.729755 53.360672
112.630386 -47.278526 56.513107
114.113632 -48.490078 -52.577915
116.057594 -47.853527 54.487255
118.658722 -50.461456 -71.320168
114.251602 -50.518494 -58.488895
118.960533 -52.203690 -55.367241
113.758888 -48.284973 -73.231812
115.784416 -50.775303 -57.064056
117.555122 -48.160416 -49.244144
115.093971 -50.022762 52.299206
116.932068 -50.052158 -56.073730
118.805122 -49.123112 50.580696
115.635635 -49.360065 56.586906
118.757629 -51.990467 -73.016670
114.581421 -48.156818 52.732567
118.158875 -50.118504 -83.897354
120.570213 -49.097553 -52.194263
118.566315 -48.866844 -60.311050
120.804466 -51.462811 50.698700
119.212212 -50.946587 -73.313423
119.469322 -50.829807 51.891712
118.404755 -52.347679 -85.643143
119.058456 -50.028652 -75.525780
119.483200 -49.828987 -82.088951
119.344673 -50.611347 -82.840805
119.204826 -49.104313 -58.249378
119.247711 -47.707951 -55.683006
121.879250 -50.662209 -51.103737
122.425850 -49.092812 -52.778461
119.930626 -50.299026 -47.616962
125.212715 -50.408119 -51.033615
124.023178 -49.400959 -56.750965
123.478958 -50.227875 -51.046989
126.994713 -48.295849 -52.887947
239.568100 -48.822994 -4.306306
239.540787 -50.428894 0.239461
235.757828 -49.251217 24.522076
241.605499 -51.838680 0.915244
237.787811 -49.930893 0.470029
239.176773 -46.944721 11.949891
237.371307 -50.407021 22.927900
237.158401 -50.240936 25.697918
240.542831 -47.988483 12.267580
239.678299 -48.444778 14.074721
239.578369 -48.633354 15.795191
239.057083 -48.641575 16.234617
238.963638 -47.499187 19.766563
238.728714 -51.682610 -1.472752
241.037338 -50.420147 8.071030
239.348907 -50.996323 22.157919
238.681900 -48.441433 25.396547
238.071716 -52.188534 28.164108
239.540588 -49.569458 5.609905
237.919769 -50.531021 12.185067
238.041962 -49.861465 18.426811
241.283905 -47.455147 1.916244
240.418991 -51.220490 10.487176
239.979538 -51.384533 7.207615
239.691605 -46.629368 20.302275
239.652496 -50.111103 21.817827
239.807831 -50.780590 22.399826
240.067734 -48.057030 27.829044
237.034088 -49.130692 33.998222
237.816574 -49.693375 -1.872183
242.140839 -49.830929 8.057724
240.578522 -52.917530 -4.266772
238.504608 -49.399410 5.182159
241.034424 -48.497276 12.587134
241.848831 -45.832775 18.685001
244.455643 -51.342960 3.565050
237.601852 -49.206638 8.344719
241.634750 -49.837299 13.363335
242.691635 -49.026218 15.985135
241.946518 -49.293602 18.649868
239.849396 -49.945576 27.474380
242.472595 -48.268753 26.874393
242.435577 -51.941883 2.432308
244.572372 -47.658451 8.605700
239.959305 -48.920975 29.399618
243.149765 -51.167084 31.617579
241.620224 -47.519939 -4.329789
241.029037 -53.577831 0.887355
240.644745 -49.479198 13.600051
244.219681 -48.014027 12.800488
241.153458 -49.027878 29.973509
241.033905 -50.109158 31.694168
240.482590 -50.401272 -1.211368
244.467163 -49.007614 1.018306
239.633362 -51.983688 10.166029
241.350723 -49.595779 15.788820
241.376373 -50.840649 -6.297072
242.846558 -51.202007 -6.019578
244.036804 -51.742039 25.855938
243.630127 -49.885487 24.714911
242.433548 -46.769169 31.515486
241.987762 -50.081909 34.308498
243.227402 -48.801777 -6.757076
242.786423 -48.681709 -6.549603
244.858871 -49.693966 -3.884801
242.406403 -51.706238 23.024422
245.225281 -49.581570 31.907721
244.757767 -49.365578 33.135681
249.098541 -50.098633 22.362526
245.367249 -49.306053 -3.125246
249.345993 -51.730431 34.611305
248.411499 -49.845993 20.923866
245.884232 -49.396767 -5.544212
248.930664 -49.043068 19.740326
246.300049 -48.980019 19.366791
244.501968 -47.723057 34.528770
245.511124 -49.639809 -5.830432
249.262344 -49.302437 19.385763
245.753387 -49.004860 -7.611053
246.630219 -50.581245 31.793451
249.576859 -50.319103 -9.401748
246.527161 -47.161167 -2.764630
248.952835 -48.630585 -4.778194
247.368561 -52.361557 41.417641
248.001144 -50.698433 35.393269
251.927917 -52.503437 17.019939
249.189270 -49.216412 33.044548
248.428268 -51.726376 -0.822785
249.831009 -49.460934 32.806854
249.644852 -49.136360 37.262695
249.876465 -51.424862 40.931297
252.516846 -51.890347 -0.316184
249.516388 -48.795700 34.080254
249.797256 -48.537117 -6.789875
249.380692 -49.672707 40.435749
249.358200 -50.848595 -6.186481
253.174454 -49.674072 24.685684
250.882980 -49.941525 30.859818
252.283203 -48.126102 35.253658
250.211685 -48.669369 -9.064872
252.596237 -48.267406 -5.820652
254.531006 -51.651924 26.900053
253.205383 -47.719639 -0.295639
254.264496 -49.127316 -4.803032
253.106537 -47.558922 23.386272
256.229858 -48.915581 -4.980669
254.388275 -50.922295 36.511639
253.871796 -50.164215 37.631805
254.279999 -50.902542 -4.520466
255.873840 -48.412575 23.182980
257.815430 -49.248707 39.237469
251.361816 -49.930027 42.003094
255.081909 -50.030037 0.082832
253.645325 -47.668060 35.608471
254.144806 -49.640472 32.982849
257.609039 -49.838947 35.404606
260.926544 -48.335106 36.042530
258.690491 -49.460720 33.295982
255.249069 -49.473961 -7.165695
261.014587 -51.545670 31.544373
259.264069 -47.915359 -3.175347
259.305817 -51.182209 37.806881
258.136230 -52.477631 23.454638
255.837036 -47.507977 34.482761
259.214600 -47.338585 37.147331
259.185303 -48.305969 40.870850
260.962585 -49.538696 -3.098877
260.403809 -51.088478 20.168880
260.832733 -47.336926 -7.800719
258.434906 -49.556068 36.575531
264.151825 -50.413551 -3.317041
263.448761 -49.367397 -4.250198
263.416779 -46.610699 -4.909058
265.070770 -48.988983 -4.328376
264.778564 -48.517590 -0.007622
264.032196 -50.309299 38.165932
265.745117 -51.021717 -1.897907
265.023987 -47.703423 -1.013651
268.289490 -47.079227 -3.282402
270.248962 -50.386272 28.898188
268.094147 -47.623596 -2.402700
266.377991 -50.397221 -2.232675
267.343048 -48.118618 31.825397
265.562134 -47.657055 38.195965
269.152771 -50.722580 -3.783037
270.510437 -50.922794 35.827755
270.250427 -49.454956 39.103745
269.992584 -51.590477 35.209007
268.851471 -51.526566 -3.487708
268.027344 -47.399395 -1.477194
269.784241 -50.314461 38.129135
270.281708 -49.473595 -2.452320
271.649078 -47.522652 -0.493564
271.569794 -48.331474 1.389960
271.163727 -47.698368 32.650578
271.400513 -50.057480 -0.989023
270.442383 -50.430130 33.376171
272.648529 -52.432919 23.727793
270.767822 -50.172127 -1.649349
272.266846 -48.399666 38.384239
271.028229 -48.338535 -2.174572
273.818542 -50.609158 21.995741
270.667603 -51.866589 -1.028425
274.286438 -52.506069 35.950233
274.212158 -50.137547 34.286942
275.012512 -49.469917 -3.607110
273.953705 -49.311409 0.069000
272.949341 -48.542927 31.214926
277.009644 -49.458717 31.651096
275.612518 -48.301399 36.707359
276.945740 -48.922558 0.409340
277.599426 -53.903389 3.687401
279.096771 -51.144730 34.841999
277.857422 -49.956421 -0.288434
277.632690 -50.289867 32.891056
279.510040 -50.066738 5.292395
278.299408 -50.459469 1.773906
277.460815 -49.208439 4.605052
282.545105 -50.791832 30.556246
277.580902 -47.808941 23.631052
279.209778 -50.805447 4.109264
281.476379 -48.965122 4.350637
279.530579 -50.822144 31.520884
280.966644 -50.523785 26.211802
280.982391 -52.343418 26.978548
280.626434 -46.133007 25.916225
286.609528 -49.634918 3.513311
282.469757 -48.049450 -1.878389
282.048828 -50.819744 22.864342
283.543060 -50.950989 4.856063
280.470581 -48.608055 4.982836
282.416718 -48.394199 25.612669
283.745667 -50.181854 2.539855
283.859406 -50.015781 23.881737
283.037720 -50.473774 5.562917
283.131500 -52.861126 31.639977
284.901215 -49.984150 -0.633740
285.312714 -51.681149 31.919662
285.100677 -48.676552 4.717306
286.224243 -51.659119 7.573956
287.566742 -50.690094 28.296824
287.094482 -47.462887 5.748627
285.875885 -49.694981 3.054932
284.908112 -50.817657 5.777606
288.013550 -49.666111 30.990965
285.293365 -49.255478 4.429945
287.118347 -48.959686 4.156469
288.424225 -48.557713 7.684705
288.612946 -49.088669 26.893442
291.593109 -47.877922 7.558335
285.767365 -50.321049 9.088237
287.466492 -51.420303 25.348595
287.039215 -50.198204 0.785681
287.414764 -47.634178 6.858324
290.140320 -49.035580 8.112340
290.663391 -46.676765 5.600318
290.971954 -50.514671 6.696556
293.271393 -48.850216 8.416932
289.861084 -47.884750 26.525549
289.911682 -47.705502 12.040759
290.026581 -49.657410 9.102966
291.219238 -50.584850 4.981405
288.919678 -50.368946 12.295458
289.350037 -47.031784 11.059817
290.250000 -50.710136 22.016460
291.463898 -51.248474 12.199086
293.052277 -54.189880 26.525713
293.513702 -49.154854 6.344347
293.619904 -48.461502 11.860846
294.145630 -47.827801 18.981028
292.870575 -50.152691 26.250780
294.820862 -49.632153 8.228367
295.703979 -51.894264 14.158663
293.335449 -50.176670 15.386240
292.375244 -49.149223 17.933916
295.511414 -51.600666 21.243076
295.196930 -50.002842 19.823059
297.869659 -48.727058 14.516105
15.977967 -48.857235 48.386940
14.795881 -49.336689 54.931164
13.233275 -48.720036 55.476788
14.311833 -50.014076 35.339153
14.563991 -48.546860 32.960613
15.860793 -51.742214 54.557037
16.638426 -52.295017 43.390762
16.260654 -52.417355 47.932323
17.708250 -48.458645 57.655151
17.971678 -52.262131 33.371922
22.483067 -53.507313 28.812286
20.191708 -47.793533 40.534492
19.229319 -49.713867 57.706654
19.050652 -50.644367 30.486320
20.322414 -55.620377 37.361271
20.032297 -51.639912 51.184700
21.062742 -52.711567 60.082264
21.378189 -48.689651 30.920362
23.822197 -47.774899 52.521030
25.896912 -51.650356 27.642439
22.034044 -49.971378 52.782681
26.316483 -50.111771 29.920343
27.198380 -49.650681 55.225449
28.879185 -50.938484 29.065077
31.545151 -50.026413 57.530266
33.562325 -45.493587 34.573811
31.201178 -54.356869 38.524021
32.659058 -50.409245 36.953270
34.321087 -46.604416 38.365410
34.253113 -48.610641 48.748440
34.149994 -47.039799 29.612093
37.776291 -48.164299 32.596294
34.630440 -48.976681 48.790058
36.592045 -46.354111 56.573204
36.577484 -48.210995 45.528347
39.872364 -51.075493 34.645874
36.552250 -46.452827 54.120609
41.056076 -46.883919 51.570045
37.886314 -46.750530 43.071938
38.654404 -53.846165 47.172302
40.364323 -46.054184 43.671906
41.957611 -51.004162 42.249779
38.565189 -53.780087 42.272865
38.606392 -49.904106 47.491325
42.296291 -47.651104 43.302616
45.091915 -50.464329 -49.567291
43.191833 -52.147705 -67.658081
43.014812 -48.893307 -49.275524
46.623119 -46.324776 -70.942352
44.243637 -46.970055 -72.609573
44.694698 -50.703037 -37.885284
46.551117 -49.483143 -29.523186
47.587608 -48.852329 -27.483355
50.720619 -47.665558 -6.953294
51.477734 -50.123539 -4.600872
50.956436 -50.229263 -6.690131
54.146492 -46.963974 -82.300323
53.395496 -50.556416 0.658598
51.974503 -49.490597 -2.665809
51.348896 -48.983521 -82.920593
51.432854 -51.054043 1.452078
55.181694 -49.235615 -83.756386
54.845444 -50.683487 -82.569000
56.601723 -47.903957 3.760928
56.607269 -52.313961 88.412788
59.291451 -49.879417 98.402832
56.874065 -51.778748 99.831543
59.325764 -48.856052 3.431840
59.342148 -47.220913 85.712463
56.120617 -49.506107 102.997719
58.869991 -50.381496 96.402946
60.628941 -50.799126 105.926445
61.872780 -49.464993 -5.903388
59.598125 -48.506260 -84.851326
61.399658 -50.662464 -10.686157
60.212803 -48.385654 -5.132320
59.149231 -49.932175 -2.949440
59.684273 -45.608826 -2.207976
60.396400 -51.589279 0.228213
60.015484 -50.535458 -11.628640
58.400982 -51.286125 80.495247
61.661987 -47.067146 107.309547
60.385990 -47.954769 -15.751719
63.698597 -48.305294 -18.320652
62.633614 -48.806618 -52.446106
62.470566 -49.242367 76.193214
60.905907 -48.354736 -54.906452
63.127312 -51.281181 -54.314476
63.188442 -51.063515 -20.772661
64.500916 -49.070457 110.583099
65.090065 -47.646748 -19.815004
65.974869 -46.805691 76.586899
62.631184 -48.888966 -20.374289
65.253662 -48.510647 -52.500507
65.397881 -46.961502 75.677643
66.535484 -52.176693 110.197830
65.770699 -50.560696 77.543526
68.603661 -49.794220 -87.318275
66.660301 -49.097828 111.091362
69.886932 -47.851093 -89.442184
66.612122 -48.911079 -52.081978
67.357887 -47.643440 -23.925377
68.539566 -49.180920 -54.872742
66.084175 -47.371830 73.826660
69.158546 -48.080555 -53.388309
69.126808 -48.323845 -53.837334
69.979416 -48.382809 -55.476181
65.850433 -49.082375 -55.102894
70.876572 -47.954021 74.153908
71.522873 -50.994686 114.838997
70.352303 -50.328415 -26.196360
71.714180 -49.836964 -56.399136
71.750114 -45.957047 -54.803902
69.875900 -50.872265 72.791328
71.021568 -46.152138 -89.773300
70.632660 -47.242310 112.716576
71.817474 -50.839172 76.172836
72.972008 -47.119453 112.407135
75.291504 -50.621769 76.744957
73.762039 -48.191257 115.540955
75.016136 -49.695286 75.090324
74.047638 -47.834759 75.630257
74.470490 -50.675407 -29.200737
75.761536 -47.793880 89.625015
75.895370 -45.674713 95.828415
75.786324 -51.232071 -28.435312
74.907837 -49.824291 73.667709
75.726112 -48.167305 115.763298
76.109512 -48.586857 74.013275
76.627533 -47.293221 94.528046
76.755684 -49.351257 85.570595
78.638443 -48.965050 93.124817
78.015846 -52.480831 -30.416346
78.874992 -49.724751 87.611496
78.662064 -47.775719 96.954285
76.603821 -47.419064 98.066795
81.215317 -50.936451 -91.392128
76.341415 -51.686821 86.977379
77.331985 -49.415157 -33.638947
79.053833 -48.129444 -32.901566
78.812531 -46.832069 73.049461
77.997597 -51.299168 82.117706
80.591934 -46.612465 117.396675
81.120148 -47.282345 -32.986774
78.632217 -48.840439 75.657440
78.234962 -47.339554 100.454018
79.885139 -49.035988 79.645866
82.459587 -49.103252 76.838402
82.468529 -47.627880 82.042549
78.707039 -46.828854 100.999825
81.078270 -50.482380 76.723022
80.164909 -50.486908 99.573952
79.067879 -46.720196 115.069260
81.787430 -46.699596 -38.402702
81.240166 -47.927868 74.571915
81.880074 -48.005722 76.499649
84.511818 -52.174828 -41.216274
81.969231 -49.793747 75.917656
82.684845 -47.339249 75.823921
80.456139 -50.569351 103.718781
80.708656 -48.324589 115.258820
82.549255 -49.487167 78.190292
84.362045 -51.281563 -45.381634
85.342720 -49.738232 75.041199
82.451004 -48.309986 104.750404
84.381416 -50.264774 -46.425125
83.351212 -48.805321 105.379509
84.083878 -49.614056 105.489609
83.971352 -47.341194 103.792046
85.749825 -50.086750 106.797302
89.669418 -51.014553 112.877327
89.592979 -48.781109 -52.197662
88.345573 -48.199493 105.930542
89.182465 -52.173557 -52.900021
90.067413 -51.633442 114.361160
90.814781 -46.116947 109.611946
94.012604 -50.261166 -56.794296
92.841003 -48.954472 115.026855
91.529587 -48.814034 90.931595
94.164871 -49.296501 93.645020
92.491798 -51.116821 108.719917
92.901405 -46.308094 111.743149
95.041672 -48.037811 88.655617
95.768265 -49.701553 90.794769
97.974457 -50.405449 95.295143
94.906288 -52.848316 101.994713
94.868362 -48.649433 81.608688
94.165451 -50.858562 86.573784
95.200371 -47.176922 99.529716
93.442352 -48.591366 105.176849
97.636772 -49.697014 81.309441
94.850937 -50.047512 101.817932
96.953529 -49.637562 102.644760
96.831749 -48.386826 109.323097
97.607315 -46.501305 105.949265
97.022789 -49.900265 105.607605
92.287827 -47.650715 108.309700
97.095413 -50.094437 -57.465763
98.560623 -49.954777 77.299042
93.540573 -47.358639 79.374748
96.222580 -49.730827 106.964256
95.692947 -47.057411 111.596725
98.873901 -47.068233 77.735680
98.259232 -47.954689 79.967796
94.835426 -52.151974 108.005920
96.146179 -50.064266 103.525856
97.627518 -48.956799 76.060402
96.334000 -49.314342 104.180084
97.055313 -48.330032 106.776283
96.996948 -48.338169 114.107407
96.544449 -45.317711 96.882027
97.782745 -48.452164 98.983185
96.066826 -47.656391 103.177704
100.285477 -47.604500 101.907341
95.758133 -49.733761 107.058609
97.092674 -51.084778 111.011696
97.874619 -49.026798 93.596092
101.254295 -49.762657 95.243752
98.769943 -48.241028 110.532364
99.283150 -47.631546 111.561653
99.925827 -49.733788 90.668861
97.522728 -49.021233 74.992653
97.889847 -45.938633 111.063782
99.567719 -52.214966 -63.357624
98.755653 -50.012669 86.350601
99.696770 -50.593369 111.044205
104.318687 -50.795929 -61.708427
99.574280 -50.570141 69.383415
100.761673 -50.853611 80.863930
98.089264 -47.390095 82.047180
101.702454 -52.237446 -64.055824
100.941528 -47.829029 68.679207
101.083954 -48.711979 79.227776
100.288940 -50.212421 81.809074
101.690788 -49.411919 -89.599464
103.694962 -49.013969 71.256447
102.184921 -49.226795 71.538132
102.261879 -49.536079 76.907745
104.664200 -48.120708 -89.017784
100.986168 -46.420494 69.265015
101.928276 -47.822235 75.268387
107.025833 -47.023876 67.516808
103.605087 -47.187050 75.028160
101.010544 -48.907890 66.626976
105.509109 -47.696915 66.529976
104.210548 -47.922314 66.764938
102.015579 -50.618935 -88.840088
109.916458 -49.041382 -53.707859
104.625206 -48.355389 64.483391
104.630791 -49.891289 -55.445702
106.814514 -49.533062 -49.563465
105.997978 -46.848083 69.914055
107.207924 -46.472546 -53.781437
106.467010 -46.282528 64.693344
104.703583 -48.509064 65.927696
108.927521 -49.664661 -52.993095
104.350777 -46.863201 64.185982
107.574127 -49.534115 65.299850
107.989029 -48.745396 59.853214
103.715759 -48.016693 63.823372
109.894730 -52.383350 -60.723698
109.649361 -48.597935 -57.849728
108.042725 -52.132507 -51.265518
106.642456 -49.192905 67.085205
105.936913 -48.427982 -57.470211
104.351372 -46.089287 65.022865
108.563324 -44.581070 63.600578
108.581253 -49.631107 -90.598907
108.777321 -50.399506 -67.505295
109.953697 -47.765419 -57.653954
107.502769 -47.715111 57.909512
108.242813 -48.732697 62.945953
109.020081 -47.807232 64.695793
109.073326 -49.302891 -52.395832
110.719467 -47.757263 -53.138939
108.424179 -47.372601 59.767906
108.518806 -47.496635 61.908157
109.952904 -52.264660 -65.881866
112.112488 -46.031708 -56.959003
107.255867 -49.085712 -54.703281
108.043945 -49.795654 -49.193527
108.231888 -49.185555 63.173775
110.368149 -47.650349 58.265789
108.556328 -47.719772 -56.904545
113.035614 -50.373398 -56.366344
114.594337 -49.827538 60.902008
111.609261 -49.255463 -61.764545
113.434441 -47.407131 58.573784
112.518845 -48.213924 -68.977509
114.450050 -50.017822 -62.072727
111.611237 -46.910919 -54.564041
112.861801 -48.024727 -58.134659
112.677963 -48.660454 -54.723942
116.056068 -48.945328 -86.426414
112.666550 -51.565727 -66.191185
115.166489 -49.049686 -88.085999
113.448082 -45.846931 -60.782059
112.679268 -49.574760 -56.412319
116.645378 -50.110184 -56.901764
113.351067 -48.612690 -54.290089
115.250893 -49.580688 -89.435387
117.992455 -48.720142 -87.632301
117.576103 -47.854755 -73.498009
116.769905 -48.116440 -59.603764
115.679604 -52.129272 -85.328537
117.251961 -48.485458 -55.047226
120.093636 -47.638157 -75.446510
117.621902 -48.005718 -58.229904
119.774162 -46.690521 -50.654812
119.835663 -48.474308 -85.508293
118.511551 -48.074165 -84.484688
120.789490 -46.777012 -58.036137
120.705879 -50.569962 -79.562210
118.652969 -50.979671 -56.187180
120.831818 -47.952374 -49.491531
120.149353 -48.095612 -56.001572
121.935493 -48.004967 -50.915413
121.917633 -48.134163 -81.956177
120.879875 -48.955914 -80.576401
122.828110 -48.218456 -53.551865
124.137878 -49.563313 -85.307716
122.546326 -48.206539 -53.545612
121.644295 -48.722202 -47.802071
122.984276 -49.397243 -52.627396
122.473671 -48.674290 -53.942265
121.184296 -47.333042 -50.786095
124.798958 -47.363781 -53.589428
238.558578 -47.760868 1.317881
237.733658 -47.693501 5.547639
238.612320 -48.279610 -0.131256
236.904984 -47.602524 8.092641
237.719131 -49.539059 10.144220
236.395584 -49.476959 -4.598776
238.159134 -51.511223 7.758863
235.889740 -49.892750 3.541225
239.052307 -47.976978 19.896812
238.341629 -47.319740 27.935133
236.444321 -48.995457 -0.353502
239.509460 -48.923355 10.143818
238.240997 -47.390663 0.218837
239.331787 -49.298584 4.032753
237.351471 -48.909946 6.224444
238.020874 -50.451420 12.713733
239.214188 -48.099575 29.365368
239.442551 -47.844692 -1.710457
242.538818 -48.791725 -1.820575
237.500977 -47.722660 2.643890
240.320648 -48.833206 10.396735
240.663834 -47.716785 10.359571
239.532288 -48.475067 17.071102
238.186157 -51.976170 20.900043
238.728790 -47.073875 12.507346
240.048965 -48.001324 -1.998906
237.384460 -47.814671 7.691252
240.761475 -45.490059 11.636333
242.065582 -48.756065 26.257572
240.801529 -48.182217 -2.910654
239.906326 -47.402714 -2.711356
239.895081 -50.616699 0.195513
241.018677 -49.569107 30.292824
241.977386 -48.148220 -1.618747
240.663086 -48.589893 1.075400
241.614182 -49.523163 15.925925
239.615799 -46.757313 24.080360
239.815369 -49.738010 28.646938
241.348572 -48.435825 -7.233783
241.485306 -46.192364 1.926249
242.566360 -51.573242 12.788909
240.489594 -47.264717 15.019640
239.123642 -49.406551 9.120530
240.678757 -49.569138 18.474430
240.786453 -46.710133 0.506328
244.201065 -49.481911 4.772307
243.195908 -50.528278 4.614017
242.501205 -49.041447 19.626974
240.940079 -50.893181 26.266235
243.531876 -47.446140 -1.602632
242.120712 -48.457329 17.871490
241.094284 -47.842400 32.652794
243.242630 -48.226978 16.505487
241.562729 -50.717682 27.077797
241.302368 -46.638805 25.724260
241.376053 -45.938992 32.624207
244.538025 -46.892632 -4.246797
243.994766 -48.899925 -3.001603
243.097427 -51.696728 16.397486
244.171204 -50.193047 25.003544
245.304901 -48.667088 -3.852053
240.972900 -48.822437 32.385590
245.216614 -49.260307 36.048992
245.903488 -50.945831 -7.642835
243.295349 -47.437153 -5.632596
245.372589 -49.719406 33.194435
243.911301 -48.884224 24.660145
245.091629 -47.106728 33.316704
244.609238 -49.504993 -6.072492
245.982376 -46.805710 -0.149264
247.405426 -48.393845 -2.660690
249.116455 -49.250702 19.713692
247.346527 -44.205654 -3.987125
248.209854 -48.894157 34.358547
247.731903 -47.916420 38.858849
249.600525 -49.537659 0.124629
246.089600 -48.040524 -7.364677
249.135315 -47.796490 30.846905
247.870590 -48.731285 21.749050
248.118073 -46.433025 22.796535
248.667099 -45.049427 35.190838
251.355423 -50.483917 23.575771
248.807098 -49.270084 35.982014
249.172165 -49.160469 -5.879846
248.626938 -49.019218 35.421833
249.973450 -48.654293 40.032940
252.313599 -48.737591 33.052574
251.191742 -48.295567 35.435966
251.383820 -48.070168 -5.272397
252.252380 -49.900517 36.055412
252.680344 -45.803211 35.974491
251.538254 -50.610962 22.960743
251.043839 -49.878429 -2.837713
250.606964 -49.431648 40.027111
251.396164 -48.496540 -4.207902
253.316193 -46.984642 35.246841
254.865982 -48.614059 40.261230
253.505035 -47.845665 24.959236
256.593079 -46.419975 -2.567779
256.240082 -49.127693 -2.902373
255.846039 -47.909718 41.917301
257.420319 -48.458542 38.671146
258.457672 -50.042431 37.294781
255.638596 -48.033619 -4.256684
257.506317 -48.587093 -4.774693
258.642273 -48.197361 23.528614
256.826874 -53.870316 34.906357
259.876282 -48.706005 33.007107
258.418579 -47.552361 -4.437111
260.140015 -50.933971 22.519325
258.179962 -47.187500 35.230885
258.822296 -47.481205 27.501308
258.226959 -48.017929 35.261471
258.181885 -47.520443 34.204578
260.412476 -50.173756 -0.698287
256.252625 -45.391094 36.075531
263.738953 -47.529430 -4.366044
262.124603 -44.913677 -4.890482
262.044800 -48.270531 23.805927
263.636353 -47.161915 40.405811
263.107056 -49.931465 36.849106
262.367798 -48.078125 35.074314
265.189117 -49.245708 -3.284364
264.970642 -49.427509 -0.378355
264.274078 -46.849197 -0.597647
264.574127 -50.703175 -2.608665
264.271332 -49.150017 -1.402700
264.997437 -49.601902 36.785473
265.662872 -48.870926 -4.188319
263.451660 -47.342724 40.945839
265.309509 -47.933620 -2.730248
262.743164 -48.391903 30.623938
265.329712 -47.936195 0.787065
267.255524 -49.837898 -4.740080
270.521698 -46.189064 38.628063
269.356873 -48.779560 1.671061
270.736694 -49.212776 2.648527
267.556976 -48.767761 4.199497
271.873932 -48.758224 33.290806
269.283264 -49.891571 36.891785
266.127411 -47.257011 39.072685
267.739380 -48.562836 -1.405669
267.482483 -48.685097 37.024303
268.637268 -50.524624 -2.969826
272.175079 -51.684902 39.535454
271.011414 -49.094288 0.212192
271.238312 -46.817471 -2.523914
269.523773 -49.016876 23.078228
268.622345 -48.748562 -0.154559
271.884369 -49.321514 30.618912
271.216644 -47.908047 -1.009162
270.954529 -48.629864 0.027839
270.677490 -47.898357 37.103168
273.343842 -45.959988 2.705923
275.251282 -46.291912 5.217550
272.707977 -49.777802 23.484201
273.263641 -49.232376 2.134277
270.803131 -43.431080 25.302971
271.416138 -49.250862 35.636124
273.053711 -48.821190 1.062364
271.937164 -46.758579 0.601070
270.343597 -51.193825 -2.383775
273.496246 -49.126057 1.330758
272.867950 -49.856373 30.748394
275.232605 -47.966236 26.456095
272.303192 -48.107113 30.753830
275.184021 -47.651356 36.681931
271.523407 -44.165741 36.729496
275.065704 -51.920807 1.700509
276.114960 -44.559963 37.904137
277.090027 -48.864140 1.091219
276.200500 -52.396828 1.794483
274.784485 -47.151306 6.009782
273.137329 -49.942219 33.735661
277.039612 -50.011131 24.897530
275.028748 -50.036224 26.606407
277.591919 -48.682816 -0.859934
278.898712 -47.547977 1.958013
276.864777 -49.252766 31.645485
276.479187 -46.643578 34.320633
277.663574 -49.657516 32.110844
276.741730 -49.009411 33.105572
277.964661 -48.152905 2.546086
281.326019 -49.515308 33.497818
279.936707 -46.051697 31.968470
277.703705 -49.414570 6.332685
278.565430 -49.235260 36.218922
279.521606 -50.273132 1.451280
277.323914 -47.477364 35.264992
278.040222 -49.256809 4.804651
281.764496 -47.355797 4.333696
278.264526 -48.519489 5.953353
279.975067 -45.464088 5.828433
277.598572 -47.458523 34.603760
281.188141 -47.086918 25.168404
281.898560 -47.444202 26.056616
281.154022 -47.171555 26.523594
278.954193 -47.773369 31.839291
279.180817 -49.590107 36.970268
282.509308 -48.344566 5.412321
281.245148 -49.467991 2.009544
279.189545 -51.723660 6.327661
281.875641 -46.872314 4.808508
283.797150 -47.125622 6.195741
282.454163 -47.481522 7.461572
281.040222 -49.025425 9.275382
282.089111 -49.536720 30.962891
280.879547 -48.706753 36.147205
279.944336 -49.606033 3.867834
281.930267 -49.985565 6.374246
282.094604 -49.684326 30.568243
283.281738 -48.308384 36.073994
285.472168 -49.111965 5.474072
283.369873 -50.380924 7.233889
285.325012 -47.845257 33.882225
283.198853 -50.205620 8.189684
285.190125 -48.905769 29.261812
282.843475 -46.580002 28.880550
286.845276 -49.818272 34.672951
285.055450 -49.664993 6.673492
282.761749 -46.441929 7.866459
287.699493 -43.394344 6.971355
285.937225 -49.536095 9.929788
285.345520 -48.189320 29.478165
288.113800 -49.208153 7.098319
285.740692 -47.199265 13.463684
285.357971 -47.375233 6.059214
288.472748 -48.793938 8.838791
286.341614 -49.391033 28.717739
288.402405 -49.867172 29.706387
286.670563 -47.430298 7.007390
286.379486 -46.669659 9.747268
286.150513 -49.415485 11.102072
290.329071 -47.271709 12.848307
286.149841 -48.087040 10.592997
290.625763 -47.272816 27.298481
287.199554 -50.044281 9.050448
289.874084 -49.739872 9.474385
288.251434 -50.200825 31.808432
289.953125 -50.861626 10.920416
290.699310 -49.077076 12.992809
288.509186 -50.643921 25.420601
289.662933 -47.338612 11.493741
290.673309 -47.221317 26.517466
290.885895 -49.238697 7.250111
290.344177 -47.043335 10.551585
289.919037 -47.993366 12.068219
291.403137 -46.252735 26.050371
290.509308 -49.881432 3.582847
288.939117 -47.808090 11.444751
289.782104 -49.512264 19.678585
291.511810 -50.685749 20.494860
288.879944 -47.670406 27.975882
290.035095 -48.850906 6.020836
292.151520 -47.459526 14.728222
294.053101 -48.140770 17.345608
293.053345 -49.529602 18.416979
291.461914 -48.043678 14.234644
291.840607 -47.689587 23.774748
291.112427 -47.502705 26.480791
291.437012 -47.740475 8.894812
294.073486 -50.676434 8.289798
292.062347 -48.020885 24.510818
292.128296 -49.705101 12.374241
295.461243 -49.151257 19.158865
293.169220 -48.546734 19.943104
291.411987 -49.887005 22.224442
293.732239 -47.382095 21.402443
293.557617 -46.965645 21.951323
291.505066 -47.627045 11.150259
291.134125 -49.180782 12.266800
296.262268 -50.078190 12.172305
295.135040 -46.171242 18.306271
293.808502 -49.215309 12.692312
297.148041 -49.250011 15.983098
295.477631 -50.586388 24.028620
295.223938 -45.685844 15.234335
14.798404 -47.068573 43.652039
11.571332 -47.760147 44.586288
12.991204 -45.963177 38.762573
12.549728 -49.710823 39.434589
15.321044 -47.934162 38.132317
