# This PCD file was generated using the MATLAB® pcwrite function
# from Computer Vision Toolbox®.
# .PCD v.7 - Point Cloud Data file format
VERSION .7
FIELDS x y z
SIZE 4 4 4
TYPE F F F
COUNT 1 1 1
WIDTH 1463
HEIGHT 1
VIEWPOINT 0 0 0 1 0 0 0
POINTS 1463
DATA ascii
117.744629 -71.258377 46.203739
117.008629 -69.156578 44.985794
118.893990 -71.278320 54.250683
119.805069 -70.708351 43.231915
120.886154 -71.716606 123.704796
118.454529 -70.236870 121.608170
121.665993 -72.512009 42.694229
124.244797 -72.288864 120.610184
123.077400 -71.435532 43.035267
122.815857 -70.915726 41.155704
119.976921 -69.513832 122.315491
122.288956 -70.784477 43.184494
125.750893 -71.426819 50.544724
123.594879 -69.259834 42.371311
123.843849 -67.556602 52.260307
123.965515 -69.405495 40.632896
124.492073 -70.118172 39.447670
122.533783 -69.789001 123.649628
122.952499 -70.821815 57.025005
126.067039 -71.500893 120.695206
128.683594 -71.281815 123.533051
127.469910 -67.573959 121.501236
127.530106 -71.382637 40.892628
130.174973 -70.489693 51.834759
127.230957 -73.871422 49.576424
130.575317 -69.608406 121.702988
126.895576 -71.419296 118.517807
130.790314 -70.165047 125.328590
125.812988 -70.663010 39.594467
128.027328 -71.858635 53.133526
129.680984 -70.651642 40.041763
129.388794 -70.493637 120.581337
127.851456 -70.526070 51.750698
130.559189 -71.511185 51.490509
128.457367 -69.716736 39.988937
132.549576 -72.050705 48.171444
133.353683 -71.046387 39.322418
131.581696 -71.126671 39.431805
132.799759 -72.819450 121.085678
135.618271 -70.042603 124.506821
131.647018 -69.960777 37.725613
132.988861 -70.553329 125.038261
133.755219 -70.575584 46.410454
133.716980 -71.832489 51.768433
136.751312 -70.652969 36.683094
137.034943 -70.330994 -44.687859
136.765366 -70.263794 -45.781311
137.319366 -68.733208 -41.375095
136.012512 -70.732529 35.275990
134.613998 -71.142342 47.524979
135.036591 -69.999458 -42.283447
133.332108 -69.534042 125.263138
139.037933 -71.349731 -45.036411
136.650055 -74.079498 49.538139
137.494354 -69.019859 -38.904301
137.265762 -70.739769 125.118637
139.531570 -71.717331 -42.460190
140.286346 -70.487312 -38.308208
136.293427 -70.801208 -39.497849
137.048737 -72.384140 39.984207
138.067581 -70.848747 -40.011333
139.044174 -72.295494 38.334625
142.041107 -69.401207 35.844872
138.813354 -69.155190 47.384327
140.176514 -70.489494 -35.850773
140.969833 -69.583557 47.162804
140.621796 -70.926765 121.061325
140.835770 -71.863747 -41.244522
142.733597 -72.115677 -32.301216
141.475403 -70.076546 -40.891346
142.716599 -72.833923 33.214596
143.452972 -68.249847 35.186668
142.568558 -71.402206 44.031364
142.287399 -70.158722 -45.265209
144.750580 -71.115379 -45.076916
145.146454 -70.127159 45.168018
141.413040 -70.719032 126.401405
143.600311 -72.202614 -41.051292
143.170868 -67.960815 -62.677914
143.098419 -71.536278 122.647675
149.499435 -70.540573 -39.491562
143.999298 -70.358887 38.738262
148.554047 -71.335228 -61.957478
147.206177 -69.101540 43.902134
148.541107 -68.530876 127.723190
146.755630 -67.557846 -41.541431
144.030960 -69.882088 34.721901
149.542923 -71.012863 35.373875
152.228882 -70.631958 -61.528751
148.458893 -71.422424 -58.221046
148.099564 -70.923286 -40.503059
149.411041 -72.156799 -30.134150
149.268219 -70.280724 121.501953
148.264816 -70.436218 -59.986820
147.588531 -71.227623 -42.375744
150.750092 -71.578484 33.444134
151.281143 -71.574951 40.830536
149.999802 -71.134277 -42.658352
146.971481 -70.316513 -34.406013
150.474548 -70.720901 -30.268896
149.114624 -71.599525 -59.577065
148.605194 -72.166138 124.408775
149.413116 -72.227135 -61.196159
155.069992 -75.022270 -28.672733
151.201080 -70.870125 -56.070927
149.210602 -69.797302 -33.591515
153.570786 -70.486702 -30.737921
150.054550 -71.255730 32.266548
154.318649 -69.462395 122.265587
154.234970 -70.933739 -55.031601
152.979019 -70.079285 -28.081280
153.494675 -70.945992 -27.000656
151.984024 -68.620544 31.367117
152.945480 -70.629799 125.800278
154.621216 -69.403191 -63.515125
154.863693 -68.954536 -28.767239
152.865326 -68.312675 36.038280
152.570023 -68.996834 -59.184414
156.489594 -71.158699 -43.055290
153.421494 -70.568970 -39.626740
155.842865 -71.867851 119.639297
155.144333 -68.544998 -41.010792
154.690292 -71.836418 34.406704
151.302063 -70.354996 46.681328
156.671280 -72.316628 -54.864513
155.855499 -72.746758 -28.022818
153.858093 -72.655556 42.446812
156.034866 -68.189407 120.337555
155.311569 -72.065399 126.774323
153.956543 -72.859390 -27.772051
155.171539 -71.342735 129.004059
155.845337 -70.659195 -59.333042
155.565475 -68.986046 -50.843468
154.643753 -71.069626 -26.474339
155.109894 -69.657852 33.438496
154.451035 -71.074089 42.408310
152.438080 -70.054153 -56.538071
157.306305 -70.460548 -53.692226
158.223083 -71.341743 -56.373158
156.967560 -71.335396 -39.593990
154.124878 -71.149239 -26.613522
155.180389 -70.587463 -24.857286
156.945847 -68.716362 -39.824223
156.306717 -70.703583 120.165955
159.972580 -68.815681 18.000687
157.486816 -72.586296 35.457462
153.852798 -70.411148 127.398384
155.321136 -72.170113 -61.092522
157.956131 -68.385056 16.397512
156.762894 -69.794678 33.151169
156.485687 -69.776176 118.882866
159.364029 -69.795410 13.334344
157.954895 -69.470345 -54.858940
160.417740 -69.620163 -52.039261
161.311508 -72.796585 -35.345131
160.106277 -72.258232 -20.427811
156.600067 -68.875786 16.664124
159.618668 -70.598396 33.152561
158.570618 -69.677528 41.270596
155.727798 -69.315887 128.583832
160.971695 -71.761009 -56.507889
160.422043 -70.751602 -37.462387
160.950790 -71.580246 -59.609558
158.474731 -71.521332 -35.214115
161.048477 -73.044876 11.353237
157.910461 -69.076935 34.806625
161.628998 -71.839287 -53.900486
157.610687 -72.114883 -50.232750
158.214020 -68.981430 18.186745
162.270691 -69.518471 44.486164
159.136871 -70.559151 124.527191
161.091049 -71.135254 -52.113602
161.223785 -71.408508 -54.210720
161.660522 -71.255241 -37.384438
160.160583 -71.719025 15.615314
164.179688 -70.656487 34.549309
163.495239 -68.394829 -55.076756
161.733307 -70.237167 -54.813755
160.562225 -70.990906 40.164803
159.166656 -72.628471 119.796547
158.933899 -71.742744 -33.261875
161.656998 -67.557327 18.225092
162.908951 -71.336647 -52.783009
164.011200 -68.593079 -51.310871
161.422043 -68.311493 -50.074211
165.256714 -69.616829 8.120387
161.045624 -68.164139 29.987648
164.595276 -72.268280 -33.706490
163.969406 -71.568199 -35.691895
164.620926 -70.469490 16.456091
163.526093 -71.833504 -53.210136
164.313919 -69.155090 -34.653866
164.396790 -71.973404 28.644714
167.056946 -69.197746 43.146286
162.740067 -69.205605 38.563847
163.523132 -69.813164 117.636292
164.449142 -73.529213 -48.680004
161.419083 -69.086693 8.387760
168.169983 -68.497276 13.520065
166.675934 -72.277428 -18.724096
165.539551 -71.010674 -54.499802
164.417114 -70.501617 -19.322067
163.414352 -69.263641 126.416016
165.771500 -71.926582 -33.089874
167.038086 -70.909523 -34.998035
166.867828 -70.569817 -23.221046
164.203934 -69.142174 39.844917
168.157974 -70.287979 -48.843208
166.180405 -70.102592 -49.515724
167.660294 -71.956802 1.897651
164.890839 -70.300415 126.168861
167.608719 -72.308418 -55.461334
167.789200 -71.109566 -54.207958
167.875290 -72.003761 4.389336
166.608383 -70.132858 -53.461800
169.624847 -72.170418 -51.078098
169.011627 -68.479347 13.460459
167.745926 -70.423363 -49.495567
165.386047 -69.473129 -24.693598
167.997803 -71.989059 -50.548069
170.179977 -70.536125 -32.025307
165.793182 -70.659256 119.687157
166.552353 -73.307297 125.069405
168.617477 -72.502182 -45.348465
168.847733 -71.027481 -48.001129
168.114700 -70.442642 -32.658436
169.568329 -70.414864 0.982121
169.736771 -69.936340 28.617680
168.248947 -69.891800 39.949108
169.039383 -71.013702 123.132095
170.185349 -72.098999 -55.571209
170.129440 -70.831429 -53.614136
166.702011 -71.555099 -29.953245
167.556427 -70.329880 -18.616068
170.639816 -71.582916 -49.735584
168.732880 -69.922935 -46.791103
169.916275 -70.926056 -32.435642
167.904602 -76.493347 -21.684706
169.563400 -70.764938 -17.669056
171.581284 -71.849472 -51.127304
170.627716 -71.189384 3.067237
170.662338 -71.620316 1.214691
171.492111 -73.194206 -30.699356
169.022507 -72.560791 2.748445
170.795502 -70.327103 5.663597
169.433105 -71.910683 7.781948
167.607697 -71.390343 117.343315
169.060074 -69.180611 -57.646900
169.118683 -73.875832 -17.947369
171.417526 -71.593483 4.768288
174.491898 -72.013718 -53.259468
176.079010 -70.202065 -27.441246
171.022064 -72.539154 -49.515701
171.603668 -71.259140 3.696998
175.197342 -71.806633 30.671831
167.796555 -70.888878 30.921137
174.366104 -72.385834 -45.181488
171.993225 -71.120010 -1.090942
171.702240 -67.637817 0.597553
171.499115 -70.950615 5.637121
171.576614 -73.093735 -48.375477
169.165039 -69.569176 -51.172867
173.802841 -70.526649 -31.656994
172.315979 -71.273933 -18.407696
171.278488 -69.283180 2.191292
171.392593 -66.263557 2.956256
169.127258 -70.670341 37.862392
169.903946 -67.244270 -50.887226
171.490326 -69.568123 0.174808
174.300537 -69.925392 4.558791
172.981705 -68.828789 4.086926
171.271973 -69.791237 36.491230
174.884384 -70.865181 -47.140270
172.650345 -72.874710 -15.824812
172.815231 -71.772690 29.277855
170.502914 -70.956032 124.492523
174.052444 -68.515465 -47.123909
172.544891 -70.419098 -17.879084
172.890808 -67.765732 28.511688
174.202850 -67.769615 37.195438
173.993912 -69.941002 -52.433556
175.466583 -69.841927 -53.150848
170.982925 -71.989014 115.286621
174.878082 -68.569397 118.812508
175.136124 -68.806343 25.431168
175.265839 -69.032890 -25.293570
176.712631 -69.994331 -18.467743
171.810562 -72.203384 29.818872
177.873917 -71.570465 -51.550804
175.767075 -73.337944 124.041252
178.694916 -68.578102 -44.521404
176.286285 -69.003830 -25.471827
175.890808 -71.211357 -17.255817
175.577103 -70.598557 35.272175
173.596542 -68.012512 37.206619
173.045746 -69.932892 116.520966
180.749008 -72.473740 29.672228
179.524902 -72.742767 -53.716167
176.945053 -67.973534 -45.137066
175.217606 -70.661736 115.896530
177.157242 -69.464638 116.953690
179.330643 -70.401947 122.497147
179.036987 -69.088310 119.380951
178.588104 -69.262100 -47.568443
178.858002 -69.028885 -42.596474
178.667496 -68.779289 -15.751046
178.991577 -69.834213 114.970863
180.485397 -68.314056 118.647232
180.832642 -69.097290 119.826393
179.842926 -71.311699 -21.035423
181.383545 -70.050339 23.857149
181.817322 -67.858948 29.251740
181.091904 -72.152496 -11.886274
179.607178 -71.418900 34.674026
181.541367 -71.511635 -24.811314
179.105042 -72.679024 -16.283169
181.873520 -70.221573 29.340239
183.529999 -72.464958 34.202572
185.264435 -71.067078 113.599663
181.349319 -70.787842 116.812141
183.161041 -70.067940 -25.527361
184.246353 -71.872482 31.396868
180.740463 -70.513100 -47.983818
180.775085 -73.163017 -39.705414
180.164536 -68.961189 121.173927
181.219391 -72.926018 -9.118207
180.361404 -68.560074 28.221079
182.635620 -70.780312 119.179184
183.226730 -70.184151 -10.740682
182.826660 -71.142426 -9.501586
183.962814 -71.089035 -39.103424
180.404480 -71.152122 34.456333
186.980225 -68.602829 28.963753
184.509781 -69.488060 35.474766
183.723343 -70.109200 -47.637890
183.310242 -71.211571 -24.214207
180.134506 -70.461197 -23.147720
186.150040 -70.816124 -8.882907
183.440979 -72.554123 24.409546
183.686646 -70.985161 31.511087
187.732162 -70.545135 -44.263351
186.080750 -69.677139 -12.617198
184.287537 -74.129784 -9.612178
186.869232 -70.432205 -138.044327
185.550095 -70.547142 -24.499805
187.562866 -71.580589 -8.051269
186.563324 -69.149292 -135.316055
186.500717 -69.081200 -41.817432
185.668732 -70.678749 23.146439
186.246994 -68.807930 -134.967575
184.196655 -68.472061 -18.925407
186.239044 -69.594376 32.692856
187.548508 -67.549149 35.026348
185.828369 -72.294983 113.140450
188.807449 -69.443260 -40.546665
190.076324 -69.220116 -35.820511
187.240219 -69.530678 116.639977
189.086548 -68.992218 -139.034897
184.395401 -71.024071 -134.750198
187.914307 -70.660988 -44.004112
187.895111 -68.816483 -36.400173
184.809875 -69.031036 -8.090021
185.882431 -69.684860 -9.199987
187.935516 -69.469269 28.435959
189.484024 -70.427361 31.322376
189.591675 -69.389153 -138.745499
188.053391 -67.214722 -138.882126
190.105423 -70.339638 -134.230438
187.758759 -72.173622 -43.509804
188.243378 -72.779228 120.560654
191.054504 -72.280441 -139.322250
189.415405 -71.368637 -9.073911
190.282059 -71.558006 -132.114700
190.488571 -70.222527 113.448036
187.274094 -69.461067 -133.616989
190.627884 -69.448746 -33.621582
188.620300 -70.997879 -19.706472
191.558472 -72.469505 -8.435108
191.205765 -72.128914 -139.479858
192.321335 -67.841484 -20.403049
190.411469 -70.788567 -9.033240
185.947037 -72.032387 21.841366
188.567841 -71.892441 31.191263
191.819626 -70.631859 -134.980118
189.624451 -70.203857 -16.309338
190.489029 -71.561447 24.238516
189.787338 -71.189194 116.246994
190.617783 -69.212769 -135.823593
190.810425 -71.765038 -40.724678
189.660675 -69.993973 32.307713
193.510040 -72.282547 111.540878
192.370178 -71.370567 112.851021
192.695251 -73.789040 -32.944477
193.663315 -72.144882 -18.837851
189.636749 -70.558456 22.889561
190.307800 -70.040466 -136.807312
190.983978 -72.147629 25.388041
193.115311 -68.481377 33.523476
192.726395 -69.997429 -139.842346
193.850708 -69.930382 -135.024521
191.671265 -71.156906 -38.343422
195.184906 -69.461052 -13.860349
191.773941 -70.596832 113.706078
191.908691 -70.968498 -134.547089
194.302048 -69.966217 -17.941559
194.607376 -71.434273 -6.846339
193.196396 -71.496681 21.044268
195.793228 -73.792343 -132.820786
195.229172 -68.214882 -28.488695
192.930298 -71.970215 110.060364
191.474411 -73.496063 117.200798
196.776947 -70.369209 -34.886608
192.495773 -68.986702 -18.451460
195.805267 -68.896736 -131.964752
199.010620 -70.698662 -139.858719
195.456833 -72.745583 -131.963379
196.174896 -69.817047 -29.439728
198.183548 -70.122360 24.028521
196.975647 -68.584274 117.523041
195.963959 -70.220085 22.027279
194.935928 -69.365013 106.850861
196.492584 -69.581062 -37.777760
193.928284 -69.687691 110.767105
194.628021 -69.427414 -26.162121
192.543610 -70.480850 -5.147014
192.983688 -70.694031 19.953217
195.475922 -70.210007 34.392334
196.602509 -72.077820 112.596893
193.751663 -70.749809 -129.892365
197.938187 -71.634239 -129.709808
198.134415 -71.870453 -5.365729
196.496796 -68.239922 106.027969
197.842270 -70.642776 112.028297
196.432678 -71.692322 114.835022
197.688583 -71.068596 -126.937935
197.444077 -70.721992 -36.320206
197.719376 -69.776985 -29.182667
197.464447 -69.035995 32.990280
198.960953 -73.173416 -139.872681
200.590927 -72.182533 -122.850250
197.519379 -71.561272 -33.726360
194.800858 -71.702316 -16.206635
197.785187 -73.129013 -13.781193
198.202438 -71.141121 113.650543
198.202560 -71.912720 -124.118233
198.871185 -71.432549 -11.852819
196.429047 -69.083084 27.757500
198.431305 -71.533585 -127.033043
200.956955 -71.002281 -126.286385
197.858917 -69.206551 108.194130
195.497498 -72.810532 109.594307
198.148834 -68.827881 -135.053391
199.498718 -72.312744 -125.272125
200.881149 -71.392868 -33.538883
200.227097 -71.762291 -142.544312
197.311234 -73.494499 -28.707283
201.035645 -71.176544 -3.665320
202.212677 -68.900627 -6.156327
202.086517 -72.483864 22.692728
201.503601 -70.654839 -134.915710
200.284744 -70.249969 -14.523731
197.880157 -69.393173 17.126602
199.325455 -70.621490 112.565514
199.044205 -68.976418 -127.497879
199.246323 -71.378799 -126.789398
201.581146 -69.902229 -24.669048
201.198212 -72.082687 33.008297
199.815277 -68.318733 -33.892365
201.426010 -67.514832 -12.259981
200.892075 -68.253960 104.574829
200.568512 -69.449493 -129.686035
199.954895 -71.009926 -128.951584
199.356781 -68.570259 -126.501328
202.939163 -69.745529 -126.111168
200.170364 -71.371094 -125.720497
198.580032 -72.513725 -126.576706
203.583206 -69.205261 -2.628545
198.102386 -69.588806 30.067865
203.407761 -71.269569 -25.213934
203.280991 -68.806587 -11.685831
201.407059 -70.704391 -0.735068
203.999130 -70.071701 109.719070
201.184586 -68.834991 112.841400
200.661133 -73.166290 -26.168928
203.011688 -71.521667 -32.003941
200.640350 -72.335823 -9.874130
199.360168 -70.845856 24.315125
204.451599 -71.160049 -7.652311
201.515686 -73.291336 -0.766443
201.437317 -69.533867 109.833740
203.336807 -69.269058 20.458160
205.232834 -67.959366 30.791998
204.438644 -73.096725 -31.448906
203.709549 -71.185310 -3.203246
202.297943 -71.418892 111.122215
206.263458 -72.054588 -139.109741
200.600769 -70.306503 106.132553
206.238602 -68.549759 -19.649508
207.075455 -71.315430 0.041675
204.414505 -70.568314 103.430489
204.248489 -69.182686 111.574219
204.735077 -72.198105 -30.602551
204.429474 -72.270844 19.467873
202.435913 -68.896248 28.618458
206.520386 -69.822083 -29.383278
203.742813 -73.151390 17.667751
207.501373 -70.650658 -22.025663
206.639023 -67.804230 -11.967169
202.153610 -70.373215 -8.494945
206.316803 -71.741577 17.647314
207.530151 -71.044510 30.645092
206.709686 -66.740524 -137.428131
207.938385 -71.175819 -1.106352
205.827911 -69.849831 103.005493
209.437424 -70.537857 0.702590
204.934937 -71.553566 -9.038930
205.869308 -71.079826 -2.074178
208.466278 -69.171791 16.319971
210.411224 -69.341515 108.690483
208.764954 -70.908890 -17.776186
208.086975 -71.084808 20.813160
207.263184 -70.676468 -137.717468
210.609421 -73.774414 -15.367501
208.649567 -69.468323 -134.261032
207.885101 -69.437737 19.300278
209.289276 -71.163063 105.634819
208.755295 -70.173241 -7.007306
207.605408 -70.243141 2.799954
208.378738 -70.218018 19.088415
208.944473 -69.454887 -66.761559
209.846252 -70.094780 -20.717026
210.231369 -71.594917 -63.815395
208.079239 -68.392319 -25.385866
213.212219 -72.783371 -24.294132
210.743317 -69.955803 109.281502
211.095078 -69.681206 -133.339325
209.262161 -69.534744 -65.583588
209.552963 -71.340332 99.769745
207.823883 -68.825912 104.581772
213.983307 -69.979645 106.284218
210.548203 -71.811348 -139.659363
211.493179 -68.931175 -67.675247
209.348694 -71.197273 -67.012863
209.576080 -71.684570 -64.211189
212.471329 -70.634567 -63.662090
210.062988 -73.322189 -17.540651
211.137619 -70.747032 -16.508495
208.749420 -72.426643 -10.787891
209.165833 -71.432693 20.313541
211.933105 -69.413643 -68.871773
210.573227 -68.839439 -69.156113
212.666885 -70.620338 -66.325249
207.732193 -70.587662 -17.617794
211.659088 -70.774963 -16.413877
207.082916 -70.313728 -9.735272
209.499756 -71.815796 17.919304
211.523911 -71.072685 -134.188553
211.897125 -69.397957 -66.137360
212.009933 -71.693626 -3.501600
209.554260 -73.788422 1.232985
212.636093 -72.620354 17.212008
213.188980 -69.027290 106.175064
214.808136 -69.196442 -136.011230
213.560059 -69.428452 -73.231064
212.493637 -68.938293 -75.890312
211.678085 -70.342697 -62.261753
211.309723 -67.847038 -22.518833
210.512573 -73.939705 -25.280951
211.573776 -72.273201 -19.013170
212.037079 -70.610123 -14.230561
211.403442 -67.661545 4.169422
212.548782 -69.094460 -19.503677
214.920197 -70.872948 -6.726772
212.324478 -67.771469 6.829887
208.934341 -72.822495 18.714394
213.436417 -69.681023 -76.828110
214.354874 -69.242111 -16.532141
214.694763 -72.859467 -13.620281
213.199280 -70.043831 -78.260834
212.273636 -70.577850 -78.897713
214.425568 -70.146675 -65.010193
210.942368 -70.389297 -65.579529
211.959641 -69.659889 -18.203220
211.863358 -69.105209 -134.397339
212.330475 -71.869583 -65.356308
210.679413 -70.758980 -24.117123
211.233902 -71.588753 -16.193340
214.100021 -72.611504 29.327259
216.249954 -70.501549 16.061718
213.046219 -71.595108 29.495115
212.537216 -72.831421 -137.145065
216.246124 -71.865509 -81.196976
213.322723 -69.705833 -66.783440
213.668961 -72.470276 -17.986521
213.071167 -73.010544 -4.477567
214.482666 -70.857651 -19.971735
215.232849 -70.283592 -11.192397
213.836182 -70.170624 102.255630
216.474823 -72.153389 -82.670250
214.539124 -70.372261 -21.426826
216.017502 -68.486412 4.818323
215.373642 -69.070564 8.156062
215.464981 -68.555794 -16.174252
215.883438 -70.478500 -3.473272
215.668732 -75.679527 94.504433
217.101273 -73.759941 -135.491943
214.720566 -69.989792 -79.097168
217.916840 -72.459343 -69.429276
214.806824 -68.761269 28.971933
217.166092 -73.444405 -12.725373
216.233551 -67.995453 -2.305247
216.987976 -70.090584 -137.761063
217.072601 -72.363808 -137.030136
218.579697 -72.125992 -74.471901
216.964859 -70.554672 -18.370184
217.464020 -73.339302 -4.835673
219.357468 -70.357872 -76.235062
216.983826 -69.373306 -13.750120
217.858673 -70.517815 -6.205401
215.809372 -71.584496 6.939558
215.582626 -69.035416 28.380322
218.352371 -69.698860 102.569992
219.285095 -70.073593 -83.065887
217.583664 -69.400330 -16.128923
213.501892 -70.384460 18.767021
218.452133 -73.062515 93.890015
218.448364 -73.037086 -75.969612
219.540512 -72.380409 0.142311
218.118195 -70.710861 5.077233
219.492142 -71.565552 -84.040939
218.521439 -70.681229 -80.309235
218.705734 -72.084641 -1.931280
221.058151 -70.861572 17.967272
219.504059 -70.243118 30.580534
220.260208 -71.751488 -85.927116
220.016434 -72.392998 -81.179588
217.628082 -71.756371 -16.633554
221.237000 -71.894974 -12.543952
219.661057 -70.396530 27.052555
220.435303 -70.410126 -137.002579
220.666946 -68.796074 -85.560120
220.424072 -70.564217 -0.363423
219.313828 -72.856010 6.039909
219.662811 -70.015442 -138.362335
220.635300 -70.968994 -18.471060
220.234467 -72.096046 -10.895052
220.736435 -70.214516 -6.179466
219.037140 -72.016312 9.561703
219.255707 -70.588989 -0.272233
224.383636 -70.888779 10.416600
222.974106 -71.784225 15.047139
218.465454 -71.374069 18.325521
221.567657 -70.242912 99.924026
218.970535 -72.777878 12.244881
223.119720 -70.203964 25.530470
224.550400 -73.650291 -14.462811
221.607254 -69.128372 -3.024321
219.461929 -68.940918 0.229855
222.122635 -74.233246 1.934755
222.470047 -69.341248 89.724228
220.098404 -71.824608 97.587654
221.477692 -69.056931 -138.120743
221.662735 -72.037666 -7.988794
222.090622 -69.556747 -8.563583
222.017273 -70.828590 1.342566
223.033844 -70.150345 3.565103
222.004776 -74.023567 12.213068
223.376648 -73.047646 11.332808
220.302704 -70.243515 97.722847
224.330338 -69.103432 -8.367050
222.773361 -71.855255 -7.643471
221.103027 -72.118637 11.806475
224.142212 -71.908951 -139.666901
222.268555 -72.806358 -134.858780
221.210754 -72.515327 0.466575
227.350510 -72.112885 11.862571
226.250885 -70.213676 26.603146
222.355423 -68.597122 27.527002
224.858810 -70.307564 14.088692
226.346161 -72.069069 90.886002
225.684128 -70.947243 -141.464569
226.232452 -70.278366 -14.674637
223.035889 -68.951057 18.806236
225.293396 -71.116142 -7.076330
225.694046 -69.771454 4.588093
222.194641 -70.348320 13.542096
223.014389 -70.100426 95.137497
221.275269 -73.293915 88.460876
225.697708 -70.916901 -9.613631
226.967300 -71.545387 -0.036063
226.033783 -71.749992 16.416946
224.265656 -71.273438 29.519474
224.272903 -68.892052 91.829849
226.562363 -74.320244 -128.762802
224.389328 -70.939697 -0.414675
222.700150 -71.179947 15.963529
227.344208 -71.802254 4.901873
226.622345 -69.910339 27.740526
227.904495 -70.158691 0.197755
223.370163 -71.527122 10.947168
227.289978 -71.692886 11.189602
225.960083 -71.676903 13.049311
226.097931 -71.412102 -0.175350
227.223724 -70.112320 30.209133
222.477585 -69.694962 92.333969
227.318359 -68.479240 1.131352
228.726273 -71.744041 15.695734
227.588623 -73.374817 -139.220749
225.321701 -69.016838 -9.754152
228.630096 -73.249664 87.685982
226.889191 -67.669235 85.921555
228.867035 -72.077827 89.093956
225.950363 -72.196617 -137.000153
227.189148 -71.499298 3.712704
229.122040 -71.947113 12.647097
230.119827 -71.073326 16.699804
227.539902 -67.948425 84.048851
230.377411 -72.396286 -5.360885
229.337631 -70.802979 2.051163
226.894882 -70.260185 93.065285
227.846313 -71.030296 -135.694214
227.576416 -71.031830 -133.507706
227.997375 -68.061722 -116.144974
229.496307 -69.509224 13.427576
225.252396 -71.540100 23.543335
230.860153 -71.941925 86.424805
229.950821 -69.440781 89.657539
229.001221 -71.846008 -4.056496
227.923218 -73.881989 4.830347
229.703094 -70.994705 14.667009
230.329376 -69.209862 17.904440
233.385757 -70.022774 -130.048889
230.739700 -70.376389 -2.582063
230.879318 -71.663071 -2.922838
229.858292 -70.803223 84.639099
226.742554 -70.523743 0.038656
232.351913 -72.855972 4.233948
230.396362 -70.235420 13.297508
230.576920 -66.081245 14.756461
230.457138 -72.299797 2.570254
225.711700 -71.848213 6.140361
230.015945 -70.315094 84.691582
226.580063 -70.240944 85.092422
231.318497 -68.608040 89.945389
230.362656 -72.086746 19.817165
232.459686 -70.423569 84.514610
231.061569 -69.613464 1.792804
231.945847 -69.771835 4.846788
229.334503 -69.828308 81.454941
233.801666 -74.328644 -141.193481
230.931976 -70.404732 85.034256
231.935791 -70.949806 -142.871628
233.920258 -72.797806 27.950687
231.011551 -69.381226 85.700523
231.128845 -69.749687 7.572816
231.724304 -72.805321 14.721848
233.434998 -71.096916 29.729342
237.869461 -72.285583 8.766479
235.938705 -69.950562 19.023136
234.223236 -71.442490 79.937660
235.441605 -68.726746 81.546387
236.226334 -69.667282 81.596306
235.040771 -68.144180 9.749606
237.704422 -69.582710 6.371920
236.605698 -72.010506 -139.163437
237.545731 -71.139961 8.249210
234.996338 -69.571045 14.200456
234.656128 -70.972496 24.496681
237.313370 -67.635963 29.871223
236.726807 -73.523499 -134.585571
237.260971 -72.218521 -12.001213
240.020233 -70.629578 -10.012930
238.131729 -69.206299 -12.567339
236.908264 -71.607597 -4.194800
238.276672 -72.320709 -18.854654
238.955978 -68.481094 -6.915969
238.358307 -71.646423 -132.684250
239.695602 -68.556892 -4.265091
239.753220 -72.354965 18.106194
242.086594 -72.758156 14.446390
241.087753 -68.992226 -21.979212
238.089111 -69.585258 -3.143138
235.809219 -73.690796 16.529366
240.498749 -72.780510 -25.272123
240.494720 -70.055267 -2.816499
238.934021 -67.878426 -138.987717
239.491730 -70.770508 -31.509308
241.894241 -72.473946 -23.444847
244.016632 -68.849152 -6.736418
239.680939 -71.403618 11.725292
243.294861 -68.687683 12.389087
241.680817 -69.035423 -30.232683
243.081802 -70.206871 -26.986544
243.089981 -70.920540 -6.005302
241.378174 -70.173500 -32.529427
243.302078 -73.677025 -5.833633
242.250992 -71.089478 13.306289
241.585541 -72.103783 -39.566360
239.347260 -70.364174 -32.100830
242.871140 -71.043945 -9.381172
237.798370 -68.554832 13.941206
242.243912 -69.163597 21.624891
244.096802 -70.915192 -136.682770
240.619537 -70.474304 -39.112823
241.518326 -68.737251 29.989159
244.558517 -70.770599 -139.497498
244.307632 -72.980331 -14.090705
241.825027 -70.083221 -18.623474
242.478592 -72.581497 -14.719888
241.420593 -72.341965 14.157852
241.832336 -69.399513 17.494463
242.123352 -69.228477 18.966633
242.485153 -73.348785 29.334206
243.615921 -69.105072 29.923025
242.877518 -72.452164 -43.454269
241.611542 -70.296562 -24.131754
243.055710 -73.134712 -17.817410
242.938110 -70.779465 21.803371
241.962723 -71.371338 -46.377270
242.882477 -70.237976 -25.329254
243.585953 -70.778809 -24.446081
241.693359 -72.377563 12.523073
241.867172 -71.855988 17.673559
242.445053 -71.053207 21.585085
244.820938 -70.882645 31.324846
242.501846 -70.000671 -25.358347
247.855164 -72.490013 -23.937338
246.243317 -70.838585 15.644470
242.966064 -69.171257 -27.891891
245.623856 -68.744186 -27.046385
241.500458 -72.850494 20.858337
246.306549 -74.493484 -51.635548
244.809082 -68.037567 -29.712072
246.230637 -71.806107 29.909071
244.885895 -69.408760 8.755407
247.314682 -69.666565 -35.025829
242.530869 -71.383377 22.841106
246.065979 -70.091034 -57.082451
247.582016 -72.006554 5.473342
246.805893 -71.570930 -56.316868
246.200623 -70.403786 -56.404568
246.524643 -69.661949 -35.930801
245.299057 -71.230881 -140.718124
249.793854 -70.880814 -60.405746
245.735809 -71.758362 -38.154041
247.258423 -67.324593 28.683439
247.843491 -74.017540 -136.704483
247.679565 -71.125885 -39.677383
247.649918 -68.842476 4.063293
246.598328 -69.813705 23.193853
246.613098 -70.957741 30.711348
251.589783 -73.282570 -62.581394
246.954193 -72.316940 -43.532047
248.399323 -73.353065 27.604807
250.558167 -69.769363 -133.690414
250.445724 -71.342300 -46.853661
247.332275 -72.113503 -60.817379
249.894485 -69.105812 -48.544277
250.442841 -72.364822 -137.871353
252.887939 -71.203499 -68.467888
253.108215 -68.608047 -69.126259
249.884216 -71.451363 -53.355263
250.549042 -69.024391 -54.212147
250.711700 -70.678642 -53.691338
250.099701 -71.621429 0.001435
249.569260 -71.204071 29.874994
251.441772 -71.149117 -67.046440
251.823486 -72.016533 -54.662750
250.334885 -70.322510 29.368397
250.492538 -70.941589 -140.263016
249.970703 -70.516029 -133.089340
248.397629 -69.085892 -69.672890
251.188004 -70.280251 -61.404163
249.244598 -70.372673 -67.793449
246.964310 -70.597717 -68.794662
250.728455 -70.098068 -65.620003
250.722488 -72.260345 0.331742
254.257813 -72.810707 -140.891098
252.852539 -70.723633 -136.416534
251.240646 -67.964394 29.376467
252.950348 -71.416924 -73.521263
253.988235 -69.586052 -71.384438
253.367462 -69.295067 -68.141373
254.040894 -69.884804 -68.394226
251.727310 -70.981857 -71.207924
253.967239 -69.666283 31.950981
255.064590 -71.677589 -144.265808
253.744278 -70.727798 -2.280637
254.143112 -69.471123 30.667156
254.491470 -72.694748 -142.683441
257.764954 -69.955353 -119.145576
255.394623 -73.752701 -3.355808
258.830841 -73.583855 -131.655716
260.137604 -69.591034 -138.522888
258.024475 -72.222694 -134.339981
258.522186 -71.556053 -122.811798
258.328491 -71.446838 -120.143616
260.837738 -73.159111 -113.954361
258.509674 -69.247902 -118.411621
255.251068 -70.056129 -1.517811
258.902924 -71.364235 -136.282104
257.217712 -69.321747 -131.384262
260.347626 -71.627846 -139.151382
258.603455 -71.403282 -132.689941
261.184906 -71.513939 -125.510452
260.376282 -69.211472 -3.799959
258.560699 -71.943649 -131.101379
262.047272 -70.322281 -143.778702
261.887238 -68.486061 -137.405304
259.738892 -71.887352 -131.599091
259.850189 -70.376732 -119.434006
258.905273 -72.641953 -112.482719
261.048035 -71.416039 30.481747
263.481964 -69.883911 -122.730881
260.910065 -72.140556 -114.346626
259.802826 -70.396576 -3.612678
263.955475 -68.383179 -131.416946
263.013702 -70.117035 -122.332581
262.568604 -69.906631 -115.348206
264.384064 -72.204796 31.533611
263.019440 -69.615990 -144.727173
262.212555 -71.517799 -143.287155
261.201752 -69.538055 -2.939254
266.209076 -73.351341 -139.813766
265.937897 -72.561554 -136.122040
264.111755 -70.906693 30.151993
265.735229 -71.899452 -0.407815
265.345581 -72.873466 -1.120746
268.163025 -66.832764 32.707439
268.249908 -68.851929 -135.751373
267.502747 -72.653526 33.956203
269.401855 -71.715614 -135.762833
270.661682 -71.482109 0.251340
272.769592 -72.115135 -139.652740
271.283508 -71.607185 -1.240936
268.526276 -70.141136 29.594105
271.550140 -71.944984 -137.199844
274.090302 -67.941940 -139.679459
275.916412 -69.728363 26.954346
276.845551 -70.114273 -133.651093
275.217285 -72.519630 -140.487900
276.985809 -72.996330 27.649088
279.351898 -71.696686 3.273637
278.213654 -69.558380 25.475534
282.843323 -72.374931 -141.082886
280.420746 -70.781372 -134.655731
283.182129 -69.742241 27.104086
281.841400 -73.645180 -136.922348
280.077820 -69.934860 4.958904
284.034424 -71.375664 3.770036
282.485535 -73.016899 -153.255173
283.275818 -69.171661 -138.703674
282.460022 -70.548965 -135.439316
280.631805 -70.534096 5.960245
282.285767 -67.092880 -151.898895
285.617798 -70.748840 -136.372665
283.885498 -69.027908 23.711378
283.698914 -70.887024 -143.660873
285.392059 -70.110222 20.030251
284.615753 -73.465469 -150.735626
282.370575 -72.023552 -131.434097
285.625977 -67.759674 -153.800262
285.154388 -67.554184 -145.245926
287.813904 -71.035271 -123.541756
285.342163 -71.188423 -116.919502
287.071167 -72.160423 -19.212578
287.835968 -70.695671 -131.532562
284.306793 -71.104683 -116.605515
287.518860 -69.701920 9.576248
284.455322 -69.466187 -152.260437
287.215942 -70.092812 -144.153458
287.849579 -70.398811 -123.185081
284.118713 -70.209190 -114.442078
286.890961 -69.800484 -45.634708
288.566742 -69.080940 -40.227962
285.853638 -70.674408 -29.284077
286.805939 -71.523697 -23.070181
286.404999 -73.088272 10.072753
289.416290 -71.086647 -144.315887
285.200165 -70.535210 -52.310928
287.089478 -70.131042 -49.440659
286.866882 -72.625648 -17.545158
287.106384 -71.500885 -4.576354
285.978638 -72.949600 -0.519293
288.440277 -72.935577 15.102712
285.272095 -70.076866 19.129747
285.822357 -69.759865 -150.863495
287.507294 -69.612663 -138.102036
286.998260 -68.559021 -133.494751
288.825439 -71.209328 -125.986732
285.737335 -69.098785 -69.669426
287.680206 -70.387260 -62.603802
288.146118 -68.656807 -55.274551
286.408386 -70.442284 0.766829
287.180786 -70.563522 13.994463
288.188751 -70.329109 16.087824
285.380493 -68.733513 -157.414810
288.209747 -69.948654 -126.919502
288.497925 -71.812996 -66.678574
286.561707 -69.769188 6.611851
285.706024 -70.295563 10.601949
285.373840 -72.878326 11.001591
289.094513 -68.887627 11.457438
288.908173 -71.860741 12.536100
284.961395 -69.892723 14.724276
288.665192 -68.522842 -152.552170
286.023590 -72.146576 -132.828720
288.660736 -70.983459 -128.014664
286.257050 -70.561790 -72.551781
287.608368 -71.964935 -67.429260
288.867004 -72.920013 -57.825275
288.947266 -70.645386 12.913475
289.751099 -72.263542 15.251082
290.104309 -69.511520 16.490164
289.466156 -71.993507 20.677387
287.210297 -71.858559 -137.230453
288.659119 -70.941467 -124.610886
290.035217 -69.840248 -113.643448
286.469055 -70.548981 -111.084572
290.259247 -70.286255 -107.209557
288.846497 -70.316216 -87.903610
290.974091 -72.055634 -77.615219
291.075134 -70.015640 -77.846558
286.418243 -71.616165 -64.590942
285.795166 -70.811005 25.047693
288.600250 -68.243195 -154.490601
289.039612 -69.923698 -149.582016
286.609100 -70.595848 -72.331985
288.807343 -68.909790 -66.363792
290.188751 -69.787720 -152.319626
289.178162 -70.959824 -145.201981
289.970856 -69.026550 -135.879166
289.624817 -69.712799 -104.896538
291.806305 -69.913216 -72.817467
290.279999 -69.068321 -152.628586
289.623627 -70.600220 -144.262650
287.777283 -71.296585 -86.572426
288.821320 -69.074318 -83.315407
291.813232 -68.915131 -77.857864
287.582489 -69.574234 -68.292419
290.264069 -70.792465 28.890171
290.022858 -71.185326 -150.434845
289.116516 -69.522842 -146.969757
290.868652 -70.841721 -81.755867
291.588562 -69.132172 -78.755829
291.328308 -71.627792 -60.251232
290.728607 -69.832001 -148.179230
293.563568 -71.278870 -136.708664
290.154358 -71.301842 -126.675064
291.397919 -69.538849 -81.854469
288.158478 -72.152695 -77.041298
288.453491 -69.133667 -71.141914
291.929047 -71.362152 -127.515755
289.420685 -72.462769 -125.034912
293.179932 -70.037865 -107.061035
291.029510 -70.008072 -73.987183
292.245911 -73.108162 -73.374344
289.787354 -70.958038 -66.509521
288.864441 -70.533089 -55.675049
290.838654 -69.525932 -48.441723
293.589722 -74.007912 -46.236668
292.416016 -73.150322 -44.814522
291.369354 -68.558159 -37.824257
290.612946 -69.340553 -31.961779
291.228699 -71.411674 -31.841637
292.272766 -68.626915 -26.509035
291.304565 -70.603477 -145.240829
290.657410 -72.209656 -132.592209
290.296875 -69.311729 -129.832809
290.836243 -70.636116 -130.800690
291.418915 -72.233101 -112.335732
292.949524 -72.006157 -21.977165
290.700470 -70.990982 -18.282993
293.039886 -68.744247 -13.542231
291.549896 -70.023880 -11.026111
293.669006 -71.180656 24.212084
295.270355 -71.421860 -122.554680
294.453827 -68.930580 -4.984551
293.281891 -72.718544 3.807910
290.209747 -71.912354 -145.238724
293.869049 -68.973869 -132.938751
292.791321 -68.755447 10.824789
292.511230 -70.422951 -143.433395
293.558197 -68.581017 -146.123108
294.969757 -69.249382 -133.815521
292.719025 -70.365631 -120.916687
292.369659 -71.454102 15.021096
291.920654 -70.669914 -124.235527
292.540588 -68.091553 -118.708542
292.743774 -71.857430 20.290699
292.198456 -69.825264 26.961861
294.807800 -70.885101 -143.335541
292.455231 -69.543846 -121.391853
292.393097 -70.577988 21.274878
292.899109 -72.664177 26.318096
297.912598 -67.887985 -144.800613
292.623901 -70.223969 -143.745972
296.065613 -72.353416 -136.152527
296.113068 -70.634529 -142.957184
295.170715 -71.731392 -140.874634
294.182770 -71.609695 -138.145920
298.864502 -69.936295 -142.318634
302.435150 -70.055885 -144.232483
300.925903 -71.029510 -136.646774
299.208710 -69.176422 -144.734955
303.233459 -71.719627 -144.748917
298.394562 -71.055092 -133.881973
300.993866 -71.107811 -145.586594
303.181702 -69.393265 -144.733887
302.910706 -72.842422 -134.596085
305.467651 -70.810791 -132.582886
303.579834 -70.446884 -143.605286
307.915070 -70.499298 -143.185318
306.703552 -71.165123 -144.225464
306.913818 -70.823914 -142.372482
312.198639 -72.009430 -133.410172
311.468781 -72.025810 -134.554352
310.303314 -68.807930 -133.809128
314.550873 -73.158714 -139.391754
315.654938 -71.103081 -138.651703
312.125244 -69.404572 -139.072220
50.704353 -66.634857 -56.598549
52.574745 -66.910576 -51.029739
53.265972 -68.396805 -46.828613
52.891945 -67.515724 -40.668362
53.629940 -70.030678 -55.886757
55.202038 -69.767014 -48.419937
52.896976 -66.748474 -42.810028
54.457214 -66.796104 -54.484520
51.686817 -71.924316 -49.440285
53.357101 -68.773018 -51.269833
53.558140 -68.637161 -53.861546
54.976006 -71.312370 -37.887714
53.490360 -70.860252 -32.194256
55.491669 -68.395653 -59.188572
54.063828 -69.974251 -34.452282
55.593754 -67.669678 -34.009693
54.752510 -69.285141 -30.663298
56.055210 -71.221169 -56.971737
55.805576 -69.356285 -28.813484
53.215446 -68.394402 -63.824970
56.055103 -67.136543 -28.373278
55.910858 -68.189552 -24.421003
55.226948 -70.164063 -63.169804
56.184090 -66.502289 -26.168659
54.260223 -69.150925 -27.214172
56.192001 -68.950043 -63.505318
57.090179 -67.291786 -26.654594
57.089394 -72.079994 -21.279327
55.984661 -71.533028 -69.014801
58.650764 -71.959427 -23.429279
58.821594 -68.835876 -64.770569
60.196186 -69.492668 -66.232361
58.763264 -69.158089 -25.356745
58.300106 -69.944527 -19.799805
61.692097 -70.542274 -20.232662
61.697914 -73.387909 -16.856144
59.254780 -71.105049 -19.054899
61.995045 -72.100296 -19.116287
61.882893 -69.705940 -70.163628
59.781120 -69.896996 -72.011230
62.458858 -67.946526 -17.297197
63.010548 -71.044197 -9.543941
63.910503 -69.735855 -71.714447
63.198128 -70.288490 -74.652176
62.627617 -70.594543 -12.130629
66.129677 -72.206299 -11.686653
67.071312 -70.084511 -10.015557
67.814545 -69.515862 -73.516037
68.337631 -69.066330 -9.480761
70.286247 -70.959389 -6.544508
71.437111 -68.869553 -9.989318
72.031136 -69.425575 -11.268326
70.840210 -67.026466 -8.147873
73.174332 -67.133980 92.106308
73.643517 -67.414665 92.933998
73.734947 -69.855476 94.248848
73.029510 -70.141655 -76.767128
74.628853 -69.204826 -11.370770
74.906326 -71.398758 87.999466
71.538254 -71.454529 100.867889
74.731750 -69.138962 88.471039
71.303246 -67.907120 88.195648
72.824997 -68.040092 96.208405
73.418816 -70.076988 -11.210702
71.742317 -69.266434 87.496941
73.550072 -70.473221 93.709930
73.302063 -69.577583 96.714348
72.894325 -70.710732 99.388008
74.246178 -69.627525 101.255013
72.504280 -69.275978 -13.580589
72.182793 -72.330513 -17.638329
74.342163 -72.349571 90.880379
73.655472 -69.718231 84.838631
75.781364 -69.205032 88.075485
77.038292 -69.281685 95.440437
75.743172 -70.112823 101.264412
76.212418 -66.518463 -13.989046
75.056160 -68.353683 95.369034
75.352478 -68.789101 106.242386
78.740044 -72.035324 104.233650
76.108955 -72.554703 84.344551
78.931725 -68.531944 -76.962730
77.147545 -71.273201 -25.220587
80.991768 -68.093369 -26.387770
77.966606 -68.334801 -22.868704
79.021851 -69.532890 85.096054
79.601341 -71.279274 -27.454983
78.886581 -69.276054 98.953842
77.844063 -70.228683 82.752914
81.326637 -70.357407 106.782204
78.612961 -67.817841 103.850418
81.693909 -69.098633 -31.022671
81.529099 -68.765038 87.126984
83.804451 -68.745354 82.353325
82.830902 -69.998894 -34.385124
81.522400 -69.710739 104.090759
83.788002 -72.474403 -33.780449
82.895020 -70.572716 83.905281
82.805084 -72.220604 -33.687809
84.928085 -69.540314 -34.361652
85.598946 -71.495834 -35.539139
84.695114 -69.244286 -35.812534
89.840508 -68.708473 -35.494034
86.944626 -71.150932 107.702507
89.078331 -69.855194 -80.449951
87.587547 -69.734009 78.861511
86.674004 -68.772118 82.872810
86.869820 -70.714142 -41.143326
89.346901 -70.650261 106.004654
89.007439 -69.411179 -80.767586
93.672081 -69.232956 67.126717
91.917702 -68.499001 65.067589
90.516251 -66.346169 66.837326
92.498962 -69.720505 59.486984
91.529625 -67.990921 108.131660
93.605476 -72.503975 -55.561474
91.777489 -69.499527 67.447403
93.613014 -70.625114 -55.281197
92.485825 -67.690186 60.257183
94.328865 -71.268860 105.575844
92.721260 -69.980469 59.101124
96.659592 -68.917290 62.070248
96.580185 -68.791405 -82.950478
93.485268 -71.795845 68.475235
97.112434 -70.209534 83.195999
93.312614 -66.420143 106.454079
97.163918 -69.109062 -82.728119
93.386505 -68.246719 58.236427
96.719872 -71.535843 66.894691
91.227760 -67.436516 87.233070
95.142128 -70.102959 59.426777
98.067932 -67.559387 62.522369
95.998833 -68.701843 63.506924
97.220329 -70.385330 57.942966
97.309563 -71.317390 61.776104
95.041977 -70.810120 84.653328
95.788483 -67.164589 62.864655
95.855736 -72.206917 71.845268
96.625626 -68.789337 85.955627
94.477295 -69.493484 95.645683
98.697693 -68.562080 104.390419
97.639717 -69.185150 106.821350
99.411491 -69.528976 -82.404228
97.418709 -69.865700 60.260387
96.990471 -72.985855 90.940941
97.305893 -68.249321 93.378563
100.362114 -71.053322 -54.607231
98.069214 -69.235710 -56.301231
96.924988 -68.925652 64.113899
97.172165 -70.826447 90.944748
100.074760 -71.156921 92.667084
100.210091 -70.823990 95.794907
98.830376 -69.365189 101.465698
100.607933 -69.324875 -57.027725
98.975594 -69.891708 63.256577
100.281807 -70.227348 99.109612
98.873802 -67.730850 103.197433
99.449310 -70.834244 -67.087799
99.706612 -68.352066 55.403374
98.149948 -66.651756 99.916656
97.782539 -71.425247 -68.851059
100.388062 -65.788216 57.944206
101.370300 -68.434090 97.553535
101.572472 -68.035355 97.033463
102.201073 -70.569176 -66.296120
100.434204 -71.299370 -60.094917
102.593170 -69.943932 57.072109
102.222359 -71.774368 -71.785408
98.014984 -70.951820 66.637016
102.628098 -68.240280 53.225571
100.517776 -69.435349 -83.035294
104.213852 -69.087013 62.188877
103.837257 -68.661972 50.226978
104.650589 -72.158974 53.181046
105.016617 -69.880264 118.213303
105.609558 -69.946442 116.734879
103.527512 -71.410851 62.696224
105.540985 -72.036690 -73.855888
106.223106 -67.266960 -74.957672
106.641533 -67.166031 59.628460
110.734634 -68.605003 -84.096008
111.118958 -67.882263 -71.872314
106.430840 -68.590416 117.908287
105.631027 -69.216164 117.461433
109.010788 -69.941612 61.735332
108.002151 -69.179909 -70.411293
109.478661 -68.336143 45.867794
108.127159 -71.344414 58.980793
109.669205 -72.176971 62.349865
107.144363 -69.278984 118.082153
109.862061 -71.094406 -73.531944
108.753662 -70.822693 49.937325
109.338509 -68.037262 117.461792
106.012619 -71.376335 119.914177
106.731987 -69.236450 -77.064926
109.812065 -66.682686 47.854900
110.550079 -70.564903 62.353977
110.256218 -69.391708 118.665573
111.497978 -70.651001 54.777058
110.842522 -67.656601 118.448326
115.182129 -68.997459 -75.417480
111.418442 -71.060257 121.265045
112.126747 -68.731667 -83.629700
113.727585 -68.338577 47.799572
113.693802 -69.125046 -77.519463
112.497635 -70.334198 122.880280
113.134514 -69.473923 119.159325
113.264725 -71.588615 115.772346
114.100380 -69.138329 116.851936
116.664955 -68.497871 120.739929
114.344505 -68.748680 -78.142647
116.232193 -70.291534 56.584785
115.290298 -70.285477 58.529560
115.267891 -69.629967 47.830582
115.618301 -68.582794 -78.086555
117.743088 -69.642761 -80.056267
118.802391 -69.519417 42.339783
116.549850 -69.518852 123.724686
117.027817 -71.698662 121.815674
117.059914 -70.836105 57.738064
116.453835 -68.810211 121.739281
116.627068 -67.699760 116.670547
115.922897 -69.115578 43.418045
118.939934 -72.931473 43.643620
119.250397 -70.570778 123.451332
118.492653 -71.168343 55.993752
122.260216 -69.162956 119.333427
121.382851 -69.585068 125.392921
122.377007 -68.229286 52.075420
122.789299 -70.308044 39.100422
121.953667 -70.571495 42.771206
123.310097 -71.612442 55.287708
122.609200 -70.479858 123.658615
124.631493 -70.538383 51.554070
125.882469 -68.523026 55.148319
125.773529 -71.493690 118.310501
124.996277 -70.020882 41.173447
127.078804 -69.944389 39.229244
125.922523 -72.253113 119.478943
124.979546 -71.736305 123.513596
126.772423 -71.483330 51.950783
128.330353 -71.038940 55.100727
125.709122 -69.279846 125.010658
126.427536 -69.879265 119.902161
125.583916 -71.548874 50.203228
126.727875 -71.893959 50.287884
128.162857 -67.906380 52.334755
128.802719 -70.575996 50.181091
128.231750 -68.656677 51.063457
130.565048 -70.253769 41.341976
128.896774 -69.544106 124.102486
129.954254 -72.800194 39.756332
130.158005 -68.383209 48.631664
131.660339 -70.320572 118.117683
130.156265 -68.328751 38.177078
133.916504 -69.351555 126.725784
133.006195 -68.769691 40.537632
133.711594 -71.890633 46.336075
134.779938 -65.986893 -43.092945
135.138672 -73.589676 36.531761
136.300034 -69.946175 -38.928638
135.913177 -70.327118 -41.678349
133.713730 -69.866188 -40.932926
135.100983 -69.743782 -41.775055
135.207489 -69.100670 40.441982
137.488602 -69.846016 -49.344959
135.543259 -68.815460 118.703972
139.108719 -72.774780 -36.868347
138.170807 -71.289490 -40.840218
139.292892 -69.966499 -39.457478
135.141647 -70.299759 125.548111
140.452759 -68.329956 -42.978195
143.096558 -68.875366 -35.373859
140.196121 -68.862099 123.845398
140.139648 -71.863152 -47.390209
139.883347 -70.794449 -47.794022
139.110413 -72.290138 -43.774170
139.831284 -70.976852 -37.931259
142.105148 -69.845543 -39.650219
139.426849 -71.431450 36.164742
139.042740 -69.790169 -36.897293
139.358170 -70.120178 125.039917
138.885284 -69.212128 -63.328091
141.446121 -70.381683 -42.704872
140.847595 -69.949188 -38.562973
140.045929 -70.042877 48.683975
141.097656 -71.534790 -65.525864
140.278900 -69.789055 125.801476
141.979080 -68.365387 -34.363083
145.168671 -73.258232 -34.583687
142.079559 -69.574432 33.297333
140.652023 -71.987328 -62.823444
141.382126 -68.060417 -47.127556
145.154602 -69.365204 -36.067810
140.594360 -69.619064 48.145889
142.490463 -71.134109 36.970600
140.554901 -69.725174 119.114410
146.372726 -71.119606 -60.407551
143.760727 -71.631615 -60.486500
144.449310 -70.824982 -42.970226
145.581177 -71.404961 -34.376282
145.062973 -69.897949 126.656853
143.101425 -69.771683 44.418056
146.616486 -68.231346 -58.445690
143.443787 -70.482864 -33.925945
143.525345 -69.296028 -30.192131
144.988464 -70.011459 47.259155
143.539734 -69.565994 124.554680
146.509766 -70.204987 -31.943394
145.377335 -69.195023 32.277550
145.760208 -68.957932 -58.351753
144.644699 -69.989464 -44.120476
144.023163 -68.633469 -42.110523
147.137009 -71.630424 -63.758389
145.591980 -69.811111 35.091499
144.939590 -71.375954 44.936947
146.923111 -68.109306 -34.362144
143.957840 -71.314796 -33.281239
148.498428 -70.761009 -41.935547
147.843048 -68.819633 -58.198410
149.182877 -71.668938 44.103649
148.875397 -70.335220 117.851196
146.163406 -69.972496 -64.152565
150.751724 -69.200256 -62.406010
148.504654 -67.881783 -56.788490
149.507599 -71.458824 46.069973
147.957108 -68.412148 -25.840059
149.638397 -69.462433 -58.437649
146.989197 -70.799156 -41.593327
152.281036 -69.295364 43.899261
150.595520 -68.765770 -40.026978
151.707642 -70.854698 -28.026484
153.606430 -70.210289 -59.662434
150.203232 -68.004997 121.991997
151.685394 -69.753860 127.940102
151.767059 -68.476273 -61.749115
150.947891 -72.230042 46.747074
154.699554 -69.190948 123.483322
153.541321 -67.405235 -56.200920
151.272034 -71.955856 -55.768814
151.571487 -72.798439 -42.187153
152.973923 -69.880173 -31.106106
