-166.251113891602 -71.534408569336 -224.068038940430 1.141014456749
13.241552352905 -71.172683715820 -222.418655395508 0.987075328827
-144.395797729492 -70.983779907227 -223.963638305664 0.825059354305
11.795098304749 -71.097770690918 -225.172531127930 0.814176321030
-133.505233764648 -71.358352661133 -225.360153198242 0.671722471714
-116.820083618164 -71.931388854980 -225.787628173828 0.719829916954
15.829184532166 -70.589103698730 -222.193389892578 0.970037460327
76.480743408203 -71.125579833984 -224.479553222656 0.271015256643
7.663442134857 -70.054710388184 -223.285583496094 0.886906445026
-111.645248413086 -71.771255493164 -230.595993041992 0.876635134220
76.960029602051 -71.183456420898 -228.317764282227 0.256315976381
81.345550537109 -71.299438476563 -229.531478881836 0.267666697502
-123.235054016113 -71.514312744141 -232.731964111328 0.602197170258
-113.971664428711 -71.910202026367 -231.900985717773 0.749034225941
-11.283916473389 -71.090026855469 -231.092025756836 0.814434230328
71.920631408691 -72.069534301758 -228.703552246094 0.232687830925
64.806343078613 -71.853569030762 -234.816009521484 0.182755589485
75.240158081055 -70.968002319336 -231.244934082031 0.473822832108
-133.168548583984 -70.559783935547 -235.284225463867 0.685037434101
71.953407287598 -71.540199279785 -235.303283691406 1.058336973190
66.965919494629 -71.021240234375 -235.916671752930 1.635262966156
-166.445312500000 -71.808311462402 -229.712310791016 0.622449934483
0.379602998495 -73.767021179199 -239.029449462891 0.120123282075
17.136526107788 -71.512092590332 -240.441802978516 0.048230055720
-5.829131126404 -70.684684753418 -239.451934814453 0.146224752069
13.634390830994 -70.366859436035 -239.536026000977 0.055130586028
64.621414184570 -71.908584594727 -238.887268066406 0.458850592375
11.403100967407 -71.275375366211 -241.331130981445 1.165249228477
-9.787924766541 -67.768150329590 -242.084396362305 0.128674179316
1.608260989189 -69.896751403809 -241.054275512695 0.565964102745
65.157592773438 -72.116729736328 -243.071197509766 1.005234360695
5.820018768311 -72.793754577637 -243.073745727539 0.879381060600
-8.562399864197 -71.806304931641 -243.454833984375 0.146326526999
13.655342102051 -71.414688110352 -244.831100463867 0.854130029678
-167.305725097656 -70.743049621582 -241.972640991211 0.901890218258
59.048683166504 -69.884002685547 -247.552505493164 0.941893398762
52.107482910156 -70.107894897461 -247.507064819336 1.001294016838
55.684776306152 -71.991249084473 -242.390884399414 0.484417855740
-11.968135833740 -71.589874267578 -248.210845947266 1.141399502754
57.489391326904 -72.243606567383 -247.072463989258 1.156234860420
-72.730796813965 -70.637466430664 -248.567794799805 0.333230644464
51.749942779541 -71.572830200195 -249.729293823242 0.104381941259
-90.765258789063 -72.252510070801 -252.327606201172 0.596250295639
-125.504005432129 -72.569580078125 -254.897644042969 0.649075269699
-133.139694213867 -70.738456726074 -254.777633666992 0.670836806297
44.046157836914 -71.680671691895 -252.750823974609 0.578527390957
-135.726882934570 -72.158233642578 -256.371643066406 0.734821796417
-110.447738647461 -71.884422302246 -257.530548095703 1.054078698158
-113.599845886230 -69.781234741211 -257.346405029297 0.513978302479
-82.594467163086 -71.945480346680 -255.628372192383 1.144336342812
-111.715103149414 -72.600013732910 -261.452728271484 1.141366720200
-123.809211730957 -72.594078063965 -262.611938476563 0.640623807907
-145.097717285156 -69.757881164551 -266.679168701172 0.744189143181
-15.344173431396 -71.230155944824 -262.334014892578 0.406824618578
-167.722000122070 -70.984725952148 -264.535064697266 1.531990766525
-13.981939315796 -71.946525573730 -272.162933349609 0.928684949875
-159.594863891602 -70.053024291992 -268.194274902344 1.281259655952
-152.562255859375 -70.061126708984 -275.934082031250 1.417018651962
-168.168304443359 -71.252769470215 -278.009033203125 0.825073122978
-12.539304733276 -70.104965209961 -275.256500244141 1.099504470825
-133.624450683594 -72.087043762207 -284.459808349609 1.112392187119
-159.701538085938 -70.840942382813 -286.742980957031 0.883940696716
-145.314163208008 -70.842697143555 -282.442932128906 0.463510990143
-134.810607910156 -73.692832946777 -285.377441406250 0.703902125359
-8.102717399597 -69.424430847168 -285.313781738281 1.749758601189
-125.297042846680 -73.943183898926 -285.010101318359 0.779501318932
-141.471389770508 -71.842346191406 -285.842895507813 0.633361697197
-116.373481750488 -71.065132141113 -286.656433105469 0.912188172340
-75.562751770020 -71.401893615723 -286.812713623047 0.556843757629
-62.339839935303 -70.092430114746 -287.786529541016 0.919747889042
-5.334043979645 -71.123298645020 -288.360015869141 0.641215085983
-52.713691711426 -70.616943359375 -289.682830810547 0.726991474628
-57.874423980713 -70.115127563477 -289.032714843750 0.502267062664
-68.808929443359 -70.019744873047 -290.840942382813 0.708897292614
-86.433685302734 -71.652427673340 -291.822418212891 0.707670629025
-98.036338806152 -68.759498596191 -291.404357910156 1.510016441345
-162.026519775391 -69.522750854492 -291.976806640625 1.692230105400
-162.457366943359 -72.063346862793 -292.844268798828 1.211975693703
-125.476440429688 -72.190963745117 -295.343841552734 1.425381660461
-145.090728759766 -72.092498779297 -296.681152343750 0.779895305634
-155.528976440430 -72.400695800781 -301.629577636719 1.107461571693
-147.222869873047 -70.962379455566 -313.811187744141 1.477351903915
46.616382598877 -71.257568359375 -17.652915954590 1.306340694427
19.244897842407 -73.103569030762 -27.084600448608 1.763893723488
40.580795288086 -72.023086547852 -33.912227630615 1.382409214973
-17.423992156982 -74.282836914063 -67.158874511719 1.505685806274
81.695922851563 -71.271476745605 -65.366218566895 2.110667228699
85.214393615723 -70.275337219238 -65.944206237793 1.271344780922
76.131835937500 -71.241294860840 -66.180168151855 1.254884719849
73.403541564941 -71.562812805176 -68.233917236328 1.446526885033
91.165237426758 -74.688674926758 -73.079803466797 1.129906296730
-94.127609252930 -70.688842773438 -70.713829040527 2.126076936722
70.220527648926 -73.011688232422 -75.919929504395 1.179121613503
-37.301647186279 -70.061660766602 -77.061233520508 1.241681575775
99.709594726563 -72.366935729980 -86.639320373535 1.315266847610
59.353172302246 -71.709846496582 -90.258430480957 1.647281289101
105.756576538086 -73.134666442871 -95.921066284180 1.456869840622
104.493881225586 -71.590606689453 -97.584999084473 1.100106477737
70.073806762695 -70.916687011719 -99.266036987305 1.620459556580
-77.761695861816 -74.028099060059 -99.687896728516 1.566210508347
53.781558990479 -73.052246093750 -101.596916198730 1.020226836205
104.869598388672 -71.341201782227 -104.719123840332 1.712084054947
48.506603240967 -73.661315917969 -109.751747131348 0.741867303848
80.004478454590 -71.077377319336 -103.962974548340 0.908349931240
41.651390075684 -71.398742675781 -106.472000122070 0.939381837845
106.538627624512 -70.700103759766 -103.328819274902 1.215175986290
47.427494049072 -70.450248718262 -107.669006347656 1.579929590225
108.962356567383 -71.718765258789 -110.999633789063 1.023705124855
108.724182128906 -71.054130554199 -113.497283935547 0.633275747299
-78.615585327148 -71.273918151855 -114.229927062988 1.121711969376
-82.703231811523 -71.467201232910 -117.750488281250 1.536647915840
43.950138092041 -72.965667724609 -120.755790710449 1.649778485298
113.768272399902 -71.833168029785 -118.347328186035 1.931731104851
113.955924987793 -70.019599914551 -123.612327575684 1.384433865547
-84.652717590332 -71.185729980469 -127.736442565918 1.338064074516
107.161392211914 -71.044975280762 -123.340583801270 0.942654192448
-59.098762512207 -72.640975952148 -131.772872924805 1.481329321861
-86.385444641113 -71.209518432617 -126.499710083008 1.755627036095
-75.750938415527 -70.317214965820 -128.165237426758 1.077276706696
-57.873573303223 -68.556571960449 -126.873878479004 0.902960062027
30.709671020508 -70.373023986816 -129.018890380859 2.611346006393
39.156967163086 -72.784759521484 -132.766235351563 1.029626846313
-76.103446960449 -70.990600585938 -137.497009277344 2.076123952866
28.358238220215 -71.302787780762 -132.747543334961 1.628256917000
109.634544372559 -70.951622009277 -139.573669433594 2.176961898804
-43.547531127930 -70.610397338867 -146.369628906250 0.651969313622
25.402692794800 -69.041320800781 -147.741043090820 1.096982955933
114.990875244141 -70.086982727051 -145.308029174805 0.805093348026
34.503089904785 -70.808189392090 -143.353546142578 1.365425825119
111.128150939941 -69.936981201172 -142.538803100586 0.834814131260
-53.520256042480 -72.406219482422 -149.074157714844 1.541950106621
-67.911094665527 -70.705970764160 -150.197998046875 1.451093077660
-51.391616821289 -71.458496093750 -155.235244750977 2.292612791061
-41.317119598389 -71.267211914063 -164.988113403320 2.524196863174
6.437426090240 -69.831550598145 -156.124862670898 0.787862777710
111.319114685059 -69.917343139648 -154.117965698242 0.765559732914
109.749076843262 -70.663299560547 -157.452163696289 1.200560808182
8.396085739136 -69.518142700195 -158.500091552734 1.861954092979
5.299367904663 -72.324684143066 -162.669448852539 0.385659962893
15.799022674561 -72.310432434082 -157.060379028320 0.767209291458
24.879289627075 -70.262519836426 -155.674118041992 1.149536967278
110.951370239258 -69.818374633789 -165.844451904297 1.132427096367
107.286437988281 -71.752082824707 -167.798828125000 0.831183552742
23.648765563965 -69.331520080566 -171.575378417969 0.770933926105
26.115362167358 -70.349876403809 -161.706466674805 0.503605008125
113.245651245117 -70.002761840820 -161.520462036133 1.976133704185
-27.927116394043 -70.496131896973 -174.465133666992 1.366012811661
109.492912292480 -70.104888916016 -168.146453857422 1.075867772102
16.897811889648 -71.434700012207 -171.820678710938 0.478820234537
21.945165634155 -70.359794616699 -165.383499145508 0.524434447289
109.357551574707 -69.974990844727 -173.185119628906 2.050677537918
25.478317260742 -70.305580139160 -170.987777709961 0.490057170391
109.939888000488 -71.287269592285 -181.330505371094 0.955633759499
-37.805397033691 -69.969451904297 -174.918136596680 2.461560964584
26.820013046265 -69.708862304688 -173.814147949219 1.604445219040
106.870254516602 -70.094070434570 -182.262603759766 0.898094713688
23.880218505859 -71.035881042480 -181.005706787109 0.596759021282
-152.776214599609 -70.499641418457 -187.609313964844 0.712223887444
-28.697723388672 -69.148475646973 -188.349105834961 1.491732478142
25.255994796753 -70.348899841309 -184.350997924805 2.348228216171
-111.036911010742 -70.520545959473 -191.497512817383 1.599852323532
-109.238922119141 -70.195320129395 -189.383560180664 0.587890267372
21.884050369263 -70.514923095703 -189.698867797852 0.765031695366
13.084770202637 -71.223037719727 -185.607727050781 0.385029286146
-26.650276184082 -70.634620666504 -189.834259033203 0.745285928249
-30.741416931152 -71.491798400879 -189.145629882813 0.706910848618
-26.550065994263 -70.488960266113 -185.564880371094 0.729924619198
17.782884597778 -70.256477355957 -179.753356933594 2.534805774689
-150.979248046875 -70.788490295410 -194.092819213867 0.726565063000
-143.770004272461 -71.046348571777 -194.237884521484 0.740551173687
-141.001968383789 -70.984367370605 -196.984420776367 0.621575832367
-21.758468627930 -70.047256469727 -191.342330932617 0.638638138771
12.426416397095 -70.295539855957 -199.292602539063 1.260053992271
99.543060302734 -70.746498107910 -194.420104980469 2.228697299957
-113.994071960449 -70.751640319824 -198.565582275391 0.537432014942
21.388429641724 -70.830253601074 -199.252258300781 1.388038873672
-17.866758346558 -70.290550231934 -196.807815551758 0.325824707747
-18.474132537842 -69.182334899902 -199.144653320313 1.338983535767
100.039558410645 -70.205871582031 -198.316986083984 0.481883943081
9.290951728821 -70.303558349609 -201.022323608398 1.128362178802
-21.612596511841 -69.375846862793 -196.162002563477 0.331341266632
-122.536415100098 -71.958511352539 -201.498764038086 1.063284635544
-133.693191528320 -70.096382141113 -203.869445800781 0.644724905491
-113.715148925781 -69.819885253906 -203.533401489258 0.551521778107
-142.077087402344 -71.082717895508 -204.174133300781 0.681399047375
18.690534591675 -70.065002441406 -197.525588989258 1.745550513268
95.694717407227 -69.904243469238 -204.813720703125 1.346497297287
-166.703826904297 -69.196273803711 -204.188079833984 0.829483151436
99.759544372559 -70.820472717285 -203.157012939453 2.292221307755
-18.897893905640 -70.691703796387 -207.398773193359 0.271844178438
94.471130371094 -71.069976806641 -212.507141113281 0.389665603638
87.802513122559 -69.760406494141 -214.641464233398 1.242649912834
14.592858314514 -70.039871215820 -210.388183593750 2.057502031326
18.202356338501 -70.959960937500 -210.553756713867 1.524000883102
11.967028617859 -69.868423461914 -207.204360961914 1.968951821327
-10.831971168518 -70.916351318359 -220.542083740234 0.963334858418
-95.427330017090 -69.946678161621 -217.139907836914 0.883416056633
-7.622031211853 -70.770393371582 -214.141738891602 1.419614434242
90.879196166992 -69.602088928223 -214.403732299805 1.928924560547
-92.195968627930 -70.464096069336 -219.912826538086 0.947616279125
-103.160552978516 -70.877914428711 -220.291992187500 0.877842724323
-91.664642333984 -72.897842407227 -220.633728027344 1.818721532822
86.708656311035 -69.660072326660 -221.097564697266 0.328203290701
-134.451309204102 -69.954742431641 -225.571685791016 0.635828495026
-134.483703613281 -69.410110473633 -225.568862915039 0.632983624935
-116.940284729004 -69.691909790039 -225.445297241211 0.564014375210
-112.692932128906 -68.842536926270 -226.357513427734 0.680612564087
-134.345626831055 -70.965629577637 -226.555389404297 0.641202092171
-109.215080261230 -72.375213623047 -226.760314941406 1.143366813660
-113.711631774902 -71.410751342773 -227.948242187500 0.848951935768
-6.559700012207 -70.647117614746 -226.025421142578 0.954534292221
-17.188714981079 -70.332771301270 -223.408325195313 0.642253935337
-1.234907031059 -70.304092407227 -231.656860351563 1.751271963120
-10.489148139954 -69.640853881836 -227.476181030273 0.159876108170
14.853848457336 -70.278907775879 -232.811248779297 0.780514001846
-16.528991699219 -70.088050842285 -228.850051879883 0.279396295547
-166.871414184570 -69.354843139648 -225.398971557617 2.101881742477
-2.083983898163 -68.911254882813 -233.097320556641 0.113317780197
80.382308959961 -69.924942016602 -229.579238891602 1.633121371269
9.298010826111 -70.698982238770 -234.504043579102 0.421345770359
-6.749848842621 -69.705757141113 -234.032104492188 0.130873069167
-156.483566284180 -69.094970703125 -238.073730468750 0.730127274990
-140.701126098633 -70.014755249023 -233.956481933594 0.804207503796
65.107727050781 -69.011665344238 -234.873718261719 1.895961761475
-5.795577049255 -71.109848022461 -235.868743896484 1.242302179337
6.474713802338 -71.019500732422 -233.434402465820 1.114136338234
69.234962463379 -70.116226196289 -235.020462036133 0.206626743078
77.088630676270 -71.688621520996 -233.885589599609 1.119817852974
70.033134460449 -70.690597534180 -239.774703979492 0.193509593606
-1.023869991302 -70.686859130859 -237.468902587891 0.543030023575
57.183460235596 -70.266296386719 -240.113510131836 1.174405455589
-18.527303695679 -70.803092956543 -239.257415771484 1.499123930931
-16.762996673584 -70.430633544922 -241.641189575195 1.218244194984
8.899400711060 -70.304115295410 -240.985092163086 0.931629896164
66.051750183105 -70.853271484375 -239.991638183594 0.486504703760
62.173397064209 -70.003250122070 -239.514358520508 1.326579451561
51.121128082275 -69.802131652832 -246.950592041016 1.903876304626
61.419139862061 -71.160102844238 -243.104843139648 0.913838148117
-15.899329185486 -70.665100097656 -251.028976440430 0.258220791817
-83.127647399902 -70.059745788574 -250.632247924805 1.309115290642
-76.736213684082 -69.492790222168 -252.155441284180 2.417737245560
44.637603759766 -70.932136535645 -249.267059326172 1.421055316925
-144.739852905273 -69.856895446777 -252.510848999023 0.635337948799
37.163848876953 -70.884284973145 -255.118240356445 0.829772710800
-91.539749145508 -70.138740539551 -252.326583862305 1.626951456070
-154.707763671875 -69.398300170898 -256.319702148438 0.506243050098
-141.114990234375 -69.869438171387 -255.858963012695 0.837669372559
48.181087493896 -70.951744079590 -252.786376953125 0.100124381483
-124.076248168945 -67.804428100586 -257.315490722656 0.367712736130
-115.556343078613 -68.799263000488 -256.986663818359 0.615732073784
-93.538642883301 -68.649841308594 -258.233032226563 1.153235554695
-14.693893432617 -70.262489318848 -254.652435302734 0.238945394754
31.527875900269 -70.321037292480 -258.883026123047 0.100280925632
24.888710021973 -69.407249450684 -260.551025390625 0.499590486288
-157.083999633789 -69.819145202637 -259.820343017578 1.654395341873
-115.023498535156 -71.873497009277 -263.138885498047 0.435017347336
-14.638883590698 -69.545509338379 -261.923034667969 0.221104323864
-134.159210205078 -70.487129211426 -265.271881103516 0.973253011703
-13.446176528931 -69.367301940918 -270.712799072266 0.267207622528
-166.906265258789 -69.267105102539 -275.193450927734 0.853961288929
-9.322334289551 -70.764762878418 -281.546722412109 0.316020369530
-162.285003662109 -69.266708374023 -288.747497558594 0.643961489201
-162.247207641602 -68.934211730957 -278.104614257813 2.820158004761
-143.109909057617 -69.573387145996 -286.040985107422 0.363176077604
-167.711990356445 -70.372512817383 -285.553619384766 0.895535349846
13.338166236877 -69.928901672363 -287.002441406250 0.303016811609
-103.225982666016 -70.210906982422 -287.334533691406 3.024416685104
-86.429771423340 -69.853408813477 -287.406463623047 0.592797994614
-166.365936279297 -69.108924865723 -286.103210449219 1.595043540001
-90.865242004395 -68.823501586914 -288.161865234375 0.970536053181
-150.367492675781 -69.593643188477 -288.187011718750 0.834213674068
-72.873756408691 -69.155586242676 -289.028106689453 1.620996475220
-68.240501403809 -69.680145263672 -289.134918212891 0.536323487759
-81.249221801758 -69.193290710449 -290.897735595703 1.612299442291
-4.102060794830 -66.781288146973 -290.766906738281 0.768720924854
-84.456031799316 -69.981666564941 -291.460784912109 1.828232645988
-98.668952941895 -69.537925720215 -292.340423583984 0.657656431198
-113.721115112305 -70.443336486816 -292.897857666016 0.862221956253
-116.425003051758 -69.815353393555 -293.128662109375 0.726691067219
-134.227264404297 -67.706802368164 -294.393585205078 1.782307028770
-143.613250732422 -71.199447631836 -301.674407958984 0.762844860554
-143.764816284180 -71.290802001953 -311.931823730469 0.913551270962
23.108757019043 -72.179565429688 -16.669950485229 1.521951913834
30.489124298096 -70.841911315918 -17.645139694214 0.747624993324
28.347932815552 -72.060119628906 -19.156639099121 1.624492883682
42.856853485107 -72.072174072266 -22.482913970947 1.993913054466
26.301387786865 -72.087333679199 -31.895183563232 0.739014148712
-75.459907531738 -68.813140869141 -48.350757598877 1.328405499458
89.611701965332 -69.085144042969 -64.049064636230 1.714344382286
-15.481778144836 -72.023063659668 -68.889869689941 1.149234533310
99.850189208984 -68.660003662109 -71.811027526855 0.796479940414
96.852027893066 -72.941780090332 -75.622917175293 1.226815223694
68.636085510254 -72.691833496094 -78.002197265625 1.165082931519
67.219322204590 -71.697898864746 -83.601928710938 1.220013856888
-45.458663940430 -72.771537780762 -83.730300903320 0.474908828735
61.625617980957 -70.329277038574 -84.428451538086 1.223771929741
-96.203475952148 -71.054527282715 -87.862136840820 1.689980506897
-51.992824554443 -69.469604492188 -87.075897216797 1.448231101036
-55.446670532227 -76.627235412598 -91.912704467773 0.753986656666
98.371284484863 -72.557403564453 -96.066200256348 0.565035521984
57.559173583984 -72.414894104004 -95.146186828613 1.035473823547
63.329944610596 -70.015289306641 -91.450340270996 1.546042680740
-97.816818237305 -68.558540344238 -97.008003234863 1.349235057831
107.236122131348 -70.715950012207 -96.122413635254 1.115891575813
46.248859405518 -70.097785949707 -98.688735961914 1.958519458771
99.781173706055 -70.508590698242 -97.843864440918 1.104468345642
105.674789428711 -70.305572509766 -105.331787109375 2.019362926483
102.677749633789 -70.670120239258 -105.962226867676 1.043602585793
72.982254028320 -70.081672668457 -103.328323364258 0.887433350086
87.518592834473 -71.621231079102 -104.551284790039 0.559955000877
49.090702056885 -72.195617675781 -111.486129760742 1.533035874367
110.380126953125 -71.734512329102 -105.633613586426 1.071441173553
43.763648986816 -70.022750854492 -107.362754821777 1.207899570465
43.286659240723 -68.688285827637 -101.080825805664 1.708573102951
111.356025695801 -69.954238891602 -110.126884460449 1.036512732506
-79.383651733398 -70.415351867676 -111.451995849609 1.364606976509
46.521579742432 -70.592613220215 -113.270172119141 0.899886190891
36.760650634766 -70.197242736816 -113.801208496094 0.943107247353
104.285934448242 -69.151863098145 -109.314994812012 1.027192354202
42.004077911377 -68.260124206543 -111.618698120117 1.134884238243
-89.731872558594 -69.631912231445 -116.097640991211 1.271921396255
-96.564300537109 -69.919807434082 -116.178649902344 0.753115713596
106.672363281250 -69.598190307617 -117.946655273438 1.497578382492
-94.952941894531 -72.395210266113 -118.971061706543 1.017231106758
37.859428405762 -69.347023010254 -122.062637329102 0.830138504505
37.211986541748 -69.248207092285 -118.232505798340 1.717107772827
-81.402069091797 -69.393890380859 -125.354515075684 1.287557005882
30.742010116577 -69.098999023438 -135.981597900391 0.733939826488
108.544067382813 -71.291236877441 -131.042266845703 1.055563211441
-52.045856475830 -69.509963989258 -132.951049804688 2.248156547546
-89.055053710938 -69.992691040039 -130.020706176758 1.653954982758
37.100074768066 -70.635238647461 -133.774917602539 2.018302440643
-92.775268554688 -67.921485900879 -135.468475341797 1.547485709190
-90.370361328125 -69.871780395508 -138.400161743164 0.884473979473
-49.168395996094 -72.448234558105 -138.107070922852 0.467691689730
-70.777458190918 -69.783020019531 -141.020919799805 2.015541076660
-50.987590789795 -68.824638366699 -135.444961547852 0.719370603561
112.502082824707 -69.112632751465 -138.877288818359 1.274177908897
-75.472862243652 -69.924781799316 -140.692520141602 1.402956247330
34.696723937988 -69.123092651367 -132.627273559570 1.765497565269
-79.193748474121 -70.702262878418 -139.292022705078 0.735847055912
-75.117584228516 -68.855674743652 -137.006759643555 0.736172199249
-87.860282897949 -68.789520263672 -137.848861694336 1.540917158127
-52.109325408936 -70.710617065430 -149.684417724609 1.949651241302
31.061357498169 -68.967742919922 -145.726028442383 0.890449941158
27.609855651855 -68.278694152832 -150.593231201172 1.314202547073
17.233459472656 -68.668548583984 -144.424880981445 0.659344732761
113.111907958984 -69.644287109375 -146.489746093750 1.276290893555
-97.172447204590 -69.046150207520 -154.403121948242 1.460673213005
15.733489990234 -71.214202880859 -152.737991333008 0.788154661655
-72.546791076660 -69.513267517090 -151.466506958008 1.419441819191
22.838218688965 -70.283958435059 -150.989105224609 0.621400237083
-49.045921325684 -69.466011047363 -155.913879394531 1.972774147987
8.952874183655 -69.088653564453 -152.593338012695 0.599680364132
12.416851997375 -70.502166748047 -157.620239257813 0.777330040932
18.743816375732 -71.067939758301 -164.234085083008 0.885888814926
-46.189533233643 -70.223396301270 -161.601730346680 0.563099503517
-40.308509826660 -70.047096252441 -154.399475097656 0.911088645458
-44.986721038818 -68.831428527832 -159.692718505859 0.980325043201
-104.479553222656 -69.293128967285 -170.921569824219 0.631092131138
21.431779861450 -69.300155639648 -173.020477294922 2.047986984253
-36.451847076416 -68.758293151855 -173.212188720703 0.999767243862
15.228134155273 -70.288711547852 -178.526046752930 1.076517462730
-145.547805786133 -70.663391113281 -175.727294921875 0.746387243271
-33.408596038818 -68.645446777344 -173.684326171875 0.472797900438
-153.166656494141 -69.390777587891 -177.687896728516 0.723226964474
21.360635757446 -69.165687561035 -182.308227539063 2.313538074493
-31.333799362183 -68.964683532715 -173.461547851563 1.884315371513
-109.031204223633 -69.876335144043 -180.829925537109 2.215069532394
-107.515991210938 -69.812591552734 -182.870925903320 0.599838674068
-29.218597412109 -68.558547973633 -184.690628051758 0.321391880512
-22.809482574463 -70.483886718750 -182.342346191406 1.107371449471
16.089458465576 -69.102455139160 -189.878112792969 0.355458557606
18.286842346191 -69.153236389160 -195.012741088867 1.701161742210
14.657057762146 -68.354217529297 -186.469055175781 0.376465082169
-143.434463500977 -70.459602355957 -188.917724609375 0.706930816174
17.788469314575 -68.752250671387 -190.485214233398 0.517616510391
10.106260299683 -70.412887573242 -196.936538696289 1.328497767448
-140.200805664063 -69.011840820313 -196.424240112305 0.673651635647
-116.791824340820 -69.653419494629 -196.021301269531 0.594265878201
14.693388938904 -69.155776977539 -197.639602661133 2.325043439865
-113.190513610840 -69.886558532715 -197.050598144531 0.406601965427
-108.127265930176 -69.355674743652 -192.113739013672 2.414433002472
-163.334640502930 -70.241188049316 -198.245300292969 0.847399413586
-24.273717880249 -69.852600097656 -200.472198486328 2.481164693832
15.905571937561 -69.208488464355 -201.311706542969 1.893621802330
-140.120346069336 -68.932373046875 -204.030914306641 1.238273382187
-133.032272338867 -68.399551391602 -205.438659667969 0.630967795849
-17.750022888184 -69.099403381348 -206.652725219727 0.267258167267
-11.227329254150 -70.645690917969 -203.585617065430 0.777671873569
-16.289562225342 -68.733024597168 -206.341644287109 0.627823591232
-143.970443725586 -69.525115966797 -207.324295043945 0.676885783672
-15.393716812134 -70.639633178711 -213.208709716797 1.001576542854
-12.532250404358 -69.094406127930 -214.101913452148 0.219439983368
16.750417709351 -69.070373535156 -210.869277954102 1.131047844887
-11.689843177795 -69.045066833496 -211.296798706055 0.232263118029
10.729638099670 -68.095657348633 -211.676940917969 1.361518859863
-9.298660278320 -69.027763366699 -216.474044799805 0.204794347286
-17.524448394775 -69.484382629395 -212.797302246094 1.351404547691
14.130890846252 -69.266563415527 -221.651489257813 1.062204241753
-0.243474006653 -70.941215515137 -220.970443725586 0.589706420898
11.323404312134 -68.585510253906 -222.548553466797 0.976375699043
-5.275852203369 -69.059547424316 -225.000305175781 1.370383501053
-156.317764282227 -68.548606872559 -223.671676635742 0.804001927376
81.315361022949 -69.760139465332 -221.033660888672 0.308607220650
-134.483352661133 -69.001777648926 -225.537658691406 0.595356047153
-134.568222045898 -69.001518249512 -225.566986083984 0.631093263626
-8.943564414978 -69.703376770020 -225.719329833984 0.161896735430
11.464009284973 -69.714477539063 -231.840972900391 0.342221438885
-154.793685913086 -68.730422973633 -227.380996704102 1.097269058228
85.920120239258 -69.194366455078 -220.110549926758 0.207527801394
-2.947323083878 -69.063385009766 -224.992980957031 0.147093817592
0.552635014057 -70.076004028320 -225.714843750000 1.666354656219
74.188278198242 -70.000602722168 -227.204101562500 2.439270496368
1.299077987671 -69.069877624512 -233.010025024414 0.104132190347
-16.004760742188 -71.385734558105 -230.750549316406 1.443902611732
-124.839958190918 -70.934547424316 -235.471466064453 0.916432499886
-2.620474100113 -69.339607238770 -235.595001220703 0.278516381979
2.466308116913 -68.390724182129 -234.827133178711 0.977002322674
66.022529602051 -69.777328491211 -238.877746582031 1.384311318398
-158.327377319336 -68.065872192383 -240.081085205078 0.734781384468
-11.084449768066 -70.877868652344 -243.797210693359 0.190119534731
-167.149169921875 -69.432785034180 -238.838653564453 0.620979189873
9.015591621399 -70.568313598633 -243.355422973633 0.673839569092
-165.856964111328 -68.036499023438 -239.690139770508 1.062705636024
-161.600067138672 -68.811073303223 -245.026168823242 0.759283065796
55.691692352295 -68.127769470215 -246.084472656250 0.439056545496
64.311203002930 -68.747245788574 -243.738174438477 1.810654640198
57.277378082275 -68.871437072754 -242.910812377930 1.302904248238
52.452232360840 -69.026969909668 -248.616729736328 0.120132394135
-158.654891967773 -68.148536682129 -246.052322387695 0.745447754860
-156.649795532227 -69.491989135742 -251.447769165039 0.492050468922
-14.267223358154 -68.486206054688 -249.737594604492 0.671638965607
-152.103469848633 -69.140029907227 -246.161636352539 1.880094766617
22.152351379395 -71.964408874512 -251.793014526367 0.175978109241
-167.313613891602 -69.716445922852 -250.975006103516 0.797692239285
-165.466079711914 -67.988739013672 -245.859313964844 1.246419787407
-81.822471618652 -68.837821960449 -251.761611938477 1.627829790115
-167.362243652344 -69.515815734863 -262.880615234375 0.760984897614
-85.516754150391 -68.520355224609 -255.044799804688 1.616985678673
42.156208038330 -69.059234619141 -252.997558593750 1.320876240730
23.266252517700 -71.810203552246 -255.322998046875 1.691016077995
-159.442230224609 -68.551856994629 -260.285247802734 0.779774546623
-99.995971679688 -67.581550598145 -259.447143554688 1.876418709755
38.634204864502 -70.273368835449 -257.653167724609 1.779915094376
-101.367362976074 -70.178009033203 -260.597320556641 1.026852607727
-154.642013549805 -64.328636169434 -263.847259521484 0.928860723972
-106.764366149902 -67.864738464355 -261.465270996094 0.899326264858
-165.389221191406 -68.383598327637 -260.405578613281 0.553344070911
-112.725028991699 -70.049812316895 -262.851959228516 1.283076643944
-152.517608642578 -69.858909606934 -265.413238525391 0.487775832415
-157.032714843750 -69.876396179199 -265.166015625000 0.509156703949
-166.294876098633 -68.831809997559 -264.110412597656 0.440878361464
-161.923339843750 -67.745376586914 -262.793182373047 0.786988794804
-165.306015014648 -68.707626342773 -267.978332519531 1.352574110031
-161.115036010742 -68.849723815918 -267.174896240234 0.548293352127
24.751667022705 -70.070755004883 -265.160675048828 0.577845096588
-152.103118896484 -68.741859436035 -265.622711181641 0.764681637287
-146.922637939453 -67.935546875000 -283.129241943359 0.894016981125
20.280689239502 -71.344367980957 -278.052612304688 0.704857528210
-10.347067832947 -68.419258117676 -274.632659912109 2.593334197998
-126.307083129883 -69.997596740723 -284.246765136719 0.728975832462
-135.935714721680 -70.826217651367 -285.957031250000 0.799721300602
-135.423095703125 -67.506912231445 -287.525238037109 0.433612108231
-124.674240112305 -69.941017150879 -286.448181152344 0.730911552906
-116.124885559082 -68.381706237793 -287.345977783203 0.696012914181
-106.842208862305 -68.094848632813 -288.157745361328 0.721695423126
11.825246810913 -69.782958984375 -289.188446044922 0.319707155228
-85.705444335938 -68.711013793945 -289.185760498047 0.777465999126
-149.384826660156 -69.470993041992 -291.444946289063 0.890377223492
-100.390083312988 -67.911842346191 -290.649993896484 0.624539971352
-124.282043457031 -67.152130126953 -291.414947509766 1.272285461426
9.224419593811 -71.682525634766 -289.582092285156 0.530492126942
-113.309288024902 -68.181297302246 -292.319152832031 0.864284753799
1.005241036415 -69.182823181152 -292.475097656250 0.881306886673
-142.865753173828 -68.338066101074 -292.397827148438 0.901449501514
-153.539077758789 -69.965484619141 -297.574554443359 0.581717729568
-155.651824951172 -69.808715820313 -310.878479003906 0.631105184555
-153.869842529297 -70.199203491211 -313.332275390625 1.862634778023
49.482177734375 -71.090995788574 -24.440731048584 1.297616839409
20.703525543213 -72.057723999023 -33.326549530029 1.408293008804
33.197608947754 -71.983383178711 -37.020153045654 0.888306617737
-49.070262908936 -70.694908142090 -48.172843933105 2.127379179001
-15.700652122498 -70.182319641113 -61.274890899658 2.010724544525
93.082473754883 -72.062759399414 -69.260009765625 1.144719362259
68.825912475586 -69.669616699219 -70.874084472656 1.212950110435
-22.901363372803 -71.822372436523 -74.919586181641 1.854223251343
-95.006294250488 -72.429168701172 -83.811134338379 1.077114582062
-42.461032867432 -71.057167053223 -78.750663757324 1.947203278542
65.924415588379 -68.998184204102 -83.382316589355 1.103081703186
58.132011413574 -70.569679260254 -87.861694335938 0.847101747990
55.879608154297 -69.211944580078 -87.483810424805 1.083996534348
-58.474636077881 -68.938964843750 -89.785125732422 1.470359683037
65.474464416504 -69.013755798340 -89.552482604980 1.084391951561
44.524646759033 -71.055480957031 -97.000213623047 0.768581211567
66.987953186035 -69.665412902832 -94.214355468750 1.456839680672
-65.249801635742 -68.608840942383 -95.386825561523 1.342001676559
48.155853271484 -71.350440979004 -95.486595153809 1.365935325623
43.810932159424 -69.532936096191 -98.939132690430 1.711707115173
103.115730285645 -69.461502075195 -97.609985351563 0.706405341625
-68.862594604492 -69.868682861328 -99.948928833008 0.908900260925
108.749580383301 -69.493247985840 -101.271507263184 1.477078080177
-79.345687866211 -69.140518188477 -100.472930908203 0.956474959850
55.314956665039 -71.376914978027 -102.542045593262 0.983171224594
47.397750854492 -68.373985290527 -99.955123901367 0.467983812094
92.824882507324 -72.008232116699 -103.186218261719 1.203302860260
85.971336364746 -65.752464294434 -107.516456604004 1.109611392021
51.904663085938 -67.968040466309 -103.823417663574 1.853261590004
-75.531036376953 -69.887298583984 -109.382019042969 1.698988556862
-74.839218139648 -68.550781250000 -112.023963928223 1.222268700600
-79.514656066895 -70.879943847656 -119.277496337891 0.850409567356
-92.196479797363 -71.109748840332 -120.019729614258 0.654953956604
107.448661804199 -68.192855834961 -114.851051330566 1.130361318588
-85.532165527344 -69.883964538574 -120.078765869141 2.070886611938
-79.062019348145 -68.575668334961 -120.746726989746 0.635804831982
110.126358032227 -68.139778137207 -114.883247375488 0.898892998695
-64.397315979004 -66.048858642578 -119.395561218262 2.468262195587
114.070854187012 -69.461074829102 -131.062469482422 0.935579061508
109.994590759277 -69.170043945313 -128.808776855469 1.477687358856
109.958663940430 -68.467628479004 -122.663757324219 1.215829133987
-93.091773986816 -69.245796203613 -139.256729125977 0.753150224686
-49.387439727783 -69.060806274414 -141.715972900391 1.427400350571
-76.214736938477 -69.585304260254 -146.032577514648 1.280018329620
-69.438003540039 -69.504295349121 -149.985366821289 1.084666132927
-72.729187011719 -67.724021911621 -145.669052124023 2.405247926712
-55.543010711670 -68.640220642090 -143.438964843750 0.536385655403
-48.588321685791 -69.648475646973 -148.680435180664 0.749316334724
20.370019912720 -69.068244934082 -144.778747558594 1.111482977867
-94.833305358887 -69.309051513672 -145.609100341797 0.723791897297
-44.762973785400 -68.712074279785 -148.731079101563 0.633124291897
-53.887607574463 -68.734878540039 -149.248580932617 0.929474711418
-41.622936248779 -68.811470031738 -155.923126220703 0.864808022976
28.468389511108 -69.472488403320 -163.930175781250 3.039150953293
-48.722240447998 -67.633537292480 -149.989120483398 0.664642274380
-97.655288696289 -68.973228454590 -151.364486694336 1.104735374451
-42.149372100830 -68.492706298828 -159.700286865234 0.564181506634
26.326755523682 -68.286941528320 -151.651092529297 0.652957975864
-102.410079956055 -69.068275451660 -162.124206542969 0.623315989971
22.163187026978 -69.110397338867 -157.055252075195 2.640725135803
-106.851684570313 -69.073730468750 -171.774795532227 0.844989120960
-100.289039611816 -68.882476806641 -163.345535278320 2.544155359268
22.426862716675 -67.954803466797 -162.802749633789 2.482927083969
25.630744934082 -67.951812744141 -168.457656860352 0.764877915382
-104.612258911133 -69.064132690430 -174.696884155273 1.283822298050
-141.502166748047 -69.495155334473 -176.881011962891 0.731413781643
-22.204475402832 -68.764373779297 -187.512252807617 0.379724264145
-27.055955886841 -68.438514709473 -183.773315429688 1.134020209312
-112.665122985840 -68.651939392090 -187.634155273438 1.568709254265
-143.845535278320 -65.624168395996 -188.971435546875 1.367630720139
-106.172500610352 -68.384361267090 -182.580215454102 1.166918158531
-155.422927856445 -68.809860229492 -193.660110473633 1.163410425186
-131.385879516602 -69.930854797363 -195.283554077148 0.562146306038
-133.575881958008 -68.802284240723 -196.397918701172 0.670647501945
-20.524597167969 -67.652359008789 -192.711608886719 2.078580617905
-122.446159362793 -68.778068542480 -196.448547363281 0.821457922459
-114.435592651367 -67.933166503906 -197.302093505859 0.574010193348
-24.214551925659 -68.373962402344 -197.325561523438 1.415832161903
-154.210449218750 -67.831039428711 -202.036972045898 0.711755812168
-131.340332031250 -71.005050659180 -205.099349975586 0.701970875263
-124.794044494629 -68.316566467285 -206.186798095703 0.598624646664
17.493307113647 -67.740493774414 -202.012451171875 0.274151086807
-161.032882690430 -66.572746276855 -205.772689819336 1.988336801529
8.403865814209 -69.486991882324 -212.981353759766 0.566197574139
13.318353652954 -68.190277099609 -213.709472656250 1.289374589920
-19.360504150391 -67.752105712891 -207.113403320313 0.262386947870
-5.072367191315 -68.984817504883 -215.916702270508 0.774622678757
-166.295989990234 -67.858070373535 -210.036590576172 2.146230459213
-158.555862426758 -68.345008850098 -214.531127929688 0.985853075981
-94.288124084473 -69.212882995605 -218.075042724609 1.044963479042
-101.369491577148 -68.282867431641 -225.359878540039 0.807869553566
-160.847106933594 -67.257980346680 -223.262023925781 1.269463181496
-102.619735717773 -68.816154479980 -220.380645751953 1.891242980957
-12.526745796204 -67.968200683594 -218.228164672852 0.890197873116
-125.997787475586 -68.971679687500 -224.567581176758 0.596291780472
-140.414428710938 -69.603576660156 -226.356552124023 0.658192992210
-2.923028945923 -67.812095642090 -221.548019409180 0.671959221363
-134.288452148438 -68.254386901855 -226.440567016602 0.626151382923
-123.775520324707 -69.718154907227 -225.677200317383 0.779138386250
-114.260581970215 -67.802116394043 -226.925613403320 1.150241255760
3.424237966537 -68.398948669434 -226.643005371094 0.873689711094
-106.543479919434 -69.120124816895 -229.416580200195 0.755298912525
-158.391891479492 -67.338050842285 -224.217605590820 1.376962542534
-147.949676513672 -67.448898315430 -228.349899291992 0.677939593792
-166.034561157227 -67.918876647949 -224.778854370117 0.751996576786
-7.248953819275 -70.485702514648 -228.863769531250 1.394875288010
-8.733189582825 -67.931434631348 -231.154388427734 0.385084182024
78.620002746582 -68.410758972168 -226.216094970703 0.590166747570
2.003155946732 -68.342033386230 -230.629592895508 0.107709653676
-142.298202514648 -68.130523681641 -233.870635986328 1.101414084435
-13.521020889282 -68.867080688477 -228.982162475586 1.193757534027
74.457481384277 -68.425743103027 -228.827117919922 2.083729982376
75.767234802246 -68.595558166504 -232.960586547852 1.255130767822
-134.656494140625 -68.283630371094 -233.974151611328 0.939917385578
-158.960327148438 -67.410659790039 -229.096115112305 1.149428248405
-114.578857421875 -68.900260925293 -233.662918090820 0.579718172550
-123.495079040527 -67.241722106934 -234.802337646484 0.548828005791
-165.039611816406 -67.664955139160 -235.141098022461 0.484621345997
-158.617126464844 -67.860359191895 -236.866821289063 0.730939626694
-144.543014526367 -68.989303588867 -236.990127563477 0.897333681583
-9.135020256042 -70.258384704590 -237.006896972656 0.416835397482
-3.908235073090 -69.162071228027 -238.237701416016 0.633623778820
-161.112854003906 -66.937660217285 -238.479110717773 0.410465657711
5.393207073212 -69.614471435547 -240.163116455078 0.826136648655
6.184745788574 -67.845069885254 -234.556961059570 0.429073840380
-161.269805908203 -68.146278381348 -241.811447143555 1.216121673584
14.567907333374 -69.638504028320 -244.932144165039 0.055069979280
50.784034729004 -69.449851989746 -244.169036865234 0.882752716541
53.076957702637 -68.085838317871 -245.626846313477 0.794872343540
-13.878952026367 -69.387031555176 -246.811950683594 0.783089935780
49.719505310059 -67.386772155762 -248.252914428711 0.935855209827
-163.626708984375 -68.190170288086 -252.722244262695 0.778293490410
-162.357421875000 -67.811164855957 -249.449752807617 0.481941014528
-159.278228759766 -68.087226867676 -250.741485595703 0.667167425156
53.190822601318 -69.213859558105 -250.666793823242 0.123354591429
-89.601509094238 -68.109252929688 -253.360656738281 0.477459311485
-125.658378601074 -69.036285400391 -254.549011230469 0.802644968033
-105.040924072266 -69.278724670410 -255.774917602539 0.939330220222
29.337892532349 -69.298126220703 -257.268920898438 1.199889540672
43.804500579834 -68.245323181152 -250.658706665039 1.097396373749
-101.064407348633 -67.296432495117 -255.979690551758 0.404012441635
-94.316741943359 -67.156440734863 -255.728363037109 0.919546365738
45.197540283203 -68.764472961426 -252.982727050781 1.755190014839
44.238933563232 -68.209388732910 -256.105407714844 2.595190525055
-155.763702392578 -69.749435424805 -259.503845214844 0.768833458424
33.202926635742 -68.224296569824 -258.059143066406 0.419527798891
-141.714462280273 -70.657463073730 -263.930023193359 1.042372226715
-114.564422607422 -67.371772766113 -262.466217041016 0.774922788143
-135.172882080078 -70.074203491211 -263.981781005859 0.789146482944
28.812192916870 -69.271835327148 -262.645721435547 1.403488397598
-126.024024963379 -67.401321411133 -265.264892578125 0.652683913708
-10.825645446777 -68.209251403809 -260.776336669922 1.921206235886
23.648731231689 -70.121963500977 -270.932647705078 0.953772246838
-8.242734909058 -67.883369445801 -267.252349853516 0.646380007267
20.859876632690 -68.959045410156 -279.168853759766 0.826584339142
-151.322204589844 -67.648544311523 -283.136108398438 0.811427295208
-9.750911712646 -68.965888977051 -280.485504150391 0.307559102774
-153.928619384766 -70.479362487793 -284.626739501953 0.806789815426
-125.914115905762 -67.002128601074 -285.652923583984 1.175959229469
-155.798889160156 -70.652938842773 -287.217498779297 0.856176495552
-114.172821044922 -68.535369873047 -287.916595458984 0.691656947136
-105.765815734863 -67.616699218750 -288.975219726563 0.499696463346
-6.885857105255 -67.634918212891 -286.722839355469 0.359118044376
-109.228858947754 -67.710845947266 -291.104217529297 2.281259775162
-115.685768127441 -66.754570007324 -288.796112060547 0.800012528896
-116.359077453613 -67.056106567383 -291.662170410156 0.861621022224
-135.576156616211 -66.885368347168 -289.916229248047 0.883392691612
-124.704902648926 -69.133323669434 -292.919433593750 0.705485224724
-156.230178833008 -69.513771057129 -291.351715087891 0.257359415293
-146.154144287109 -69.251327514648 -295.581207275391 0.845160961151
-151.685714721680 -67.828262329102 -300.537902832031 0.880353271961
-153.456680297852 -67.080688476563 -312.052581787109 1.037733793259
-154.899047851563 -68.901847839355 -301.455413818359 1.071169495583
-145.073013305664 -68.512771606445 -311.928924560547 0.562280654907
-150.551879882813 -66.121215820313 -312.946136474609 1.393291592598
35.567668914795 -71.721206665039 -11.773880958557 1.148411154747
43.852817535400 -71.729110717773 -15.057594299316 1.247651696205
24.848814010620 -65.675399780273 -25.857469558716 2.014171123505
49.406352996826 -71.051818847656 -29.445720672607 1.462933301926
28.906623840332 -72.281028747559 -34.692848205566 0.630008637905
34.691413879395 -72.041709899902 -36.697380065918 1.366731882095
-58.097270965576 -67.893608093262 -45.495624542236 1.966150760651
84.053024291992 -68.858901977539 -63.493782043457 1.370784282684
78.726249694824 -70.085189819336 -65.327461242676 1.647798180580
-91.376327514648 -68.478965759277 -61.186004638672 2.244732141495
-12.027690887451 -68.243232727051 -63.986888885498 1.258888125420
-92.340415954590 -71.324295043945 -67.514175415039 1.923481822014
96.115837097168 -69.873901367188 -70.714469909668 1.259283900261
-16.258983612061 -67.259048461914 -68.957031250000 0.788109242916
67.730117797852 -70.399986267090 -74.650100708008 1.113801479340
-38.534675598145 -72.604812622070 -76.419052124023 0.738406181335
-28.619718551636 -73.574691772461 -78.235946655273 0.808895826340
57.070323944092 -70.087715148926 -85.289955139160 1.105104207993
-45.471557617188 -78.168525695801 -85.516929626465 1.158142209053
64.716041564941 -67.541305541992 -85.929656982422 1.258318424225
53.910942077637 -70.722251892090 -87.139686584473 0.870762407780
51.132129669189 -71.267517089844 -92.129287719727 0.942576467991
61.935237884521 -69.079940795898 -90.891609191895 1.402809381485
58.011226654053 -70.322746276855 -95.552917480469 0.565709769726
101.143692016602 -68.907554626465 -96.347152709961 0.931667029858
104.368476867676 -68.707618713379 -96.463539123535 1.109748482704
58.460250854492 -70.825897216797 -98.270080566406 0.590536653996
105.739936828613 -67.317207336426 -97.420486450195 1.121318221092
-75.402305603027 -69.176940917969 -99.828460693359 0.957179188728
-71.425315856934 -67.331237792969 -100.038696289063 1.183891654015
100.491462707520 -68.122596740723 -98.267623901367 1.191209197044
53.275394439697 -68.943489074707 -100.200912475586 0.944761395454
70.743370056152 -69.344444274902 -100.435325622559 0.765076994896
-74.153038024902 -68.705726623535 -104.808395385742 1.124715685844
-84.106994628906 -68.006347656250 -105.629737854004 0.499098390341
92.765571594238 -69.286293029785 -105.716079711914 0.155156970024
42.282962799072 -68.187278747559 -106.241722106934 0.940873920918
103.090339660645 -67.768951416016 -102.884986877441 1.619279384613
44.161117553711 -69.016525268555 -112.883636474609 1.466810703278
108.938789367676 -68.223236083984 -105.269615173340 1.215294122696
-79.985221862793 -67.228027343750 -109.057411193848 0.736972510815
106.946060180664 -67.299301147461 -107.736892700195 2.159777641296
-85.827339172363 -67.452308654785 -120.169380187988 1.069761276245
-58.855716705322 -69.842544555664 -129.000320434570 0.778869926929
-54.109691619873 -66.854980468750 -126.013099670410 1.124757051468
-74.231887817383 -68.029998779297 -128.721801757813 2.196584701538
-51.646343231201 -69.389404296875 -130.195236206055 0.753602623940
-84.250473022461 -69.446746826172 -130.721969604492 1.676331043243
-77.345497131348 -67.982521057129 -134.678695678711 1.261662006378
-82.606254577637 -67.293685913086 -127.909835815430 0.629791557789
-58.615608215332 -70.643447875977 -139.977630615234 1.196437597275
-73.017372131348 -67.073600769043 -139.095153808594 0.676841259003
-59.220638275146 -67.170196533203 -137.865585327148 0.707138478756
-60.817104339600 -69.400894165039 -140.021194458008 1.143716692924
22.649181365967 -67.491325378418 -140.886352539063 0.789449095726
-90.521186828613 -67.639488220215 -144.249053955078 0.904637753963
-46.507156372070 -68.348266601563 -142.989044189453 0.957728385925
-99.201141357422 -66.405052185059 -149.181106567383 2.079553842545
-99.498397827148 -67.777183532715 -151.630096435547 0.696965694427
17.492645263672 -68.605430603027 -151.818481445313 1.333562374115
12.824373245239 -69.204879760742 -156.504287719727 0.794840514660
-96.908576965332 -67.643905639648 -158.085113525391 0.698919475079
-102.542137145996 -67.220062255859 -157.925308227539 0.295255839825
-101.503677368164 -67.591339111328 -169.369277954102 0.621290743351
22.782781600952 -67.387641906738 -168.609893798828 1.763381004333
