116.544700622559 -73.619873046875 -133.798263549805 1.360049009323
-56.158050537109 -72.766410827637 -136.218307495117 1.093374490738
36.999507904053 -73.712799072266 -134.954589843750 1.412053942680
-72.434501647949 -72.984764099121 -138.120483398438 1.006263613701
29.516006469727 -73.013153076172 -133.749755859375 1.215112090111
-77.202346801758 -72.339851379395 -141.189636230469 1.595961689949
-44.819988250732 -74.762901306152 -141.709197998047 0.551763772964
-71.321914672852 -70.712265014648 -137.433517456055 2.191238880157
112.196746826172 -73.111618041992 -137.206680297852 0.946940958500
113.412109375000 -73.171913146973 -140.850677490234 0.791596293449
116.922653198242 -75.184783935547 -143.054382324219 1.116860389709
-72.015434265137 -70.393424987793 -144.229400634766 0.231594920158
10.434482574463 -70.934608459473 -150.454681396484 0.924594044685
-53.775695800781 -73.367393493652 -151.685531616211 0.940844357014
-48.716304779053 -72.879829406738 -155.817749023438 0.639135479927
108.755622863770 -73.117462158203 -157.864608764648 1.449059724808
-42.133396148682 -72.857505798340 -150.636260986328 0.650762677193
13.542233467102 -72.940368652344 -156.135848999023 0.787412941456
22.479419708252 -73.244422912598 -157.594161987305 2.020444393158
115.566452026367 -74.811950683594 -162.557357788086 1.541275739670
29.396472930908 -73.681793212891 -162.786041259766 0.763053655624
-0.633737981319 -73.484756469727 -162.603256225586 0.832130134106
32.075687408447 -73.975883483887 -161.028686523438 0.772081851959
-67.602180480957 -70.930274963379 -160.057296752930 0.084299214184
-64.174934387207 -71.610870361328 -159.181854248047 0.323273807764
-67.144943237305 -73.067955017090 -164.624343872070 1.120729327202
115.532722473145 -72.344230651855 -159.692779541016 2.200826883316
-43.876136779785 -72.272140502930 -162.771057128906 0.117896899581
20.559650421143 -73.553543090820 -165.756729125977 0.651452243328
-63.606403350830 -72.844459533691 -169.182296752930 1.973122119904
-60.115608215332 -72.702980041504 -171.036209106445 0.657495975494
-38.114795684814 -72.114997863770 -159.193893432617 0.186770260334
-31.239730834961 -72.336120605469 -169.867156982422 1.227743864059
114.190071105957 -73.988029479980 -169.766189575195 1.462362170219
-36.026916503906 -72.283187866211 -176.374267578125 1.367934823036
16.418729782104 -73.799034118652 -173.915206909180 1.847978591919
111.531761169434 -74.740463256836 -180.344238281250 1.576827406883
-147.783416748047 -72.936210632324 -176.417510986328 0.745740354061
-144.682983398438 -72.639015197754 -176.438323974609 0.913114786148
-150.833862304688 -71.502288818359 -177.793014526367 0.875415265560
-142.399856567383 -71.258453369141 -180.848358154297 1.184299826622
-29.819721221924 -72.484558105469 -186.341690063477 0.481885015965
-22.145711898804 -72.005905151367 -185.968795776367 1.545372605324
23.320777893066 -72.836860656738 -188.558517456055 2.064647674561
-141.985870361328 -71.373954772949 -187.322143554688 0.847373902798
-145.673233032227 -71.838653564453 -188.489135742188 0.885840177536
-19.483844757080 -70.220634460449 -187.873733520508 1.234004855156
14.136698722839 -74.319656372070 -181.967956542969 1.415583133698
-147.333465576172 -72.129066467285 -192.673706054688 1.060726523399
-30.911581039429 -74.514526367188 -185.652572631836 1.672032237053
101.275985717773 -73.011520385742 -187.428970336914 2.762180566788
108.509513854980 -74.436325073242 -188.801712036133 1.597322821617
23.628059387207 -71.669578552246 -192.986022949219 1.518310427666
-17.691234588623 -73.547164916992 -188.297515869141 1.510609030724
-25.636604309082 -73.986602783203 -194.084869384766 1.194832921028
-153.091690063477 -70.922752380371 -196.229736328125 0.988515913486
-131.500198364258 -72.399971008301 -197.309661865234 0.845070719719
-123.656250000000 -71.186553955078 -195.947708129883 0.909338295460
-121.670928955078 -70.476768493652 -198.206893920898 0.734478533268
-22.669427871704 -70.397323608398 -197.678039550781 0.342328280210
10.984813690186 -73.163932800293 -192.610549926758 1.369244217873
95.187011718750 -72.827583312988 -200.125305175781 0.797775447369
-147.296752929688 -70.717292785645 -197.681671142578 0.994638085365
-145.583206176758 -71.111885070801 -198.893280029297 0.649801194668
-148.754196166992 -70.335342407227 -199.080642700195 0.966555655003
-154.354904174805 -70.690132141113 -199.627929687500 1.450780034065
-25.302179336548 -73.458930969238 -199.341476440430 0.677772879601
-13.697791099548 -75.190368652344 -195.999649047852 1.060203671455
-147.882217407227 -71.155815124512 -201.345581054688 0.806989192963
-15.062237739563 -72.343345642090 -199.034637451172 1.218837976456
-161.852523803711 -70.884727478027 -199.165161132813 1.078675150871
-133.185317993164 -71.936698913574 -200.146392822266 0.870922744274
17.660949707031 -71.857063293457 -206.855422973633 1.308122992516
-163.206710815430 -70.968429565430 -204.216812133789 1.117914080620
-144.925918579102 -71.494262695313 -206.524520874023 0.831711590290
11.238071441650 -72.454521179199 -200.020034790039 1.398801803589
-152.914810180664 -70.777679443359 -203.681915283203 0.973030209541
-22.490547180176 -73.213676452637 -200.128356933594 1.354228973389
103.329757690430 -73.024772644043 -199.062026977539 1.586676716805
-155.240432739258 -71.158233642578 -215.916122436523 1.184152603149
-163.949707031250 -71.422576904297 -210.334732055664 1.072064995766
-77.843719482422 -71.430221557617 -211.155532836914 0.586189210415
88.774093627930 -72.872222900391 -209.821090698242 1.070212483406
-2.909894943237 -71.240867614746 -215.895675659180 0.322189807892
-150.490875244141 -70.965110778809 -213.514251708984 1.303907871246
-87.456542968750 -70.933067321777 -214.925277709961 1.733780503273
-7.571352005005 -73.032073974609 -211.707061767578 2.059524059296
15.639360427856 -73.171829223633 -222.432098388672 0.404562145472
-145.396942138672 -72.107521057129 -219.070816040039 0.510962545872
-2.123269081116 -72.977508544922 -220.761260986328 1.823928117752
-21.504745483398 -71.055824279785 -220.979980468750 0.672217369080
-13.906281471252 -70.460342407227 -218.751693725586 1.347160816193
89.025901794434 -73.081214904785 -215.188415527344 1.055328130722
-21.175867080688 -71.868125915527 -217.964187622070 1.141952395439
-28.045915603638 -72.253738403320 -215.701995849609 1.566967725754
-106.421546936035 -71.453865051270 -223.672378540039 0.793502688408
-14.672627449036 -71.854667663574 -222.076400756836 1.223267912865
90.745147705078 -71.883415222168 -218.486419677734 0.440993666649
82.080642700195 -72.946098327637 -218.058746337891 0.990519046783
5.957822799683 -73.384300231934 -220.276870727539 0.877345204353
-9.820135116577 -73.305931091309 -225.037582397461 0.838108241558
78.684570312500 -74.346847534180 -222.105972290039 0.712997138500
-123.077934265137 -71.475616455078 -225.233398437500 1.137632846832
-22.648605346680 -71.654197692871 -222.420211791992 0.320555955172
-98.912422180176 -70.925827026367 -224.339553833008 0.524193525314
-104.490974426270 -71.710227966309 -226.577087402344 0.435159355402
-134.065460205078 -72.426521301270 -228.029281616211 1.016457319260
82.481979370117 -72.312286376953 -223.826629638672 1.495489478111
-123.161087036133 -71.282142639160 -227.418167114258 0.925068497658
6.403148174286 -72.958053588867 -227.730682373047 0.701744735241
80.919181823730 -72.440864562988 -223.506271362305 2.348484992981
-13.677933692932 -72.607673645020 -225.527526855469 0.236540302634
-11.329511642456 -72.739196777344 -230.646636962891 1.110463738441
-4.122027873993 -73.385635375977 -229.591171264648 0.378799676895
9.023526191711 -72.541488647461 -226.644210815430 0.963475286961
86.696975708008 -73.461593627930 -224.061431884766 0.769830882549
11.897444725037 -72.020912170410 -231.793472290039 0.468059629202
4.151891231537 -73.739784240723 -228.753265380859 1.464708805084
-8.139507293701 -72.785034179688 -229.971710205078 0.675232410431
-5.978903770447 -71.984024047852 -233.282531738281 0.399650633335
17.430620193481 -71.864410400391 -231.359359741211 0.474011361599
-11.463492393494 -72.258293151855 -233.740661621094 0.387207001448
72.167671203613 -73.375404357910 -237.521148681641 0.869236290455
-7.222869873047 -71.038162231445 -237.516540527344 0.423666298389
19.318702697754 -73.755828857422 -235.579711914063 0.469132274389
-165.591140747070 -71.839126586914 -242.198791503906 1.359768271446
-4.031392097473 -72.103698730469 -238.946746826172 0.427590459585
-8.548915863037 -70.976203918457 -241.769454956055 0.724613964558
-167.118377685547 -70.370735168457 -252.097579956055 1.394183635712
-9.594444274902 -72.641685485840 -245.069732666016 0.444273442030
17.698291778564 -71.885665893555 -246.236038208008 1.040285944939
-145.748611450195 -72.947212219238 -252.387939453125 0.574919998646
-68.057212829590 -70.289207458496 -247.992065429688 1.063898563385
-59.826602935791 -71.381515502930 -246.689758300781 1.670891404152
54.861019134521 -73.129119873047 -246.327377319336 2.695371150970
-76.447174072266 -71.876609802246 -248.194061279297 1.614342689514
19.185844421387 -73.606674194336 -248.814041137695 0.946208953857
-72.684463500977 -70.459228515625 -252.378692626953 1.757954001427
-13.619887351990 -72.822212219238 -250.834884643555 1.198292851448
-144.962326049805 -71.985168457031 -253.397598266602 1.187247514725
49.648754119873 -72.700309753418 -248.112228393555 0.562303900719
-77.649734497070 -70.657768249512 -253.955825805664 1.334032058716
-101.122459411621 -70.891769409180 -254.827987670898 1.496630072594
-96.809089660645 -72.887184143066 -255.264266967773 1.012635111809
-116.597213745117 -72.578254699707 -255.766754150391 1.110903859138
-104.461791992188 -72.500770568848 -257.149475097656 1.129029989243
-106.145355224609 -72.453567504883 -259.562683105469 1.001919627190
23.375253677368 -74.201919555664 -260.091339111328 0.918097853661
-126.594062805176 -70.717407226563 -265.249023437500 0.829838156700
-10.375562667847 -73.036430358887 -276.342071533203 1.713541746140
-144.838500976563 -71.173851013184 -282.232452392578 0.697291672230
-167.731079101563 -71.286033630371 -284.061737060547 0.873885333538
-123.890228271484 -71.748939514160 -286.399200439453 1.192254185677
-113.282325744629 -70.191596984863 -287.269989013672 1.330267667770
-74.441490173340 -69.411537170410 -287.314819335938 1.071089744568
-55.967979431152 -70.500549316406 -286.717651367188 1.676365971565
-42.139724731445 -71.674797058105 -286.655212402344 0.811703383923
-14.127923011780 -71.744140625000 -287.522369384766 0.721400022507
-13.086640357971 -71.003356933594 -288.902221679688 0.987536609173
-36.830860137939 -70.957008361816 -288.878875732422 1.410278320313
-33.286140441895 -71.152770996094 -288.786437988281 2.408358573914
-17.579330444336 -71.168777465820 -288.974243164063 1.036733150482
-68.471557617188 -70.958511352539 -291.019500732422 0.984732747078
-53.257377624512 -71.342361450195 -290.619812011719 1.327683806419
-14.639208793640 -70.933425903320 -290.771911621094 0.750497937202
-12.650794982910 -71.964218139648 -290.845001220703 0.739012300968
-3.080426931381 -70.995773315430 -290.392456054688 0.727029502392
3.089682102203 -71.543067932129 -290.859283447266 0.586747229099
-88.745330810547 -71.730407714844 -292.047790527344 0.432915270329
-141.478927612305 -70.095588684082 -293.173583984375 1.428371071815
-116.870147705078 -71.886817932129 -292.727508544922 1.171715378761
-152.993087768555 -72.705123901367 -297.489318847656 1.114525198936
-153.593200683594 -70.872055053711 -300.028259277344 1.637166261673
-144.879257202148 -72.188018798828 -300.038604736328 0.849008738995
46.295120239258 -73.104461669922 -18.203250885010 1.864773154259
19.597743988037 -72.733688354492 -23.049217224121 1.946743607521
48.757015228271 -73.105476379395 -26.166698455811 1.663135290146
47.080631256104 -73.185943603516 -33.381023406982 2.729711771011
86.639419555664 -73.146575927734 -66.771911621094 1.768142461777
94.998695373535 -73.614669799805 -71.979469299316 1.804189562798
100.957618713379 -71.515403747559 -79.656585693359 1.808022141457
98.456642150879 -74.675857543945 -81.259948730469 1.714330315590
58.541629791260 -73.403594970703 -87.466796875000 1.604313969612
48.729572296143 -74.451591491699 -93.124435424805 1.975516080856
63.301685333252 -71.833335876465 -89.914993286133 1.929720878601
-64.449119567871 -68.725891113281 -91.720222473145 0.493469923735
69.186882019043 -74.256523132324 -87.956115722656 1.294024705887
102.490081787109 -71.921737670898 -96.821128845215 1.644391059875
74.847846984863 -74.607566833496 -98.937309265137 1.679532170296
96.121711730957 -72.795799255371 -100.234436035156 0.962175667286
-80.665130615234 -72.580322265625 -100.826377868652 0.402592480183
44.124614715576 -73.082824707031 -101.126945495605 2.034669399261
-83.836585998535 -72.244613647461 -105.934700012207 0.364332467318
50.492351531982 -74.372962951660 -110.134185791016 1.724880337715
39.911033630371 -72.737144470215 -103.994201660156 1.159688830376
106.505706787109 -72.766372680664 -102.338096618652 1.495345592499
38.361991882324 -71.652435302734 -107.853591918945 1.237151265144
39.281200408936 -71.394737243652 -114.206558227539 1.583145499229
43.552936553955 -71.106399536133 -112.499588012695 1.727733612061
107.907806396484 -72.321609497070 -113.115493774414 0.957082390785
-82.312782287598 -71.118064880371 -120.918754577637 0.268487006426
111.309463500977 -72.236442565918 -125.396163940430 0.778586804867
37.536426544189 -71.856880187988 -123.317687988281 0.995242536068
41.733695983887 -70.811981201172 -120.270446777344 1.194149255753
36.307601928711 -71.872932434082 -122.090209960938 1.022181868553
-56.749820709229 -72.349128723145 -129.890609741211 0.515570342541
31.202272415161 -72.189270019531 -123.450790405273 1.309153079987
-76.225852966309 -73.249847412109 -136.812408447266 1.580690979958
-55.703330993652 -71.803062438965 -132.956634521484 0.249694630504
-79.263946533203 -70.835029602051 -134.960372924805 1.708172202110
33.729118347168 -71.536376953125 -128.240966796875 1.654072284698
-58.797313690186 -70.696899414063 -134.017547607422 1.826032042503
35.088294982910 -71.574882507324 -133.663711547852 1.531377553940
-72.987785339355 -70.743484497070 -139.705535888672 0.379911720753
-58.979804992676 -73.229927062988 -138.139755249023 1.365114212036
29.180170059204 -71.707878112793 -139.116790771484 0.865953683853
109.374549865723 -74.169807434082 -142.702301025391 1.776567816734
116.056846618652 -71.627571105957 -135.517517089844 1.138556480408
31.485361099243 -71.289367675781 -138.942550659180 0.887042284012
-45.222335815430 -70.461532592773 -141.113327026367 0.249574244022
109.900314331055 -72.109901428223 -150.644531250000 1.154801845551
-73.814300537109 -71.243782043457 -144.351394653320 0.728390395641
-58.601367950439 -71.820869445801 -142.762542724609 0.921345233917
31.583330154419 -72.579704284668 -149.407363891602 1.706515550613
-76.075576782227 -71.422660827637 -146.775939941406 1.039661765099
-70.963829040527 -72.178375244141 -151.249664306641 1.899671554565
116.783462524414 -72.919120788574 -149.207000732422 1.232913374901
-64.729454040527 -72.756568908691 -154.338363647461 2.243121623993
-38.789901733398 -71.685317993164 -153.299392700195 1.739477276802
27.916217803955 -70.801483154297 -148.039932250977 1.154634952545
-74.880088806152 -71.146759033203 -149.638275146484 0.136125355959
12.517000198364 -72.957962036133 -151.134170532227 1.896716237068
31.978240966797 -71.294746398926 -154.129455566406 1.045118808746
30.562040328979 -71.434135437012 -147.208816528320 1.820361614227
11.973947525024 -74.184974670410 -154.800842285156 0.525036513805
-48.315044403076 -70.804962158203 -153.825973510742 0.329477757215
27.816421508789 -70.482872009277 -152.877655029297 0.784150600433
-44.651889801025 -70.989669799805 -148.681396484375 0.755663692951
7.145267963409 -72.142395019531 -153.550506591797 0.553330063820
22.471805572510 -71.690986633301 -149.663452148438 1.223057389259
-71.569717407227 -71.752845764160 -155.827468872070 1.967804312706
-45.312236785889 -70.016380310059 -154.138641357422 0.159886151552
-67.319313049316 -70.093055725098 -157.005447387695 1.770673632622
14.833466529846 -71.372734069824 -157.934280395508 1.121050000191
25.395421981812 -71.477127075195 -149.790725708008 2.336945295334
2.773272991180 -71.580253601074 -161.005203247070 0.526355504990
20.527635574341 -73.398475646973 -155.841308593750 0.958850085735
31.088790893555 -72.922035217285 -164.139419555664 1.409883141518
-47.336666107178 -73.090026855469 -161.818984985352 0.172150716186
-33.756084442139 -72.028373718262 -161.184967041016 0.458479255438
-39.312091827393 -70.912933349609 -160.360183715820 0.171200677752
28.151473999023 -71.392112731934 -160.299011230469 1.086858034134
-43.543399810791 -72.014419555664 -167.734985351563 0.679388225079
-40.438343048096 -70.743858337402 -162.362640380859 2.241241216660
20.766195297241 -71.834449768066 -166.214035034180 1.198014974594
-40.017406463623 -71.608520507813 -173.171188354492 0.107169918716
29.056913375854 -71.767257690430 -169.812088012695 1.000726461411
114.041374206543 -71.965972900391 -166.669204711914 1.367321491241
-32.076072692871 -70.930404663086 -171.679565429688 0.181609824300
107.264778137207 -71.613128662109 -172.141616821289 1.375748038292
-34.364475250244 -71.009750366211 -176.556427001953 0.148992583156
-36.285469055176 -72.138221740723 -180.206039428711 0.608142137527
18.518384933472 -73.199790954590 -174.567230224609 0.905866026878
104.813545227051 -71.563598632813 -181.358062744141 1.848169445992
-28.599403381348 -70.932945251465 -184.626266479492 0.184229597449
-33.547676086426 -70.493392944336 -173.937484741211 1.269342064857
-23.750890731812 -70.859519958496 -185.644927978516 0.828416109085
-148.608734130859 -71.680839538574 -188.337860107422 0.935231029987
16.078149795532 -71.910240173340 -183.035003662109 1.643619298935
106.744964599609 -71.421676635742 -188.406509399414 1.948088049889
-155.481506347656 -70.264350891113 -194.859954833984 1.095591545105
-26.241661071777 -71.450447082520 -191.790176391602 0.198356077075
-115.332710266113 -70.941505432129 -196.683166503906 0.673253476620
-133.725921630859 -70.941528320313 -197.706420898438 0.836437940598
-109.785057067871 -70.056198120117 -199.481658935547 0.643520593643
-111.371200561523 -71.016082763672 -200.617095947266 1.287343502045
-14.059576988220 -71.213203430176 -196.273162841797 0.281247526407
20.824327468872 -72.669219970703 -196.150665283203 1.006191372871
-15.385084152222 -69.818969726563 -201.407592773438 0.612674534321
-123.698745727539 -70.908584594727 -204.846893310547 0.367264956236
-21.314161300659 -70.261337280273 -206.016632080078 1.755106687546
-131.407241821289 -71.887451171875 -203.380294799805 0.979965090752
-13.053073883057 -72.182258605957 -202.788986206055 0.379557400942
-143.965606689453 -70.230255126953 -205.588928222656 0.962936878204
92.191101074219 -71.423355102539 -206.630187988281 2.535895347595
-164.851577758789 -70.565765380859 -202.645538330078 0.921496152878
-3.824644088745 -73.936630249023 -213.447174072266 1.645710110664
10.470712661743 -71.205528259277 -208.899612426758 1.273232817650
10.869490623474 -70.689163208008 -216.337554931641 2.477607488632
83.574836730957 -71.502868652344 -217.275375366211 1.012646555901
7.187651157379 -71.743553161621 -212.282318115234 1.026013493538
15.085447311401 -71.230415344238 -213.976348876953 0.480881929398
-15.544804573059 -73.831420898438 -216.710861206055 1.388046264648
-90.254646301270 -69.885932922363 -217.553726196289 1.196459412575
-96.734367370605 -71.066757202148 -216.639846801758 1.637720584869
-3.571343898773 -70.227157592773 -220.716369628906 1.109408497810
-165.873535156250 -70.562881469727 -223.853042602539 1.858264923096
13.616469383240 -71.266021728516 -222.030899047852 1.082719206810
-144.015426635742 -70.141914367676 -223.727584838867 1.565182566643
12.173137664795 -71.182434082031 -224.786148071289 1.128461599350
-133.125946044922 -70.581039428711 -225.113632202148 1.351568460464
-116.444084167480 -71.253036499023 -225.525070190430 0.857567250729
16.207302093506 -70.697807312012 -221.803115844727 0.639285087585
76.856788635254 -71.593994140625 -224.030929565430 0.941129148006
8.045926094055 -70.114944458008 -222.903152465820 1.014477849007
-111.263771057129 -71.123435974121 -230.328445434570 1.234065413475
77.339416503906 -71.654579162598 -227.868682861328 0.936732530594
81.725341796875 -71.796539306641 -229.078170776367 0.968578577042
-122.849784851074 -70.797668457031 -232.475570678711 0.955097138882
-113.589706420898 -71.248527526855 -231.635681152344 0.587481021881
-10.899717330933 -71.037567138672 -230.727859497070 0.802472352982
72.295219421387 -72.510734558105 -228.259353637695 0.890627563000
65.188232421875 -72.252357482910 -234.378646850586 0.827281057835
75.623672485352 -71.428825378418 -230.797500610352 0.648185789585
-132.774978637695 -69.784141540527 -235.037353515625 0.891537129879
72.337493896484 -71.981369018555 -234.859024047852 0.733974397182
67.353767395020 -71.432815551758 -235.477188110352 2.242737293243
-166.063919067383 -70.835426330566 -229.497512817383 1.161513090134
0.755352020264 -73.783424377441 -238.654174804688 0.424528688192
17.526712417603 -71.627891540527 -240.050308227539 0.516964852810
-5.434577941895 -70.664299011230 -239.082504272461 0.402556747198
14.030559539795 -70.461936950684 -239.147857666016 0.508071839809
65.006896972656 -72.306121826172 -238.450088500977 0.601635515690
11.795648574829 -71.357131958008 -240.945144653320 1.124170303345
-9.373465538025 -67.724235534668 -241.718658447266 0.469666361809
2.008896112442 -69.920440673828 -240.677642822266 0.416704356670
65.545860290527 -72.517295837402 -242.633499145508 1.622319817543
6.205337047577 -72.842308044434 -242.693191528320 0.955092966557
-8.170598983765 -71.769538879395 -243.088073730469 0.442841261625
14.050392150879 -71.509689331055 -244.442947387695 1.235971570015
-166.906188964844 -69.764648437500 -241.758621215820 0.807879507542
59.454616546631 -70.248214721680 -247.120605468750 1.568112730980
52.512168884277 -70.430923461914 -247.081848144531 0.751889467239
56.073299407959 -72.335655212402 -241.962310791016 0.435979425907
-11.570409774780 -71.532737731934 -247.847366333008 1.193604350090
57.880893707275 -72.598541259766 -246.642166137695 1.123313784599
-72.325988769531 -70.219879150391 -248.262741088867 0.613044500351
52.148086547852 -71.893646240234 -249.304489135742 0.729521572590
-90.366088867188 -71.727775573730 -252.039993286133 0.867187857628
-125.103614807129 -71.838676452637 -254.643463134766 1.116551041603
-132.728408813477 -69.962280273438 -254.530731201172 1.176380395889
44.446708679199 -71.955673217773 -252.333419799805 0.617940008640
-135.322448730469 -71.366638183594 -256.127288818359 0.967415511608
-110.041023254395 -71.242752075195 -257.261840820313 0.803095996380
-113.180770874023 -69.120903015137 -257.080657958984 0.575467288494
-82.190444946289 -71.469108581543 -255.332870483398 1.096515655518
-111.308830261230 -71.950668334961 -261.185272216797 1.608904361725
-123.401573181152 -71.872955322266 -262.356109619141 1.245152115822
-144.668960571289 -68.910377502441 -266.443725585938 1.347971320152
-14.930657386780 -71.152511596680 -261.973754882813 0.760695993900
-167.302169799805 -70.003059387207 -264.321441650391 0.777990520000
-13.563236236572 -71.876602172852 -271.801391601563 0.999102532864
-159.166137695313 -69.119453430176 -267.972808837891 1.661096572876
-152.126251220703 -69.169006347656 -275.705841064453 1.998535990715
-167.737091064453 -70.267974853516 -277.795867919922 1.884485125542
-12.106723785400 -70.043518066406 -274.893493652344 0.792868494987
-133.192596435547 -71.306922912598 -284.213409423828 0.470457851887
-159.259613037109 -69.906066894531 -286.521636962891 1.630481362343
-144.876647949219 -69.993324279785 -282.207733154297 1.143748044968
-134.387374877930 -72.905616760254 -285.132263183594 1.389400124550
-7.656497001648 -69.388954162598 -284.946472167969 1.778520941734
-124.875816345215 -73.212417602539 -284.755798339844 1.392958879471
-141.036605834961 -71.015632629395 -285.604064941406 1.181152701378
-115.933761596680 -70.387290954590 -286.393402099609 0.202750593424
-75.125602722168 -70.966148376465 -286.510406494141 0.991669833660
-61.894229888916 -69.735107421875 -287.471466064453 1.381991267204
-4.895020008087 -71.104110717773 -287.990142822266 0.952193200588
-52.269538879395 -70.316650390625 -289.358520507813 0.932755529881
-57.427829742432 -69.784255981445 -288.713348388672 0.911447227001
-68.359832763672 -69.623947143555 -290.532104492188 1.217193007469
-85.993011474609 -71.152008056641 -291.530609130859 1.202074646950
-97.578697204590 -68.190315246582 -291.123596191406 1.639063119888
-161.571701049805 -68.573921203613 -291.757629394531 1.751015305519
-162.016769409180 -71.111892700195 -292.625610351563 1.716640830040
-125.034866333008 -71.458793640137 -295.089630126953 1.865854382515
-144.646926879883 -71.243927001953 -296.445800781250 1.513349771500
-155.082061767578 -71.490020751953 -301.404266357422 1.723687410355
-146.755828857422 -70.100578308105 -313.577850341797 1.985879421234
46.793071746826 -71.556121826172 -17.233076095581 1.403360128403
19.420209884644 -73.239379882813 -26.691177368164 1.876154661179
40.768703460693 -72.285247802734 -33.498222351074 1.619711756706
-17.216440200806 -74.199684143066 -66.800781250000 1.789467334747
81.917831420898 -71.776451110840 -64.912605285645 2.407932043076
85.442703247070 -70.801170349121 -65.487167358398 1.766622662544
76.354812622070 -71.713226318359 -65.731910705566 1.691444754601
73.626632690430 -72.018486022949 -67.788299560547 2.096255540848
91.374137878418 -75.249488830566 -72.617218017578 1.751780986786
-93.893936157227 -70.150596618652 -70.429412841797 1.720660567284
70.442481994629 -73.448181152344 -75.477432250977 1.639692306519
-37.059162139893 -69.860313415527 -76.722099304199 1.047614455223
99.945159912109 -72.977996826172 -86.168411254883 1.681759357452
59.596847534180 -72.081382751465 -89.826332092285 1.064558029175
105.996414184570 -73.781265258789 -95.444374084473 2.052714347839
104.744499206543 -72.229675292969 -97.109451293945 1.027891874313
70.330665588379 -71.351516723633 -98.823585510254 1.083499789238
-77.520233154297 -73.585861206055 -99.387855529785 1.148635387421
54.028285980225 -73.390312194824 -101.170242309570 0.508938193321
105.128562927246 -71.982254028320 -104.243202209473 1.311645984650
48.757663726807 -73.967788696289 -109.330169677734 0.790225088596
80.264724731445 -71.570953369141 -103.510978698730 1.559824705124
41.912837982178 -71.664703369141 -106.056922912598 1.163818597794
106.800025939941 -71.351112365723 -102.851264953613 0.682113230228
47.695613861084 -70.750450134277 -107.248336791992 1.420983672142
109.225051879883 -72.383872985840 -110.519790649414 1.699174880981
108.993232727051 -71.717742919922 -113.017639160156 1.075681090355
-78.343765258789 -70.826148986816 -113.930595397949 1.104966044426
-82.429100036621 -70.995056152344 -117.455101013184 1.691442131996
44.215995788574 -73.244735717773 -120.338562011719 1.783567070961
114.037277221680 -72.526519775391 -117.862861633301 2.003610372543
114.240753173828 -70.713912963867 -123.127609252930 1.675218462944
-84.367263793945 -70.701675415039 -127.442916870117 1.210351586342
107.440002441406 -71.698966979980 -122.862442016602 1.617936849594
-58.818515777588 -72.308341979980 -131.454818725586 1.560726046562
-86.101287841797 -70.715232849121 -126.207855224609 1.434239983559
-75.460083007813 -69.885971069336 -127.863105773926 0.511052072048
-57.573837280273 -68.231452941895 -126.554466247559 0.548099577427
30.999105453491 -70.573303222656 -128.614303588867 2.446933984756
39.435550689697 -73.034973144531 -132.353622436523 0.858190596104
-75.807594299316 -70.556922912598 -137.195236206055 1.730889678001
28.645788192749 -71.488967895508 -132.345245361328 1.183729410172
109.929290771484 -71.619712829590 -139.093139648438 1.740503191948
-43.241470336914 -70.369537353516 -146.036514282227 0.229808792472
25.718143463135 -69.209480285645 -147.341506958008 1.595448732376
115.296173095703 -70.786666870117 -144.822311401367 1.398323893547
34.803672790527 -71.030456542969 -142.945327758789 1.716171741486
111.431739807129 -70.613853454590 -142.056808471680 1.555156350136
-53.222061157227 -72.106071472168 -148.750717163086 1.645555853844
-67.601470947266 -70.320449829102 -149.888336181641 1.569089531898
-51.081909179688 -71.170776367188 -154.909713745117 2.078991174698
-40.997070312500 -71.038917541504 -164.652862548828 2.590184926987
6.756601810455 -69.886886596680 -155.743606567383 0.685110509396
111.633964538574 -70.594932556152 -153.635772705078 1.500683069229
110.062736511230 -71.331443786621 -156.971511840820 0.934383332729
8.719371795654 -69.585021972656 -158.116928100586 1.511254787445
5.610074996948 -72.372993469238 -162.289398193359 0.743420541286
16.104225158691 -72.421226501465 -156.670211791992 0.755556285381
25.195142745972 -70.427268981934 -155.275131225586 1.243128299713
111.278106689453 -70.493377685547 -165.362609863281 1.788022160530
107.603645324707 -72.405242919922 -167.320587158203 1.584489226341
23.985471725464 -69.488426208496 -171.177536010742 1.193105340004
26.436483383179 -70.521736145020 -161.306289672852 0.758735358715
113.567085266113 -70.691520690918 -161.036422729492 2.296395540237
-27.593610763550 -70.346954345703 -174.116973876953 1.348686099052
109.820190429688 -70.771148681641 -167.666015625000 1.352566242218
17.222398757935 -71.551513671875 -171.429428100586 0.603477299213
22.269842147827 -70.506790161133 -164.987335205078 0.678561151028
109.690452575684 -70.640274047852 -172.704803466797 2.467241525650
25.808647155762 -70.473342895508 -170.588211059570 0.684673547745
110.272834777832 -71.955696105957 -180.849685668945 1.177956342697
-37.468154907227 -69.761665344238 -174.579467773438 1.980833888054
27.156579971313 -69.884498596191 -173.413269042969 1.193651199341
107.211227416992 -70.744270324707 -181.784698486328 1.084330558777
24.215888977051 -71.193794250488 -180.607711791992 0.232999011874
-152.427841186523 -69.609352111816 -187.381301879883 0.900736808777
-28.342842102051 -68.994255065918 -188.001632690430 1.520657062531
25.598937988281 -70.514869689941 -183.951644897461 1.815192103386
-110.685661315918 -69.877731323242 -191.229339599609 1.829942822456
-108.887802124023 -69.563255310059 -189.113632202148 0.574446201324
22.231216430664 -70.660697937012 -189.302764892578 1.007836699486
13.423954010010 -71.316749572754 -185.220123291016 0.520241022110
-26.302818298340 -70.492469787598 -189.484878540039 0.850771486759
-30.399633407593 -71.325386047363 -188.800216674805 0.658745884895
-26.205854415894 -70.347557067871 -185.215393066406 0.256522446871
18.122083663940 -70.378280639648 -179.361190795898 2.272407770157
-150.626373291016 -69.908638000488 -193.863098144531 0.953173577785
-143.418655395508 -70.209251403809 -194.001235961914 0.636978149414
-140.647659301758 -70.163589477539 -196.745101928711 0.928122639656
-21.406162261963 -69.934082031250 -190.988220214844 0.336561411619
12.784289360046 -70.384880065918 -198.905593872070 1.680039286613
99.891998291016 -71.352790832520 -193.949279785156 1.892334103584
-113.637329101563 -70.091033935547 -198.300262451172 0.757001101971
21.742931365967 -70.972747802734 -198.856643676758 0.851692557335
-17.510702133179 -70.200263977051 -196.449951171875 0.266346842051
-18.109243392944 -69.088386535645 -198.787338256836 1.229182124138
100.395454406738 -70.814987182617 -197.845657348633 1.217808127403
9.650498390198 -70.374229431152 -200.638336181641 1.593901991844
-21.251670837402 -69.263381958008 -195.807708740234 0.250515967607
-122.183860778809 -71.247100830078 -201.241714477539 0.750485062599
-133.327117919922 -69.318740844727 -203.623062133789 0.862067222595
-113.348106384277 -69.160774230957 -203.267776489258 0.515342712402
-141.716415405273 -70.255310058594 -203.935867309570 0.934679627419
19.047962188721 -70.191558837891 -197.132537841797 1.742294669151
96.058731079102 -70.487358093262 -204.346557617188 1.431406855583
-166.331512451172 -68.222808837891 -203.973434448242 1.025577783585
100.116455078125 -71.427742004395 -202.685974121094 2.251639604568
-18.534006118774 -70.594924926758 -207.041931152344 0.275916188955
94.835662841797 -71.645538330078 -212.041198730469 1.120364427567
88.176979064941 -70.296356201172 -214.181884765625 0.801285207272
14.962890625000 -70.141670227051 -209.999069213867 2.164330720901
18.567024230957 -71.083145141602 -210.161224365234 1.000052928925
12.335060119629 -69.954765319824 -206.817779541016 1.749369978905
-10.456907272339 -70.866950988770 -220.177474975586 0.997010767460
-95.048271179199 -69.395568847656 -216.856689453125 0.950826466084
-7.252319812775 -70.740264892578 -213.774047851563 1.765972375870
91.254318237305 -70.156303405762 -213.941177368164 1.765460014343
-91.817367553711 -69.932052612305 -219.626525878906 0.796259105206
-102.783843994141 -70.280807495117 -220.016250610352 1.040608167648
-91.299797058105 -72.368881225586 -220.347000122070 1.594047427177
87.089950561523 -70.189308166504 -220.639038085938 1.040212154388
-134.063476562500 -69.171836853027 -225.326019287109 0.526239097118
-134.092636108398 -68.627021789551 -225.323211669922 0.584468543530
-116.551330566406 -69.012893676758 -225.182769775391 0.859551846981
-112.298141479492 -68.188697814941 -226.090850830078 0.575869321823
-133.962844848633 -70.183303833008 -226.309661865234 1.004913091660
-108.840911865234 -71.741928100586 -226.490463256836 1.354821324348
-113.330528259277 -70.750770568848 -227.682678222656 0.819791734219
-6.177835941315 -70.622871398926 -225.656692504883 0.714645266533
-16.807315826416 -70.245574951172 -223.049804687500 0.315750122070
-0.845682978630 -70.311241149902 -231.282989501953 1.876599192619
-10.099848747253 -69.593269348145 -227.111190795898 0.384421706200
15.244043350220 -70.381462097168 -232.421905517578 0.382229328156
-16.140913009644 -70.004577636719 -228.490905761719 0.639776885509
-166.479614257813 -68.379631042480 -225.184478759766 1.305353760719
-1.685096025467 -68.913337707520 -232.724212646484 0.438137352467
80.770317077637 -70.416343688965 -229.126800537109 1.178467631340
9.687443733215 -70.768508911133 -234.120056152344 0.668310761452
-6.354690074921 -69.680114746094 -233.663528442383 0.420769780874
-156.078201293945 -68.180938720703 -237.849227905273 1.255220174789
-140.305465698242 -69.194480895996 -233.716827392578 0.893322467804
65.506523132324 -69.412284851074 -234.435943603516 1.731947422028
-5.406995773315 -71.089775085449 -235.499298095703 1.413654446602
6.861266136169 -71.072311401367 -233.053146362305 1.405365467072
69.627265930176 -70.541305541992 -234.578765869141 0.872277617455
77.470382690430 -72.160301208496 -233.436401367188 0.379391908646
70.426597595215 -71.120231628418 -239.332260131836 0.868805527687
-0.631326019764 -70.695053100586 -237.094848632813 0.911915063858
57.579998016357 -70.619697570801 -239.683410644531 1.829422831535
-18.133411407471 -70.707382202148 -238.900207519531 1.199039936066
-16.364631652832 -70.345314025879 -241.282272338867 0.914960086346
9.297422409058 -70.371047973633 -240.601470947266 1.024709463120
66.444526672363 -71.259277343750 -239.553039550781 0.398614019156
62.570831298828 -70.386283874512 -239.079452514648 0.927411258221
51.527111053467 -70.119338989258 -246.526321411133 1.558537006378
61.813179016113 -71.538513183594 -242.670715332031 0.448097527027
-15.493334770203 -70.584564208984 -250.669235229492 0.689691543579
-82.717231750488 -69.580421447754 -250.337188720703 1.406270623207
-76.321083068848 -69.051338195801 -251.854202270508 2.359543561935
45.039230346680 -71.210777282715 -248.849075317383 1.265854597092
-144.325332641602 -69.012008666992 -252.275070190430 0.864097237587
37.571529388428 -71.118385314941 -254.707443237305 0.793311953545
-91.128028869629 -69.609451293945 -252.039611816406 1.339928269386
-154.286666870117 -68.494148254395 -256.093505859375 1.488173842430
-140.697372436523 -69.045936584473 -255.619689941406 0.962760686874
48.585922241211 -71.251281738281 -252.364974975586 0.713758885860
-123.645286560059 -67.081985473633 -257.059753417969 0.642461419106
-115.131752014160 -68.127357482910 -256.722778320313 0.940654814243
-93.112365722656 -68.108505249023 -257.947937011719 0.921286761761
-14.282043457031 -70.188987731934 -254.291519165039 0.423262298107
31.942621231079 -70.521583557129 -258.477630615234 0.638902246952
25.310600280762 -69.568367004395 -260.151977539063 0.934245884418
-156.661987304688 -68.900772094727 -259.596435546875 1.643028378487
-114.611236572266 -71.204483032227 -262.874603271484 1.006194233894
-14.215782165527 -69.472091674805 -261.562011718750 0.568563997746
-133.736328125000 -69.704551696777 -265.025970458984 1.581693768501
-13.013578414917 -69.300643920898 -270.350646972656 0.744638860226
-166.466003417969 -68.289932250977 -274.978973388672 1.310666799545
-8.887671470642 -70.722160339355 -281.180633544922 0.677525758743
-161.831771850586 -68.316467285156 -288.528594970703 1.654506444931
-161.802246093750 -67.984580993652 -277.885650634766 3.382858991623
-142.661437988281 -68.736991882324 -285.803619384766 1.038280367851
-167.268295288086 -69.390174865723 -285.339965820313 1.646719813347
13.782633781433 -70.020553588867 -286.614532470703 0.708952844143
-102.780769348145 -69.611053466797 -287.058837890625 2.468007564545
-85.982673645020 -69.353202819824 -287.114562988281 1.069753050804
-165.914245605469 -68.134574890137 -285.888214111328 2.390560865402
-90.411224365234 -68.296974182129 -287.874206542969 1.007017970085
-149.916946411133 -68.714118957520 -287.956634521484 1.413902044296
-72.421203613281 -68.735748291016 -288.723144531250 2.102263212204
-67.791046142578 -69.287788391113 -288.825500488281 0.971623659134
-80.794944763184 -68.723701477051 -290.600830078125 1.938779354095
-3.634984016418 -66.769401550293 -290.395660400391 0.690094590187
-84.005828857422 -69.493019104004 -291.166961669922 1.196200847626
-98.215019226074 -68.964942932129 -292.060302734375 1.186670422554
-113.271743774414 -69.781021118164 -292.632263183594 1.490673661232
-115.971633911133 -69.137001037598 -292.865631103516 0.779918074608
-133.759857177734 -66.922836303711 -294.147613525391 2.008303880692
-143.159378051758 -70.359489440918 -301.437622070313 1.170578479767
-143.301620483398 -70.449569702148 -311.695159912109 1.639703750610
23.279455184937 -72.338684082031 -16.272771835327 1.611171960831
30.668563842773 -71.044799804688 -17.240802764893 0.885800957680
28.521638870239 -72.250228881836 -18.754413604736 1.242408037186
43.033428192139 -72.348243713379 -22.066724777222 1.803875446320
26.487232208252 -72.264854431152 -31.494924545288 0.959257125854
-75.236968994141 -68.386466979980 -48.048301696777 1.084156513214
89.845169067383 -69.637153625488 -63.587745666504 2.050001144409
-15.259187698364 -71.951416015625 -68.529815673828 0.972440361977
100.093467712402 -69.272491455078 -71.339836120605 1.348814606667
97.073631286621 -73.536270141602 -75.154785156250 1.801959156990
68.861968994141 -73.118858337402 -77.561210632324 1.557451486588
67.456520080566 -72.116333007813 -83.162261962891 1.754819989204
-45.225688934326 -72.521522521973 -83.399124145508 0.848940134048
61.871829986572 -70.714523315430 -83.994117736816 1.753466248512
-95.955421447754 -70.503356933594 -87.579734802246 1.172127842903
-51.736923217773 -69.180763244629 -86.750877380371 0.990297853947
-55.228511810303 -76.317604064941 -91.591293334961 0.496557831764
98.614822387695 -73.160186767578 -95.596588134766 1.009454250336
57.803401947021 -72.775604248047 -94.715850830078 1.362242698669
63.584747314453 -70.410408020020 -91.014350891113 1.074041962624
-97.545127868652 -67.997528076172 -96.727043151855 1.543045520782
107.490478515625 -71.371353149414 -95.644195556641 1.399047493935
46.510448455811 -70.391319274902 -98.269187927246 1.882994532585
100.038551330566 -71.119712829590 -97.372810363770 1.517489910126
105.940475463867 -70.951400756836 -104.855056762695 1.774317622185
102.941932678223 -71.298133850098 -105.488388061523 1.675650477409
73.247924804688 -70.533630371094 -102.883041381836 0.928730368614
87.776046752930 -72.159355163574 -104.092071533203 0.933752119541
49.352111816406 -72.505523681641 -111.063926696777 1.681541919708
110.637542724609 -72.408210754395 -105.152412414551 1.412044048309
44.034076690674 -70.301239013672 -106.945587158203 1.363291740417
43.558967590332 -68.964187622070 -100.664070129395 1.657961964607
111.628303527832 -70.633605957031 -109.644668579102 1.726790666580
-79.109405517578 -69.963142395020 -111.153366088867 1.752082228661
46.794265747070 -70.887237548828 -112.850379943848 1.164104700089
37.036369323730 -70.433952331543 -113.390792846680 1.431962251663
104.562324523926 -69.789329528809 -108.839546203613 1.672688484192
42.289089202881 -68.528053283691 -111.203163146973 1.086881160736
-89.448310852051 -69.118164062500 -115.808944702148 0.886891543865
-96.282249450684 -69.365524291992 -115.896537780762 0.685614883900
106.954368591309 -70.249496459961 -117.468925476074 1.067637205124
-94.682922363281 -71.850334167480 -118.687507629395 0.430410742760
38.148124694824 -69.589973449707 -121.651130676270 1.042156696320
37.497592926025 -69.487457275391 -117.821617126465 1.395611047745
-81.108345031738 -68.929237365723 -125.057785034180 1.357490420341
31.045703887939 -69.299240112305 -135.576919555664 1.039179563522
108.828605651855 -71.953163146973 -130.562805175781 0.599545717239
-51.746028900146 -69.219184875488 -132.626083374023 2.064820051193
-88.760246276855 -69.482460021973 -129.731369018555 1.153189420700
37.392417907715 -70.873245239258 -133.364196777344 1.811986207962
-92.462867736816 -67.389030456543 -135.182632446289 0.895532071590
-90.066749572754 -69.353454589844 -138.112091064453 0.918137192726
-48.881088256836 -72.174293518066 -137.779434204102 0.798659741879
-70.471145629883 -69.380836486816 -140.713973999023 1.746125817299
-50.681316375732 -68.540061950684 -135.118942260742 0.249864041805
112.807014465332 -69.797790527344 -138.393936157227 1.623158216476
-75.167625427246 -69.494750976563 -140.390106201172 1.048869609833
34.996974945068 -69.346916198730 -132.218795776367 1.455599069595
-78.894401550293 -70.250190734863 -138.993225097656 0.172475576401
-74.809562683105 -68.427902221680 -136.703964233398 0.154833376408
-87.550819396973 -68.286125183105 -137.558319091797 1.019972443581
-51.800514221191 -70.418846130371 -149.359542846680 2.011021852493
31.375204086304 -69.169540405273 -145.321044921875 0.778892934322
27.932538986206 -68.459854125977 -150.191528320313 1.857955455780
17.548076629639 -68.788360595703 -144.033187866211 0.745393157005
113.421005249023 -70.332786560059 -146.005813598633 2.018232822418
-96.848403930664 -68.486923217773 -154.121551513672 1.773000717163
16.041036605835 -71.324783325195 -152.347839355469 1.161692857742
-72.228790283203 -69.100219726563 -151.161254882813 1.338139891624
23.149473190308 -70.436767578125 -150.592071533203 0.755852460861
-48.723781585693 -69.192222595215 -155.585998535156 1.651952981949
9.273013114929 -69.159049987793 -152.209625244141 0.631546854973
12.733381271362 -70.592910766602 -157.233261108398 0.807781219482
19.063243865967 -71.195976257324 -163.841033935547 1.293617844582
-45.866462707520 -69.966331481934 -161.271148681641 0.112150244415
-39.991432189941 -69.825180053711 -154.063217163086 0.500979423523
-44.657253265381 -68.581596374512 -159.360916137695 0.735375940800
-104.140953063965 -68.689964294434 -170.647033691406 0.432467252016
21.770105361938 -69.443855285645 -172.624771118164 1.631515264511
-36.109085083008 -68.558609008789 -172.872161865234 1.198184013367
15.566005706787 -70.395401000977 -178.136352539063 1.527050256729
-145.211959838867 -69.816398620605 -175.492340087891 0.811694502831
-33.064765930176 -68.463813781738 -173.341369628906 0.181134283543
-152.821228027344 -68.498550415039 -177.460235595703 1.000543832779
21.708700180054 -69.308639526367 -181.912582397461 2.045596837997
-30.992113113403 -68.795349121094 -173.116607666016 1.904227733612
-108.686439514160 -69.245811462402 -180.559799194336 1.844073414803
-107.168907165527 -69.190979003906 -182.599334716797 0.522653043270
-28.863729476929 -68.401374816895 -184.343627929688 0.466218292713
-22.468412399292 -70.364784240723 -181.989273071289 1.022530436516
16.445280075073 -69.213874816895 -189.487533569336 0.543440639973
18.647264480591 -69.277503967285 -194.620056152344 1.572799682617
15.014061927795 -68.457275390625 -186.079833984375 0.544993877411
-143.084762573242 -69.624687194824 -188.680725097656 0.860755324364
18.146923065186 -68.873733520508 -190.092987060547 0.935160458088
10.461210250854 -70.488540649414 -196.551757812500 1.734086275101
-139.835342407227 -68.195869445801 -196.184082031250 0.872554898262
-116.430969238281 -68.976325988770 -195.758636474609 0.675479531288
15.056390762329 -69.258636474609 -197.250366210938 1.884098649025
-112.830116271973 -69.230781555176 -196.784469604492 0.959452867508
-107.768562316895 -68.730117797852 -191.842727661133 2.693758964539
-162.974288940430 -69.287902832031 -198.027450561523 1.115049004555
-23.911422729492 -69.724189758301 -200.120498657227 2.356047153473
16.271774291992 -69.318412780762 -200.921310424805 1.839033246040
-139.747085571289 -68.116615295410 -203.790664672852 1.029955744743
-132.654617309570 -67.625801086426 -205.191574096680 0.864684998989
-17.377426147461 -69.009483337402 -206.294723510742 0.292997598648
-10.866975784302 -70.594543457031 -203.221389770508 1.000432491302
-15.915117263794 -68.651786804199 -205.982208251953 0.603348374367
-143.597457885742 -68.686386108398 -207.087768554688 0.967171192169
-15.023988723755 -70.563430786133 -212.848495483398 1.211341142654
-12.152546882629 -69.035171508789 -213.738876342773 0.335897833109
17.126626968384 -69.184974670410 -210.478057861328 0.731180846691
-11.312562942505 -68.990928649902 -210.932952880859 0.333058595657
11.112513542175 -68.174530029297 -211.291473388672 1.694336295128
-8.916336059570 -68.987632751465 -216.107894897461 0.694729447365
-17.148223876953 -69.395576477051 -212.439071655273 1.603441596031
14.516362190247 -69.365234375000 -221.262786865234 1.478229403496
0.131665006280 -70.954612731934 -220.595657348633 0.569806277752
11.713829040527 -68.667510986328 -222.162536621094 1.149655342102
-4.885581016541 -69.042984008789 -224.630279541016 1.411025404930
-155.923034667969 -67.636077880859 -223.447006225586 1.476758003235
81.696098327637 -70.257385253906 -220.580322265625 0.995861768723
-134.089904785156 -68.218696594238 -225.291976928711 0.564511001110
-134.174743652344 -68.217941284180 -225.321395874023 0.525918483734
-8.556355476379 -69.665016174316 -225.352859497070 0.381707847118
11.856679916382 -69.796966552734 -231.454864501953 0.605514824390
-154.396484375000 -67.826797485352 -227.154861450195 0.646321535110
86.303245544434 -69.718971252441 -219.652755737305 0.975197970867
-2.557122945786 -69.060630798340 -224.620712280273 0.407526731491
0.937460005283 -70.093971252441 -225.339248657227 1.639687061310
74.573661804199 -70.455345153809 -226.757644653320 2.469339370728
1.696881055832 -69.092033386230 -232.633666992188 0.448677450418
-15.622561454773 -71.305282592773 -230.390945434570 1.252429127693
-124.448585510254 -70.208297729492 -235.216583251953 0.819597959518
-2.221713066101 -69.338417053223 -235.222427368164 0.321889877319
2.869868040085 -68.419754028320 -234.449630737305 0.593897402287
66.420623779297 -70.183227539063 -238.439132690430 0.919794559479
-157.913955688477 -67.140846252441 -239.858306884766 1.282590150833
-10.686765670776 -70.826148986816 -243.432846069336 0.693402588367
-166.744888305664 -68.455451965332 -238.624435424805 0.748411536217
