-135.903045654297 -82.897392272949 -261.196777343750 1.399239063263
15.044820785522 -82.616172790527 -264.679809570313 0.834393799305
-147.754821777344 -83.800994873047 -271.844757080078 1.349470019341
-146.828643798828 -84.711547851563 -276.561553955078 1.011998534203
5.596861839294 -81.951614379883 -276.500000000000 1.324590086937
-145.514709472656 -83.055885314941 -277.984924316406 1.383976578712
-136.872940063477 -83.673385620117 -287.197357177734 1.404172301292
-146.995117187500 -83.033027648926 -287.836059570313 1.474146604538
-150.144302368164 -83.415016174316 -289.921142578125 1.738751411438
-155.164672851563 -79.405158996582 -290.154144287109 1.198824882507
-136.019897460938 -83.730354309082 -291.165039062500 1.551659941673
-150.834777832031 -83.906944274902 -293.628906250000 0.880694210529
-58.009140014648 -81.563949584961 -68.398178100586 1.536626696587
-56.257713317871 -82.572746276855 -71.879608154297 3.473728895187
-41.845722198486 -82.178474426270 -72.311782836914 1.201177120209
-79.903419494629 -82.436004638672 -82.828109741211 0.791131675243
-38.773723602295 -83.545829772949 -82.059806823730 1.256541728973
-42.555522918701 -82.898635864258 -84.718399047852 0.941586732864
-82.819702148438 -85.589637756348 -101.186187744141 0.719137430191
-73.450645446777 -79.536209106445 -101.923728942871 0.640103757381
35.076377868652 -82.103767395020 -126.193130493164 1.645548701286
29.977180480957 -81.767860412598 -143.777709960938 1.820654869080
-11.341393470764 -81.598678588867 -177.737808227539 1.722581386566
-17.571414947510 -82.317649841309 -182.713088989258 1.080161333084
-28.307792663574 -82.204803466797 -183.627731323242 0.222863212228
-38.169589996338 -82.175338745117 -190.441024780273 1.373289108276
-51.977279663086 -81.187446594238 -186.809997558594 0.138558253646
-31.069145202637 -82.034645080566 -192.440246582031 2.140574693680
-144.014007568359 -80.471214294434 -187.822830200195 0.695681035519
-149.147964477539 -80.856613159180 -194.920440673828 1.188979387283
-152.033218383789 -81.256477355957 -199.939926147461 1.043693184853
-149.274307250977 -80.697212219238 -204.422897338867 0.842040240765
-68.483421325684 -82.787651062012 -208.111618041992 0.396606713533
-60.757049560547 -79.183746337891 -209.055206298828 1.971951603889
-146.980270385742 -82.770896911621 -211.360580444336 0.357007741928
-73.482337951660 -81.980964660645 -210.360702514648 1.744296789169
-71.005462646484 -82.189956665039 -211.923446655273 2.146136522293
-78.287979125977 -80.433303833008 -213.430297851563 0.430341124535
-142.327407836914 -81.130378723145 -226.824462890625 0.956432521343
-142.137512207031 -82.351783752441 -231.327804565430 0.401988357306
-149.769210815430 -82.780563354492 -247.183303833008 1.163622379303
15.762721061707 -81.328186035156 -246.528747558594 0.448445558548
7.345583915710 -81.573211669922 -249.352920532227 0.448420971632
-135.725479125977 -82.615570068359 -257.128051757813 1.327376604080
15.094177246094 -82.657798767090 -256.430053710938 0.734764099121
12.164787292480 -84.018386840820 -260.246612548828 0.932856380939
-150.074569702148 -83.452926635742 -263.412536621094 1.127811908722
-150.644744873047 -82.979354858398 -276.948608398438 1.474177956581
-0.043517999351 -82.712966918945 -273.348144531250 0.819064378738
10.142802238464 -81.056671142578 -277.121673583984 0.597983241081
-152.989212036133 -84.486724853516 -287.400939941406 1.173667192459
-145.638717651367 -83.063507080078 -284.433197021484 0.574535310268
-148.273620605469 -84.299766540527 -301.901947021484 1.074931859970
-47.088039398193 -81.817840576172 -70.908966064453 0.902392804623
-68.886505126953 -81.252319335938 -68.859436035156 1.228708386421
-42.199626922607 -80.876449584961 -67.897132873535 1.118298888206
-34.024379730225 -82.035186767578 -76.111564636230 1.196512460709
-75.420104980469 -80.486816406250 -70.073196411133 2.132150650024
-31.521875381470 -81.361167907715 -78.324859619141 1.123464822769
-46.952846527100 -79.073257446289 -85.564117431641 1.139641642570
-55.735240936279 -79.722969055176 -93.372398376465 0.792563617229
-62.261257171631 -84.597167968750 -95.581474304199 0.928427457809
-65.315567016602 -81.407249450684 -99.557281494141 0.701022684574
-87.411453247070 -81.848731994629 -106.546936035156 1.216843605042
44.119487762451 -80.936614990234 -116.514442443848 1.856416344643
38.203475952148 -82.006050109863 -125.255210876465 1.088621735573
-42.243198394775 -80.427139282227 -162.286102294922 0.284115612507
-38.906688690186 -80.936645507813 -162.309234619141 2.207595348358
-7.327591896057 -81.497673034668 -170.033065795898 0.732207357883
-61.251449584961 -80.329322814941 -170.101425170898 0.161826342344
-57.575393676758 -80.777091979980 -177.821228027344 2.539443969727
-57.522697448730 -80.912445068359 -174.031326293945 0.543411612511
-31.365768432617 -80.515007019043 -172.110031127930 1.628190994263
-51.997291564941 -81.336288452148 -181.093093872070 0.140003219247
-25.373273849487 -80.371353149414 -181.633651733398 1.091461300850
-146.685806274414 -81.732704162598 -186.651000976563 0.970158815384
-49.860591888428 -81.189453125000 -182.796081542969 0.637242317200
-41.887535095215 -81.089065551758 -193.491073608398 0.152814805508
-31.668542861938 -80.882659912109 -186.373962402344 0.197514504194
-33.851081848145 -79.875953674316 -189.388198852539 1.936816096306
-30.918779373169 -80.270942687988 -191.232727050781 0.800151169300
-24.909046173096 -80.743667602539 -188.143173217773 0.329609960318
-45.577312469482 -81.406242370605 -195.361740112305 0.755918204784
-144.023193359375 -80.614822387695 -195.176574707031 0.995887577534
-39.032230377197 -80.016395568848 -195.665756225586 0.236862644553
-39.665885925293 -81.437301635742 -197.911758422852 0.554057300091
-42.694374084473 -81.152458190918 -199.477462768555 0.702217876911
-45.119770050049 -79.650924682617 -198.688613891602 0.176900416613
-133.250106811523 -80.430671691895 -200.078598022461 0.540312588215
-135.873626708984 -80.800468444824 -201.697540283203 0.729243397713
-46.843162536621 -82.284309387207 -202.590194702148 1.071950674057
-59.164176940918 -81.098602294922 -202.884567260742 0.243298113346
-37.509899139404 -81.142524719238 -204.472656250000 0.192503511906
-144.332946777344 -81.286254882813 -205.377456665039 0.815602481365
-68.447708129883 -79.804023742676 -206.707977294922 0.991194486618
-33.496856689453 -81.024719238281 -207.040451049805 0.205135747790
14.290390968323 -80.235229492188 -204.913406372070 0.707925736904
-73.457626342773 -80.865539550781 -213.647018432617 0.403418183327
-30.180410385132 -80.098411560059 -213.043075561523 0.628200709820
12.431562423706 -80.980880737305 -216.671081542969 1.505271315575
-149.930648803711 -81.067588806152 -218.448318481445 0.946888923645
11.797066688538 -81.663017272949 -226.468597412109 0.649400234222
14.358131408691 -81.161079406738 -221.546524047852 0.386927604675
15.994919776917 -80.756675720215 -227.719573974609 0.895713984966
-134.655258178711 -81.934822082520 -227.444931030273 0.473296284676
-145.560638427734 -79.758049011230 -229.728118896484 0.936149954796
10.228864669800 -81.803070068359 -237.177627563477 0.391088068485
16.813056945801 -79.709373474121 -236.826034545898 2.063938379288
12.801258087158 -80.618476867676 -235.866546630859 0.646737098694
-149.904800415039 -81.747505187988 -240.849014282227 1.168508291245
-144.854125976563 -82.583946228027 -240.501480102539 1.080729842186
15.306127548218 -80.737869262695 -238.311050415039 0.422137349844
-34.809745788574 -79.735511779785 -243.708724975586 1.156922340393
18.814306259155 -80.641792297363 -247.081085205078 0.463480174541
-40.026695251465 -80.032966613770 -243.658218383789 0.509159266949
-145.259689331055 -82.237686157227 -254.172882080078 1.234539628029
15.435220718384 -80.540542602539 -252.354324340820 1.426643490791
-143.070541381836 -82.309280395508 -256.776153564453 0.583876073360
-150.338409423828 -81.974250793457 -254.213699340820 1.285837531090
18.788827896118 -79.544189453125 -256.662109375000 0.497356951237
-8.246981620789 -79.090568542480 -252.835754394531 1.313491702080
-7.412559986115 -82.056632995605 -260.741699218750 0.719914138317
-146.039749145508 -81.860206604004 -258.728790283203 1.060602426529
-154.524276733398 -78.152542114258 -260.647338867188 1.545246481895
-145.461807250977 -82.730552673340 -263.904510498047 1.075350046158
-150.864685058594 -78.281585693359 -265.041534423828 0.944182455540
-150.468673706055 -82.560699462891 -270.970153808594 1.762478232384
-8.703727722168 -80.166290283203 -266.872955322266 0.834179818630
-2.252264022827 -81.453353881836 -272.622131347656 0.614529848099
13.623691558838 -82.756683349609 -268.947174072266 0.379417985678
9.271363258362 -79.487945556641 -279.695983886719 0.981125593185
6.284943103790 -80.335861206055 -280.263153076172 1.705162763596
-136.601394653320 -77.714027404785 -291.621734619141 1.962871789932
-143.045974731445 -80.566207885742 -291.622894287109 1.230842471123
-61.280464172363 -80.767814636230 -65.520454406738 1.070495963097
-42.064594268799 -79.575218200684 -63.577598571777 1.132222056389
-51.851497650146 -80.669075012207 -65.749084472656 1.122995018959
-47.119148254395 -79.858169555664 -64.591728210449 1.636672258377
-69.145217895508 -80.036071777344 -65.233810424805 2.276900053024
-79.670448303223 -80.348464965820 -73.494125366211 1.404397845268
-31.562068939209 -79.828063964844 -79.893310546875 1.437601089478
-40.504150390625 -80.421638488770 -84.963356018066 0.221041902900
-48.751632690430 -81.097846984863 -87.819641113281 0.878848075867
-86.905662536621 -80.194313049316 -87.282516479492 2.277097463608
-78.131332397461 -81.198089599609 -104.280998229980 0.610291123390
42.871303558350 -80.833366394043 -108.513290405273 1.914300084114
-85.434715270996 -80.676078796387 -110.169769287109 1.741635918617
40.178199768066 -81.875808715820 -117.612525939941 1.766622424126
40.406875610352 -81.050369262695 -125.464241027832 1.102246880531
34.708606719971 -80.790100097656 -120.094345092773 1.869066953659
31.958530426025 -80.445701599121 -125.212905883789 1.923204660416
35.465751647949 -80.965545654297 -136.579437255859 1.895561575890
25.470232009888 -79.614624023438 -144.615219116211 0.856841742992
-46.511207580566 -80.231346130371 -151.613311767578 1.453108191490
32.170364379883 -80.865959167480 -146.748687744141 0.918954372406
24.748403549194 -80.473190307617 -158.206619262695 1.611903548241
-45.281661987305 -80.352813720703 -154.856216430664 0.325245589018
28.477718353271 -80.965843200684 -155.633560180664 1.081190228462
-44.417366027832 -78.624603271484 -163.742141723633 0.915293455124
25.913414001465 -80.597503662109 -166.168701171875 0.887151837349
-58.859695434570 -80.206390380859 -169.456176757813 2.055443048477
-8.371575355530 -82.019920349121 -173.722503662109 1.391818046570
-35.578784942627 -80.330612182617 -173.298599243164 1.263666391373
-15.968367576599 -82.104667663574 -175.238983154297 0.408169716597
-54.650115966797 -80.113914489746 -174.740386962891 0.153235793114
22.223318099976 -80.174179077148 -172.753845214844 1.217147588730
-14.575983047485 -80.447158813477 -180.664123535156 0.889831423759
-22.264802932739 -80.107658386230 -185.925369262695 0.840991079807
-54.606327056885 -79.566162109375 -185.729415893555 2.226726055145
-28.787511825562 -80.466003417969 -184.340591430664 0.840702295303
19.823249816895 -79.355621337891 -188.038574218750 0.948666512966
-149.247055053711 -80.573738098145 -188.186538696289 0.683798551559
-27.074121475220 -80.278282165527 -188.919677734375 0.216108754277
-47.135681152344 -79.179061889648 -190.094680786133 1.119381427765
-149.981719970703 -81.946594238281 -195.975433349609 1.069189190865
-142.072616577148 -81.693519592285 -197.507369995117 0.893381357193
-21.979282379150 -80.254158020020 -196.317596435547 1.680891394615
-18.645679473877 -80.286163330078 -196.231719970703 0.603391349316
-46.137290954590 -79.910057067871 -197.251770019531 0.208486020565
-22.510129928589 -79.173629760742 -198.621536254883 2.193420171738
-48.701145172119 -79.750061035156 -202.003509521484 0.747887372971
-44.031791687012 -79.405197143555 -200.408905029297 0.185552150011
-56.130531311035 -79.332756042480 -202.540374755859 0.699444830418
-18.641901016235 -78.676864624023 -205.434219360352 0.878492474556
-149.190948486328 -81.670051574707 -210.960067749023 0.493027538061
-59.392829895020 -78.438781738281 -206.100418090820 1.093493461609
-55.273967742920 -79.584716796875 -206.178253173828 1.568301439285
-31.432968139648 -79.089988708496 -204.877151489258 1.962931632996
-15.720803260803 -79.959976196289 -204.642578125000 2.016074895859
-37.816925048828 -80.035591125488 -206.368469238281 0.208695247769
-78.373916625977 -80.059669494629 -211.178039550781 1.274727821350
-144.330673217773 -81.400772094727 -211.080993652344 1.191666483879
-31.866315841675 -80.552215576172 -206.688537597656 1.931721925735
10.237427711487 -79.767684936523 -209.791687011719 1.526421904564
-62.430767059326 -80.436515808105 -210.362213134766 1.657996177673
-69.356941223145 -80.709762573242 -212.720352172852 0.853470742702
-25.758264541626 -79.697845458984 -215.023696899414 0.525578022003
-11.149644851685 -80.116821289063 -210.692153930664 1.906950235367
-24.117805480957 -78.815551757813 -219.691482543945 0.575833797455
15.896697044373 -80.083541870117 -217.248489379883 0.757915973663
-149.922653198242 -81.325614929199 -224.627609252930 1.318086743355
-8.875606536865 -80.181549072266 -218.569961547852 2.270001411438
-152.660751342773 -81.562995910645 -228.310241699219 1.261817693710
9.401402473450 -80.870208740234 -228.986495971680 0.376598298550
13.294041633606 -79.792053222656 -227.568145751953 1.700539946556
-4.274781227112 -80.386466979980 -223.425674438477 1.162939906120
17.796285629272 -79.123847961426 -226.508468627930 0.423169493675
-134.809463500977 -81.096672058105 -231.364868164063 1.623190641403
10.396774291992 -78.952415466309 -224.905181884766 0.408393085003
-152.604660034180 -80.845535278320 -231.209671020508 0.942425608635
-144.929458618164 -82.215866088867 -233.677383422852 0.946003198624
-2.523030996323 -80.386756896973 -222.567916870117 0.876634299755
19.392440795898 -79.151206970215 -234.778472900391 2.722886800766
-31.631114959717 -79.978614807129 -240.075927734375 1.996744394302
-144.685165405273 -78.017387390137 -240.848831176758 1.075503587723
-39.069339752197 -79.970176696777 -241.102935791016 0.815453350544
-44.965839385986 -79.540245056152 -242.241470336914 1.370227456093
-28.052549362183 -79.863548278809 -241.456130981445 0.438707202673
20.401924133301 -80.465194702148 -241.573501586914 1.446215033531
-48.626407623291 -79.423873901367 -244.292282104492 0.803691864014
12.775612831116 -80.530227661133 -246.068023681641 0.348875671625
8.823130607605 -79.616119384766 -240.891937255859 0.425373792648
11.145329475403 -81.587471008301 -246.360626220703 0.928638398647
-43.962821960449 -79.081474304199 -245.668960571289 1.690930128098
22.133703231812 -80.464134216309 -247.212692260742 0.473814725876
-145.003723144531 -78.526504516602 -248.977111816406 1.142674803734
20.810523986816 -79.007522583008 -247.206817626953 0.483460456133
1.965114951134 -81.963119506836 -250.367843627930 1.166947007179
11.881482124329 -79.727188110352 -248.702392578125 1.330550312996
-150.817916870117 -77.874435424805 -253.445556640625 1.216194629669
-147.593002319336 -82.281501770020 -261.046569824219 1.094680070877
-142.292098999023 -79.397727966309 -261.643035888672 0.666912853718
-153.005920410156 -78.770149230957 -263.380096435547 1.311273336411
18.836547851563 -78.964813232422 -267.150878906250 0.579396486282
-150.751907348633 -78.515930175781 -270.727752685547 0.996789753437
-4.565344810486 -79.888832092285 -275.242706298828 0.649448931217
-148.848297119141 -77.594520568848 -275.771148681641 1.384424686432
-145.508178710938 -78.747993469238 -276.939086914063 1.530654788017
-150.924270629883 -78.535263061523 -277.496002197266 0.522648215294
-154.670440673828 -78.860328674316 -286.564300537109 1.511225581169
-134.886245727539 -78.802246093750 -288.433044433594 1.328556180000
-150.166946411133 -80.059288024902 -288.226776123047 1.496499776840
-147.063613891602 -82.715347290039 -290.306396484375 1.494772791862
-146.056427001953 -80.108810424805 -294.955108642578 1.371645808220
-151.531616210938 -78.900321960449 -295.083435058594 1.056188941002
-147.052322387695 -77.595985412598 -295.512176513672 1.536802053452
-151.778686523438 -78.799095153809 -300.286651611328 0.841460406780
-146.263671875000 -79.356620788574 -300.958099365234 1.577420115471
-149.360382080078 -78.855026245117 -302.224487304688 0.932018697262
-56.251190185547 -78.803153991699 -59.473297119141 1.506340742111
-62.258338928223 -79.276817321777 -61.297927856445 2.650817871094
-48.508804321289 -79.243103027344 -61.532192230225 2.743144035339
-28.797552108765 -79.822494506836 -72.098503112793 1.386866569519
-52.577156066895 -80.970176696777 -91.932685852051 0.350360244513
-87.105659484863 -82.467575073242 -101.465988159180 0.573895335197
48.172435760498 -80.261329650879 -105.373718261719 1.619870781898
-80.111152648926 -82.802238464355 -106.362899780273 0.641725420952
39.572692871094 -80.981628417969 -112.768081665039 2.296746492386
38.664463043213 -79.866836547852 -118.590545654297 1.187152266502
38.065647125244 -79.843231201172 -125.534950256348 1.324554681778
38.242977142334 -79.186149597168 -134.418365478516 1.491947531700
31.448759078979 -79.874504089355 -135.416748046875 1.743029117584
33.995655059814 -79.779525756836 -136.355819702148 1.978519439697
29.147367477417 -79.574645996094 -149.004882812500 1.087018013000
-44.256908416748 -79.386825561523 -148.762496948242 1.674644470215
27.637706756592 -80.870796203613 -141.404571533203 0.865002810955
-66.833633422852 -77.688194274902 -154.249725341797 0.988922059536
-40.157619476318 -80.318939208984 -155.839294433594 1.084953069687
-62.999053955078 -79.763229370117 -164.959609985352 1.235206484795
-41.583847045898 -78.899940490723 -158.890014648438 1.444682359695
29.412374496460 -78.812400817871 -155.514648437500 1.063476562500
-35.191459655762 -80.396171569824 -163.753082275391 1.685206770897
-4.375017166138 -80.913742065430 -168.689529418945 1.107435703278
30.111713409424 -79.732170104980 -160.243911743164 1.791673898697
-8.389907836914 -79.785896301270 -168.737045288086 1.056099057198
-60.827041625977 -79.269592285156 -164.705520629883 1.825808882713
-34.720993041992 -78.688186645508 -168.641647338867 0.282802045345
-28.842136383057 -79.089347839355 -171.770416259766 1.687309503555
25.580846786499 -79.791152954102 -173.653427124023 1.247032523155
-55.068527221680 -78.695762634277 -177.880081176758 2.285472154617
-31.653657913208 -78.910354614258 -175.919052124023 3.099425315857
22.854999542236 -79.862602233887 -179.452774047852 0.680438160896
-49.703304290771 -78.817489624023 -184.724273681641 1.295700550079
-26.062789916992 -78.500862121582 -185.887222290039 0.398478776217
-53.018337249756 -78.820930480957 -183.151336669922 1.254442095757
-40.519676208496 -79.984725952148 -194.047912597656 0.936336874962
-29.802314758301 -78.810707092285 -187.856506347656 0.672463357449
-43.666099548340 -78.891174316406 -196.351242065430 1.847905158997
-23.893444061279 -78.987213134766 -190.493377685547 0.235937997699
-135.080032348633 -80.911491394043 -197.532257080078 0.910548090935
17.378572463989 -79.607551574707 -198.040740966797 0.467225551605
-133.480010986328 -76.348205566406 -199.113006591797 0.681125223637
-22.453735351563 -78.088302612305 -195.900878906250 1.384652853012
-18.887289047241 -78.115394592285 -196.905258178711 0.254902362823
-40.631603240967 -78.917648315430 -197.140029907227 1.950122714043
16.999494552612 -79.393478393555 -191.630508422852 3.024183988571
-15.309968948364 -79.110824584961 -197.862136840820 1.123453974724
-61.390830993652 -79.207931518555 -204.675521850586 0.101998418570
-35.168621063232 -78.606422424316 -205.118865966797 1.123499989510
-66.813529968262 -77.535774230957 -207.553222656250 0.321088075638
-69.147956848145 -76.495086669922 -209.837677001953 0.408885151148
17.353736877441 -79.029167175293 -208.417663574219 0.825102448463
-84.057434082031 -78.727149963379 -214.443527221680 0.589509248734
-29.746530532837 -78.679702758789 -215.704116821289 1.088731288910
-79.259582519531 -79.415199279785 -215.153182983398 0.964616596699
-144.822036743164 -81.894325256348 -217.842071533203 0.439485549927
-7.744039058685 -78.164039611816 -216.041824340820 0.421157151461
-11.780864715576 -79.054664611816 -217.499603271484 1.033926844597
12.723119735718 -78.776985168457 -214.981399536133 0.843296766281
13.574492454529 -79.070198059082 -220.406280517578 0.605805575848
-2.669672012329 -79.115325927734 -230.697738647461 0.579742312431
-134.133010864258 -77.000724792480 -228.051651000977 0.903134465218
-148.055221557617 -81.844154357910 -231.171539306641 1.022360920906
-147.185028076172 -78.561958312988 -231.433105468750 1.019859790802
9.742322921753 -78.558341979980 -233.535507202148 1.295640826225
1.184141039848 -79.134651184082 -235.071395874023 0.389683514833
-23.223415374756 -78.969612121582 -239.604858398438 0.701885044575
-150.111419677734 -77.281272888184 -240.815872192383 0.953780591488
11.465593338013 -78.607994079590 -244.912658691406 0.740191102028
-23.707469940186 -78.318420410156 -242.256835937500 0.209379747510
18.837451934814 -77.567565917969 -238.955352783203 0.463735491037
-54.808662414551 -78.243896484375 -244.466796875000 0.713131248951
-50.663715362549 -78.490531921387 -246.916107177734 1.105524778366
-145.622589111328 -82.457374572754 -246.747848510742 1.140209317207
-63.601871490479 -77.271163940430 -247.000259399414 0.674294471741
-3.918404102325 -76.557441711426 -246.755020141602 0.469133257866
-9.759919166565 -79.286872863770 -257.963165283203 0.530980944633
-147.613479614258 -82.277236938477 -257.084991455078 0.945230007172
-134.415969848633 -78.186363220215 -258.434112548828 1.394194841385
-136.084045410156 -76.902404785156 -261.623199462891 1.888106346130
19.925868988037 -78.953147888184 -261.508666992188 0.507716417313
-145.389053344727 -79.024940490723 -271.421875000000 1.465732336044
17.892402648926 -79.845436096191 -269.673828125000 0.469390094280
-149.150939941406 -77.518875122070 -272.366638183594 1.115330696106
2.381809949875 -81.258499145508 -277.666168212891 1.274827361107
-145.641098022461 -79.266128540039 -283.107025146484 1.424994230270
4.814517021179 -78.358718872070 -283.431518554688 0.705093681812
-151.017654418945 -78.789428710938 -282.638977050781 0.759885847569
-142.154418945313 -77.686103820801 -286.737365722656 0.988599717617
-137.730560302734 -77.409835815430 -287.049987792969 1.470785737038
-148.219284057617 -84.163665771484 -291.111846923828 1.456959486008
-18.675642013550 -77.640243530273 -289.473388671875 0.832003414631
-154.001068115234 -79.465805053711 -292.664978027344 1.557508707047
-149.857391357422 -77.510681152344 -295.577728271484 1.430972695351
-148.530273437500 -77.365715026855 -311.745452880859 1.292542457581
-57.912841796875 -78.282379150391 -57.762851715088 1.596501588821
-39.513492584229 -78.399070739746 -61.405822753906 1.764678120613
-76.926399230957 -78.372039794922 -63.980991363525 2.434402704239
-27.548278808594 -78.399452209473 -68.496864318848 1.234867334366
-25.353521347046 -79.020507812500 -73.217948913574 1.418549299240
-84.720108032227 -80.262619018555 -81.894828796387 1.943211436272
88.341651916504 -79.035430908203 -84.452835083008 2.196510553360
-37.633834838867 -78.718353271484 -82.681060791016 2.565635681152
81.354896545410 -79.448913574219 -84.894660949707 1.699200510979
75.817306518555 -78.335426330566 -86.886741638184 1.903414368629
84.996597290039 -78.907867431641 -89.734107971191 1.686382651329
80.527259826660 -79.130119323730 -91.504432678223 2.170069694519
91.635025024414 -78.756950378418 -91.082130432129 1.721141099930
-92.262367248535 -76.654891967773 -95.837440490723 2.265999317169
51.046878814697 -78.951034545898 -104.976188659668 1.167655467987
-90.355636596680 -76.689727783203 -115.387229919434 0.624730110168
41.212818145752 -79.049903869629 -111.485382080078 1.220133900642
48.507446289063 -78.029487609863 -113.107612609863 2.196873903275
43.121685028076 -79.602600097656 -115.344207763672 1.421406984329
30.551763534546 -78.753471374512 -132.653900146484 0.983762443066
26.185773849487 -79.212203979492 -139.561904907227 1.478527307510
23.320350646973 -75.456405639648 -144.490768432617 1.828672409058
32.518829345703 -78.661994934082 -144.625595092773 0.907525897026
-49.138256072998 -78.940856933594 -153.567703247070 0.735188484192
-45.675045013428 -78.320381164551 -151.043991088867 0.983253479004
-41.787956237793 -78.339775085449 -154.472076416016 0.345658212900
26.972978591919 -78.968673706055 -149.937606811523 1.436798810959
24.027225494385 -78.497779846191 -167.071350097656 2.090919017792
-34.419971466064 -78.101097106934 -165.939559936523 1.064846396446
-34.836082458496 -78.507514953613 -160.318084716797 0.341673523188
-45.209426879883 -78.324638366699 -156.982574462891 0.307246327400
3.161582946777 -78.287704467773 -164.019470214844 0.784805953503
23.336738586426 -79.356437683105 -155.325744628906 1.868369340897
31.118888854980 -78.402442932129 -161.287261962891 1.176670670509
27.120367050171 -77.831199645996 -167.940612792969 2.091749429703
-10.534996032715 -78.356422424316 -170.166320800781 1.805556774139
-0.316363006830 -77.519897460938 -169.214004516602 0.392414212227
-56.754760742188 -78.713127136230 -169.786254882813 1.000568270683
-60.462341308594 -77.823600769043 -169.021438598633 0.754539072514
-39.491123199463 -78.968620300293 -170.947082519531 1.828690528870
-39.261020660400 -78.173934936523 -167.215820312500 0.258198022842
23.491792678833 -78.281295776367 -173.723480224609 2.268695116043
-19.790456771851 -80.119621276855 -177.175491333008 0.646465420723
-34.091995239258 -78.963493347168 -179.590896606445 0.874650716782
-59.665603637695 -78.424491882324 -178.644897460938 0.527590990067
105.580207824707 -78.419464111328 -180.879272460938 1.112670302391
20.560449600220 -79.342216491699 -170.884277343750 1.630258560181
-26.775466918945 -78.257637023926 -180.130126953125 2.079116821289
-49.225791931152 -77.041824340820 -181.651657104492 1.462884664536
-17.774314880371 -77.693252563477 -179.460556030273 0.328067123890
109.065658569336 -78.590774536133 -177.071456909180 1.289039969444
-49.281246185303 -79.294738769531 -181.514068603516 0.081154204905
17.297817230225 -78.721160888672 -184.372421264648 0.537109196186
25.700889587402 -78.345703125000 -179.858032226563 0.623665213585
-55.722347259521 -77.896469116211 -179.914993286133 0.138120606542
-22.234102249146 -77.985206604004 -181.477386474609 0.489769846201
-55.690227508545 -77.846717834473 -175.564895629883 1.150344491005
-34.971828460693 -76.173171997070 -181.844650268555 2.146953344345
-28.385391235352 -77.902099609375 -186.489730834961 1.429779767990
22.936853408813 -78.461753845215 -186.591705322266 0.566120743752
-50.942466735840 -77.619850158691 -186.990585327148 1.451775550842
104.893836975098 -78.546859741211 -189.102081298828 1.137367606163
-52.066268920898 -76.880302429199 -190.147308349609 0.157154455781
11.331034660339 -78.429077148438 -200.206863403320 2.017748355865
19.505491256714 -78.347335815430 -199.796890258789 1.036948800087
-47.093063354492 -76.975448608398 -190.311508178711 0.158795237541
-21.362195968628 -78.307868957520 -189.929977416992 0.987737834454
103.563575744629 -78.070129394531 -195.310699462891 1.096644401550
101.616516113281 -78.529312133789 -196.149688720703 1.264800667763
-46.175373077393 -77.700683593750 -189.740188598633 1.201619744301
-146.871292114258 -80.698036193848 -197.455337524414 0.999930739403
-45.691047668457 -78.052017211914 -198.726501464844 0.185116201639
-145.118637084961 -79.240325927734 -199.255096435547 0.780511260033
-136.643966674805 -76.664398193359 -202.215393066406 0.725933551788
-42.705184936523 -77.443786621094 -198.444976806641 1.575801610947
11.861271858215 -78.116241455078 -208.620437622070 0.713414013386
-16.686813354492 -77.899383544922 -203.841430664063 0.263150006533
15.704309463501 -77.799560546875 -202.249969482422 1.202818989754
92.719848632813 -77.958679199219 -208.096328735352 1.484011173248
-37.518798828125 -77.630210876465 -200.672973632813 1.704004645348
-9.703787803650 -78.856430053711 -207.961441040039 1.198577046394
-11.019137382507 -78.011161804199 -210.405822753906 0.770573914051
-37.555027008057 -78.566040039063 -208.204925537109 1.311976194382
11.411995887756 -77.150230407715 -205.160980224609 0.421960353851
-74.924438476563 -75.427436828613 -209.772491455078 0.650954663754
15.325019836426 -77.892807006836 -211.996704101563 0.426327288151
-35.251213073730 -77.711090087891 -207.049346923828 0.932985186577
-144.220367431641 -77.182174682617 -210.524963378906 0.839737534523
-145.411468505859 -74.834823608398 -212.231353759766 1.392617464066
-86.005271911621 -77.499214172363 -213.305206298828 0.569919943810
-35.328338623047 -76.841896057129 -211.348022460938 2.585424900055
-24.413587570190 -78.777305603027 -212.959686279297 1.141938328743
-28.904899597168 -77.648536682129 -212.522964477539 0.841173648834
-91.760917663574 -76.325225830078 -217.036285400391 0.875409841537
-88.250747680664 -77.274093627930 -216.424362182617 0.967805743217
9.725777626038 -77.977272033691 -220.455093383789 2.287179708481
-150.020019531250 -76.863563537598 -216.822814941406 1.034902811050
-11.927905082703 -77.943260192871 -213.415039062500 0.293219238520
8.463758468628 -79.537254333496 -217.483169555664 1.022181510925
-144.778656005859 -76.954483032227 -218.108215332031 0.899142324924
-19.606908798218 -78.531112670898 -219.660659790039 0.834730148315
-3.287429094315 -78.464675903320 -221.994766235352 0.553528487682
-2.977097034454 -79.038429260254 -218.495559692383 1.981884717941
-152.222381591797 -77.447814941406 -224.926925659180 1.002574324608
-137.071929931641 -76.692474365234 -226.970672607422 0.913981139660
-6.690818786621 -78.145660400391 -221.837371826172 0.739759922028
-149.031875610352 -81.395568847656 -228.621154785156 1.131381273270
2.020150899887 -77.131736755371 -230.507690429688 1.016072034836
16.855754852295 -78.296447753906 -232.088775634766 1.270077824593
-0.022050999105 -77.351821899414 -233.226531982422 2.612650632858
1.612485051155 -76.830505371094 -236.294769287109 0.837452352047
7.486473083496 -79.089950561523 -231.622467041016 1.436016917229
-150.184600830078 -77.126228332520 -235.540939331055 0.778331518173
-19.168691635132 -77.303260803223 -238.141113281250 0.414061576128
-34.818496704102 -78.363197326660 -239.262344360352 1.941196203232
6.385225772858 -76.414314270020 -231.650802612305 1.475819945335
-0.351705014706 -77.974845886230 -236.705261230469 0.404542356730
4.413615226746 -78.408424377441 -234.974014282227 1.087584137917
-53.446842193604 -76.430229187012 -242.852096557617 0.793209016323
-148.866943359375 -76.999496459961 -246.179519653320 1.160730481148
-150.774566650391 -78.390319824219 -248.418289184570 0.990326642990
9.490751266479 -78.708641052246 -246.181350708008 0.543246805668
21.580442428589 -77.635383605957 -248.017471313477 0.714241802692
-59.497367858887 -77.274749755859 -248.559188842773 1.095525741577
-145.005584716797 -78.416275024414 -253.229080200195 1.255605936050
-152.750274658203 -78.414642333984 -254.690078735352 1.239504337311
-149.350387573242 -82.408386230469 -258.113311767578 0.958946764469
-141.486099243164 -76.385108947754 -261.053436279297 1.460367441177
-136.589050292969 -76.475067138672 -257.004699707031 1.072407007217
-11.790186882019 -77.647232055664 -256.711975097656 0.535905897617
-143.360427856445 -78.336318969727 -263.917541503906 1.399299502373
-11.059227943420 -78.501663208008 -263.170196533203 2.536905527115
-146.816436767578 -77.064178466797 -276.977752685547 1.381146907806
-146.619537353516 -77.452400207520 -282.751617431641 1.427780628204
-150.164764404297 -77.260566711426 -282.487426757813 1.448138237000
-2.877918958664 -75.349578857422 -284.386108398438 1.297128200531
-141.954895019531 -73.932609558105 -286.816253662109 1.653737425804
-31.139102935791 -76.591171264648 -286.933410644531 0.842508733273
-31.855665206909 -77.234367370605 -288.079040527344 0.966593384743
-16.996356964111 -77.166297912598 -288.428466796875 0.804508507252
-9.118975639343 -76.980422973633 -287.673858642578 1.375504016876
15.308221817017 -78.250923156738 -291.370910644531 0.456612408161
-125.002182006836 -76.317588806152 -289.345397949219 1.097126960754
-55.811565399170 -76.464797973633 -288.902679443359 1.657124161720
-37.959381103516 -77.083007812500 -288.931091308594 0.772265017033
-31.109003067017 -77.620910644531 -289.582855224609 0.956479132175
-9.103775978088 -77.123985290527 -289.768218994141 1.940092325211
5.263576030731 -77.025444030762 -288.705505371094 1.016042828560
-143.251525878906 -79.236610412598 -293.101562500000 1.492833614349
9.073854446411 -77.533966064453 -290.460449218750 1.008828282356
-150.815093994141 -76.666404724121 -301.001831054688 1.600401639938
-148.638488769531 -77.401008605957 -301.426452636719 1.353416562080
-151.830551147461 -76.826728820801 -311.069732666016 1.517698407173
-145.949844360352 -76.620719909668 -311.420776367188 1.490593075752
-50.017539978027 -76.940185546875 -55.875534057617 1.549239397049
-57.045276641846 -77.506340026855 -56.400970458984 1.676570296288
-63.689830780029 -77.232238769531 -56.308837890625 1.463063597679
-43.461425781250 -77.928932189941 -58.656688690186 1.001764059067
-37.691513061523 -77.237625122070 -59.213401794434 1.011019110680
-22.604400634766 -76.976051330566 -67.390380859375 1.435588121414
-83.000015258789 -77.558624267578 -68.239433288574 0.883058965206
81.603485107422 -78.554054260254 -77.870994567871 1.757765173912
-89.368644714355 -77.375778198242 -82.483398437500 1.376698613167
83.425445556641 -79.168830871582 -81.559204101563 1.943302869797
85.199119567871 -78.519798278809 -82.891220092773 1.683536171913
92.739929199219 -77.770362854004 -85.224723815918 1.901610612869
-58.760387420654 -81.655967712402 -94.838607788086 1.366340398788
83.583045959473 -77.220268249512 -93.801948547363 1.647674202919
79.296165466309 -78.143638610840 -92.525817871094 1.901196718216
87.183082580566 -79.355979919434 -89.713630676270 1.652869462967
-63.411529541016 -80.959831237793 -97.427497863770 0.726002991199
53.287773132324 -77.994606018066 -96.647369384766 1.870034813881
46.005439758301 -78.690605163574 -106.278762817383 1.429403305054
41.902454376221 -78.607673645020 -104.730171203613 1.278876662254
38.658077239990 -78.150321960449 -108.449012756348 1.744430184364
-90.801139831543 -77.612449645996 -112.654747009277 0.798280298710
36.649398803711 -78.440055847168 -117.110488891602 0.890830218792
-84.582557678223 -78.557266235352 -110.955345153809 0.521015107632
43.362087249756 -79.786979675293 -122.272438049316 2.469355106354
34.834686279297 -78.764144897461 -122.281829833984 1.092907547951
33.738594055176 -76.927886962891 -121.756454467773 1.731591224670
42.747230529785 -78.739097595215 -119.833251953125 1.120830893517
39.471694946289 -78.797103881836 -126.405319213867 1.242734909058
-53.391635894775 -75.545372009277 -135.787704467773 1.180015683174
36.224445343018 -78.300735473633 -135.515426635742 1.001733422279
36.689567565918 -77.507995605469 -141.503372192383 0.962171852589
-51.311573028564 -75.057510375977 -139.309463500977 0.412048280239
-47.887065887451 -77.297622680664 -140.875289916992 2.315669298172
35.003284454346 -79.207672119141 -143.575592041016 1.305436849594
111.870071411133 -77.761711120605 -141.887924194336 2.820585250854
114.189430236816 -77.876220703125 -140.996002197266 1.359479308128
26.976032257080 -78.294288635254 -144.364761352539 1.624435782433
-41.821559906006 -77.803192138672 -148.652542114258 0.391281396151
111.942337036133 -78.234077453613 -154.273330688477 1.404182910919
-40.680561065674 -77.118507385254 -153.782424926758 0.357207030058
-67.808998107910 -78.197395324707 -157.829711914063 0.276994079351
111.068725585938 -78.442779541016 -161.815185546875 1.347603559494
23.194463729858 -77.362808227539 -162.326187133789 0.728789865971
0.360258996487 -78.873573303223 -162.991729736328 1.076560616493
113.306472778320 -78.326545715332 -156.796249389648 2.457164049149
-63.824832916260 -77.014373779297 -164.002502441406 0.624420523643
-36.452297210693 -76.343078613281 -159.942733764648 1.041803359985
113.752304077148 -77.347991943359 -164.011016845703 2.139724731445
30.088022232056 -77.599403381348 -158.387908935547 0.795243263245
-63.414520263672 -75.838821411133 -166.837127685547 0.160441786051
111.402656555176 -78.572708129883 -166.742919921875 1.738527417183
-64.308357238770 -78.901779174805 -168.388732910156 0.905517280102
-51.564086914063 -77.995712280273 -177.789779663086 1.304106593132
106.837280273438 -76.854179382324 -171.541473388672 1.262359857559
-59.624053955078 -76.054656982422 -169.063232421875 1.236936330795
111.348297119141 -78.127235412598 -173.660171508789 1.276326775551
-59.264186859131 -77.769538879395 -173.656265258789 0.254456847906
-13.144572257996 -77.104660034180 -177.371765136719 0.590123414993
-12.612929344177 -78.536880493164 -178.627746582031 0.983853101730
108.439758300781 -78.316024780273 -172.189849853516 1.299239397049
21.061046600342 -77.441390991211 -172.257980346680 1.654762744904
28.609464645386 -77.922554016113 -171.028411865234 1.330161094666
-55.350292205811 -76.679710388184 -176.635787963867 0.144946143031
20.051256179810 -77.495185852051 -182.206192016602 0.574387669563
-57.425682067871 -76.353942871094 -177.066986083984 0.893687248230
-50.356895446777 -76.696281433105 -185.925888061523 0.871478796005
15.553070068359 -77.039955139160 -182.645874023438 0.893265187740
-58.200019836426 -77.261634826660 -181.419692993164 0.137893632054
108.303733825684 -78.075927734375 -184.295425415039 2.297759294510
23.427288055420 -77.309486389160 -180.531158447266 1.666699290276
-31.072715759277 -76.661804199219 -188.637741088867 0.215657010674
-41.587776184082 -76.614234924316 -192.627822875977 0.174518033862
11.650859832764 -76.544685363770 -194.515579223633 1.079210639000
-17.291183471680 -78.015647888184 -191.686065673828 1.247664809227
-50.076930999756 -77.708175659180 -193.322128295898 2.043445110321
104.398597717285 -78.203231811523 -184.819137573242 1.985576748848
16.957719802856 -77.291374206543 -190.933135986328 1.193227171898
-134.725143432617 -76.474517822266 -197.488815307617 0.923177540302
-40.936622619629 -78.265701293945 -192.893508911133 0.618989288807
98.024658203125 -78.045494079590 -198.821762084961 0.809594333172
-146.864395141602 -81.012954711914 -201.646041870117 1.002246975899
18.863094329834 -77.339332580566 -193.594299316406 2.122828483582
-41.009132385254 -76.512382507324 -204.746887207031 1.734380960464
-31.837598800659 -77.696632385254 -203.622848510742 0.215389147401
-36.460422515869 -76.643089294434 -205.606719970703 0.861365795135
-42.518871307373 -76.713096618652 -196.562042236328 0.535348415375
100.060447692871 -78.238563537598 -201.169952392578 1.657286643982
-18.871976852417 -76.961624145508 -203.030502319336 0.260636806488
-149.626571655273 -76.731353759766 -205.513259887695 0.864292025566
16.875219345093 -77.042610168457 -206.093399047852 0.454588651657
-75.387573242188 -79.408821105957 -208.933319091797 0.709443092346
-149.909912109375 -76.636177062988 -209.826049804688 0.872840344906
97.294654846191 -76.571907043457 -209.118789672852 0.969191253185
-31.943902969360 -76.626220703125 -207.286834716797 0.237190127373
-28.285261154175 -76.716995239258 -214.721099853516 0.655366778374
8.057999610901 -78.266006469727 -211.332717895508 1.260148763657
-70.386665344238 -77.464012145996 -212.845733642578 0.361081331968
-29.005065917969 -77.393104553223 -210.506256103516 1.142836451530
-3.891954898834 -76.776168823242 -214.233230590820 1.145343780518
-74.460609436035 -78.826148986816 -214.506469726563 0.761956930161
-14.088513374329 -77.046226501465 -217.139190673828 1.816059350967
8.901965141296 -76.233169555664 -213.842437744141 1.140037417412
17.868564605713 -77.913482666016 -219.120193481445 1.277240991592
-147.011886596680 -76.425018310547 -216.025695800781 0.437948465347
-6.588508129120 -76.846763610840 -214.826110839844 1.857969522476
-93.778488159180 -74.035041809082 -220.642715454102 0.614638388157
-20.951280593872 -76.228607177734 -220.170883178711 1.071906685829
92.660598754883 -78.079261779785 -211.415969848633 1.036041259766
6.508947849274 -77.373092651367 -227.270248413086 0.973634719849
16.611948013306 -76.082466125488 -216.710098266602 0.442969024181
82.656677246094 -76.944801330566 -221.338745117188 0.841954290867
1.592241048813 -76.272583007813 -226.375762939453 1.888625741005
87.038253784180 -77.555656433105 -217.406967163086 1.065705537796
-15.869465827942 -77.195716857910 -221.706817626953 0.318015366793
15.476762771606 -77.961227416992 -220.141128540039 0.413191378117
-144.712631225586 -77.619926452637 -223.712631225586 0.942306280136
-18.223320007324 -77.925704956055 -224.097213745117 0.754167079926
2.118148088455 -78.673034667969 -226.725097656250 2.422572612762
-154.091522216797 -78.088325500488 -228.337707519531 0.778608798981
-135.478027343750 -75.285758972168 -228.512832641602 0.913440406322
8.709463119507 -77.151535034180 -226.175094604492 0.401232808828
-3.531934976578 -77.383193969727 -232.452499389648 0.700717151165
-135.144683837891 -75.843742370605 -231.589202880859 1.720223546028
-144.767883300781 -77.421051025391 -235.120895385742 1.030281782150
-145.855026245117 -75.903427124023 -236.419570922852 1.045681357384
-32.514430999756 -76.896705627441 -238.625991821289 1.350245237350
-145.938293457031 -75.670448303223 -241.981658935547 1.090022802353
21.528083801270 -76.568023681641 -241.703781127930 1.088411092758
5.300959110260 -77.177505493164 -242.575317382813 0.836180150509
-149.276962280273 -75.666664123535 -235.787475585938 1.258393883705
-148.088256835938 -76.852424621582 -242.770401000977 1.164970040321
-46.994472503662 -76.983398437500 -241.452178955078 1.605787634850
-30.625215530396 -77.744987487793 -243.715103149414 0.475123882294
6.122562885284 -79.092651367188 -246.403930664063 1.535816431046
-38.504512786865 -76.919013977051 -245.274932861328 1.556547522545
23.679082870483 -77.732185363770 -247.352493286133 0.503239154816
-4.237156867981 -78.976051330566 -248.528732299805 1.153045892715
-149.669479370117 -76.078933715820 -252.613601684570 1.200182914734
-6.572784900665 -78.668106079102 -250.870605468750 0.880357265472
-146.184799194336 -76.401367187500 -252.288848876953 1.174978375435
-67.316444396973 -76.810592651367 -249.198303222656 0.816070437431
-149.328628540039 -82.074951171875 -260.222717285156 1.264961361885
-125.119598388672 -75.397575378418 -259.193023681641 1.198857307434
-148.294647216797 -72.902587890625 -261.134216308594 1.258498191833
-12.558599472046 -75.374519348145 -265.283050537109 0.617182195187
-145.806625366211 -77.513801574707 -265.290618896484 1.116921186447
-149.750061035156 -76.469551086426 -265.628662109375 1.306536912918
-9.218831062317 -78.635154724121 -269.700836181641 1.045449018478
-146.522171020508 -76.690940856934 -271.430999755859 1.333387017250
-2.879344940186 -77.516609191895 -279.354431152344 0.693250596523
-45.772045135498 -76.501289367676 -286.972717285156 3.240581989288
-133.074340820313 -76.004875183105 -288.575439453125 1.463703274727
-132.139297485352 -74.877670288086 -286.212097167969 1.366446733475
-125.808280944824 -75.516220092773 -286.976165771484 1.246940493584
-52.792766571045 -75.863136291504 -286.695861816406 0.933703362942
-114.791526794434 -73.649765014648 -288.613616943359 1.163459181786
16.178581237793 -76.852302551270 -289.224853515625 0.550460815430
-59.580253601074 -75.967483520508 -288.903900146484 0.777004182339
-141.284851074219 -74.929611206055 -290.397369384766 1.122300386429
-61.358291625977 -75.589965820313 -290.008972167969 1.003605246544
-141.976257324219 -77.282043457031 -291.107421875000 1.593024015427
-117.005287170410 -75.589500427246 -290.087890625000 1.103179097176
-46.814563751221 -75.851272583008 -290.459625244141 0.939914047718
-34.751277923584 -76.803237915039 -290.679290771484 0.468351930380
-132.928466796875 -75.888252258301 -291.011077880859 1.440301418304
-10.022160530090 -76.792144775391 -290.845336914063 0.792196154594
1.397603034973 -76.873725891113 -291.088958740234 0.780291438103
6.971602916718 -76.836532592773 -291.747100830078 0.775043666363
15.621461868286 -77.105186462402 -293.237426757813 0.943908631802
-149.016082763672 -75.632858276367 -295.891326904297 1.256048917770
-147.557998657227 -75.350006103516 -299.963348388672 0.933707654476
-69.766510009766 -78.149826049805 -59.837619781494 1.382126927376
87.264114379883 -76.949813842773 -74.529762268066 1.824264049530
78.717887878418 -77.618125915527 -75.549354553223 1.943980813026
-26.203493118286 -77.831756591797 -76.830726623535 1.370520234108
84.839492797852 -76.804039001465 -76.361740112305 2.277374744415
-35.136180877686 -77.342720031738 -80.198852539063 1.008592247963
88.136596679688 -78.484100341797 -78.032073974609 1.966445684433
92.846107482910 -77.911911010742 -81.679374694824 1.804185986519
-65.041961669922 -71.809394836426 -92.913475036621 0.486665666103
75.881103515625 -77.335494995117 -92.980773925781 1.109795451164
80.982231140137 -77.496643066406 -96.424949645996 1.742388844490
91.864601135254 -77.670288085938 -93.525115966797 1.624655961990
55.375232696533 -77.246734619141 -97.978454589844 1.424130678177
-75.990318298340 -79.892875671387 -101.556762695313 1.273120999336
-74.866134643555 -72.708442687988 -101.750160217285 0.586583077908
49.049163818359 -77.976119995117 -105.290954589844 1.517411589622
-91.037780761719 -78.362777709961 -105.565521240234 0.545197725296
44.951709747314 -77.713851928711 -116.547752380371 1.777562975883
110.796676635742 -76.857978820801 -117.460533142090 1.658333182335
112.356697082520 -77.654182434082 -131.511276245117 1.565849065781
27.498136520386 -76.722480773926 -138.427093505859 1.654830574989
110.601501464844 -77.087547302246 -126.027870178223 1.682234168053
26.938301086426 -77.615730285645 -134.450668334961 2.499746561050
114.171714782715 -76.821723937988 -128.350982666016 1.494644522667
39.055805206299 -77.695503234863 -134.244583129883 2.344424247742
-50.609390258789 -78.317253112793 -143.929473876953 2.197062730789
35.068340301514 -75.599113464355 -141.246917724609 0.957475662231
110.107788085938 -76.285713195801 -137.832901000977 1.557836890221
-50.354686737061 -76.896179199219 -144.746322631836 2.055673360825
32.561412811279 -77.666831970215 -147.548309326172 1.796022176743
-55.617744445801 -75.917900085449 -139.160079956055 1.386820197105
-52.434848785400 -77.861549377441 -147.827880859375 0.780184626579
-49.883224487305 -77.195861816406 -149.538146972656 0.525053858757
-64.583877563477 -77.438789367676 -156.395065307617 0.152966350317
115.517639160156 -77.427787780762 -148.309539794922 1.825152516365
-50.170181274414 -77.180984497070 -155.346908569336 2.395785331726
21.922437667847 -77.458946228027 -154.356369018555 2.601521730423
110.431922912598 -77.493240356445 -156.268814086914 1.855214595795
-66.566932678223 -75.667579650879 -156.780029296875 0.209016337991
-47.435134887695 -77.258430480957 -155.790023803711 2.042148590088
8.530215263367 -75.268753051758 -154.925277709961 2.372340440750
-66.669677734375 -75.604125976563 -160.031295776367 0.932687461376
-60.641674041748 -76.481025695801 -161.678085327148 0.621342539787
-0.931704998016 -76.949813842773 -161.921844482422 0.497080355883
-40.799846649170 -77.015243530273 -167.064025878906 1.804357528687
31.472110748291 -75.881698608398 -163.822982788086 0.896972596645
-61.457550048828 -76.651634216309 -165.491592407227 0.979303240776
-57.025180816650 -76.611068725586 -168.548767089844 0.171671584249
