-110.066009521484 -71.218681335449 -256.955841064453 0.507308781147
-113.204589843750 -69.095916748047 -256.765411376953 0.567715764046
-82.211791992188 -71.458435058594 -255.081802368164 1.067703843117
-111.341773986816 -71.920387268066 -260.877807617188 1.532356500626
-123.436759948730 -71.836364746094 -262.024841308594 1.237868547440
-144.710983276367 -68.859741210938 -266.066436767578 1.310772776604
-14.965032577515 -71.157669067383 -261.854034423828 0.800747156143
-167.340408325195 -69.946929931641 -263.901397705078 0.356447547674
-13.617147445679 -71.867904663086 -271.685394287109 1.004391193390
-159.211212158203 -69.061080932617 -267.567382812500 1.493996143341
-152.186508178711 -69.101997375488 -275.314270019531 1.873042464256
-167.801834106445 -70.191978454590 -277.375274658203 2.089767217636
-12.165996551514 -70.030853271484 -274.777648925781 0.662853360176
-133.270370483398 -71.234657287598 -283.862030029297 0.215224727988
-159.341339111328 -69.820533752441 -286.117126464844 1.595208644867
-144.949981689453 -69.919555664063 -281.831542968750 1.172421813011
-134.467575073242 -72.831550598145 -284.780914306641 1.368880867958
-7.735227108002 -69.363281250000 -284.838378906250 1.672736048698
-124.955406188965 -73.142509460449 -284.423492431641 1.377698063850
-141.116989135742 -70.938354492188 -285.236877441406 1.155549764633
-116.015495300293 -70.318389892578 -286.074523925781 0.217261075974
-75.207870483398 -70.912567138672 -286.272369384766 0.996529281139
-61.977931976318 -69.685150146484 -287.257537841797 1.336998820305
-4.980373859406 -71.075035095215 -287.889923095703 1.045477271080
-52.357181549072 -70.267585754395 -289.164306640625 1.051022052765
-57.513992309570 -69.734176635742 -288.508239746094 0.919806599617
-68.449478149414 -69.567054748535 -290.305328369141 1.199435353279
-86.085166931152 -71.086959838867 -291.271514892578 1.211624383926
-97.668891906738 -68.121467590332 -290.837463378906 1.367119312286
-161.663162231445 -68.479850769043 -291.346649169922 1.684484362602
-162.110900878906 -71.016380310059 -292.217468261719 1.514872193336
-125.134033203125 -71.373725891113 -294.754425048828 1.810001850128
-144.748641967773 -71.149421691895 -296.071868896484 1.520236968994
-155.193557739258 -71.384307861328 -301.010223388672 1.651802659035
-146.890670776367 -69.980224609375 -313.198059082031 1.880047678947
47.237987518311 -71.942619323730 -17.235649108887 1.859690785408
19.846000671387 -73.601654052734 -26.642532348633 1.907866597176
41.181480407715 -72.645675659180 -33.490005493164 1.864620566368
-16.869537353516 -74.489395141602 -66.681610107422 1.987534761429
82.269165039063 -72.106552124023 -64.984207153320 2.669818162918
85.793281555176 -71.131782531738 -65.564247131348 1.981572508812
76.704574584961 -72.040023803711 -65.792510986328 1.906004309654
73.972259521484 -72.341239929199 -67.843994140625 2.436839103699
91.709030151367 -75.571914672852 -72.712409973145 1.933794021606
-93.552444458008 -70.405891418457 -70.154022216797 1.939362883568
70.772499084473 -73.758476257324 -75.528945922852 1.864535808563
-36.730003356934 -70.127975463867 -76.557662963867 0.602770984173
100.254356384277 -73.283866882324 -86.277038574219 1.918973207474
59.899291992188 -72.366584777832 -89.854553222656 1.019658684731
106.287109375000 -74.075859069824 -95.566001892090 2.176098585129
105.032531738281 -72.521362304688 -97.226356506348 1.247936964035
70.615737915039 -71.627632141113 -98.871757507324 0.969381272793
-77.236831665039 -73.805015563965 -99.149497985840 1.274840235710
54.308013916016 -73.656799316406 -101.189422607422 0.361726164818
105.402702331543 -72.263656616211 -104.360481262207 1.528139710426
49.021190643311 -74.220344543457 -109.339843750000 0.911190748215
80.540512084961 -71.843986511230 -103.578918457031 1.851180672646
42.183673858643 -71.919448852539 -106.049827575684 1.361574649811
107.077140808105 -71.635192871094 -102.970901489258 1.002184748650
47.964454650879 -71.005653381348 -107.251235961914 1.393034100533
109.486740112305 -72.657646179199 -110.645668029785 1.766004323959
109.250282287598 -71.987785339355 -113.142074584961 0.717389822006
-78.087806701660 -71.023727416992 -113.686546325684 1.102196931839
-82.180099487305 -71.185928344727 -117.203277587891 2.085279226303
44.458240509033 -73.479469299316 -120.338249206543 1.671914458275
114.284507751465 -72.791389465332 -117.998352050781 2.246421575546
114.478363037109 -70.971160888672 -123.260833740234 1.581860065460
-84.137725830078 -70.877204895020 -127.186836242676 1.051247715950
107.677764892578 -71.954017639160 -122.983779907227 1.778409481049
-58.597499847412 -72.487701416016 -131.251144409180 1.506630539894
-85.869331359863 -70.891906738281 -125.948394775391 1.139258503914
-75.231071472168 -70.064270019531 -127.623291015625 0.463336020708
-57.341663360596 -68.418464660645 -126.347297668457 0.755151152611
31.226177215576 -70.790924072266 -128.584152221680 2.240274667740
39.654338836670 -73.250328063965 -132.343582153320 0.974187552929
-75.597122192383 -70.721435546875 -136.955688476563 1.631152987480
28.865203857422 -71.700233459473 -132.311813354492 1.172050833702
110.135276794434 -71.851974487305 -139.219192504883 1.638864398003
-43.048313140869 -70.533493041992 -145.860504150391 0.444867134094
25.909053802490 -69.397705078125 -147.298965454102 1.591924667358
115.491241455078 -71.012588500977 -144.957641601563 1.505509853363
35.002483367920 -71.228561401367 -142.923248291016 1.767718076706
111.632301330566 -70.842353820801 -142.184326171875 1.693495273590
-53.034870147705 -72.262268066406 -148.557662963867 1.677681207657
-67.415802001953 -70.469520568848 -149.664489746094 1.719063878059
-50.906429290771 -71.318778991699 -154.719482421875 2.057133913040
-40.840652465820 -71.176498413086 -164.482177734375 2.679048061371
6.930825233459 -70.055625915527 -155.664855957031 0.842457950115
111.811843872070 -70.806579589844 -153.763610839844 1.624794363976
110.233802795410 -71.537612915039 -157.097351074219 1.210619330406
8.889056205750 -69.751045227051 -158.041580200195 1.472636699677
5.770523071289 -72.531723022461 -162.212005615234 0.950064063072
16.275644302368 -72.592163085938 -156.613494873047 0.974036335945
25.370040893555 -70.603691101074 -155.233306884766 1.255348324776
111.433044433594 -70.687736511230 -165.489578247070 1.811726927757
107.754020690918 -72.595336914063 -167.443145751953 1.619921326637
24.129571914673 -69.641136169434 -171.131927490234 1.338890314102
26.599525451660 -70.689819335938 -161.267028808594 0.978597581387
113.730422973633 -70.893081665039 -161.168182373047 2.037789583206
-27.455497741699 -70.475784301758 -173.971511840820 1.477588057518
109.970512390137 -70.961585998535 -167.790527343750 1.509125828743
17.365228652954 -71.701286315918 -171.373565673828 0.775149822235
22.425683975220 -70.667907714844 -164.939865112305 0.852855861187
109.830947875977 -70.823287963867 -172.828857421875 2.614844322205
25.953521728516 -70.627609252930 -170.547622680664 0.851185739040
110.396873474121 -72.127029418945 -180.976776123047 1.090433239937
-37.330703735352 -69.886070251465 -174.413803100586 1.915463566780
27.296140670776 -70.035140991211 -173.374435424805 1.209887266159
107.333900451660 -70.913070678711 -181.904022216797 1.246196866035
24.340856552124 -71.332801818848 -180.565017700195 0.328805267811
-152.315185546875 -69.671394348145 -186.990051269531 0.754700064659
-28.231418609619 -69.102500915527 -187.852676391602 1.633831024170
25.717609405518 -70.649513244629 -183.910659790039 1.709544539452
-110.580734252930 -69.949989318848 -190.920288085938 2.089527130127
-108.778625488281 -69.639289855957 -188.807647705078 0.485083431005
22.339355468750 -70.786239624023 -189.255371093750 1.045981287956
13.539858818054 -71.444915771484 -185.156448364258 0.683022558689
-26.194877624512 -70.599311828613 -189.342102050781 0.876832246780
-30.290662765503 -71.431678771973 -188.650634765625 0.697368502617
-26.089494705200 -70.460685729980 -185.072616577148 0.204853147268
18.249818801880 -70.516799926758 -179.305374145508 2.214756727219
-150.526550292969 -69.961875915527 -193.475799560547 0.808376193047
-143.319229125977 -70.265029907227 -193.628494262695 0.493870019913
-140.553588867188 -70.216407775879 -196.377716064453 0.831331491470
-21.300962448120 -70.040596008301 -190.854232788086 0.350069612265
12.873735427856 -70.492790222168 -198.839263916016 1.788198828697
99.990615844727 -71.501022338867 -194.055099487305 2.010832309723
-113.546340942383 -70.151824951172 -197.985717773438 0.715501248837
21.832229614258 -71.084129333496 -198.808731079102 0.756442666054
-17.416315078735 -70.300270080566 -196.323974609375 0.451224952936
-18.019010543823 -69.184745788574 -198.658554077148 1.225738644600
100.486640930176 -70.957710266113 -197.951660156250 1.285418033600
9.736558914185 -70.478416442871 -200.565826416016 1.687839746475
-21.155658721924 -69.362899780273 -195.673034667969 0.440628409386
-122.099060058594 -71.300354003906 -200.912078857422 0.670651733875
-133.246215820313 -69.364280700684 -203.268768310547 0.758190691471
-113.266494750977 -69.214416503906 -202.952407836914 0.477611154318
-141.636474609375 -70.297210693359 -203.566497802734 0.818116247654
19.140943527222 -70.304443359375 -197.078201293945 1.589875698090
96.137313842773 -70.618927001953 -204.443572998047 1.520179986954
-166.250823974609 -68.255302429199 -203.552841186523 0.851089179516
100.197921752930 -71.563285827637 -202.792312622070 2.089580774307
-18.460521697998 -70.679046630859 -206.914489746094 0.433753043413
94.898727416992 -71.765396118164 -212.137481689453 1.167138457298
88.236381530762 -70.410552978516 -214.263137817383 0.915095865726
15.030687332153 -70.234184265137 -209.936614990234 2.096788406372
18.634136199951 -71.176795959473 -210.107208251953 0.906943500042
12.409167289734 -70.050933837891 -206.749908447266 1.702695608139
-10.409282684326 -70.934928894043 -220.066223144531 0.958096504211
-94.993415832520 -69.436294555664 -216.577499389648 0.818180143833
-7.192104816437 -70.818824768066 -213.668914794922 1.792176961899
91.314239501953 -70.272018432617 -214.028274536133 1.909479737282
-91.768150329590 -69.969947814941 -219.354431152344 0.612458884716
-102.735504150391 -70.313964843750 -219.723175048828 1.180521011353
-91.252922058105 -72.405921936035 -220.079498291016 1.437460184097
87.136741638184 -70.293647766113 -220.717987060547 1.078235507011
-134.025054931641 -69.185356140137 -224.970001220703 0.379664927721
-134.054000854492 -68.640541076660 -224.966339111328 0.569115340710
-116.512603759766 -69.033271789551 -224.860855102539 0.806658446789
-112.260879516602 -68.209365844727 -225.776062011719 0.466763317585
-133.926727294922 -70.195419311523 -225.955322265625 0.930879235268
-108.805801391602 -71.763320922852 -226.187637329102 1.215767383575
-113.297363281250 -70.768714904785 -227.369598388672 0.689978837967
-6.140862941742 -70.684463500977 -225.553451538086 0.750174105167
-16.765069961548 -70.306938171387 -222.925201416016 0.293358147144
-0.819625020027 -70.366630554199 -231.189727783203 1.932363986969
-10.065323829651 -69.651245117188 -226.998748779297 0.486976027489
15.267810821533 -70.441291809082 -232.360275268555 0.377258151770
-16.109237670898 -70.058242797852 -228.367218017578 0.735056698322
-166.440536499023 -68.381050109863 -224.763763427734 0.938800275326
-1.661326050758 -68.966300964355 -232.627258300781 0.525899827480
80.800399780273 -70.505874633789 -229.193664550781 1.069535851479
9.707747459412 -70.823745727539 -234.048110961914 0.709259569645
-6.333045005798 -69.729927062988 -233.558532714844 0.506209254265
-156.063903808594 -68.167785644531 -237.448577880859 1.179594159126
-140.283477783203 -69.193359375000 -233.348587036133 0.797356724739
65.526618957520 -69.488250732422 -234.471420288086 1.712808489799
-5.389489173889 -71.137268066406 -235.398223876953 1.475495457649
6.883549213409 -71.128036499023 -232.976089477539 1.461993098259
69.646644592285 -70.618629455566 -234.623962402344 0.897178232670
77.491363525391 -72.242271423340 -233.499343872070 0.339754372835
70.436439514160 -71.190910339355 -239.379867553711 0.882653832436
-0.616804003716 -70.742019653320 -237.002548217773 0.976176261902
57.589363098145 -70.684982299805 -239.705093383789 1.844759225845
-18.122398376465 -70.745071411133 -238.773620605469 1.263292074203
-16.358150482178 -70.380187988281 -241.158615112305 0.960298180580
9.305178642273 -70.416664123535 -240.528152465820 1.077685952187
66.453887939453 -71.328117370605 -239.593032836914 0.432405233383
62.581459045410 -70.454345703125 -239.110580444336 0.958733439445
51.523269653320 -70.172325134277 -246.535385131836 1.563923835754
61.816333770752 -71.601036071777 -242.702026367188 0.490637481213
-15.505340576172 -70.606040954590 -250.547622680664 0.791523635387
-82.728073120117 -69.576858520508 -250.082336425781 1.611353754997
-76.334709167480 -69.047988891602 -251.611114501953 2.402116775513
45.030433654785 -71.257896423340 -248.847015380859 1.274858593941
-144.339630126953 -68.982223510742 -251.898620605469 0.907933712006
37.551303863525 -71.154098510742 -254.690582275391 0.825427711010
-91.142196655273 -69.600212097168 -251.768310546875 1.284172177315
-154.308227539063 -68.455001831055 -255.696762084961 1.554041981697
-140.718246459961 -69.012634277344 -255.250396728516 1.012101650238
48.570217132568 -71.294609069824 -252.369918823242 0.718495011330
-123.668266296387 -67.053054809570 -256.721008300781 0.720725834370
-115.154487609863 -68.102157592773 -256.402221679688 0.899713575840
-93.137535095215 -68.089874267578 -257.670532226563 0.715185999870
-14.300998687744 -70.205619812012 -254.171676635742 0.465514779091
31.915246963501 -70.549644470215 -258.448852539063 0.645867228508
25.280323028564 -69.591468811035 -260.108825683594 0.949595510960
-156.690567016602 -68.855590820313 -259.195617675781 1.541587948799
-114.647201538086 -71.170471191406 -262.559570312500 1.036115884781
-14.248708724976 -69.478118896484 -261.441253662109 0.597039759159
-133.775894165039 -69.660133361816 -264.671234130859 1.539837956429
-13.063662528992 -69.294281005859 -270.231933593750 0.801027178764
-166.524475097656 -68.218536376953 -274.558013916016 1.532203555107
-8.959527969360 -70.701530456543 -281.072082519531 0.677065730095
-161.916809082031 -68.227020263672 -288.116699218750 1.746085762978
-161.866302490234 -67.910705566406 -277.473388671875 3.721803188324
-142.741348266602 -68.658805847168 -285.429931640625 1.094694018364
-167.347488403320 -69.303321838379 -284.919006347656 1.611948847771
13.700353622437 -70.000579833984 -286.549346923828 0.684335291386
-102.863540649414 -69.546173095703 -286.764587402344 2.592531442642
-86.065483093262 -69.294616699219 -286.852874755859 1.073706030846
-165.994033813477 -68.047439575195 -285.468078613281 2.432073831558
-90.495117187500 -68.235595703125 -287.602294921875 1.273347735405
-150.001037597656 -68.630027770996 -287.568695068359 1.373540997505
-72.506958007813 -68.679962158203 -288.487121582031 2.033293008804
-67.877220153809 -69.233604431152 -288.599365234375 0.979686796665
-80.884353637695 -68.661987304688 -290.348358154297 2.080075979233
-3.723396062851 -66.737289428711 -290.291564941406 0.770968079567
-84.096633911133 -69.429267883301 -290.909332275391 1.115930914879
-98.307350158691 -68.894485473633 -291.774047851563 1.188863039017
-113.365478515625 -69.704010009766 -292.317687988281 1.283968925476
-116.065574645996 -69.058624267578 -292.544830322266 0.490257352591
-133.855422973633 -66.835830688477 -293.788696289063 1.649159431458
-143.270538330078 -70.258247375488 -301.065277099609 1.085556030273
-143.432891845703 -70.333274841309 -311.322631835938 1.637120366096
23.725997924805 -72.717658996582 -16.230403900146 1.829847216606
31.113691329956 -71.425170898438 -17.211025238037 0.958797037601
28.963342666626 -72.627563476563 -18.722185134888 1.006046295166
43.468578338623 -72.726242065430 -22.063072204590 2.095007419586
26.903970718384 -72.622787475586 -31.458692550659 1.004864215851
-74.850990295410 -68.681571960449 -47.806968688965 1.606457352638
90.199905395508 -69.972213745117 -63.671760559082 2.084763050079
-14.914817810059 -72.239334106445 -68.411186218262 1.158424258232
100.433135986328 -69.600105285645 -71.443382263184 1.710435509682
97.404190063477 -73.857147216797 -75.258636474609 2.004615306854
69.188034057617 -73.425514221191 -77.609146118164 1.763908624649
67.771995544434 -72.414268493652 -83.205955505371 1.910916328430
-44.910614013672 -72.776321411133 -83.222557067871 0.980929851532
62.186222076416 -71.009117126465 -84.024818420410 1.926991701126
-95.647674560547 -70.732788085938 -87.300765991211 0.899766862392
-51.427127838135 -69.428192138672 -86.556648254395 1.025073885918
-54.930923461914 -76.556625366211 -91.400642395020 0.460040301085
98.905471801758 -73.451766967773 -95.702850341797 1.285271525383
58.096004486084 -73.052970886230 -94.741554260254 1.561177015305
63.885494232178 -70.695381164551 -91.047943115234 1.087781190872
-97.254333496094 -68.212974548340 -96.441276550293 1.339716196060
107.781700134277 -71.666229248047 -95.765235900879 1.406486034393
46.797019958496 -70.659202575684 -98.269264221191 1.923570394516
100.326499938965 -71.409225463867 -97.478866577148 1.121796727180
106.213813781738 -71.232215881348 -104.972412109375 1.443626046181
103.213905334473 -71.576889038086 -105.600372314453 1.820751428604
73.525352478027 -70.804924011230 -102.935722351074 1.122743248940
88.050453186035 -72.434394836426 -104.175598144531 1.275067806244
49.612800598145 -72.755775451660 -111.072624206543 1.624560713768
110.909729003906 -72.690376281738 -105.281105041504 1.758376717567
44.303688049316 -70.555496215820 -106.940650939941 1.479140639305
43.841396331787 -69.227447509766 -100.656265258789 1.763909220695
111.892364501953 -70.909584045410 -109.772697448730 1.899414181709
-78.847671508789 -70.164497375488 -110.906562805176 2.065282583237
47.052074432373 -71.133903503418 -112.851692199707 1.358531951904
37.293312072754 -70.676132202148 -113.372314453125 1.649303197861
104.828300476074 -70.063796997070 -108.952491760254 1.850072741508
42.551040649414 -68.775428771973 -111.192199707031 1.381989121437
-89.195358276367 -69.308776855469 -115.540618896484 1.252870917320
-96.029548645020 -69.553413391113 -115.615180969238 0.812701940536
107.203254699707 -70.512252807617 -117.587211608887 1.259305119514
-94.436637878418 -72.034751892090 -118.412910461426 0.656805872917
38.389202117920 -69.820495605469 -121.633575439453 1.236793041229
37.746215820313 -69.723327636719 -117.802650451660 1.175200343132
-80.873451232910 -69.109497070313 -124.805503845215 1.705804347992
31.259620666504 -69.506698608398 -135.544982910156 1.223684787750
109.051177978516 -72.197479248047 -130.687210083008 0.501568019390
-51.526138305664 -69.399528503418 -132.431747436523 2.211763620377
-88.534713745117 -69.652976989746 -129.464889526367 0.881556630135
37.610054016113 -71.086349487305 -133.347000122070 1.960548758507
-92.247207641602 -67.550170898438 -134.905822753906 0.880295872688
-89.857582092285 -69.511222839355 -137.842834472656 1.253391981125
-48.672431945801 -72.348182678223 -137.595031738281 0.841131806374
-70.267135620117 -69.542236328125 -140.483169555664 1.601321935654
-50.466053009033 -68.717163085938 -134.925704956055 0.452956557274
113.015060424805 -70.032173156738 -138.522964477539 1.662942886353
-74.963012695313 -69.654846191406 -140.150253295898 0.971940159798
35.217445373535 -69.560783386230 -132.194686889648 1.200599670410
-78.687332153320 -70.410911560059 -138.747177124023 0.212507680058
-74.597312927246 -68.593521118164 -136.463272094727 0.262846827507
-87.340171813965 -68.445655822754 -137.292434692383 0.711985945702
-51.613872528076 -70.574691772461 -149.166809082031 1.982187509537
31.570075988770 -69.362876892090 -145.289520263672 0.960297763348
28.118144989014 -68.644752502441 -150.152221679688 1.910730123520
17.745645523071 -68.978332519531 -143.974014282227 0.939552009106
113.613929748535 -70.556266784668 -146.136810302734 2.034048557281
-96.670265197754 -68.618698120117 -153.837692260742 1.626430153847
16.221343994141 -71.502014160156 -152.289398193359 1.356561779976
-72.045135498047 -69.245674133301 -150.926559448242 1.397773742676
23.333547592163 -70.619262695313 -150.546279907227 0.939575254917
-48.548877716064 -69.340133666992 -155.397491455078 1.613621115685
9.454434394836 -69.333915710449 -152.134750366211 0.826537907124
12.904403686523 -70.761749267578 -157.167251586914 0.833620667458
19.221075057983 -71.357551574707 -163.788299560547 1.440564751625
-45.702999114990 -70.107017517090 -161.089355468750 0.363662332296
-39.813800811768 -69.978630065918 -153.892745971680 0.395331382751
-44.489521026611 -68.725532531738 -159.179473876953 0.809456825256
-103.995254516602 -68.794815063477 -170.349121093750 0.325941503048
21.911390304565 -69.593612670898 -172.574737548828 1.620727181435
-35.967834472656 -68.686035156250 -172.707397460938 1.348507523537
15.696139335632 -70.534736633301 -178.075546264648 1.630435585976
-145.076110839844 -69.898567199707 -175.115570068359 0.631929457188
-32.924400329590 -68.591705322266 -173.182434082031 0.422835856676
-152.688720703125 -68.574951171875 -177.066604614258 0.844999432564
21.831836700439 -69.444793701172 -181.862213134766 2.039020299911
-30.851442337036 -68.924362182617 -172.962219238281 1.881993412971
-108.560371398926 -69.334426879883 -180.253768920898 1.502483606339
-107.046821594238 -69.277198791504 -182.296188354492 0.427917718887
-28.744909286499 -68.514778137207 -184.192810058594 0.647329390049
-22.345743179321 -70.484046936035 -181.853851318359 0.986013710499
16.553621292114 -69.336952209473 -189.426696777344 0.700838387012
18.745521545410 -69.393913269043 -194.563598632813 1.433575868607
15.129372596741 -68.584785461426 -186.015075683594 0.709346652031
-142.974685668945 -69.688377380371 -188.307800292969 0.715126574039
18.254203796387 -68.996574401855 -190.034973144531 1.068429827690
10.555233001709 -70.599006652832 -196.481033325195 1.797402143478
-139.739425659180 -68.249816894531 -195.815414428711 0.750996530056
-116.334571838379 -69.039779663086 -195.436981201172 0.585191071033
15.149505615234 -69.369834899902 -197.186828613281 1.836283564568
-112.735824584961 -69.294105529785 -196.470245361328 0.957190454006
-107.664413452148 -68.802589416504 -191.537704467773 2.379978179932
-162.882369995117 -69.330368041992 -197.615020751953 1.248921275139
-23.824033737183 -69.816390991211 -199.981262207031 2.278970003128
16.357671737671 -69.424697875977 -200.860244750977 1.789714813232
-139.666046142578 -68.159469604492 -203.422027587891 1.015841484070
-132.576156616211 -67.669303894043 -204.836120605469 0.769759297371
-17.301874160767 -69.095138549805 -206.167221069336 0.454193651676
-10.786021232605 -70.687164306641 -203.108978271484 1.163987159729
-15.838820457458 -68.738456726074 -205.857070922852 0.722055017948
-143.523101806641 -68.722961425781 -206.712417602539 0.858481407166
-14.961877822876 -70.640396118164 -212.727874755859 1.291676402092
-12.091602325439 -69.111930847168 -213.621643066406 0.475502252579
17.193845748901 -69.277610778809 -210.418441772461 0.727024435997
-11.246104240417 -69.072105407715 -210.817306518555 0.479893952608
11.178538322449 -68.263694763184 -211.218597412109 1.774772405624
-8.860021591187 -69.062149047852 -215.996917724609 0.813900470734
-17.084861755371 -69.472335815430 -212.312591552734 1.679188370705
14.562385559082 -69.441108703613 -221.198287963867 1.556595683098
0.178415998816 -71.026000976563 -220.505294799805 0.598093748093
11.758362770081 -68.741004943848 -222.091522216797 1.214120268822
-4.845993995667 -69.106567382813 -224.527267456055 1.398537158966
-155.880294799805 -67.644042968750 -223.045898437500 1.785480022430
81.742988586426 -70.359764099121 -220.648803710938 1.038451313972
-134.051040649414 -68.232261657715 -224.934524536133 0.914752185345
-134.135940551758 -68.231422424316 -224.963760375977 0.875997722149
-8.518415451050 -69.726150512695 -225.243560791016 0.488813191652
11.882573127747 -69.856925964355 -231.385757446289 0.695518970490
-154.361083984375 -67.829925537109 -226.757019042969 0.956986844540
86.352149963379 -69.824455261230 -219.729492187500 1.026945471764
-2.517529010773 -69.125114440918 -224.522293090820 0.515671491623
0.975243985653 -70.158729553223 -225.249191284180 1.601681232452
74.608383178711 -70.545982360840 -226.812423706055 2.498405218124
1.720752954483 -69.146408081055 -232.543609619141 0.535223484039
-15.595107078552 -71.356361389160 -230.270172119141 1.333815932274
-124.429954528809 -70.211006164551 -234.880905151367 0.796166777611
-2.203000068665 -69.387519836426 -235.125045776367 0.421396762133
2.890436887741 -68.471923828125 -234.360885620117 0.554132878780
66.432571411133 -70.253684997559 -238.477508544922 0.931329905987
-157.903182983398 -67.124061584473 -239.452529907227 1.209933876991
-10.684693336487 -70.860031127930 -243.321014404297 0.755964517593
-166.732177734375 -68.437118530273 -238.203277587891 0.768556833267
9.417336463928 -70.678039550781 -242.898986816406 0.700935661793
-165.432037353516 -67.047744750977 -239.053985595703 1.395713925362
-161.185424804688 -67.841186523438 -244.395446777344 1.269186973572
56.105178833008 -68.528144836426 -245.671371459961 0.519336700439
64.722946166992 -69.205543518066 -243.334671020508 1.732769131660
57.689300537109 -69.286560058594 -242.500411987305 0.890695512295
52.857582092285 -69.403083801270 -248.201705932617 0.765432357788
-158.237152099609 -67.195716857910 -245.423568725586 1.256788134575
-156.245971679688 -68.543724060059 -250.823028564453 1.549590349197
-13.858220100403 -68.439430236816 -249.254623413086 1.038692951202
-151.692245483398 -68.228385925293 -245.540954589844 2.104254007339
22.536602020264 -72.144416809082 -251.351867675781 0.436467021704
-166.910507202148 -68.701560974121 -250.339874267578 1.353665590286
-165.046997070313 -66.993209838867 -245.223464965820 1.326887369156
-81.416336059570 -68.361511230469 -251.211181640625 2.128446817398
-166.969741821289 -68.482803344727 -262.245117187500 1.069378137589
-85.111808776855 -68.015815734863 -254.490188598633 2.040473461151
42.557197570801 -69.363784790039 -252.572219848633 1.400293469429
23.647935867310 -71.991958618164 -254.882751464844 1.944460988045
-159.041213989258 -67.572753906250 -259.656280517578 1.368123888969
-99.589195251465 -66.979026794434 -258.876525878906 2.103813648224
39.022956848145 -70.548690795898 -257.226104736328 2.169300794601
-100.978103637695 -69.565048217773 -260.029205322266 0.759074032307
-154.217971801758 -63.374584197998 -263.216827392578 1.085766553879
-106.361251831055 -67.216453552246 -260.888275146484 1.217919826508
-164.987136840820 -67.366767883301 -259.770355224609 1.660609483719
-112.336975097656 -69.361770629883 -262.272216796875 1.851595997810
-152.130096435547 -68.915809631348 -264.793182373047 0.217322215438
-156.644973754883 -68.905158996582 -264.541442871094 1.586933135986
-165.899307250977 -67.803703308105 -263.474975585938 1.297088146210
-161.519668579102 -66.746871948242 -262.160522460938 1.353002309799
-164.913528442383 -67.679977416992 -267.343688964844 1.644471287727
-160.722732543945 -67.849731445313 -266.544677734375 1.658728241920
25.134498596191 -70.247192382813 -264.719299316406 0.876334071159
-151.708755493164 -67.801086425781 -265.001403808594 0.437339395285
-146.540756225586 -67.001289367676 -282.511932373047 1.602387666702
20.642719268799 -71.473251342773 -277.608612060547 1.163252234459
-9.962536811829 -68.359962463379 -274.153503417969 2.906750202179
-125.939750671387 -69.191772460938 -283.653259277344 1.310779452324
-135.575134277344 -69.957023620605 -285.355072021484 0.678095936775
-135.043121337891 -66.638679504395 -286.918853759766 0.892666637897
-124.308776855469 -69.142204284668 -285.856231689453 1.316280841827
-115.750640869141 -67.635559082031 -286.760284423828 1.270060539246
-106.467155456543 -67.406097412109 -287.580993652344 1.311717152596
12.186206817627 -69.841819763184 -288.733612060547 0.695591807365
-85.335731506348 -68.154151916504 -288.631164550781 1.344310641289
-149.020874023438 -68.508705139160 -290.827423095703 1.130981802940
-100.016487121582 -67.260101318359 -290.079467773438 1.383534312248
-123.903930664063 -66.348419189453 -290.819213867188 1.287920236588
9.573044776917 -71.724334716797 -289.127471923828 0.564973294735
-112.938796997070 -67.445487976074 -291.736022949219 1.500371217728
1.366935014725 -69.168457031250 -292.008483886719 1.260650515556
-142.495727539063 -67.415534973145 -291.785156250000 1.329981803894
-153.184280395508 -68.967781066895 -296.953582763672 1.660543918610
-155.309249877930 -68.777763366699 -310.255126953125 1.570300579071
-153.532211303711 -69.175811767578 -312.711303710938 1.728802561760
50.098011016846 -71.783981323242 -24.026090621948 1.895103931427
21.304981231689 -72.555694580078 -32.884380340576 1.096987843513
33.795600891113 -72.554702758789 -36.590442657471 1.418164730072
-48.473587036133 -70.730171203613 -47.658416748047 2.621752738953
-15.114473342896 -70.408653259277 -60.793254852295 1.993906855583
93.646606445313 -72.963874816895 -68.890632629395 1.927008986473
69.404045104980 -70.415229797363 -70.476722717285 1.818600893021
-22.338994979858 -71.982780456543 -74.433128356934 2.505279779434
-94.455162048340 -72.121025085449 -83.253021240234 0.393797785044
-41.897254943848 -71.088363647461 -78.243385314941 1.359536290169
66.494377136230 -69.706756591797 -82.981018066406 1.543029069901
58.687744140625 -71.222320556641 -87.454895019531 0.607465505600
56.444339752197 -69.850959777832 -87.072715759277 1.605027794838
-57.908153533936 -68.852584838867 -89.258560180664 1.849533319473
66.038192749023 -69.710258483887 -89.150749206543 1.668493151665
45.068481445313 -71.608520507813 -96.580429077148 0.770698726177
67.542884826660 -70.364471435547 -93.815116882324 1.736698269844
-64.686683654785 -68.471305847168 -94.852943420410 1.557797074318
48.699256896973 -71.928665161133 -95.070907592773 1.886020660400
44.362461090088 -70.078598022461 -98.516365051270 1.604438424110
103.667831420898 -70.383575439453 -97.246788024902 0.905643224716
-68.311904907227 -69.701484680176 -99.413284301758 1.077168226242
109.297721862793 -70.445396423340 -100.914024353027 1.835545539856
-78.790710449219 -68.906364440918 -99.925651550293 0.438026994467
55.851013183594 -71.989776611328 -102.133598327637 1.496663331985
47.955509185791 -68.940795898438 -99.534233093262 1.340566396713
93.355552673340 -72.856925964355 -102.816452026367 1.500738024712
86.537330627441 -66.551536560059 -107.130462646484 0.693376839161
52.461040496826 -68.557518005371 -103.406448364258 1.910600423813
-74.989738464355 -69.663871765137 -108.839675903320 1.048607587814
-74.292121887207 -68.327796936035 -111.480316162109 0.597476482391
-78.989402770996 -70.616531372070 -118.732612609863 0.311361193657
-91.673164367676 -70.765159606934 -119.462432861328 0.688014507294
107.991500854492 -69.116493225098 -114.490295410156 1.920242786407
-85.001296997070 -69.581382751465 -119.526344299316 1.279508471489
-78.523689270020 -68.312965393066 -120.198860168457 0.392754673958
110.669441223145 -69.080268859863 -114.525108337402 1.806392669678
-63.841976165771 -65.880813598633 -118.858688354492 1.864207744598
114.589393615723 -70.402214050293 -130.710250854492 1.644672036171
110.517295837402 -70.088829040527 -128.452026367188 1.727509737015
110.491928100586 -69.395401000977 -122.305923461914 1.768172740936
-92.575843811035 -68.866783142090 -138.695709228516 0.142664000392
-48.873680114746 -68.954040527344 -141.198669433594 1.381070733070
-75.708045959473 -69.302688598633 -145.489044189453 1.259337306023
-68.934883117676 -69.258552551270 -149.448532104492 1.368028879166
-72.210449218750 -67.463996887207 -145.126251220703 2.222479104996
-55.028186798096 -68.492019653320 -142.914840698242 0.388275921345
-48.085227966309 -69.536315917969 -148.164794921875 1.019746303558
20.879266738892 -69.397285461426 -144.331634521484 1.153922200203
-94.324073791504 -68.909530639648 -145.046417236328 0.145707920194
-44.254096984863 -68.624008178711 -148.217895507813 0.435257524252
-53.379203796387 -68.588424682617 -148.726242065430 1.248545765877
-41.121917724609 -68.732452392578 -155.413238525391 0.333826363087
28.955827713013 -69.823974609375 -163.491790771484 2.416864633560
-48.207729339600 -67.518608093262 -149.470336914063 0.493372350931
-97.149612426758 -68.547279357910 -150.798461914063 1.199979186058
-41.650096893311 -68.404716491699 -159.189392089844 0.410490304232
26.833965301514 -68.643325805664 -151.208801269531 0.870275080204
-101.915634155273 -68.596199035645 -161.553527832031 1.189706325531
22.659893035889 -69.432380676270 -156.610000610352 2.384469985962
-106.366798400879 -68.559165954590 -171.199645996094 1.250660061836
-99.794685363770 -68.421966552734 -162.776702880859 2.893846511841
22.925132751465 -68.269874572754 -162.356033325195 2.258128166199
26.123331069946 -68.278640747070 -168.014144897461 1.225896120071
-104.130271911621 -68.559326171875 -174.123977661133 2.088877439499
-141.024337768555 -68.754173278809 -176.271606445313 0.750931441784
-21.735042572021 -68.760650634766 -187.021789550781 0.456901073456
-26.580640792847 -68.409767150879 -183.277481079102 0.662718355656
-112.193260192871 -68.076934814453 -187.052505493164 1.029834389687
-143.355255126953 -64.850364685059 -188.353897094727 1.353856444359
-105.694046020508 -67.857910156250 -182.004699707031 0.643812298775
-154.957214355469 -67.955879211426 -193.035659790039 1.006971597672
-130.929351806641 -69.226173400879 -194.684967041016 0.958685159683
-133.113296508789 -68.082130432129 -195.795440673828 0.392887800932
-20.053359985352 -67.651481628418 -192.221176147461 2.380798339844
-121.983680725098 -68.128105163574 -195.857223510742 0.607572972775
-113.968803405762 -67.332519531250 -196.717575073242 0.586063206196
-23.752395629883 -68.342872619629 -196.832489013672 1.581414937973
-153.746917724609 -66.972190856934 -201.412277221680 0.896241426468
-130.900360107422 -70.285942077637 -204.502395629883 0.920110702515
-124.338317871094 -67.637214660645 -205.592422485352 0.719234406948
17.953947067261 -67.965705871582 -201.560394287109 0.676505923271
-160.564987182617 -65.665260314941 -205.139236450195 1.620430946350
8.842727661133 -69.638359069824 -212.522735595703 1.149371504784
13.764577865601 -68.371612548828 -213.253860473633 1.903589487076
-18.904273986816 -67.737014770508 -206.624267578125 0.460458904505
-4.632987022400 -69.046722412109 -215.443771362305 1.003820776939
-165.840362548828 -66.910942077637 -209.399749755859 2.067705392838
-158.107940673828 -67.440010070801 -213.902801513672 1.717078328133
-93.850532531738 -68.708297729492 -217.512680053711 0.763219594955
-100.933135986328 -67.722694396973 -224.788986206055 1.542773723602
-160.400970458984 -66.325462341309 -222.629760742188 2.220818281174
-102.181762695313 -68.255531311035 -219.809310913086 1.670335650444
-12.083099365234 -67.979606628418 -217.746200561523 1.109383583069
-125.564498901367 -68.257186889648 -223.972946166992 0.863407194614
-139.986618041992 -68.795379638672 -225.748352050781 0.975555062294
-2.481899976730 -67.879158020020 -221.075500488281 0.874069154263
-133.852325439453 -67.484764099121 -225.836517333984 0.936591863632
-123.348091125488 -69.016014099121 -225.085906982422 0.776710093021
-113.822494506836 -67.158218383789 -226.341033935547 0.598270952702
3.856453895569 -68.498451232910 -226.177734375000 1.243577599525
-106.116348266602 -68.521194458008 -228.841735839844 0.548251032829
-157.947265625000 -66.419601440430 -223.587936401367 1.336808562279
-147.510086059570 -66.590187072754 -227.730895996094 1.048982381821
-165.594024658203 -66.951324462891 -224.142364501953 1.152048826218
-6.831913948059 -70.514450073242 -228.390869140625 1.399314880371
-8.302272796631 -67.947433471680 -230.676177978516 0.995409429073
79.051048278809 -68.985633850098 -225.826507568359 0.703222334385
2.431785106659 -68.426597595215 -230.162796020508 0.543574213982
-141.868545532227 -67.299217224121 -233.258331298828 0.682151198387
-13.093750000000 -68.856086730957 -228.500534057617 0.935678660870
74.885910034180 -68.970428466797 -228.433364868164 1.568904161453
76.190444946289 -69.142318725586 -232.568389892578 1.905786752701
-134.228057861328 -67.500404357910 -233.369766235352 0.672191083431
-158.521011352539 -66.481323242188 -228.465972900391 1.512507557869
-114.154411315918 -68.244247436523 -233.079635620117 0.966152071953
-123.061111450195 -66.527740478516 -234.207626342773 1.250098347664
-164.607818603516 -66.688171386719 -234.505203247070 1.159324526787
-158.188415527344 -66.921539306641 -236.237686157227 1.188395857811
-144.121841430664 -68.139129638672 -236.376846313477 1.166270136833
-8.724622726440 -70.263038635254 -236.531738281250 0.588044703007
-3.492248058319 -69.197906494141 -237.766174316406 0.332749605179
-160.679870605469 -65.980690002441 -237.846084594727 1.506643533707
5.804228782654 -69.706130981445 -239.701614379883 0.741002798080
6.612514019012 -67.950164794922 -234.093643188477 0.803268134594
-160.847763061523 -67.183303833008 -241.180053710938 1.679737567902
14.973837852478 -69.780944824219 -244.479919433594 0.614103853703
51.191181182861 -69.822090148926 -243.752975463867 0.451112061739
53.491218566895 -68.470390319824 -245.211044311523 0.665353357792
-13.472729682922 -69.347068786621 -246.330718994141 1.073593735695
50.135631561279 -67.746215820313 -247.832687377930 0.586746513844
-163.215774536133 -67.195976257324 -252.088546752930 1.342543363571
-161.940856933594 -66.829895019531 -248.816772460938 1.363515377045
-158.864761352539 -67.123451232910 -250.111999511719 1.822775721550
53.592933654785 -69.591560363770 -250.252777099609 0.764370679855
-89.192207336426 -67.581451416016 -252.801315307617 0.848973274231
-125.255386352539 -68.279045104980 -253.954772949219 1.030857801437
-104.641098022461 -68.649810791016 -255.201782226563 1.529386878014
29.733377456665 -69.515350341797 -256.831024169922 1.720588445663
44.212928771973 -68.563796997070 -250.233810424805 0.683561563492
-100.652351379395 -66.692359924316 -255.407608032227 0.715850591660
-93.903694152832 -66.595344543457 -255.162841796875 0.869808316231
45.600345611572 -69.088256835938 -252.559997558594 1.512965202332
44.642150878906 -68.522453308105 -255.680877685547 2.803207874298
-155.369537353516 -68.794692993164 -258.880340576172 1.333358287811
33.604324340820 -68.464759826660 -257.623535156250 0.935050189495
-141.330718994141 -69.784774780273 -263.322052001953 0.627837777138
-114.159034729004 -66.672752380371 -261.880645751953 1.176682114601
-134.785659790039 -69.242752075195 -263.379516601563 0.822929322720
29.202493667603 -69.477691650391 -262.207244873047 1.845256805420
-125.621383666992 -66.625762939453 -264.667846679688 1.174035549164
-10.425966262817 -68.167686462402 -260.296417236328 1.902966737747
24.025508880615 -70.282791137695 -270.490234375000 0.928142130375
-7.847506999969 -67.848419189453 -266.774505615234 1.237711310387
21.235843658447 -69.089965820313 -278.721893310547 0.523902058601
-150.938430786133 -66.686500549316 -282.513946533203 1.483255147934
-9.375679016113 -68.901580810547 -280.007751464844 0.688288748264
-153.564147949219 -69.498580932617 -284.006164550781 1.669906735420
-125.529273986816 -66.196746826172 -285.055358886719 1.653735280037
-155.438064575195 -69.656463623047 -286.595306396484 1.539143681526
-113.800155639648 -67.800689697266 -287.333129882813 1.260815262794
-105.388572692871 -66.933525085449 -288.398834228516 1.333428859711
-6.508493900299 -67.579383850098 -286.245971679688 0.575151860714
-108.854270935059 -67.002624511719 -290.524475097656 2.098761081696
-115.302703857422 -66.009063720703 -288.208465576172 1.395487189293
-115.980766296387 -66.302047729492 -291.074279785156 1.174228191376
-135.194641113281 -66.012603759766 -289.308746337891 1.021028757095
-124.340789794922 -68.324645996094 -292.326263427734 0.850339174271
-155.866271972656 -68.508399963379 -290.727386474609 1.353849291801
-145.792999267578 -68.303245544434 -294.966613769531 1.536233782768
-151.320404052734 -66.837867736816 -299.915618896484 1.403257489204
-153.098098754883 -66.061889648438 -311.427368164063 1.986227750778
-154.541366577148 -67.889770507813 -300.831481933594 1.171655893326
-144.723510742188 -67.547058105469 -311.314270019531 1.330994009972
-150.188186645508 -65.119438171387 -312.322418212891 2.272419691086
36.192432403564 -72.345298767090 -11.346195220947 1.412710905075
44.474090576172 -72.400588989258 -14.638253211975 1.891972303391
25.497934341431 -66.210861206055 -25.409965515137 1.239420652390
50.017448425293 -71.736831665039 -29.030939102173 1.947298765182
29.505140304565 -72.828735351563 -34.259265899658 1.357318282127
35.289325714111 -72.622940063477 -36.269260406494 1.823576927185
-57.480052947998 -67.875953674316 -44.967941284180 2.328416585922
84.643325805664 -69.711715698242 -63.110546112061 2.124354600906
79.307083129883 -70.901596069336 -64.940689086914 1.927004456520
-90.777770996094 -68.227699279785 -60.625682830811 2.272115707397
-11.432044982910 -68.488731384277 -63.506057739258 1.835543036461
-91.766113281250 -71.057411193848 -66.957122802734 1.279888510704
96.692283630371 -70.792037963867 -70.344871520996 2.037122011185
-15.661991119385 -67.470413208008 -68.470466613770 1.519256234169
68.299896240234 -71.133010864258 -74.252723693848 1.763499021530
-37.978427886963 -72.664260864258 -75.918029785156 1.035609722137
-28.071605682373 -73.693992614746 -77.746353149414 0.735668122768
57.631687164307 -70.737510681152 -84.881370544434 1.295296549797
-44.959373474121 -78.170433044434 -85.017211914063 0.699040293694
65.292686462402 -68.238471984863 -85.524963378906 1.444051742554
54.466518402100 -71.349319458008 -86.728866577148 1.387549877167
51.679344177246 -71.869560241699 -91.716476440430 1.077219247818
62.497280120850 -69.752090454102 -90.486412048340 1.457494378090
58.560855865479 -70.963111877441 -95.145614624023 0.747607052326
101.700592041016 -69.819076538086 -95.981140136719 1.886115312576
104.926460266113 -69.639328002930 -96.100479125977 1.935055613518
59.003986358643 -71.465019226074 -97.863975524902 1.077653527260
106.305717468262 -68.256164550781 -97.056724548340 1.195440649986
-74.846992492676 -68.968650817871 -99.285202026367 0.473763406277
-70.858634948730 -67.147781372070 -99.496688842773 0.559865534306
101.051414489746 -69.027137756348 -97.899787902832 1.037675023079
53.829193115234 -69.547027587891 -99.786781311035 0.959389388561
71.294052124023 -70.057907104492 -100.039367675781 1.238655447960
-73.599746704102 -68.497879028320 -104.265686035156 1.169363737106
-83.549903869629 -67.734436035156 -105.075973510742 1.246122837067
93.310905456543 -70.130882263184 -105.342185974121 1.058070421219
42.835742950439 -68.712387084961 -105.815399169922 1.375941276550
103.647872924805 -68.682998657227 -102.519233703613 1.756006002426
44.701999664307 -69.543533325195 -112.460433959961 0.981040716171
109.490959167480 -69.170623779297 -104.910415649414 1.890603303909
-79.426712036133 -66.977020263672 -108.506629943848 1.402966618538
107.501647949219 -68.230430603027 -107.374305725098 2.006710290909
-85.281204223633 -67.147773742676 -119.613029479980 0.615213930607
-58.334026336670 -69.695022583008 -128.474670410156 0.429831713438
-53.566253662109 -66.741958618164 -125.487770080566 0.981678903103
-73.698158264160 -67.785858154297 -128.177978515625 1.882371306419
-51.123126983643 -69.285614013672 -129.676162719727 0.474088698626
-83.727485656738 -69.136329650879 -130.170166015625 1.392298936844
-76.817344665527 -67.709800720215 -134.131652832031 1.044601678848
-82.066894531250 -66.997909545898 -127.356483459473 0.278903663158
-58.109920501709 -70.480987548828 -139.453399658203 1.022599816322
-72.487976074219 -66.821617126465 -138.551116943359 0.521455109119
-58.690898895264 -67.007148742676 -137.335571289063 0.386575043201
-60.303569793701 -69.224494934082 -139.492889404297 0.683396935463
23.172220230103 -67.840621948242 -140.439178466797 1.485872864723
-90.000137329102 -67.269264221191 -143.688232421875 1.586923003197
-45.990222930908 -68.257797241211 -142.473571777344 0.350059330463
-98.677040100098 -65.972671508789 -148.609695434570 1.360984086990
-98.985397338867 -67.339233398438 -151.060440063477 0.189207509160
17.997854232788 -68.905776977539 -151.367782592773 1.213972091675
13.321222305298 -69.468727111816 -156.049774169922 0.386133283377
-96.401222229004 -67.212638854980 -157.517852783203 1.360665082932
-102.031829833984 -66.753479003906 -157.351745605469 0.819819569588
-101.007141113281 -67.114166259766 -168.797302246094 0.310404688120
23.278837203979 -67.696273803711 -168.162673950195 1.296365261078
-107.720153808594 -67.123275756836 -170.967514038086 2.184256315231
19.905994415283 -69.092056274414 -168.083221435547 0.787243843079
-146.643310546875 -66.755516052246 -175.482620239258 0.498913109303
17.807071685791 -68.735145568848 -176.158782958984 0.738170444965
23.310010910034 -68.220169067383 -184.830200195313 2.079418897629
-152.752410888672 -66.549774169922 -187.018814086914 0.782480478287
22.384954452515 -67.248260498047 -177.859191894531 1.586856007576
19.489664077759 -67.328041076660 -178.292175292969 0.782646179199
-140.790023803711 -68.650558471680 -187.373977661133 0.694472432137
-151.383743286133 -67.136413574219 -188.398559570313 0.461429297924
20.523221969604 -67.223808288574 -188.581741333008 2.277834177017
18.623186111450 -67.038513183594 -188.403335571289 0.735109925270
-142.616943359375 -67.501373291016 -192.516586303711 0.619088351727
-107.739059448242 -67.524253845215 -197.360015869141 0.737138152122
20.878446578979 -68.791397094727 -196.302398681641 0.665688395500
-123.457359313965 -65.611099243164 -194.531402587891 0.457478702068
12.841134071350 -67.995956420898 -197.422637939453 2.638728141785
-131.911117553711 -66.257896423340 -194.642379760742 0.795107781887
-154.712265014648 -65.630836486816 -193.756408691406 1.265793561935
-162.744613647461 -67.904312133789 -197.083435058594 0.418040543795
-161.497848510742 -65.595893859863 -197.949737548828 0.929445564747
-17.979326248169 -66.650032043457 -199.716537475586 2.236895799637
-165.171264648438 -67.746101379395 -200.208953857422 0.503234207630
-23.868602752686 -67.556838989258 -191.669692993164 1.439172744751
-14.593041419983 -68.414443969727 -198.793457031250 2.184807062149
14.990227699280 -67.260452270508 -194.366790771484 1.745788931847
-158.876846313477 -65.487503051758 -199.612976074219 0.922904133797
-110.001167297363 -67.036148071289 -201.044799804688 0.594673633575
-18.299665451050 -66.762069702148 -204.335632324219 1.274700880051
-157.863891601563 -67.184982299805 -202.545425415039 0.973242223263
16.103652954102 -67.083023071289 -199.503677368164 1.207135438919
-164.787582397461 -65.693908691406 -203.264175415039 1.678537487984
-121.866218566895 -68.601676940918 -203.206909179688 0.797049462795
-114.039993286133 -65.541023254395 -204.369644165039 1.496432900429
-122.908912658691 -65.195648193359 -204.899703979492 0.819269955158
-12.642979621887 -67.812561035156 -204.615798950195 0.471344292164
-14.103502273560 -66.858009338379 -205.415466308594 0.540085911751
-164.180130004883 -65.752174377441 -209.218231201172 1.827575802803
-160.108169555664 -66.179946899414 -213.732925415039 1.525270819664
-164.464813232422 -66.248107910156 -219.667083740234 3.381657838821
-143.891586303711 -66.954971313477 -214.783599853516 1.176887512207
-143.471374511719 -68.227226257324 -222.177581787109 0.882268965244
-5.377942085266 -66.840553283691 -220.948379516602 1.365835905075
-10.205677986145 -66.923866271973 -216.157516479492 1.824257493019
-97.997589111328 -67.363800048828 -221.260391235352 1.190826535225
-4.988215923309 -67.467170715332 -226.873779296875 1.062785148621
