107.625373840332 -76.297653198242 -172.136230468750 1.000284552574
20.243009567261 -75.937477111816 -172.176651000977 1.472773909569
27.794610977173 -76.350967407227 -170.942016601563 1.765420436859
-56.173213958740 -75.707412719727 -176.529373168945 1.139422059059
19.229618072510 -76.185455322266 -182.121536254883 1.147417664528
-58.250652313232 -75.402046203613 -176.965606689453 1.295564770699
-51.183475494385 -75.870468139648 -185.820022583008 1.249536752701
14.728659629822 -75.765052795410 -182.567474365234 0.874715328217
-59.021362304688 -76.396484375000 -181.299957275391 1.084916353226
107.483146667480 -76.287490844727 -184.244110107422 1.936959505081
22.605161666870 -75.948280334473 -180.452041625977 1.758216381073
-31.900909423828 -75.774101257324 -188.541809082031 1.018789529800
-42.417640686035 -75.863784790039 -192.526748657227 0.967879951000
10.818911552429 -75.517417907715 -194.442443847656 1.024108290672
-18.112861633301 -77.104461669922 -191.570953369141 0.941975831985
-50.900493621826 -77.020492553711 -193.195922851563 2.419045448303
103.578628540039 -76.447616577148 -184.763351440430 1.425945162773
16.131484985352 -76.165008544922 -190.849212646484 1.256186366081
-135.556137084961 -76.362899780273 -197.342315673828 0.900480866432
-41.756896972656 -77.516136169434 -192.761459350586 0.890776753426
97.198326110840 -76.592323303223 -198.763214111328 1.422116279602
-147.670135498047 -81.050392150879 -201.406768798828 0.654458880424
18.036056518555 -76.252128601074 -193.509948730469 2.855967044830
-41.844402313232 -75.987907409668 -204.645858764648 1.677117943764
-32.665618896484 -77.096801757813 -203.504257202148 0.859315216541
-37.295341491699 -76.108154296875 -205.505355834961 1.610864996910
-43.349697113037 -76.042549133301 -196.457916259766 0.789417564869
99.234291076660 -76.817840576172 -201.108367919922 2.011801481247
-19.704311370850 -76.274620056152 -202.932479858398 0.876639544964
-150.458969116211 -76.859031677246 -205.352905273438 0.965670764446
16.041530609131 -76.203674316406 -206.011413574219 0.896398186684
-76.206871032715 -79.164840698242 -208.759307861328 0.698694109917
-150.744567871094 -76.847160339355 -209.666580200195 0.828125774860
96.455604553223 -75.318176269531 -209.085906982422 1.316357970238
-32.779663085938 -76.096572875977 -207.187774658203 0.818829536438
-29.123493194580 -76.306533813477 -214.620849609375 1.404641866684
7.229584217072 -77.577751159668 -211.222167968750 1.181966066360
-71.219032287598 -77.265098571777 -212.710357666016 0.913704037666
-29.837642669678 -76.906974792480 -210.393600463867 0.849359333515
-4.730070114136 -76.213249206543 -214.144302368164 1.170976281166
-75.285552978516 -78.682312011719 -214.342956542969 1.041269421577
-14.926012039185 -76.598114013672 -217.039459228516 2.362905740738
8.060590744019 -75.587852478027 -213.770339965820 0.591554164886
17.034826278687 -77.315071105957 -219.019897460938 1.346301794052
-147.850280761719 -76.736351013184 -215.870590209961 0.602853775024
-7.426393985748 -76.310882568359 -214.734375000000 2.004469633102
-94.633689880371 -74.121688842773 -220.558975219727 0.775319755077
-21.794664382935 -75.878326416016 -220.082611083984 1.281840801239
91.829582214355 -76.895919799805 -211.351806640625 1.119682192802
5.669006824493 -76.995719909668 -227.172958374023 1.085701346397
15.768419265747 -75.446182250977 -216.644241333008 0.791522741318
81.815246582031 -76.008201599121 -221.289199829102 0.916191697121
0.746268987656 -75.907363891602 -226.296966552734 2.486600637436
86.201889038086 -76.518806457520 -217.348785400391 0.403590887785
-16.707860946655 -76.844474792480 -221.602539062500 0.697242200375
14.642942428589 -77.396171569824 -220.038528442383 0.713668465614
-145.547073364258 -78.063003540039 -223.534698486328 0.689630329609
-19.058326721191 -77.633377075195 -223.977508544922 0.466578722000
1.286142945290 -78.310867309570 -226.601074218750 1.974174141884
-154.924896240234 -78.673896789551 -228.145324707031 0.800780177116
-136.328262329102 -75.765914916992 -228.382888793945 0.646170914173
7.868614196777 -76.740554809570 -226.083297729492 0.699611246586
-4.373691082001 -77.162841796875 -232.348983764648 1.150886416435
-135.992858886719 -76.380050659180 -231.448303222656 0.830313920975
-145.608016967773 -78.080383300781 -234.944641113281 0.601320445538
-146.704574584961 -76.594017028809 -236.271255493164 0.603192150593
-33.360984802246 -76.963432312012 -238.515899658203 1.413973331451
-146.791412353516 -76.466835021973 -241.836700439453 0.570279419422
20.677440643311 -76.375778198242 -241.626739501953 1.049507856369
4.453836917877 -77.096908569336 -242.478363037109 1.515498042107
-150.127593994141 -76.365425109863 -235.642013549805 0.758105814457
-148.934692382813 -77.676132202148 -242.601852416992 0.873386442661
-47.841381072998 -77.188606262207 -241.332611083984 0.845448493958
-31.468826293945 -77.896766662598 -243.589004516602 0.502726912498
5.285172939301 -79.079307556152 -246.270462036133 1.824370265007
-39.353462219238 -77.146736145020 -245.160202026367 1.795423746109
22.833013534546 -77.633987426758 -247.253494262695 0.598668038845
-5.075892925262 -79.063766479492 -248.391845703125 0.890153110027
-150.524337768555 -77.098350524902 -252.457122802734 0.528545439243
-7.414216995239 -78.813911437988 -250.737945556641 0.971161305904
-147.037689208984 -77.394111633301 -252.128082275391 0.519002377987
-68.167083740234 -77.281738281250 -249.070312500000 0.952959239483
-150.151245117188 -83.235191345215 -259.951599121094 0.470771849155
-125.981491088867 -76.397506713867 -259.060699462891 0.759400725365
-149.171569824219 -74.075805664063 -261.036987304688 0.531049370766
-13.424989700317 -75.828865051270 -265.207092285156 0.448725610971
-146.658111572266 -78.750167846680 -265.106658935547 1.087170004845
-150.607772827148 -77.735664367676 -265.462402343750 0.507344901562
-10.067855834961 -79.152854919434 -269.564056396484 0.575088381767
-147.380935668945 -78.047874450684 -271.261169433594 0.504799962044
-3.738873958588 -78.180000305176 -279.240295410156 0.509236037731
-46.639812469482 -77.560874938965 -286.854705810547 2.668249845505
-133.944137573242 -77.607444763184 -288.422302246094 0.926629364491
-133.014801025391 -76.430244445801 -286.081207275391 0.542848646641
-126.680450439453 -77.045959472656 -286.836242675781 0.970106720924
-53.664054870605 -76.958831787109 -286.586425781250 0.472801923752
-115.675506591797 -75.146179199219 -288.514282226563 0.595066249371
15.310911178589 -77.590736389160 -289.131195068359 0.793969094753
-60.451683044434 -77.144790649414 -288.788635253906 0.900016129017
-142.161544799805 -76.615074157715 -290.260070800781 0.864456713200
-62.232345581055 -76.798698425293 -289.899780273438 0.493069440126
-142.839401245117 -78.984542846680 -290.925170898438 0.533201456070
-117.878402709961 -77.126434326172 -289.950469970703 0.704552531242
-47.687511444092 -76.983100891113 -290.352752685547 0.501989006996
-35.618923187256 -77.868209838867 -290.560485839844 1.610589623451
-133.799911499023 -77.536079406738 -290.859802246094 0.554338395596
-10.890369415283 -77.715072631836 -290.739227294922 0.551437795162
0.529578983784 -77.734207153320 -290.987060546875 0.574864387512
6.103003978729 -77.676750183105 -291.648620605469 0.590099751949
14.753702163696 -77.922775268555 -293.137969970703 0.868447244167
-149.890686035156 -77.467536926270 -295.735839843750 1.441495656967
-148.435897827148 -77.253242492676 -299.813232421875 0.872411131859
-70.534347534180 -75.051506042480 -59.717060089111 1.957778930664
86.480682373047 -73.207855224609 -74.508819580078 1.824643850327
77.938125610352 -73.945503234863 -75.511260986328 2.080724000931
-26.980680465698 -74.799331665039 -76.735206604004 2.113442182541
84.054512023926 -73.111007690430 -76.342002868652 1.843147158623
-35.917419433594 -74.426574707031 -80.107452392578 2.271841287613
87.360778808594 -74.802993774414 -77.981918334961 1.797803282738
92.065406799316 -74.272293090820 -81.641777038574 2.225843906403
-65.860244750977 -69.310531616211 -92.909339904785 2.102731943130
75.092834472656 -74.009460449219 -92.943458557129 1.706532120705
80.193466186523 -74.205810546875 -96.386550903320 2.010837793350
91.077812194824 -74.260658264160 -93.489463806152 2.296146869659
54.584827423096 -74.135688781738 -97.931533813477 0.549247622490
-76.764297485352 -77.620277404785 -101.392570495605 0.711571633816
-75.682456970215 -70.434310913086 -101.722450256348 2.175623178482
48.260265350342 -75.040458679199 -105.225715637207 2.428089141846
-91.822082519531 -76.254684448242 -105.421943664551 1.960041403770
44.156887054443 -75.015335083008 -116.483367919922 1.745174288750
109.995323181152 -73.790328979492 -117.445549011230 1.365232706070
111.554435729980 -74.843124389648 -131.479492187500 1.619637846947
26.689136505127 -74.540679931641 -138.368698120117 1.535303115845
109.798103332520 -74.183120727539 -126.006896972656 1.233433842659
26.136135101318 -75.361793518066 -134.375808715820 2.331582784653
113.365776062012 -73.940353393555 -128.336441040039 1.655182123184
38.253978729248 -75.366508483887 -134.174392700195 2.837151527405
-51.409832000732 -76.697837829590 -143.800354003906 1.240775346756
34.251491546631 -73.426460266113 -141.213104248047 1.354735136032
109.295021057129 -73.607749938965 -137.824737548828 1.201967954636
-51.163810729980 -75.291007995605 -144.644058227539 1.690542221069
31.754270553589 -75.627738952637 -147.472961425781 1.550970315933
-56.430316925049 -74.238098144531 -139.074676513672 1.564391613007
-53.239479064941 -76.326713562012 -147.705749511719 1.431531786919
-50.692489624023 -75.678550720215 -149.429595947266 1.869772315025
-65.394165039063 -76.137496948242 -156.273239135742 1.413547635078
114.707344055176 -74.916107177734 -148.280624389648 1.857183933258
-50.981826782227 -75.775291442871 -155.237442016602 1.578175663948
21.111566543579 -75.611190795898 -154.278350830078 2.384813785553
109.618957519531 -75.162033081055 -156.234649658203 1.549426794052
-67.387756347656 -74.385566711426 -156.690643310547 1.363435029984
-48.246547698975 -75.845046997070 -155.680404663086 1.841993808746
7.706473827362 -73.510826110840 -154.881820678711 1.833135366440
-67.492156982422 -74.384262084961 -159.942474365234 1.081694722176
-61.459754943848 -75.256759643555 -161.575439453125 1.826335787773
-1.748164057732 -75.379508972168 -161.840530395508 1.566549658775
-41.617259979248 -75.776313781738 -166.960342407227 2.252626657486
30.648056030273 -74.157341003418 -163.777938842773 1.247203111649
-62.276119232178 -75.504295349121 -165.384613037109 1.340576291084
-57.845275878906 -75.495574951172 -168.444259643555 1.230662345886
19.527988433838 -75.234375000000 -160.947570800781 1.202542781830
-31.735748291016 -75.812522888184 -169.366378784180 1.231192469597
-30.891332626343 -76.456474304199 -167.242034912109 1.225400328636
16.736553192139 -75.535995483398 -174.284790039063 2.009121179581
-40.543640136719 -76.050559997559 -172.707672119141 1.658424854279
-12.528580665588 -75.090522766113 -172.900436401367 1.627754569054
-60.249881744385 -74.656837463379 -172.626602172852 1.446675062180
-5.473921775818 -73.869346618652 -170.883682250977 0.866395294666
-23.651735305786 -76.124382019043 -179.423355102539 1.203863978386
23.575935363770 -75.105049133301 -180.580413818359 1.166535615921
-39.424430847168 -74.691749572754 -171.911514282227 1.752228021622
17.791809082031 -74.674011230469 -178.156738281250 1.986460089684
-23.301977157593 -73.306297302246 -182.844924926758 1.084620952606
-32.774425506592 -75.990219116211 -181.879440307617 1.092172503471
-147.440017700195 -75.953224182129 -186.111434936523 1.149332046509
-22.473564147949 -76.044380187988 -186.109893798828 1.287586331367
-144.823532104492 -75.487564086914 -188.074462890625 0.731360852718
-149.990646362305 -74.535148620605 -187.311889648438 1.231924772263
-47.593269348145 -74.771766662598 -186.482299804688 2.280294418335
97.956253051758 -75.144790649414 -194.017425537109 2.660771369934
-144.889282226563 -75.802360534668 -193.254776000977 0.857390940189
-153.552307128906 -76.769096374512 -196.706161499023 0.841638684273
20.670680999756 -75.627265930176 -197.736297607422 2.064413785934
-135.876403808594 -74.404029846191 -198.122909545898 0.932839572430
18.691219329834 -75.027282714844 -197.854598999023 2.506061792374
-141.123336791992 -74.397026062012 -197.826721191406 0.942023754120
12.673181533813 -75.127998352051 -196.093521118164 0.671257019043
-135.699066162109 -74.681594848633 -201.350799560547 0.984701693058
7.393459796906 -76.038520812988 -206.749832153320 0.873935043812
-149.555862426758 -75.259208679199 -206.342010498047 0.865362584591
92.931045532227 -75.259826660156 -203.266082763672 1.086227893829
-15.093699455261 -76.533164978027 -201.981155395508 1.243485927582
-30.557332992554 -75.253684997559 -206.566818237305 0.825664103031
-10.070746421814 -76.130630493164 -205.624938964844 1.145923733711
-149.694091796875 -75.796432495117 -212.018630981445 1.068276643753
-35.680381774902 -75.652229309082 -205.948867797852 0.741424202919
-81.694580078125 -77.072578430176 -210.446304321289 0.721959233284
-27.044527053833 -76.331520080566 -209.828857421875 2.540563821793
18.311525344849 -75.407096862793 -209.028701782227 0.921838700771
-148.191879272461 -76.451881408691 -212.828186035156 0.869957685471
-91.499427795410 -75.055511474609 -214.270050048828 0.620859563351
-30.283277511597 -74.872924804688 -212.687637329102 1.402406215668
-25.825906753540 -74.464958190918 -218.026382446289 1.522237896919
-14.719779014587 -75.974540710449 -213.471115112305 1.335749268532
-27.794054031372 -75.195640563965 -212.638031005859 0.948351264000
-81.242073059082 -75.345092773438 -216.283203125000 1.052199721336
-86.475532531738 -76.301864624023 -217.589309692383 0.919961154461
-24.365661621094 -75.894203186035 -218.882781982422 1.264144301414
-2.476186990738 -75.617118835449 -221.055221557617 0.719621181488
-149.680282592773 -75.283607482910 -217.113143920898 0.765999913216
-2.653990983963 -76.858299255371 -218.053710937500 0.752001106739
84.014900207520 -75.967445373535 -222.958618164063 0.910129606724
-142.943435668945 -77.324821472168 -225.036407470703 0.897082448006
-10.061541557312 -76.843345642090 -223.685409545898 0.688431084156
-141.932037353516 -76.610374450684 -226.734298706055 0.754574835300
-147.343933105469 -81.903190612793 -227.185852050781 0.392844080925
-7.188164234161 -74.642669677734 -229.779006958008 0.695596575737
15.542627334595 -75.296493530273 -221.772552490234 0.744483888149
-141.423431396484 -75.725341796875 -229.525756835938 0.646290838718
-15.633710861206 -75.595207214355 -229.198348999023 0.626783192158
78.063392639160 -75.843276977539 -227.202468872070 1.095856428146
76.717163085938 -75.182586669922 -230.715042114258 1.888801693916
7.774559020996 -75.875358581543 -231.146301269531 0.652686238289
-26.894659042358 -77.312263488770 -237.796249389648 1.072537422180
-18.544614791870 -77.357460021973 -239.958557128906 0.429290473461
5.641645908356 -74.896080017090 -242.885971069336 0.591865539551
-48.243820190430 -75.363365173340 -241.696136474609 0.387707322836
-23.666643142700 -76.161048889160 -242.682922363281 0.513773620129
7.664021968842 -76.017959594727 -243.500671386719 0.483943998814
-63.838703155518 -76.065475463867 -245.213256835938 1.311337351799
-31.101966857910 -75.773162841797 -243.422515869141 1.538563966751
-43.442607879639 -74.339836120605 -244.878555297852 0.280953586102
-150.526046752930 -76.340766906738 -246.360778808594 0.477465480566
-47.329757690430 -76.885734558105 -246.739242553711 0.891696333885
-53.950435638428 -76.439010620117 -248.224868774414 0.547702908516
-67.203796386719 -76.508712768555 -250.636413574219 1.949837446213
-11.187213897705 -75.953247070313 -250.977722167969 0.854972243309
-81.519943237305 -75.636169433594 -252.343811035156 0.879594445229
-155.131332397461 -79.112915039063 -256.778961181641 0.484919339418
-142.336563110352 -77.636512756348 -256.872833251953 0.657322824001
-125.837341308594 -76.179801940918 -261.454406738281 0.863017499447
-153.712799072266 -73.914306640625 -264.375549316406 0.581883430481
20.996440887451 -77.067634582520 -262.805297851563 1.171751022339
-12.661483764648 -77.057327270508 -267.836578369141 0.457679539919
-150.694183349609 -77.985397338867 -271.320861816406 1.127081274986
-150.841476440430 -78.727333068848 -277.479827880859 0.527664482594
-144.285476684570 -80.388511657715 -284.556365966797 0.914458334446
-57.816749572754 -75.234016418457 -285.714447021484 1.598735332489
-38.526721954346 -76.500839233398 -286.291473388672 0.480504274368
-25.780036926270 -74.934249877930 -286.327331542969 0.286199659109
-12.858709335327 -76.635299682617 -286.602874755859 1.853542685509
-65.507171630859 -76.727035522461 -287.185363769531 2.382167339325
-79.208747863770 -75.643348693848 -287.076171875000 1.761399745941
-4.039953231812 -77.060935974121 -287.477172851563 0.578315436840
8.209828376770 -76.499916076660 -287.832763671875 0.564870476723
-135.838043212891 -76.288787841797 -290.469543457031 0.932300508022
-77.894241333008 -76.456321716309 -288.998901367188 1.203472971916
-147.713958740234 -76.839668273926 -288.857299804688 0.896646678448
-94.154090881348 -75.865951538086 -288.812561035156 1.556761980057
-78.446212768555 -76.230766296387 -289.456115722656 0.737506687641
-83.717620849609 -75.554191589355 -290.764739990234 0.980109274387
-59.906768798828 -76.151214599609 -290.463470458984 0.497001975775
-26.299333572388 -75.627243041992 -291.590209960938 1.120001077652
-3.706680059433 -76.134727478027 -291.994415283203 1.786255717278
-153.819931030273 -75.364265441895 -294.515228271484 0.753951311111
-152.006912231445 -76.733268737793 -299.949249267578 0.979943513870
-146.183502197266 -77.930725097656 -301.206237792969 0.706754446030
-154.877365112305 -76.921806335449 -307.419921875000 0.855683147907
-58.144161224365 -73.350631713867 -54.708587646484 2.774233102798
-45.852859497070 -71.831588745117 -53.038661956787 2.088842153549
-39.311862945557 -72.382064819336 -55.462203979492 2.380988597870
-76.240364074707 -73.308250427246 -58.579326629639 2.517429828644
-29.133163452148 -73.070571899414 -61.858360290527 2.304210424423
-30.981105804443 -73.843986511230 -78.899986267090 1.443664193153
75.186546325684 -73.844139099121 -79.415237426758 2.367808341980
75.005279541016 -75.025634765625 -81.375907897949 1.219631791115
74.683242797852 -74.448905944824 -83.735404968262 2.319036483765
95.534591674805 -73.117713928223 -89.061645507813 2.408212661743
72.891372680664 -74.312416076660 -89.179847717285 2.253909826279
53.081848144531 -73.285095214844 -92.576293945313 1.248874783516
46.967697143555 -75.473655700684 -98.780357360840 1.404404759407
-68.109413146973 -74.347190856934 -99.426132202148 2.102799654007
-72.352073669434 -68.269874572754 -101.336669921875 1.503642320633
44.559127807617 -74.398437500000 -102.959144592285 0.659883141518
-83.001655578613 -76.594245910645 -108.238624572754 1.463264346123
-94.240867614746 -72.968841552734 -112.440109252930 1.880176782608
50.247947692871 -73.285224914551 -105.007629394531 1.957590222359
107.050018310547 -73.004867553711 -109.190872192383 1.278917551041
31.742696762085 -75.335296630859 -119.192230224609 1.767302274704
45.398532867432 -74.146102905273 -118.419609069824 1.299028277397
42.188564300537 -75.361915588379 -125.423873901367 0.979515135288
29.096445083618 -74.649429321289 -125.073753356934 1.792310357094
108.252197265625 -73.639190673828 -118.110313415527 1.894212245941
38.999179840088 -74.201805114746 -127.796096801758 1.034522533417
29.379177093506 -73.103225708008 -130.048217773438 1.531639933586
-47.551795959473 -74.784507751465 -144.354461669922 1.841737747192
-72.943435668945 -74.129745483398 -145.872360229492 1.610996603966
-55.354587554932 -72.983940124512 -143.619171142578 1.517462253571
-71.041908264160 -73.999824523926 -145.985000610352 1.476332545280
-42.352428436279 -72.701049804688 -146.636398315430 1.936823368073
108.478302001953 -72.136558532715 -149.456695556641 1.394510269165
-72.354888916016 -74.684745788574 -154.721725463867 1.911088466644
23.722177505493 -73.902305603027 -149.249801635742 1.877686023712
32.958148956299 -75.148490905762 -152.794296264648 1.384120702744
114.455726623535 -74.610000610352 -158.042922973633 1.220768213272
8.364133834839 -73.798614501953 -158.875946044922 1.383328676224
30.805389404297 -73.999031066895 -154.898498535156 1.454473495483
-65.755035400391 -73.664146423340 -158.630889892578 1.415027499199
-44.330394744873 -74.799514770508 -167.946990966797 1.711094856262
18.193359375000 -72.699569702148 -162.908798217773 1.346158385277
-64.149536132813 -73.494873046875 -163.885070800781 1.479158520699
-68.442420959473 -75.024749755859 -164.791732788086 1.342026829720
106.988708496094 -74.431541442871 -165.297317504883 1.608412265778
-7.625122070313 -73.946472167969 -168.420043945313 1.686902880669
-61.919399261475 -75.154060363770 -176.507736206055 1.623672127724
-28.409317016602 -74.478408813477 -170.464416503906 0.944844722748
-56.059123992920 -73.638656616211 -173.762603759766 1.232691407204
27.259305953979 -74.689529418945 -168.251892089844 2.843008518219
109.465461730957 -74.133743286133 -172.150466918945 0.620636880398
102.489425659180 -74.899330139160 -182.895507812500 1.293583989143
106.999099731445 -75.156204223633 -188.529739379883 1.708543300629
107.061447143555 -74.048881530762 -177.526397705078 1.909771561623
-54.148727416992 -74.775177001953 -187.181396484375 2.779732227325
-52.124748229980 -73.491897583008 -182.096557617188 1.678053975105
25.130071640015 -75.682960510254 -182.336318969727 1.282311081886
-50.537830352783 -73.320510864258 -188.695526123047 1.004311919212
-20.363029479980 -75.515136718750 -184.485870361328 1.438603162766
-51.079963684082 -74.751228332520 -191.351730346680 0.975400030613
-150.315536499023 -75.185066223145 -193.385665893555 1.491636157036
101.353546142578 -74.305564880371 -192.811767578125 1.647603511810
-45.609886169434 -73.622406005859 -192.285812377930 0.966840088367
-17.679121017456 -75.866668701172 -196.806030273438 0.942439496517
-141.246658325195 -76.590621948242 -196.989517211914 0.942448318005
-46.091682434082 -73.610557556152 -195.719055175781 2.243027448654
103.136398315430 -75.205001831055 -197.185760498047 1.341847658157
105.463035583496 -74.184959411621 -186.002731323242 2.177579879761
-46.847213745117 -74.948646545410 -197.337631225586 1.316336154938
-24.653444290161 -76.018501281738 -195.657333374023 1.078016519547
-149.499710083008 -80.185653686523 -199.234405517578 1.464717864990
-25.325843811035 -76.409187316895 -198.496139526367 1.765965700150
-154.404479980469 -76.595588684082 -199.486679077148 0.933357179165
-153.218994140625 -77.485603332520 -202.278472900391 0.518659651279
-141.400878906250 -76.569404602051 -201.799957275391 0.538983702660
-38.646274566650 -74.926872253418 -197.901306152344 1.757388234138
99.963859558105 -74.243736267090 -198.693969726563 2.152146100998
-39.715621948242 -73.632743835449 -199.112670898438 1.525030255318
-144.937957763672 -77.724510192871 -205.024475097656 0.880638957024
-38.876838684082 -73.657524108887 -205.963714599609 1.610303163528
-19.049688339233 -76.145370483398 -209.510848999023 1.307594299316
95.550048828125 -74.318359375000 -203.717453002930 2.532746553421
92.461219787598 -74.353317260742 -210.388778686523 1.231170058250
-30.910110473633 -74.594787597656 -216.679687500000 1.038767814636
-86.671318054199 -75.176589965820 -212.117462158203 0.858938932419
-75.970512390137 -74.648155212402 -211.524536132813 0.337446659803
-18.058834075928 -75.248512268066 -218.827728271484 1.496956825256
-149.976165771484 -74.056343078613 -211.580123901367 0.822559475899
87.837997436523 -75.702018737793 -212.021896362305 0.772916615009
89.241043090820 -75.763870239258 -217.908157348633 0.960773527622
90.378456115723 -73.983413696289 -218.395431518555 1.140313625336
-101.902732849121 -73.536140441895 -222.536926269531 0.763369321823
-151.072219848633 -77.479858398438 -223.511688232422 0.702126562595
-19.897253036499 -75.241905212402 -220.426925659180 1.396602630615
78.446502685547 -74.898323059082 -223.372238159180 0.883046925068
-148.994155883789 -77.234107971191 -227.176071166992 1.893653035164
-26.681901931763 -75.385406494141 -221.157836914063 1.013864636421
-132.687347412109 -74.734710693359 -228.911071777344 0.895935177803
-13.035655975342 -76.423126220703 -227.198547363281 0.998049139977
17.582038879395 -75.308303833008 -221.237030029297 1.087116241455
18.656715393066 -75.841560363770 -231.187973022461 1.062791943550
-154.109893798828 -78.425750732422 -232.556503295898 1.186558008194
-125.218261718750 -73.987571716309 -232.852462768555 0.723868966103
-8.387296676636 -74.132461547852 -234.204177856445 1.298039555550
-0.359019011259 -75.016235351563 -236.002029418945 0.365795433521
69.048889160156 -74.803611755371 -234.780548095703 1.453432321548
72.401069641113 -74.176246643066 -235.494949340820 0.778988301754
-0.818297982216 -75.666557312012 -239.805664062500 2.280930757523
16.688535690308 -73.816246032715 -238.645523071289 1.792593479156
-28.708705902100 -74.018325805664 -238.964859008789 0.525536775589
-35.829067230225 -75.043342590332 -239.928100585938 0.513206839561
-44.317981719971 -73.978866577148 -242.364746093750 0.486038357019
-37.674793243408 -74.153877258301 -242.174041748047 1.346495032310
-19.270978927612 -76.226493835449 -241.902969360352 1.890420913696
-53.492404937744 -74.471618652344 -242.864349365234 0.667758345604
1.806851029396 -74.915351867676 -244.279861450195 0.545151889324
-68.111015319824 -73.307777404785 -245.978240966797 1.574024081230
19.230215072632 -74.977333068848 -246.348083496094 0.407588481903
-147.015075683594 -76.739822387695 -246.812805175781 0.543950259686
-72.358207702637 -76.580154418945 -248.530960083008 0.768687665462
13.392868995667 -77.419044494629 -247.322906494141 1.120301604271
-161.937591552734 -74.692230224609 -249.824691772461 0.584992349148
17.756002426147 -76.408027648926 -250.693008422852 1.147967815399
-79.561584472656 -75.589408874512 -250.404083251953 1.618588209152
-74.516258239746 -76.091316223145 -251.249526977539 0.332711100578
21.088035583496 -75.578819274902 -255.685623168945 1.255018353462
-88.953407287598 -74.712379455566 -254.049682617188 1.684786915779
-125.760757446289 -75.082298278809 -256.122314453125 0.149960413575
-135.578643798828 -74.662757873535 -258.174255371094 0.495114266872
-133.610092163086 -75.968780517578 -258.218658447266 0.481823503971
-147.745071411133 -73.725440979004 -260.033142089844 0.958421587944
-141.927490234375 -75.123886108398 -259.400177001953 1.133182048798
-136.094955444336 -74.240653991699 -261.908660888672 1.285479187965
-161.820877075195 -74.977668762207 -261.660186767578 0.559396147728
-125.721870422363 -73.244438171387 -264.622528076172 1.318702816963
-133.962738037109 -75.623291015625 -262.154907226563 1.561177372932
-165.962966918945 -74.467140197754 -263.521362304688 1.372014284134
-158.724182128906 -74.105445861816 -263.736968994141 0.841515421867
-151.538604736328 -74.542678833008 -265.413970947266 0.533459186554
-147.132003784180 -74.993667602539 -265.750366210938 0.518293857574
15.617085456848 -77.682548522949 -277.164337158203 0.743991613388
-165.882400512695 -74.776916503906 -269.368499755859 1.339684605598
-152.842544555664 -74.529861450195 -273.704010009766 0.550560891628
-7.058360099792 -79.682983398438 -273.119384765625 1.146542668343
-160.983276367188 -74.608161926270 -268.885955810547 3.744896173477
12.293446540833 -78.783401489258 -279.042633056641 1.165798187256
-151.825714111328 -75.303894042969 -282.672454833984 0.588235318661
-162.465805053711 -75.255752563477 -286.656555175781 0.624993801117
-154.290954589844 -75.016540527344 -284.070953369141 1.330457687378
-166.253982543945 -75.468078613281 -285.903381347656 0.698690712452
2.391256093979 -75.679382324219 -287.377716064453 0.598031461239
7.156652927399 -77.445053100586 -284.663360595703 0.993445277214
-97.316352844238 -75.103927612305 -287.898498535156 1.175465106964
-150.804687500000 -75.085006713867 -287.796539306641 0.575137138367
-148.958892822266 -75.015937805176 -287.439208984375 0.595969259739
-109.693939208984 -74.868225097656 -288.722473144531 0.969411313534
-150.913925170898 -75.095413208008 -290.253875732422 0.617245972157
-148.982025146484 -75.095069885254 -290.634185791016 0.614960193634
-67.942344665527 -75.247726440430 -290.878387451172 0.500206649303
-162.745239257813 -75.585304260254 -290.651977539063 0.979390680790
-124.292190551758 -74.822502136230 -291.347625732422 0.999122023582
-43.939205169678 -76.129753112793 -290.801239013672 1.101685523987
-156.807464599609 -75.317863464355 -290.002716064453 1.549597024918
-136.115478515625 -73.509208679199 -293.241668701172 1.082253098488
-16.677806854248 -74.564109802246 -291.764862060547 1.264978528023
-126.613250732422 -75.600852966309 -294.048858642578 0.900435030460
4.885760784149 -75.657409667969 -292.583099365234 1.389490127563
15.377795219421 -75.014793395996 -292.040649414063 0.787119328976
-134.273895263672 -75.954185485840 -293.282318115234 0.595298111439
-146.274978637695 -75.350257873535 -295.100280761719 0.637344121933
-156.252990722656 -74.650215148926 -311.796020507813 1.254560709000
-73.523094177246 -69.843734741211 -51.664772033691 1.499433994293
-23.855154037476 -70.491333007813 -60.239273071289 3.190637350082
-22.287256240845 -72.206512451172 -64.711311340332 2.943690538406
73.988853454590 -71.627471923828 -73.639381408691 1.813627362251
91.251419067383 -72.947433471680 -74.523925781250 1.347110629082
-39.000461578369 -71.601844787598 -77.178817749023 0.997642517090
73.191291809082 -72.755760192871 -76.481414794922 2.396649599075
87.650283813477 -74.585556030273 -80.113502502441 2.402282476425
69.727081298828 -71.873001098633 -81.378250122070 1.824021577835
70.951713562012 -72.991653442383 -84.848983764648 0.637602329254
-50.087509155273 -75.036598205566 -87.973045349121 2.173665285110
-92.682815551758 -73.404884338379 -86.581390380859 0.637802004814
56.941146850586 -72.495010375977 -92.763053894043 0.651922404766
48.859474182129 -72.438140869141 -96.403327941895 1.530427336693
94.395126342773 -73.045433044434 -94.664337158203 2.253710269928
-95.147811889648 -71.890388488770 -101.907974243164 2.372071027756
83.916473388672 -73.375282287598 -96.367057800293 2.182898759842
74.365203857422 -72.422027587891 -97.011703491211 1.687339067459
91.521934509277 -72.419288635254 -97.589744567871 2.063917636871
81.617149353027 -71.405319213867 -99.360565185547 2.160000324249
85.872306823730 -74.369407653809 -96.731391906738 1.236999511719
-81.395523071289 -74.063179016113 -102.021736145020 2.030053615570
39.231899261475 -74.108100891113 -108.947509765625 1.378315448761
105.627510070801 -72.667083740234 -109.617088317871 0.813824951649
109.256629943848 -72.575523376465 -109.791015625000 1.708167076111
44.795341491699 -73.105026245117 -115.474311828613 1.384594559669
107.368255615234 -72.599060058594 -122.342666625977 2.439533710480
114.838272094727 -73.439056396484 -133.525970458984 1.529963493347
-53.289997100830 -72.930435180664 -134.128890991211 1.535023570061
26.097400665283 -72.760940551758 -133.277359008789 2.350848913193
39.232131958008 -73.034805297852 -132.582015991211 1.039215564728
25.357309341431 -71.385894775391 -143.321914672852 2.416489362717
112.668235778809 -72.722343444824 -139.517303466797 1.746426343918
111.661094665527 -72.180244445801 -133.301757812500 1.018005013466
-74.224983215332 -73.747459411621 -148.148681640625 1.482387304306
-45.110137939453 -73.583717346191 -146.396224975586 1.719175577164
-71.596450805664 -72.352470397949 -149.292953491211 0.788135349751
20.903522491455 -73.455070495605 -151.656372070313 1.155540943146
112.747398376465 -73.141059875488 -150.632843017578 1.069876909256
-53.434028625488 -73.265441894531 -148.910125732422 1.364395976067
-70.108161926270 -71.999565124512 -149.026916503906 1.084512233734
-38.912010192871 -75.783309936523 -153.920166015625 1.609384179115
32.885543823242 -71.061088562012 -151.585403442383 2.537387609482
111.497093200684 -72.843322753906 -151.580261230469 1.617009997368
112.570602416992 -72.680229187012 -157.635009765625 0.387564688921
-68.724075317383 -71.461540222168 -153.503311157227 1.075527667999
-69.581710815430 -73.251365661621 -162.621047973633 1.295311570168
20.946096420288 -73.862709045410 -162.513092041016 1.524079442024
-60.220695495605 -72.613410949707 -166.413543701172 1.610524773598
-33.820911407471 -73.990203857422 -160.698562622070 1.596606016159
6.260081768036 -73.270645141602 -162.031723022461 1.174360394478
110.514343261719 -73.404487609863 -161.167510986328 1.024910926819
3.962811946869 -73.706054687500 -164.330795288086 1.317130446434
-33.962722778320 -73.804374694824 -165.103713989258 0.650278449059
0.000073000003 -73.160957336426 -167.031661987305 1.281626701355
108.665893554688 -73.023223876953 -169.300933837891 1.715016961098
-41.268867492676 -71.476081848145 -168.556243896484 1.973537802696
26.933036804199 -71.240402221680 -169.763214111328 1.555325269699
110.208351135254 -72.885856628418 -171.728347778320 1.865803003311
-57.829597473145 -72.200912475586 -177.020446777344 1.120321035385
-29.189027786255 -73.848968505859 -172.845336914063 1.728769779205
104.646324157715 -72.394836425781 -172.899749755859 1.263257503510
28.306947708130 -73.174690246582 -172.184738159180 1.611739993095
112.016593933105 -74.808036804199 -173.289016723633 2.082465648651
-37.393470764160 -73.226623535156 -176.269271850586 2.264556169510
105.813072204590 -73.032264709473 -179.769241333008 1.320487856865
-60.060768127441 -73.509994506836 -177.636138916016 2.241957187653
-25.520397186279 -75.360481262207 -180.328170776367 0.764943182468
-145.135116577148 -72.945297241211 -182.533691406250 1.146582961082
-54.774353027344 -73.193450927734 -183.411285400391 1.367902517319
-147.030532836914 -73.789482116699 -187.281753540039 0.941691160202
-32.966644287109 -72.690780639648 -187.395019531250 1.797858715057
22.959442138672 -73.606849670410 -186.123977661133 1.101338624954
107.210487365723 -72.937583923340 -182.176315307617 0.403250753880
-30.592206954956 -75.318412780762 -186.777984619141 1.172627329826
11.468910217285 -74.273605346680 -190.225051879883 1.559219360352
18.870754241943 -73.522102355957 -200.114273071289 1.266547918320
-146.717422485352 -74.314971923828 -192.903900146484 0.999485373497
102.366607666016 -73.108619689941 -194.272628784180 1.176006436348
-18.386150360107 -71.583404541016 -193.553894042969 1.630326509476
102.210929870605 -73.089340209961 -189.415344238281 2.338001728058
14.073692321777 -72.784118652344 -187.556030273438 1.770690083504
-132.201354980469 -73.283569335938 -200.892501831055 0.904628753662
-140.856948852539 -74.612304687500 -201.100814819336 0.907804012299
96.786796569824 -73.246437072754 -200.321380615234 1.108597755432
-12.345270156860 -75.478050231934 -201.009689331055 0.725124657154
-15.104213714600 -75.117431640625 -200.612487792969 1.791891574860
8.980362892151 -74.532783508301 -206.884674072266 1.522823810577
-150.403976440430 -71.320434570313 -205.963088989258 0.852884352207
-146.085525512695 -75.191566467285 -206.241409301758 0.861661374569
98.236671447754 -73.207733154297 -202.363296508789 1.034396290779
-78.493331909180 -73.332496643066 -209.444793701172 0.327459752560
-37.573192596436 -73.126770019531 -203.428253173828 0.973802804947
16.508388519287 -74.185127258301 -210.190628051758 2.412856101990
-26.408260345459 -74.003257751465 -211.487869262695 2.201015472412
-79.238945007324 -73.238563537598 -211.448135375977 1.053469061852
90.779510498047 -73.503753662109 -210.228088378906 1.009674191475
-82.594352722168 -72.924026489258 -212.923812866211 1.040331006050
-146.501083374023 -75.336502075195 -218.192077636719 0.750922083855
-79.596626281738 -73.980560302734 -214.604049682617 0.436783641577
-15.931678771973 -72.479087829590 -213.459091186523 0.801094114780
-21.148469924927 -72.794532775879 -216.927352905273 0.724651873112
18.480838775635 -72.544326782227 -210.907104492188 0.837509036064
-6.202857971191 -74.635528564453 -215.385711669922 2.344524621964
-88.215362548828 -72.585945129395 -218.506027221680 0.692122101784
91.753913879395 -73.373649597168 -212.757690429688 2.043680906296
-95.897781372070 -74.409019470215 -216.348617553711 1.126568675041
-149.844375610352 -75.529129028320 -222.664382934570 0.717489421368
-19.375652313232 -72.875747680664 -222.171112060547 1.189623832703
15.686952590942 -73.070075988770 -216.308837890625 0.783670425415
-101.943298339844 -73.119560241699 -220.293045043945 0.683621823788
7.330498218536 -74.242835998535 -220.799652099609 0.732858836651
-23.485715866089 -74.315963745117 -217.083374023438 0.595042228699
83.422233581543 -73.604553222656 -222.671615600586 0.752414405346
-146.754928588867 -75.113525390625 -222.519668579102 1.666737794876
4.133634090424 -72.052131652832 -225.515502929688 1.619723677635
-9.701189994812 -75.322898864746 -222.127578735352 2.608524322510
16.942996978760 -72.157112121582 -220.678436279297 1.905076384544
82.944450378418 -73.606758117676 -221.055511474609 0.655417501926
-12.429511070251 -73.580314636230 -227.320755004883 0.672492027283
-130.902542114258 -73.574317932129 -226.270797729492 1.396716117859
-12.238460540771 -74.909202575684 -224.776962280273 0.668039679527
16.677507400513 -75.577766418457 -233.776702880859 1.478633403778
-125.266784667969 -74.343986511230 -227.898651123047 0.639701664448
-148.946472167969 -72.190055847168 -227.711837768555 0.695373356342
-141.452392578125 -73.575721740723 -228.995529174805 0.662375271320
-134.840545654297 -73.424240112305 -230.717178344727 0.637788951397
-15.961067199707 -74.083709716797 -226.777572631836 1.190801024437
71.566108703613 -73.544036865234 -229.353271484375 1.413985967636
-141.647460937500 -73.158813476563 -231.890502929688 0.659745395184
73.993629455566 -75.076461791992 -229.131652832031 1.030046582222
-19.498764038086 -75.352615356445 -227.048645019531 2.212309122086
-141.981887817383 -77.550148010254 -231.589813232422 0.978856861591
78.338684082031 -73.203224182129 -227.745910644531 1.645350337029
8.768595695496 -75.214630126953 -235.511032104492 2.595662832260
-144.146881103516 -78.456306457520 -234.297897338867 0.942234635353
-150.982986450195 -73.315032958984 -235.559570312500 0.637918293476
15.342396736145 -73.047737121582 -232.538238525391 2.092633247375
-3.268846988678 -73.820266723633 -235.255233764648 0.743502020836
-24.878221511841 -74.375984191895 -237.766113281250 0.610606551170
-2.017256021500 -72.124778747559 -239.570587158203 0.407295376062
-161.345764160156 -73.883720397949 -237.962188720703 0.644187688828
11.094543457031 -75.196502685547 -244.634628295898 0.693153500557
-164.764266967773 -73.274375915527 -236.021545410156 1.431404471397
-14.360140800476 -75.057197570801 -237.919265747070 0.875974476337
65.572830200195 -74.345191955566 -238.819427490234 1.498412966728
-12.545404434204 -74.344284057617 -240.439559936523 0.539404153824
-24.895792007446 -72.722557067871 -239.832611083984 0.644758045673
-26.180038452148 -73.618904113770 -241.798065185547 1.243165254593
-16.160049438477 -73.121772766113 -242.176223754883 0.516853272915
-146.411636352539 -73.469169616699 -235.752120971680 0.634789347649
8.275871276855 -74.418334960938 -243.515838623047 0.981394708157
64.264053344727 -73.383499145508 -241.587280273438 1.697282314301
13.055995941162 -73.778259277344 -244.829254150391 0.560425519943
-161.644104003906 -73.296783447266 -240.226989746094 0.907665789127
-48.971672058105 -73.323097229004 -243.958663940430 1.270070075989
2.044974088669 -79.577537536621 -246.646835327148 0.404876023531
16.350940704346 -73.529403686523 -245.587936401367 0.562456667423
-55.012680053711 -72.873954772949 -246.936050415039 1.413193702698
-4.344532012939 -73.119407653809 -245.341659545898 0.965871810913
21.212270736694 -74.529434204102 -246.367233276367 0.923159122467
-165.048538208008 -73.837760925293 -248.788192749023 0.603991866112
-71.176429748535 -75.090164184570 -246.809158325195 1.188252568245
-50.469657897949 -74.425125122070 -246.988265991211 0.372266411781
-78.813201904297 -74.689811706543 -249.105606079102 0.439844280481
-159.726638793945 -73.551445007324 -248.387222290039 1.451446890831
-151.020797729492 -74.109825134277 -252.618377685547 0.513604402542
-59.500217437744 -74.855812072754 -249.473144531250 0.724638998508
-69.075508117676 -74.357925415039 -251.772155761719 0.424001574516
-153.701797485352 -73.598930358887 -254.112350463867 0.558285236359
-152.037612915039 -73.587799072266 -253.077667236328 0.556522667408
-77.759254455566 -74.217132568359 -253.722167968750 0.185052171350
-93.432395935059 -73.609367370605 -253.373229980469 1.855964303017
-166.282531738281 -73.616783142090 -250.774795532227 0.826621949673
-156.083145141602 -73.775146484375 -257.901885986328 1.104549050331
-133.989852905273 -74.122642517090 -255.696212768555 0.499966055155
-82.993652343750 -74.875076293945 -253.935104370117 0.276636064053
-162.974182128906 -73.787696838379 -252.453552246094 1.898731589317
-142.275375366211 -74.196632385254 -256.814575195313 0.775435149670
-86.203102111816 -73.650688171387 -255.545639038086 0.806141555309
-95.636596679688 -71.865730285645 -258.456085205078 0.263066917658
-148.153396606445 -74.102058410645 -257.696960449219 0.680737972260
-95.197158813477 -73.622810363770 -256.989990234375 0.804934084415
-149.652496337891 -73.782089233398 -257.588928222656 0.127265304327
-100.143066406250 -73.633506774902 -257.395690917969 0.600415050983
-165.101074218750 -74.266296386719 -259.796356201172 0.576133251190
-160.542465209961 -73.941078186035 -259.623474121094 0.565526485443
-124.201492309570 -73.840599060059 -257.755279541016 0.475014418364
-150.529083251953 -73.469230651855 -259.763763427734 0.562035977840
-115.050819396973 -73.797744750977 -260.986053466797 0.193888694048
-15.060917854309 -74.730583190918 -261.647125244141 0.394890666008
-142.910888671875 -73.997032165527 -262.210906982422 0.671304523945
-124.305824279785 -74.087821960449 -260.603576660156 0.469414770603
-155.550964355469 -73.914642333984 -262.202239990234 0.549605429173
21.694416046143 -74.628524780273 -268.384002685547 0.542476415634
-147.193511962891 -75.397415161133 -278.009368896484 0.703428149223
-167.358505249023 -74.443023681641 -277.529418945313 0.686259567738
-7.073593139648 -76.706985473633 -278.885681152344 0.808884918690
-147.170791625977 -75.489105224609 -282.696533203125 0.571595132351
-7.706851959229 -74.255973815918 -282.458740234375 1.438949346542
12.803280830383 -73.719543457031 -284.928314208984 0.449102342129
-135.908554077148 -75.225402832031 -286.654632568359 0.960923910141
-71.592895507813 -74.618049621582 -286.365509033203 0.869175195694
-33.358745574951 -74.877304077148 -286.143249511719 0.384552150965
-113.672378540039 -73.863815307617 -287.540588378906 0.955493688583
-92.598571777344 -75.202865600586 -290.910949707031 0.582269132137
-91.230339050293 -74.250617980957 -291.457489013672 1.223922491074
-48.067790985107 -75.233985900879 -290.838409423828 1.531490325928
-115.873054504395 -74.822700500488 -291.176483154297 0.442623823881
-110.774345397949 -74.765586853027 -290.654266357422 1.644097805023
-32.040649414063 -74.204994201660 -291.295989990234 0.513563930988
-113.318756103516 -73.348907470703 -292.109222412109 0.467159420252
-124.965385437012 -73.317375183105 -292.698791503906 1.166609525681
-143.627655029297 -74.660377502441 -292.697509765625 0.618636190891
7.417589187622 -73.668548583984 -292.498107910156 0.574627041817
14.249777793884 -75.720367431641 -293.828033447266 0.609030187130
-157.208557128906 -75.049446105957 -294.418701171875 1.077661275864
-154.768280029297 -76.451652526855 -301.062103271484 1.138611555099
-144.498168945313 -75.513465881348 -311.893066406250 0.770618140697
-150.192962646484 -73.268257141113 -312.378723144531 0.797287702560
-152.183044433594 -77.925636291504 -312.663330078125 0.771705567837
29.139812469482 -69.715797424316 -16.383995056152 2.756142377853
24.175355911255 -69.690093994141 -16.209115982056 1.361236572266
20.979742050171 -69.961647033691 -22.256628036499 1.723569750786
27.667125701904 -69.981788635254 -39.150257110596 1.449867963791
-57.557426452637 -69.030746459961 -49.046287536621 1.459881424904
-66.504936218262 -69.233032226563 -49.567630767822 1.813184022903
-38.977077484131 -70.073669433594 -52.480384826660 2.340084314346
-81.641685485840 -71.310905456543 -58.693286895752 2.595946311951
82.008674621582 -72.578552246094 -71.714942932129 1.774371266365
-19.842302322388 -72.492256164551 -70.449501037598 2.231808423996
88.154380798340 -72.034889221191 -70.815223693848 2.210735559464
96.758346557617 -70.703941345215 -78.466506958008 2.411330938339
-94.011543273926 -70.597740173340 -78.936492919922 0.586724340916
69.739875793457 -70.810699462891 -79.778556823730 1.915155529976
-43.456989288330 -74.294990539551 -83.852554321289 1.870179057121
99.283210754395 -69.025230407715 -83.482719421387 2.286334991455
-53.402511596680 -72.508056640625 -89.287727355957 2.156837940216
52.299282073975 -71.143341064453 -89.897514343262 1.426407814026
71.807586669922 -72.240974426270 -91.408157348633 2.221481084824
57.331039428711 -71.700752258301 -96.857971191406 1.797178268433
52.513568878174 -73.120109558105 -97.654930114746 1.823802351952
72.331871032715 -72.803939819336 -94.382072448730 2.166110515594
44.898143768311 -72.248352050781 -99.952171325684 0.880365073681
103.660224914551 -71.906646728516 -98.125701904297 1.562251925468
106.493789672852 -72.504905700684 -103.788108825684 1.701479911804
83.100242614746 -68.508728027344 -102.256935119629 1.723701357841
88.215919494629 -72.284538269043 -100.547599792480 1.960996627808
101.499412536621 -71.253959655762 -97.087257385254 1.082913875580
108.248138427734 -70.593711853027 -102.132102966309 1.704173922539
38.778362274170 -72.988967895508 -105.071235656738 1.239513158798
110.536193847656 -69.870079040527 -119.298851013184 1.418308854103
112.263832092285 -72.246971130371 -117.139411926270 1.747917294502
32.876976013184 -72.033363342285 -121.572425842285 1.415328860283
44.657253265381 -72.257057189941 -119.534881591797 1.445124268532
114.796043395996 -71.414901733398 -126.262702941895 0.946249544621
39.309360504150 -72.175682067871 -126.034797668457 2.646936178207
112.108764648438 -71.644355773926 -128.088882446289 1.100064396858
109.816200256348 -71.498893737793 -121.364967346191 1.645741581917
25.066955566406 -70.674674987793 -137.871566772461 1.503583431244
-49.833114624023 -72.206069946289 -135.348800659180 1.211556792259
-52.482501983643 -71.385421752930 -135.907165527344 1.608064055443
110.787719726563 -70.829612731934 -133.434112548828 1.722177147865
-71.859596252441 -72.961418151855 -142.210815429688 1.550968170166
-75.181396484375 -73.114692687988 -140.379974365234 1.856008887291
-57.467037200928 -73.082305908203 -144.204605102539 1.335335254669
33.550067901611 -70.813598632813 -141.090652465820 1.205138683319
111.414505004883 -71.620971679688 -143.263854980469 1.699152827263
-68.346611022949 -71.311943054199 -146.172531127930 1.486249804497
-46.125881195068 -70.863494873047 -144.670104980469 1.254336953163
34.248565673828 -73.159820556641 -148.445739746094 1.473970532417
-67.944091796875 -72.954780578613 -148.104110717773 1.550038695335
113.412498474121 -71.650444030762 -143.000488281250 1.343997836113
112.618034362793 -71.541824340820 -156.285095214844 1.553976535797
116.113327026367 -72.778549194336 -149.945297241211 1.626443028450
-38.205589294434 -72.930053710938 -154.029785156250 0.827285826206
-66.082115173340 -73.345703125000 -162.638671875000 1.744343757629
-72.572021484375 -72.808631896973 -156.404190063477 1.366888999939
31.969833374023 -72.864486694336 -149.455978393555 1.806336522102
