-13.761487960815 -73.798492431641 -255.554840087891 0.398552119732
-116.594543457031 -72.726531982422 -257.530670166016 0.979279518127
-114.018211364746 -72.169967651367 -258.497497558594 0.974051356316
-102.676406860352 -72.089736938477 -259.644104003906 0.762391626835
-144.451293945313 -72.312332153320 -264.520507812500 1.119038939476
-145.261138916016 -71.398025512695 -265.890533447266 1.127962827682
-167.476821899414 -72.004432678223 -264.584197998047 2.078558921814
16.842578887939 -74.217475891113 -280.032104492188 1.635788917542
-54.082885742188 -72.063110351563 -286.171295166016 0.916024684906
-65.281692504883 -71.817733764648 -286.271423339844 0.706956207752
-41.656654357910 -73.515945434570 -286.322021484375 1.530062079430
-29.571071624756 -73.895294189453 -285.433288574219 0.802053332329
-96.857826232910 -72.089210510254 -287.073730468750 1.342259168625
-29.044921875000 -71.579589843750 -287.678924560547 1.617886781693
-4.496800899506 -73.458137512207 -287.437530517578 0.770464777946
-167.148193359375 -71.525863647461 -288.909149169922 0.705910027027
-11.180725097656 -73.323318481445 -287.102355957031 0.477103590965
8.169683456421 -73.448928833008 -288.411651611328 0.777995228767
14.708748817444 -74.042251586914 -289.123291015625 0.561032891273
-56.469684600830 -72.128654479980 -291.172821044922 0.951213896275
-29.763269424438 -71.432647705078 -290.897247314453 1.989309191704
14.332776069641 -71.651229858398 -292.164672851563 0.715580940247
-69.375144958496 -72.406188964844 -291.456390380859 0.890791714191
-36.594543457031 -71.976715087891 -291.203430175781 0.884352087975
-17.133657455444 -71.431983947754 -291.241394042969 0.820295691490
16.591516494751 -73.606681823730 -290.427551269531 0.533288598061
-10.280298233032 -72.456047058105 -292.190429687500 1.691165804863
3.457932949066 -71.445167541504 -292.377105712891 0.763642132282
14.290224075317 -72.284278869629 -293.833709716797 0.743179023266
-134.510482788086 -71.100746154785 -294.746063232422 1.249923586845
-144.376861572266 -73.513427734375 -301.305450439453 1.336795449257
-146.906753540039 -73.742156982422 -313.080078125000 0.751486182213
41.436443328857 -72.709213256836 -13.493808746338 1.872586250305
31.806003570557 -72.803916931152 -12.564498901367 0.996203124523
39.038856506348 -72.888610839844 -16.604040145874 2.091111898422
21.638860702515 -72.534248352051 -20.298330307007 1.687119722366
44.978828430176 -72.890159606934 -21.512233734131 2.118725299835
25.550151824951 -73.568054199219 -22.795728683472 1.478578448296
25.088266372681 -73.477806091309 -29.483419418335 1.037231087685
23.012302398682 -73.586647033691 -34.727577209473 1.774136781693
43.977405548096 -72.573524475098 -31.088359832764 1.767582058907
27.834432601929 -73.462692260742 -34.990550994873 1.131636619568
42.864562988281 -72.881156921387 -35.077293395996 2.128349065781
32.413318634033 -73.335670471191 -37.296161651611 1.025976538658
37.033073425293 -73.177253723145 -37.290706634521 1.044547200203
32.326942443848 -73.481147766113 -40.239181518555 1.010620474815
42.201427459717 -72.847869873047 -40.250419616699 1.802318453789
36.605346679688 -73.136299133301 -41.742324829102 1.553724408150
-37.871322631836 -70.054878234863 -49.932060241699 2.271879673004
-30.170038223267 -69.620704650879 -51.887454986572 1.251379489899
-87.085220336914 -68.268203735352 -56.985889434814 1.477410912514
-86.555595397949 -73.547531127930 -64.940261840820 0.427498281002
80.069740295410 -74.199211120605 -70.459785461426 1.402472853661
84.976791381836 -74.564208984375 -72.343124389648 1.435311317444
-16.973712921143 -71.396331787109 -71.682571411133 2.152096986771
-87.788032531738 -75.196098327637 -71.387329101563 1.704728007317
-24.643726348877 -73.320304870605 -77.133819580078 0.783569157124
-49.212184906006 -72.824340820313 -85.721519470215 0.472923159599
66.536941528320 -69.567741394043 -86.142089843750 0.635170757771
54.457542419434 -73.117835998535 -92.396095275879 1.068702697754
100.264892578125 -72.545661926270 -91.352218627930 1.354704022408
70.925819396973 -72.610885620117 -96.159492492676 1.328597307205
-64.766075134277 -75.500221252441 -94.250160217285 0.824093580246
-65.252853393555 -73.888481140137 -96.702857971191 1.326399803162
45.871719360352 -74.686637878418 -97.395698547363 1.599988698959
78.122955322266 -72.960159301758 -102.775856018066 1.201575040817
54.083621978760 -75.729187011719 -104.578231811523 1.577507138252
101.188796997070 -72.680862426758 -98.444892883301 0.990855753422
-95.369255065918 -71.668830871582 -107.133972167969 2.873445987701
38.001762390137 -74.389846801758 -112.588806152344 1.983150005341
107.007759094238 -72.835868835449 -107.325736999512 1.594800829887
47.948066711426 -72.339370727539 -110.898902893066 2.045784473419
103.735908508301 -72.764282226563 -107.750213623047 0.955366015434
-85.959739685059 -73.812103271484 -112.552581787109 0.665235221386
36.933372497559 -74.566452026367 -110.460220336914 0.504568934441
106.114395141602 -73.467193603516 -116.814033508301 2.341337203979
105.333106994629 -71.715797424316 -115.021209716797 1.379938125610
108.636344909668 -73.026313781738 -114.948577880859 2.149147272110
110.168472290039 -73.139572143555 -115.450614929199 1.986905694008
38.639167785645 -71.810127258301 -113.376571655273 1.897483706474
32.121276855469 -74.239921569824 -119.951553344727 0.649352371693
44.249774932861 -72.716964721680 -116.800552368164 0.682143867016
110.027496337891 -72.795578002930 -123.004180908203 1.393478393555
39.123474121094 -72.427337646484 -126.017677307129 2.699571371078
108.555969238281 -73.078117370605 -131.296966552734 0.808935105801
113.051666259766 -72.386810302734 -130.831008911133 1.315674066544
34.115215301514 -72.470634460449 -123.943542480469 0.613465189934
-76.669067382813 -71.134963989258 -129.239929199219 1.235462307930
116.629585266113 -72.958366394043 -135.114517211914 0.743195593357
-56.086017608643 -72.625488281250 -136.534255981445 1.328754425049
37.079696655273 -73.291053771973 -135.810241699219 0.800122380257
-72.372474670410 -72.892471313477 -138.342208862305 0.956292390823
29.601226806641 -72.614311218262 -134.561904907227 0.703374326229
-77.159934997559 -72.261146545410 -141.383529663086 1.788534402847
-44.773979187012 -74.586318969727 -142.091262817383 0.742921829224
-71.262786865234 -70.616798400879 -137.661071777344 1.953359723091
112.260452270508 -72.462348937988 -138.497543334961 1.384734272957
113.454872131348 -72.518028259277 -142.148544311523 0.829954326153
116.958648681641 -74.519714355469 -144.373107910156 1.505854249001
-71.996612548828 -70.298278808594 -144.452728271484 0.441567689180
10.417102813721 -70.589004516602 -151.155471801758 0.712474167347
-53.791477203369 -73.215248107910 -152.015167236328 0.735326945782
-48.757595062256 -72.711341857910 -156.176483154297 0.958814799786
108.699790954590 -72.473190307617 -159.135208129883 0.737877905369
-42.144889831543 -72.670494079590 -151.033203125000 1.025188922882
13.497935295105 -72.583900451660 -156.855102539063 0.531907379627
22.427400588989 -72.860595703125 -158.365234375000 1.162631392479
115.488403320313 -74.145896911621 -163.867782592773 2.181915998459
29.315555572510 -73.275741577148 -163.597198486328 0.258923470974
-0.713541984558 -73.169380187988 -163.240463256836 0.362492740154
32.005775451660 -73.562202453613 -161.855468750000 0.483052223921
-67.673500061035 -70.817687988281 -160.306060791016 0.362347632647
-64.239204406738 -71.488159179688 -159.450668334961 0.610430359840
-67.236267089844 -72.952789306641 -164.876281738281 1.316283583641
115.463821411133 -71.679039001465 -161.002380371094 0.920089900494
-43.959632873535 -72.087234497070 -163.157531738281 0.361377805471
20.461334228516 -73.173377990723 -166.516632080078 0.442091166973
-63.724876403809 -72.717422485352 -169.454574584961 1.832660436630
-60.245319366455 -72.564926147461 -171.328628540039 0.513166725636
-38.178176879883 -71.913627624512 -159.613739013672 0.356192439795
-31.364402770996 -72.111221313477 -170.326690673828 1.062668800354
114.067825317383 -73.324249267578 -171.068298339844 2.233913421631
-36.189331054688 -72.071044921875 -176.805953979492 1.109339237213
16.273996353149 -73.429244995117 -174.651046752930 2.331585884094
111.350578308105 -74.081947326660 -181.630981445313 0.343085110188
-147.941696166992 -73.061325073242 -176.202270507813 0.609225153923
-144.842346191406 -72.754776000977 -176.240951538086 0.843385457993
-151.004364013672 -71.636260986328 -177.559692382813 0.660105824471
-142.588973999023 -71.366180419922 -180.663742065430 1.376649975777
-30.039384841919 -72.251083374023 -186.809219360352 0.421484857798
-22.364828109741 -71.749374389648 -186.480636596680 1.167085289955
23.088188171387 -72.442420959473 -189.333816528320 2.057394981384
-142.212127685547 -71.478736877441 -187.139862060547 0.681197941303
-145.904769897461 -71.954261779785 -188.285598754883 0.701343119144
-19.719434738159 -69.955574035645 -188.400451660156 1.684503555298
13.946948051453 -73.954650878906 -182.690597534180 1.252291321754
-147.588333129883 -72.248596191406 -192.460571289063 0.764912366867
-31.121107101440 -74.284515380859 -186.114349365234 1.947027087212
101.048774719238 -72.382118225098 -188.655715942383 3.279281139374
108.278495788574 -73.784721374512 -190.070724487305 0.807454049587
23.366302490234 -71.273071289063 -193.762695312500 1.165771603584
-17.919282913208 -73.276565551758 -188.835525512695 1.866858839989
-25.896673202515 -73.738471984863 -194.576904296875 1.567130088806
-153.370666503906 -71.058731079102 -195.982864379883 0.767107009888
-131.781433105469 -72.470504760742 -197.188201904297 0.803963124752
-123.933425903320 -71.233772277832 -195.871353149414 1.019002079964
-121.963378906250 -70.517410278320 -198.141799926758 0.668898820877
-22.961194992065 -70.139328002930 -198.186187744141 0.767818570137
10.730010986328 -72.805671691895 -193.314422607422 1.450173139572
94.885848999023 -72.213241577148 -201.316528320313 1.865292549133
-147.584884643555 -70.835411071777 -197.468261718750 1.020589590073
-145.877197265625 -71.224510192871 -198.689895629883 0.650489091873
-149.051544189453 -70.457489013672 -198.858673095703 0.766097068787
-154.654235839844 -70.829040527344 -199.373611450195 1.563625454903
-25.594287872314 -73.208427429199 -199.835205078125 1.006485342979
-13.965574264526 -74.905700683594 -196.561111450195 1.413734436035
-148.190231323242 -71.274742126465 -201.128845214844 0.701662182808
-15.356156349182 -72.062026977539 -199.587356567383 1.292907118797
-162.148422241211 -71.046386718750 -198.867492675781 0.814460754395
-133.484344482422 -72.011581420898 -200.014999389648 0.886103272438
17.319564819336 -71.474945068359 -207.597351074219 0.720716178417
-163.531585693359 -71.132858276367 -203.911239624023 0.847689926624
-145.262969970703 -71.602920532227 -206.324905395508 0.672613918781
10.938213348389 -72.093566894531 -200.725067138672 1.821347355843
-153.237380981445 -70.911193847656 -203.435897827148 1.099107265472
-22.788013458252 -72.954483032227 -200.638275146484 1.025553941727
103.035179138184 -72.386138916016 -200.300476074219 2.566350698471
-155.632659912109 -71.295570373535 -215.656539916992 1.251811861992
-164.308639526367 -71.587654113770 -210.024887084961 0.939665317535
-78.209228515625 -71.335212707520 -211.344253540039 0.474559366703
88.417053222656 -72.274711608887 -210.975036621094 0.509454488754
-3.305047988892 -70.918472290039 -216.518173217773 0.608328938484
-150.869873046875 -71.088737487793 -213.282150268555 1.061657786369
-87.845176696777 -70.866088867188 -215.058135986328 1.472556948662
-7.936744213104 -72.724830627441 -212.303131103516 1.606789350510
15.211776733398 -72.791748046875 -223.162429809570 0.533691287041
-145.804794311523 -72.214317321777 -218.868423461914 0.613146245480
-2.541378974915 -72.651473999023 -221.388717651367 1.522762417793
-21.929500579834 -70.788230895996 -221.494659423828 0.666151523590
-14.320091247559 -70.170402526855 -219.310241699219 1.653984665871
88.638404846191 -72.481544494629 -216.343780517578 0.502700507641
-21.580711364746 -71.600318908691 -218.481048583984 0.482446581125
-28.436347961426 -72.007255554199 -216.179214477539 1.843383073807
-106.858856201172 -71.441848754883 -223.695419311523 0.762340843678
-15.101469039917 -71.566169738770 -222.630844116211 1.665241360664
90.334899902344 -71.277694702148 -219.651351928711 0.949914097786
81.676269531250 -72.366638183594 -219.173812866211 0.485603094101
5.543570995331 -73.033996582031 -220.951232910156 1.182882547379
-10.261852264404 -73.002006530762 -225.620483398438 0.572516143322
78.261054992676 -73.776573181152 -223.201690673828 0.797128558159
-123.523857116699 -71.513458251953 -225.159957885742 0.768286108971
-23.079870223999 -71.389678955078 -222.928405761719 0.513186752796
-99.355354309082 -70.890968322754 -224.405914306641 0.401306748390
-104.944374084473 -71.691619873047 -226.611328125000 0.791417300701
-134.524475097656 -72.496788024902 -227.892440795898 0.879175782204
82.042282104492 -71.730117797852 -224.943740844727 1.333964943886
-123.620246887207 -71.319664001465 -227.344177246094 0.834622085094
5.944434165955 -72.604461669922 -228.407363891602 0.849668085575
80.481758117676 -71.863487243652 -224.614379882813 1.521956086159
-14.124511718750 -72.315261840820 -226.087890625000 0.746813654900
-11.805389404297 -72.438369750977 -231.220535278320 1.279549121857
-4.590000152588 -73.063323974609 -230.207000732422 0.514251530170
8.569790840149 -72.180282592773 -227.335968017578 0.607408106327
86.259300231934 -72.866630554199 -225.203262329102 1.528372168541
11.412256240845 -71.649688720703 -232.501647949219 0.488215744495
3.689661979675 -73.392715454102 -229.417114257813 1.493010282516
-8.611408233643 -72.474754333496 -230.564117431641 0.744557321072
-6.472441196442 -71.666358947754 -233.887161254883 0.524372398853
16.947353363037 -71.476600646973 -232.099533081055 1.347591400146
-11.958736419678 -71.957061767578 -234.313598632813 0.538965225220
71.652091979980 -72.820785522461 -238.578582763672 0.476954251528
-7.743752956390 -70.723152160645 -238.113632202148 0.539232492447
18.816659927368 -73.361206054688 -236.331283569336 1.012123942375
-166.133300781250 -72.000846862793 -241.879013061523 1.071777820587
-4.557413101196 -71.778678894043 -239.562576293945 0.543760478497
-9.094587326050 -70.664093017578 -242.358764648438 0.371343076229
-167.722259521484 -70.534484863281 -251.768371582031 1.303399562836
-10.154180526733 -72.331855773926 -245.653411865234 0.584777474403
17.128929138184 -71.493164062500 -246.977508544922 1.273649692535
-146.346862792969 -73.046386718750 -252.183181762695 1.058927178383
-68.639709472656 -70.155067443848 -248.236511230469 1.575425744057
-60.398437500000 -71.222869873047 -246.982192993164 1.382166147232
54.294075012207 -72.624435424805 -247.284393310547 1.657864809036
-77.025863647461 -71.767738342285 -248.390365600586 1.694266438484
18.606710433960 -73.209007263184 -249.564575195313 1.012150764465
-73.291748046875 -70.337905883789 -252.596313476563 1.378043174744
-14.212380409241 -72.523025512695 -251.395202636719 0.400010436773
-145.569335937500 -72.081710815430 -253.197113037109 1.020555138588
49.070293426514 -72.210891723633 -249.038909912109 0.537221848965
-78.265449523926 -70.551017761230 -254.144729614258 0.831256747246
-101.742012023926 -70.855628967285 -254.881027221680 1.215779066086
-97.425239562988 -72.837913513184 -255.342834472656 0.801509022713
-117.216781616211 -72.588577270508 -255.730636596680 0.561767220497
-105.089859008789 -72.474098205566 -257.183563232422 0.869767308235
-106.787506103516 -72.431350708008 -259.587005615234 0.985548555851
22.732515335083 -73.788665771484 -260.866088867188 0.842244029045
-127.273941040039 -70.755432128906 -265.154357910156 0.846440076828
-11.115200042725 -72.720809936523 -276.920806884766 1.240317106247
-145.614974975586 -71.262504577637 -282.031982421875 0.341575831175
-168.517303466797 -71.443298339844 -283.728668212891 1.316754698753
-124.689537048340 -71.773284912109 -286.320098876953 0.636052787304
-114.091606140137 -70.183708190918 -287.251892089844 1.154878616333
-75.254226684570 -69.286415100098 -287.521392822266 0.919624328613
-56.774368286133 -70.319831848145 -287.031494140625 1.006830334663
-42.942508697510 -71.452354431152 -287.049468994141 0.881607115269
-14.936124801636 -71.436935424805 -288.078826904297 0.680576145649
-13.905090332031 -70.692649841309 -289.464477539063 1.328642368317
-37.648799896240 -70.717964172363 -289.303619384766 1.746692299843
-34.103031158447 -70.903053283691 -289.231750488281 3.189457178116
-18.397600173950 -70.871604919434 -289.510498046875 1.377812862396
-69.301208496094 -70.814399719238 -291.261016845703 0.889185726643
-54.083885192871 -71.152435302734 -290.949493408203 1.620861411095
-15.468664169312 -70.626922607422 -291.325134277344 0.812647819519
-13.477606773376 -71.651679992676 -291.410003662109 0.810561239719
-3.907746076584 -70.654479980469 -291.012634277344 0.775639832020
2.261177062988 -71.183029174805 -291.515289306641 1.300118803978
-89.578163146973 -71.647209167480 -292.172088623047 0.833357512951
-142.322082519531 -70.171257019043 -292.992065429688 0.678760945797
-117.705841064453 -71.888328552246 -292.688964843750 1.763935565948
-153.853118896484 -72.814399719238 -297.241790771484 0.229756742716
-154.473449707031 -70.982490539551 -299.776672363281 1.353671193123
-145.755783081055 -72.272148132324 -299.837860107422 0.585548520088
47.049411773682 -72.685104370117 -19.114564895630 1.754218220711
20.323431015015 -72.393646240234 -23.805755615234 1.472275376320
49.465141296387 -72.676612854004 -27.092132568359 1.645582199097
47.747253417969 -72.760253906250 -34.296649932861 1.894421339035
87.111694335938 -72.592796325684 -67.916015625000 1.088482260704
95.442047119141 -73.034309387207 -73.172019958496 1.096431851387
101.350044250488 -70.915061950684 -80.882926940918 1.075478315353
98.849365234375 -74.082626342773 -82.472656250000 1.065537333488
58.895435333252 -72.929222106934 -88.447921752930 1.189843297005
49.053985595703 -74.005348205566 -94.048934936523 1.272268295288
63.636474609375 -71.343963623047 -90.923194885254 1.528677463531
-64.131393432617 -68.621612548828 -91.987800598145 0.379957228899
69.540191650391 -73.749893188477 -88.999107360840 1.233924388885
102.784301757813 -71.312294006348 -98.056159973145 0.995264351368
75.138511657715 -74.080986022949 -100.012985229492 1.092390656471
96.398933410645 -72.204681396484 -101.432777404785 1.080427169800
-80.388168334961 -72.522590637207 -101.000976562500 0.330860167742
44.398658752441 -72.648399353027 -102.024261474609 1.528337240219
-83.590148925781 -72.195121765137 -106.090759277344 0.314249515533
50.717983245850 -73.916961669922 -111.068580627441 2.173213958740
40.167518615723 -72.314689636230 -104.866981506348 0.718759894371
106.770431518555 -72.143371582031 -103.596519470215 1.640502333641
38.592887878418 -71.233650207520 -108.717025756836 1.375654697418
39.474510192871 -70.971519470215 -115.075134277344 1.271435737610
43.755168914795 -70.670745849609 -113.392852783203 1.181516170502
108.108741760254 -71.691566467285 -114.381729125977 1.063205242157
-82.156555175781 -71.060073852539 -121.083061218262 0.301378220320
111.438949584961 -71.592933654785 -126.681861877441 1.503728508949
37.678401947021 -71.436553955078 -124.176139831543 0.692004024982
41.890071868896 -70.379791259766 -121.152961730957 1.126920223236
36.456760406494 -71.456642150879 -122.941574096680 0.621851742268
-56.642387390137 -72.211639404297 -130.203125000000 0.595564842224
31.344614028931 -71.788024902344 -124.272651672363 0.477996528149
-76.155372619629 -73.169334411621 -137.012283325195 1.615681290627
-55.615325927734 -71.661621093750 -133.274993896484 0.332670599222
-79.189956665039 -70.764175415039 -135.142013549805 1.867718577385
33.841697692871 -71.126266479492 -129.077194213867 0.910553276539
-58.718723297119 -70.564521789551 -134.317687988281 2.147292375565
35.169555664063 -71.159248352051 -134.507720947266 1.451594710350
-72.941688537598 -70.652458190918 -139.923416137695 0.335853010416
-58.917438507080 -73.097015380859 -138.439468383789 1.317378640175
29.230379104614 -71.308662414551 -139.926528930664 0.529639601707
109.409683227539 -73.527610778809 -143.977035522461 0.616517126560
116.125778198242 -70.967094421387 -136.830352783203 2.218373537064
31.535266876221 -70.883232116699 -139.765533447266 0.535791218281
-45.185840606689 -70.286338806152 -141.491882324219 0.333969831467
109.883232116699 -71.464065551758 -151.921615600586 0.768933713436
-73.793586730957 -71.154029846191 -144.564544677734 0.913938462734
-58.570034027100 -71.685615539551 -143.063980102539 1.247941851616
31.576520919800 -72.170539855957 -150.231094360352 1.713488459587
-76.068305969238 -71.339103698730 -146.975997924805 1.200266718864
-70.980300903320 -72.078216552734 -151.479461669922 2.090092658997
116.776992797852 -72.252876281738 -150.524185180664 0.685630738735
-64.762199401855 -72.636795043945 -154.604370117188 2.050575017929
-38.820426940918 -71.487525939941 -153.715316772461 1.691516280174
27.912042617798 -70.403755187988 -148.841964721680 0.340201914310
-74.890258789063 -71.058853149414 -149.845138549805 0.342741847038
12.501743316650 -72.605888366699 -151.847579956055 1.350441336632
31.940200805664 -70.883171081543 -154.955032348633 1.214772701263
30.564531326294 -71.028640747070 -148.026351928711 1.436907649040
11.941169738770 -73.833580017090 -155.511383056641 0.498537272215
-48.351070404053 -70.635787963867 -154.186492919922 0.221913367510
27.783271789551 -70.084190368652 -153.678939819336 0.473845064640
-44.657642364502 -70.810775756836 -149.063262939453 1.128382682800
7.113675117493 -71.805908203125 -154.232543945313 0.226167678833
22.461029052734 -71.309257507324 -150.434173583984 1.782037138939
-71.613975524902 -71.653327941895 -156.053573608398 2.153874158859
-45.352516174316 -69.838066101074 -154.516326904297 0.335171997547
-67.375488281250 -69.980415344238 -157.255676269531 1.605149388313
14.773998260498 -71.011901855469 -158.660537719727 1.351446628571
25.383201599121 -71.086540222168 -150.578323364258 2.547844171524
2.696906089783 -71.255020141602 -161.661636352539 0.400372654200
20.486274719238 -73.020996093750 -156.601135253906 1.333612680435
30.997707366943 -72.510520935059 -164.960128784180 0.696268558502
-47.412109375000 -72.915802001953 -162.185668945313 0.546717047691
-33.831352233887 -71.813331604004 -161.630004882813 0.921110808849
-39.385826110840 -70.714889526367 -160.772750854492 0.349128335714
28.078081130981 -70.990478515625 -161.102355957031 0.233816444874
-43.656429290771 -71.827217102051 -168.123229980469 0.632081747055
-40.524162292480 -70.548690795898 -162.768615722656 2.418726444244
20.660039901733 -71.453552246094 -166.974639892578 1.744767665863
-40.163219451904 -71.409255981445 -173.579650878906 0.375814944506
28.929538726807 -71.360404968262 -170.620605468750 1.335568904877
113.930961608887 -71.303459167480 -167.969940185547 1.325074315071
-32.215465545654 -70.707565307617 -172.133850097656 0.365182280540
107.121757507324 -70.969642639160 -173.402908325195 0.668116748333
-34.531822204590 -70.792549133301 -176.997406005859 0.376067310572
-36.470504760742 -71.925857543945 -180.636138916016 0.956399381161
18.368021011353 -72.823501586914 -175.315048217773 0.594778537750
104.617057800293 -70.925102233887 -182.604995727539 2.728182792664
-28.813840866089 -70.696243286133 -185.100448608398 0.390395581722
-33.701427459717 -70.274414062500 -174.383071899414 1.611497402191
-23.971551895142 -70.607917785645 -186.147155761719 0.763311982155
-148.839813232422 -71.805351257324 -188.117294311523 0.803950548172
15.874909400940 -71.539108276367 -183.768188476563 1.575097441673
106.507186889648 -70.775520324707 -189.664474487305 0.876233994961
-155.754486083984 -70.407905578613 -194.599090576172 0.767345964909
-26.496076583862 -71.204757690430 -192.278045654297 0.410329669714
-115.615074157715 -70.963417053223 -196.654922485352 0.641520380974
-134.013809204102 -71.018684387207 -197.571670532227 0.699812173843
-110.086418151855 -70.060646057129 -199.485244750977 0.635487318039
-111.676200866699 -71.025009155273 -200.611755371094 1.163833618164
-14.340932846069 -70.929580688477 -196.831420898438 0.409308880568
20.547319412231 -72.280342102051 -196.911315917969 0.238243877888
-15.700352668762 -69.538017272949 -201.957702636719 1.181281566620
-124.028305053711 -70.953613281250 -204.770065307617 0.144192218781
-21.654659271240 -69.997070312500 -206.532440185547 1.499894380569
-131.725189208984 -71.956123352051 -203.259124755859 0.986169993877
-13.369263648987 -71.893890380859 -203.353225708008 0.576203644276
-144.301071166992 -70.336257934570 -205.394531250000 0.784848034382
91.848098754883 -70.816368103027 -207.803573608398 2.147902488708
-165.168533325195 -70.735565185547 -202.330368041992 0.848257184029
-4.197464942932 -73.617630004883 -214.065170288086 1.178453326225
10.115679740906 -70.844581604004 -209.599700927734 1.159304141998
10.469817161560 -70.325073242188 -217.039672851563 1.986931204796
83.170608520508 -70.919105529785 -218.398712158203 0.479531645775
6.814721107483 -71.391632080078 -212.963485717773 0.392183035612
14.700988769531 -70.854217529297 -214.703063964844 0.430656492710
-15.936591148376 -73.546936035156 -217.260894775391 1.366248488426
-90.661598205566 -69.826721191406 -217.670043945313 0.835451006889
-97.132324218750 -71.027336120605 -216.718994140625 1.237797498703
-3.997457981110 -69.905509948730 -221.334655761719 0.965237736702
-166.313293457031 -70.730239868164 -223.531585693359 2.017790317535
13.185503959656 -70.892150878906 -222.748992919922 1.019834041595
-144.456207275391 -70.243347167969 -223.532562255859 1.443255424500
11.725995063782 -70.812202453613 -225.495819091797 0.669188797474
-133.573654174805 -70.649238586426 -224.981781005859 0.987569987774
-116.892517089844 -71.270782470703 -225.489990234375 1.103298544884
15.775885581970 -70.316184997559 -222.536041259766 1.291469454765
76.413864135742 -71.028747558594 -225.115264892578 0.465030461550
7.606557846069 -69.757675170898 -223.588638305664 0.902943313122
-111.740516662598 -71.124290466309 -230.323242187500 1.015849113464
76.874443054199 -71.086883544922 -228.955749511719 0.465224474669
81.253692626953 -71.215286254883 -230.190658569336 0.470924854279
-123.339698791504 -70.832931518555 -232.403137207031 0.860141336918
-114.073593139648 -71.256065368652 -231.617019653320 0.835867583752
-11.381208419800 -70.735427856445 -231.303771972656 0.815132677555
71.830673217773 -71.958145141602 -229.317443847656 0.466134548187
64.687614440918 -71.719627380371 -235.395416259766 0.463866829872
75.141082763672 -70.865539550781 -231.874526977539 0.870748698711
-133.282577514648 -69.848693847656 -234.907135009766 0.600542843342
71.833122253418 -71.426940917969 -235.917114257813 0.810920357704
66.844276428223 -70.893264770508 -236.506256103516 1.188448667526
-166.535537719727 -71.001892089844 -229.174926757813 1.206292629242
0.235988005996 -73.444030761719 -239.298202514648 0.541796743870
16.992397308350 -71.237525939941 -240.790832519531 0.505364060402
-5.965696811676 -70.343482971191 -239.689819335938 0.503646433353
13.498031616211 -70.082366943359 -239.867828369141 0.501289963722
64.482864379883 -71.772880554199 -239.465759277344 0.826221406460
11.255459785461 -70.983833312988 -241.652389526367 1.076633810997
-9.928633689880 -67.414634704590 -242.302307128906 0.545991003513
1.466135025024 -69.576751708984 -241.327835083008 0.784570693970
64.998229980469 -71.981338500977 -243.652282714844 0.661650359631
5.659626007080 -72.485420227051 -243.368438720703 1.021146655083
-8.721521377563 -71.455940246582 -243.679779052734 0.568598270416
13.490358352661 -71.128669738770 -245.163238525391 0.957093834877
-167.452026367188 -69.930465698242 -241.430648803711 1.020298361778
58.874290466309 -69.729476928711 -248.103408813477 0.625037193298
51.932765960693 -69.933151245117 -248.024490356445 1.258320569992
55.529216766357 -71.828453063965 -242.926193237305 0.953100025654
-12.149536132813 -71.228157043457 -248.419250488281 1.360607981682
57.310462951660 -72.084671020508 -247.616516113281 0.704520046711
-72.910163879395 -70.098556518555 -248.482452392578 0.319417387247
51.560230255127 -71.396377563477 -250.245391845703 0.492379784584
-90.967201232910 -71.659904479980 -252.155593872070 1.046851634979
-125.718719482422 -71.874954223633 -254.557907104492 0.993665814400
-133.348358154297 -70.021614074707 -254.400497436523 1.016575336456
43.841667175293 -71.480857849121 -253.229705810547 0.881463170052
-135.947357177734 -71.433372497559 -255.982391357422 0.887235581875
-110.673416137695 -71.232894897461 -257.263305664063 0.862533867359
-113.818450927734 -69.120582580566 -257.063354492188 0.611403167248
-82.811584472656 -71.375701904297 -255.495681762695 1.562054991722
-111.961776733398 -71.943618774414 -261.179504394531 1.227946996689
-124.061279296875 -71.902091979980 -262.280303955078 1.053217530251
-145.360809326172 -69.002647399902 -266.243865966797 1.125809431076
-15.592667579651 -70.854385375977 -262.525817871094 0.825181484222
-167.977951049805 -70.164176940918 -263.990875244141 0.781804263592
-14.280006408691 -71.571784973145 -272.361419677734 0.678715527058
-159.865905761719 -69.255073547363 -267.689025878906 1.404912829399
-152.870803833008 -69.281364440918 -275.462707519531 1.432905197144
-168.490097045898 -70.426895141602 -277.462615966797 1.826844930649
-12.846961975098 -69.733512878418 -275.461395263672 1.357484936714
-133.980377197266 -71.359916687012 -284.080352783203 0.587345898151
-160.064437866211 -70.037132263184 -286.237213134766 1.209543943405
-145.656524658203 -70.082107543945 -282.006683349609 0.894163906574
-135.175628662109 -72.961967468262 -284.992736816406 1.201001167297
-8.457025527954 -69.062896728516 -285.539794921875 1.975315809250
-125.661170959473 -73.240158081055 -284.671417236328 1.185554862022
-141.833145141602 -71.091934204102 -285.425476074219 0.946465075016
-116.737312316895 -70.387634277344 -286.359985351563 0.864577651024
-75.928977966309 -70.843292236328 -286.713470458984 0.990868449211
-62.707164764404 -69.572082519531 -287.750762939453 0.993355095387
-5.708059787750 -70.768920898438 -288.599853515625 0.904657423496
-53.091854095459 -70.124084472656 -289.693695068359 0.897908627987
-58.247901916504 -69.607421875000 -289.018493652344 0.938487529755
-69.190681457520 -69.479629516602 -290.773895263672 0.927984535694
-86.824661254883 -71.060646057129 -291.670684814453 1.176799774170
-98.416664123535 -68.134033203125 -291.195770263672 1.440535187721
-162.410797119141 -68.710609436035 -291.459381103516 1.986719369888
-162.853240966797 -71.249679565430 -292.325469970703 1.359310150146
-125.885353088379 -71.484329223633 -295.003662109375 1.389176249504
-145.505493164063 -71.328300476074 -296.246215820313 1.274186253548
-155.968383789063 -71.604591369629 -301.144226074219 1.417647123337
-147.717025756836 -70.186851501465 -313.365417480469 1.075024843216
47.548301696777 -71.135520935059 -18.146858215332 1.058138489723
20.126335144043 -72.898918151855 -27.446765899658 0.897940933704
41.432067871094 -71.878585815430 -34.377044677734 1.055074691772
-16.738910675049 -73.959327697754 -67.343811035156 1.246074080467
82.396842956543 -71.237411499023 -66.029022216797 2.215242147446
85.915367126465 -70.251350402832 -66.623718261719 1.084619998932
76.829002380371 -71.190765380859 -66.816078186035 1.048832654953
74.089904785156 -71.503723144531 -68.856719970703 1.528969407082
91.818794250488 -74.679885864258 -73.789222717285 0.793642818928
-93.447975158691 -70.140724182129 -70.527252197266 1.897581696510
70.865600585938 -72.941009521484 -76.527679443359 0.978486835957
-36.651748657227 -69.677268981934 -77.148849487305 1.173711538315
100.304313659668 -72.379013061523 -87.389183044434 1.627230167389
59.932979583740 -71.603218078613 -90.813156127930 1.441760897636
106.304130554199 -73.161590576172 -96.700248718262 1.111760616302
105.037925720215 -71.613349914551 -98.357620239258 1.003661274910
70.612258911133 -70.838615417480 -99.872207641602 1.544837117195
-77.231971740723 -73.519004821777 -99.580970764160 1.076434969902
54.302791595459 -72.925979614258 -102.124992370605 1.441291332245
105.379913330078 -71.362907409668 -105.493400573730 1.634599447250
48.986766815186 -73.517234802246 -110.254417419434 0.666165590286
80.519622802734 -71.026847839355 -104.617103576660 1.104845881462
42.154098510742 -71.235671997070 -106.940956115723 0.712993264198
107.057502746582 -70.727096557617 -104.110992431641 1.705985665321
47.927093505859 -70.303665161133 -108.165580749512 1.357443332672
109.441184997559 -71.750526428223 -111.793716430664 0.955140411854
109.192893981934 -71.084449768066 -114.289993286133 1.326084375381
-78.148033142090 -70.758003234863 -114.117927551270 0.869978368282
-82.253173828125 -70.938316345215 -117.618759155273 1.688814878464
44.379264831543 -72.805023193359 -121.236129760742 1.253257751465
114.211212158203 -71.876739501953 -119.164566040039 1.733747601509
114.378723144531 -70.062149047852 -124.429893493652 0.626672685146
-84.250030517578 -70.648185729980 -127.595100402832 1.395553708076
107.582618713379 -71.067802429199 -124.125633239746 0.886008739471
-58.720222473145 -72.176689147949 -131.755310058594 1.369940638542
-85.976821899414 -70.667297363281 -126.350021362305 1.316518545151
-75.347938537598 -69.805496215820 -128.066635131836 0.658882379532
-57.459487915039 -68.097351074219 -126.861122131348 0.776648283005
31.106674194336 -70.171333312988 -129.434448242188 2.212787628174
39.528709411621 -72.606559753418 -133.223236083984 1.124925136566
-75.747459411621 -70.475051879883 -137.396774291992 1.908959746361
28.734563827515 -71.093124389648 -133.151962280273 1.888113021851
109.977622985840 -70.976799011230 -140.370437622070 1.374282956123
-43.233806610107 -70.187088012695 -146.426422119141 0.334779649973
25.713260650635 -68.818572998047 -148.130386352539 0.809477031231
115.308700561523 -70.126068115234 -146.130355834961 0.824610888958
34.829544067383 -70.613265991211 -143.787384033203 0.883887350559
111.459846496582 -69.965637207031 -143.342468261719 0.807462155819
-53.224662780762 -71.953025817871 -149.083267211914 1.463546633720
-67.615737915039 -70.210510253906 -150.137100219727 1.367615818977
-51.123046875000 -71.009674072266 -155.254302978516 2.338508129120
-41.095249176025 -70.844833374023 -165.055633544922 2.305991172791
6.705512046814 -69.551010131836 -156.422729492188 0.610244750977
111.594947814941 -69.943092346191 -154.922409057617 0.756192743778
110.006660461426 -70.683471679688 -158.249191284180 1.065800666809
8.653583526611 -69.242607116699 -158.807296752930 1.712992191315
5.528601169586 -72.038864135742 -162.962448120117 0.203935071826
16.055212020874 -72.056892395020 -157.404159545898 0.674409508705
25.147998809814 -70.035865783691 -156.061172485352 1.635910987854
111.170875549316 -69.839546203613 -166.646957397461 0.525617778301
107.490928649902 -71.761985778809 -168.584152221680 0.379266589880
23.843425750732 -69.096534729004 -171.956039428711 0.312863737345
26.354667663574 -70.125022888184 -162.099456787109 0.597788870335
113.485466003418 -70.031913757324 -162.334152221680 1.554298996925
-27.748973846436 -70.109954833984 -174.597015380859 1.413564682007
109.700492858887 -70.121124267578 -168.941955566406 1.264273881912
17.085264205933 -71.179954528809 -172.169342041016 0.413814067841
22.166753768921 -70.121688842773 -165.756301879883 0.428747862577
109.541183471680 -69.989318847656 -173.979873657227 1.353850126266
25.672945022583 -70.076095581055 -171.377563476563 0.425859004259
110.080352783203 -71.300857543945 -182.128356933594 0.604485511780
-37.627746582031 -69.554351806641 -175.002151489258 2.153666973114
27.002712249756 -69.482452392578 -174.210205078125 1.896506190300
107.009742736816 -70.098442077637 -183.045288085938 1.469630360603
24.024368286133 -70.798736572266 -181.387863159180 0.837915003300
-152.659545898438 -69.745651245117 -187.138061523438 0.677197873592
-28.582679748535 -68.755905151367 -188.476715087891 1.252644538879
25.385974884033 -70.114776611328 -184.739562988281 2.556033849716
-110.939743041992 -69.887046813965 -191.227813720703 1.615488290787
-109.130622863770 -69.567695617676 -189.122467041016 0.577128052711
21.987775802612 -70.269371032715 -190.071121215820 0.657525718212
13.206327438354 -70.953063964844 -185.937744140625 0.397910773754
-26.546772003174 -70.247566223145 -189.972152709961 1.078248262405
-30.637020111084 -71.093025207520 -189.264022827148 0.912841320038
-26.425521850586 -70.103477478027 -185.703277587891 0.807997405529
17.935455322266 -70.001945495605 -180.105865478516 2.548863172531
-150.894760131836 -70.037803649902 -193.630264282227 0.742900848389
-143.687072753906 -70.316627502441 -193.810211181641 0.454543292522
-140.932174682617 -70.261886596680 -196.570068359375 0.773057222366
-21.660612106323 -69.674018859863 -191.503662109375 0.828804016113
12.484608650208 -70.019554138184 -199.619018554688 0.893250703812
99.622062683105 -70.725868225098 -195.167449951172 2.399165153503
-113.931655883789 -70.107406616211 -198.281585693359 0.638024389744
21.445114135742 -70.580398559570 -199.622100830078 1.608585000038
-17.796064376831 -69.927017211914 -196.987945556641 0.406574517488
-18.411481857300 -68.816337585449 -199.321517944336 1.514843583107
100.101310729980 -70.185531616211 -199.066513061523 0.554604470730
9.340819358826 -70.017913818359 -201.333572387695 0.977688431740
-21.536056518555 -69.001594543457 -196.323791503906 0.403003990650
-122.491546630859 -71.288497924805 -201.173812866211 0.872293293476
-133.654174804688 -69.393157958984 -203.490066528320 0.734520733356
-113.674018859863 -69.174987792969 -203.250427246094 0.543665111065
-142.042266845703 -70.354957580566 -203.754531860352 0.767892718315
18.757831573486 -69.807800292969 -197.882217407227 1.864110827446
95.726051330566 -69.869300842285 -205.542098999023 0.821413218975
-166.663192749023 -68.396743774414 -203.649002075195 0.722044587135
99.796134948730 -70.797866821289 -203.905303955078 1.870020031929
-18.879495620728 -70.321998596191 -207.573928833008 0.442404329777
94.461936950684 -71.029159545898 -213.229858398438 0.511270940304
87.786933898926 -69.699523925781 -215.331573486328 1.878110885620
14.598183631897 -69.766883850098 -210.724853515625 1.776867151260
18.204141616821 -70.697433471680 -210.908126831055 1.907822012901
11.988269805908 -69.588737487793 -207.528350830078 2.116474628448
-10.877821922302 -70.566223144531 -220.756088256836 1.336947321892
-95.452568054199 -69.351013183594 -216.945129394531 1.123616337776
-7.636601924896 -70.431533813477 -214.371292114258 1.056166529655
90.865173339844 -69.550239562988 -215.108657836914 1.347990632057
-92.236152648926 -69.877014160156 -219.733764648438 1.051309227943
-103.203598022461 -70.258766174316 -220.060089111328 0.622528195381
-91.715408325195 -72.312088012695 -220.457916259766 1.978110194206
86.662208557129 -69.594070434570 -221.782302856445 0.473426878452
-134.516647338867 -69.242813110352 -225.188339233398 0.282400041819
-134.547439575195 -68.698097229004 -225.185211181641 0.468480557203
-117.004531860352 -69.031059265137 -225.146453857422 0.793464362621
-112.759178161621 -68.193801879883 -226.078918457031 0.649424731731
-134.418670654297 -70.253715515137 -226.172821044922 0.863914966583
-109.293624877930 -71.736473083496 -226.499526977539 1.405048131943
-113.793029785156 -70.758552551270 -227.665451049805 0.603911101818
-6.631310939789 -70.307800292969 -226.259918212891 0.979578495026
-17.246601104736 -69.963264465332 -223.591430664063 0.948972105980
-1.332797050476 -69.978614807129 -231.916915893555 1.680820822716
-10.564767837524 -69.289657592773 -227.691390991211 0.495571851730
14.750197410583 -69.999984741211 -233.148986816406 1.116508960724
-16.612451553345 -69.718841552734 -229.036224365234 0.608376443386
-166.933654785156 -68.548484802246 -224.858871459961 1.379965782166
-2.184755086899 -68.582878112793 -233.352859497070 0.497397363186
80.294235229492 -69.837966918945 -230.233383178711 1.795881748199
9.185050964355 -70.403350830078 -234.815048217773 0.700004816055
-6.857375144958 -69.363494873047 -234.265335083008 0.514616072178
-156.606414794922 -68.315101623535 -237.583587646484 1.005031466484
-140.807022094727 -69.282112121582 -233.542877197266 0.477088510990
64.997009277344 -68.878593444824 -235.453765869141 1.477492928505
-5.916079998016 -70.769813537598 -236.106948852539 0.976532280445
6.366030216217 -70.715957641602 -233.731872558594 0.956302881241
69.120239257813 -69.995132446289 -235.620758056641 0.454152226448
76.974685668945 -71.590751647949 -234.524276733398 1.235084891319
69.893768310547 -70.570411682129 -240.378967285156 0.462866991758
-1.150944948196 -70.360260009766 -237.730026245117 0.750746488571
57.043903350830 -70.108551025391 -240.655593872070 0.779479682446
-18.663070678711 -70.424942016602 -239.434005737305 1.508104205132
-16.909215927124 -70.056915283203 -241.826171875000 1.450230598450
8.756303787231 -70.005386352539 -241.293991088867 0.860193371773
65.910926818848 -70.721412658691 -240.576721191406 0.993473231792
62.037422180176 -69.860237121582 -240.080474853516 1.752771139145
50.950008392334 -69.624687194824 -247.463195800781 1.414459586143
61.262462615967 -71.013816833496 -243.667602539063 1.427909135818
-16.091577529907 -70.291091918945 -251.218093872070 0.472680419683
-83.315124511719 -69.489913940430 -250.496505737305 1.049211025238
-76.929496765137 -68.941139221191 -252.050384521484 2.363921880722
44.452110290527 -70.735092163086 -249.748626708984 1.386585593224
-144.934829711914 -69.106933593750 -252.077468872070 0.367529690266
36.950359344482 -70.663703918457 -255.563629150391 1.051584243774
-91.735511779785 -69.543884277344 -252.150222778320 1.899118661880
-154.919631958008 -68.618148803711 -255.837997436523 1.251084685326
-141.326232910156 -69.129035949707 -255.443054199219 0.371151775122
47.978485107422 -70.763977050781 -253.285034179688 0.500275790691
-124.288772583008 -67.113258361816 -256.981292724609 0.661026656628
-115.770317077637 -68.133026123047 -256.693878173828 0.610664308071
-93.758552551270 -68.047401428223 -258.046539306641 1.310480833054
-14.902484893799 -69.890914916992 -254.847213745117 0.689939975739
31.297941207886 -70.082908630371 -259.300994873047 0.541230440140
24.653491973877 -69.149276733398 -260.936676025391 0.360461533070
-157.313964843750 -69.031021118164 -259.327239990234 1.898181319237
-115.276145935059 -71.206954956055 -262.849487304688 0.727319359779
-14.880492210388 -69.171920776367 -262.117767333984 0.658987760544
-134.417816162109 -69.764190673828 -264.889648437500 1.412886500359
-13.729728698730 -68.994560241699 -270.913146972656 0.654965460300
-167.208679199219 -68.445762634277 -274.652557373047 1.255382776260
-9.662341117859 -70.400794982910 -281.767272949219 0.745535075665
-162.652938842773 -68.454780578613 -288.228790283203 1.335610985756
-162.562789916992 -68.125579833984 -277.586120605469 3.544227838516
-143.465988159180 -68.818153381348 -285.614990234375 0.780514836311
-168.067642211914 -69.545722961426 -285.009033203125 1.319310903549
12.973887443542 -69.629356384277 -287.332122802734 0.704385101795
-103.590805053711 -69.571525573730 -287.101348876953 3.189836025238
-86.794174194336 -69.262962341309 -287.254272460938 1.028552651405
-166.720596313477 -68.285896301270 -285.564788818359 2.340411901474
-91.230216979980 -68.219909667969 -287.987976074219 1.526486635208
-150.733871459961 -68.816619873047 -287.725952148438 1.267423272133
-73.244171142578 -68.604171752930 -288.941192626953 1.493486523628
-68.613037109375 -69.142204284668 -289.070526123047 0.973625719547
-81.628639221191 -68.616905212402 -290.770355224609 1.718165159225
-4.475058078766 -66.429801940918 -291.011413574219 0.983092725277
-84.840415954590 -69.395767211914 -291.318115234375 1.963276982307
-99.056060791016 -68.910339355469 -292.128997802734 1.099356293678
-114.113319396973 -69.771705627441 -292.613983154297 1.251411557198
-116.816444396973 -69.135772705078 -292.831542968750 0.833166658878
-134.618377685547 -66.974967956543 -294.009887695313 1.763205885887
-144.049560546875 -70.438072204590 -301.246276855469 0.811143696308
-144.250915527344 -70.525909423828 -311.502838134766 1.380612969398
24.043115615845 -71.989288330078 -17.050634384155 1.095626711845
31.422555923462 -70.672866821289 -18.061075210571 0.298671722412
29.270547866821 -71.884368896484 -19.562562942505 1.158548951149
43.763137817383 -71.937721252441 -22.958873748779 1.909096121788
27.162446975708 -71.901817321777 -32.291080474854 0.842012941837
-74.667121887207 -68.326133728027 -48.254066467285 1.456358432770
90.325225830078 -69.074546813965 -64.749488830566 1.082444310188
-14.798496246338 -71.704711914063 -69.083518981934 0.671277582645
100.527313232422 -68.676933288574 -72.560691833496 1.503088951111
97.498306274414 -72.948814392090 -76.359275817871 1.088220715523
69.272064208984 -72.615921020508 -78.602180480957 0.961775422096
67.831176757813 -71.616180419922 -84.194725036621 0.969824433327
-44.848739624023 -72.361373901367 -83.779220581055 0.818038165569
62.237564086914 -70.231018066406 -84.993835449219 1.074131608009
-95.607681274414 -70.495231628418 -87.665443420410 1.165742754936
-51.389324188232 -69.039413452148 -87.092277526855 0.829473674297
-54.887340545654 -76.185493469238 -91.914382934570 0.242553606629
98.919944763184 -72.562759399414 -96.809547424316 1.063311457634
58.113349914551 -72.301567077637 -95.692398071289 0.831889092922
63.908870697021 -69.919898986816 -92.023780822754 1.891106486320
-97.257881164551 -67.991828918457 -96.802696228027 1.372511506081
107.789741516113 -70.747131347656 -96.908050537109 1.019593000412
46.792869567871 -69.950447082520 -99.179618835449 1.842239737511
100.327201843262 -70.517524719238 -98.593414306641 0.965383827686
106.185165405273 -70.329452514648 -106.109657287598 1.523628950119
103.184059143066 -70.685073852539 -106.725715637207 0.951938986778
73.503479003906 -70.010871887207 -103.948257446289 1.130629658699
88.029190063477 -71.592422485352 -105.241844177246 1.233482599258
49.566753387451 -72.052734375000 -111.991188049316 1.222210407257
110.884796142578 -71.772010803223 -106.434608459473 1.061992406845
44.266033172607 -69.865577697754 -107.841514587402 0.801882326603
43.823276519775 -68.531608581543 -101.556976318359 1.541365146637
111.844169616699 -69.993247985840 -110.932037353516 0.963678121567
-78.900177001953 -69.898040771484 -111.336074829102 1.699687600136
46.993732452393 -70.441711425781 -113.762344360352 0.697482943535
37.231552124023 -70.017738342285 -114.246116638184 0.648258149624
104.780456542969 -69.170509338379 -110.085777282715 0.937219500542
42.491077423096 -68.096565246582 -112.088409423828 1.153514623642
-89.268371582031 -69.083045959473 -115.931465148926 0.853062093258
-96.101921081543 -69.351005554199 -115.979553222656 0.546353816986
107.123863220215 -69.621208190918 -118.728988647461 1.918599486351
-94.511291503906 -71.830253601074 -118.780426025391 0.313803553581
38.292896270752 -69.168251037598 -122.512519836426 0.621095061302
37.664249420166 -69.068695068359 -118.679275512695 1.544276356697
-80.982711791992 -68.866539001465 -125.228385925293 1.218579411507
31.109107971191 -68.895324707031 -136.396865844727 0.362779408693
108.927368164063 -71.315788269043 -131.833969116211 1.054150223732
-51.663990020752 -69.065902709961 -132.966644287109 2.162677288055
-88.659851074219 -69.441635131836 -129.857742309570 1.243494868279
37.473243713379 -70.450744628906 -134.221359252930 2.295603990555
-92.400268554688 -67.357971191406 -135.286895751953 0.938620388508
-90.015243530273 -69.314392089844 -138.230712890625 0.810716986656
-48.820037841797 -72.011009216309 -138.137344360352 0.827768445015
-70.435058593750 -69.281951904297 -140.946029663086 1.697820663452
