-137.459045410156 -83.853958129883 -199.235214233398 1.720237135887
-37.614849090576 -83.160217285156 -196.189834594727 1.262144804001
-144.345062255859 -82.852752685547 -199.785079956055 0.951591491699
-142.639495849609 -82.486572265625 -201.487396240234 1.064535975456
-53.770515441895 -81.960639953613 -199.324813842773 1.481663584709
-150.206634521484 -83.409111022949 -198.838317871094 1.051525235176
-60.163131713867 -83.502128601074 -203.248382568359 1.065256118774
-148.626068115234 -83.479629516602 -202.484664916992 1.292079329491
-63.353759765625 -82.452163696289 -210.042053222656 1.242407441139
15.626419067383 -81.864456176758 -236.911041259766 2.113999605179
12.692683219910 -82.201087951660 -235.479583740234 1.670698523521
-150.022094726563 -83.785339355469 -233.152648925781 1.157922387123
18.848552703857 -81.966171264648 -246.531951904297 0.745007395744
15.983010292053 -82.655090332031 -246.753097534180 0.597116947174
9.777864456177 -83.390258789063 -253.559158325195 1.145083308220
12.583568572998 -81.713706970215 -253.321258544922 0.847103357315
-152.433959960938 -85.123260498047 -256.576049804688 1.163266181946
-136.294586181641 -84.309242248535 -260.994201660156 0.704103052616
14.639584541321 -82.086502075195 -264.370788574219 0.969496488571
-148.125122070313 -85.433410644531 -271.644805908203 0.594974279404
-147.183425903320 -86.361274719238 -276.355163574219 0.890109598637
5.193215847015 -81.618728637695 -276.201690673828 1.399231791496
-145.889984130859 -84.697586059570 -277.787902832031 0.573556005955
-137.233566284180 -85.260154724121 -286.990081787109 0.505676746368
-147.362701416016 -84.755508422852 -287.640045166016 0.590226650238
-150.505004882813 -85.191444396973 -289.724975585938 0.984820306301
-155.576889038086 -81.248756408691 -289.986633300781 1.456409335136
-136.376708984375 -85.330810546875 -290.956756591797 0.584851920605
-151.186065673828 -85.715461730957 -293.430084228516 1.122574567795
-58.578418731689 -80.758651733398 -68.152023315430 1.087845683098
-56.811244964600 -81.766311645508 -71.625823974609 3.252621650696
-42.405258178711 -81.187324523926 -72.050125122070 1.318367719650
-80.447990417480 -82.005508422852 -82.591896057129 0.939980387688
-39.307968139648 -82.575469970703 -81.787200927734 0.833275139332
-43.095741271973 -81.994132995605 -84.452491760254 0.925842344761
-83.308380126953 -85.311408996582 -100.931961059570 1.140034556389
-74.018234252930 -79.141349792480 -101.700653076172 0.848221957684
34.552318572998 -80.448669433594 -125.875755310059 1.594681024551
29.463212966919 -80.288940429688 -143.465728759766 1.309054970741
-11.826965332031 -80.869293212891 -177.455810546875 1.767184615135
-18.043142318726 -81.700302124023 -182.430953979492 1.224849581718
-28.779346466064 -81.732818603516 -183.353973388672 0.556426823139
-38.635257720947 -81.874176025391 -190.174377441406 1.615936398506
-52.457515716553 -81.043296813965 -186.559494018555 0.422619551420
-31.535650253296 -81.653633117676 -192.169357299805 2.066478490829
-144.494934082031 -81.530540466309 -187.642730712891 0.740992784500
-149.617782592773 -82.027008056641 -194.741439819336 0.655368745327
-152.493591308594 -82.495704650879 -199.760406494141 1.185948371887
-149.738616943359 -81.928611755371 -204.244812011719 0.727044463158
-68.924461364746 -82.991065979004 -207.862503051758 0.293170869350
-61.244850158691 -79.292938232422 -208.823074340820 1.716093897820
-147.412277221680 -84.015571594238 -211.167739868164 1.040876626968
-73.931648254395 -82.263534545898 -210.120162963867 1.644963145256
-71.451019287109 -82.450042724609 -211.679794311523 1.929147601128
-78.754554748535 -80.797706604004 -213.202835083008 0.241486608982
-142.768798828125 -82.411293029785 -226.638229370117 0.605073988438
-142.559448242188 -83.658226013184 -231.133697509766 1.182042837143
-150.172271728516 -84.285255432129 -246.991668701172 1.087123036385
15.326201438904 -80.675949096680 -246.227645874023 0.866928160191
6.915216922760 -81.048065185547 -249.056259155273 0.793021738529
-136.123947143555 -83.999725341797 -256.927185058594 0.238325700164
14.682899475098 -82.075958251953 -256.120910644531 0.875314474106
11.774491310120 -83.498344421387 -259.930999755859 1.041643857956
-150.455917358398 -85.062881469727 -263.216583251953 0.583325386047
-151.021423339844 -84.681312561035 -276.755767822266 0.943971753120
-0.439301013947 -82.433677673340 -273.049163818359 0.884912192822
9.727630615234 -80.668632507324 -276.825653076172 0.972766160965
-153.337738037109 -86.284301757813 -287.200134277344 1.423570394516
-146.008743286133 -84.747093200684 -284.236114501953 0.723491907120
-148.613418579102 -86.126594543457 -301.698638916016 1.129772782326
-47.652938842773 -80.886154174805 -70.653350830078 0.808507859707
-69.458541870117 -80.591415405273 -68.623016357422 0.918432831764
-42.779582977295 -79.862472534180 -67.643966674805 0.712855875492
-34.583412170410 -80.966064453125 -75.845130920410 0.398463308811
-76.000572204590 -79.918548583984 -69.846221923828 1.472159028053
-32.088119506836 -80.273391723633 -78.060806274414 0.962802052498
-47.541751861572 -78.231628417969 -85.325279235840 0.973962187767
-56.308723449707 -79.044273376465 -93.135627746582 0.889725148678
-62.769054412842 -84.016639709473 -95.318847656250 0.732863605022
-65.861412048340 -80.891609191895 -99.316719055176 0.842479944229
-87.944107055664 -81.664093017578 -106.319297790527 1.706695556641
43.571765899658 -79.103569030762 -116.198081970215 1.912087440491
37.677135467529 -80.304428100586 -124.936225891113 1.120226740837
-42.753704071045 -80.003295898438 -162.033874511719 0.572815954685
-39.410839080811 -80.469497680664 -162.051437377930 2.177903413773
-7.820964813232 -80.667976379395 -169.748977661133 1.192896366119
-61.755382537842 -80.201530456543 -169.863281250000 0.481206506491
-58.067657470703 -80.649658203125 -177.577484130859 2.026886463165
-58.016231536865 -80.760643005371 -173.786773681641 0.230069160461
-31.868221282959 -80.011032104492 -171.849258422852 1.431888341904
-52.480148315430 -81.156677246094 -180.841781616211 0.446432590485
-25.870506286621 -79.848930358887 -181.369293212891 1.009049892426
-147.151031494141 -82.819328308105 -186.464935302734 1.423413276672
-50.344181060791 -80.992698669434 -182.544128417969 0.540035247803
-42.364578247070 -80.855430603027 -193.233825683594 0.447823524475
-32.154811859131 -80.471672058105 -186.110824584961 0.534208059311
-34.347850799561 -79.512283325195 -189.132858276367 2.354775905609
-31.409191131592 -79.880615234375 -190.972793579102 0.895139336586
-25.396286010742 -80.255836486816 -187.876037597656 0.532928109169
-46.048423767090 -81.232238769531 -195.105102539063 0.203165382147
-144.496383666992 -81.720184326172 -194.995422363281 0.797363698483
-39.521724700928 -79.759315490723 -195.413131713867 0.725603640079
-40.135059356689 -81.202339172363 -197.650650024414 0.813728988171
-43.165744781494 -80.966697692871 -199.220275878906 0.530839383602
-45.611091613770 -79.491935729980 -198.442581176758 0.420177340508
-133.722702026367 -81.426544189453 -199.890792846680 0.704294323921
-136.339904785156 -81.840545654297 -201.509262084961 0.626886546612
-47.296985626221 -82.171829223633 -202.328826904297 0.759926140308
-59.632137298584 -81.148338317871 -202.639450073242 0.325133025646
-37.977859497070 -80.920524597168 -204.211715698242 0.442460358143
-144.789260864258 -82.459289550781 -205.192123413086 0.681935667992
-68.928657531738 -79.998519897461 -206.477523803711 0.666054546833
-33.964641571045 -80.766578674316 -206.777328491211 0.465519219637
13.806591987610 -79.342338562012 -204.621032714844 0.637592315674
-73.918815612793 -81.168426513672 -213.413375854492 0.237868607044
-30.655731201172 -79.834724426270 -212.783248901367 1.166327238083
11.966994285583 -80.185523986816 -216.375137329102 1.430197834969
-150.378890991211 -82.395080566406 -218.268096923828 0.692029118538
11.349235534668 -80.937034606934 -226.168624877930 1.276010513306
13.899630546570 -80.371093750000 -221.247955322266 0.847929954529
15.535946846008 -79.984001159668 -227.422256469727 1.108849883080
-135.086349487305 -83.119743347168 -227.248168945313 0.933287918568
-146.017272949219 -81.099296569824 -229.552734375000 0.269702881575
9.791529655457 -81.164352416992 -236.877700805664 0.701173901558
16.347661972046 -78.983039855957 -236.534500122070 1.788135051727
12.347257614136 -79.938240051270 -235.572219848633 0.777104139328
-150.326339721680 -83.214508056641 -240.664077758789 0.759930551052
-145.265502929688 -83.983001708984 -240.307693481445 0.597633719444
14.855416297913 -80.040306091309 -238.014114379883 0.859123647213
-35.264930725098 -79.723594665527 -243.453857421875 1.313040614128
18.369043350220 -79.953384399414 -246.782058715820 0.895646750927
-40.477611541748 -80.088554382324 -243.405227661133 0.359991937876
-145.664627075195 -83.727432250977 -253.981292724609 0.569900870323
14.993133544922 -79.929031372070 -252.058258056641 1.570748567581
-143.472656250000 -83.786804199219 -256.582489013672 1.141391277313
-150.746292114258 -83.530334472656 -254.027389526367 0.664478838444
18.336938858032 -78.916069030762 -256.369781494141 0.793900907040
-8.705526351929 -78.790237426758 -252.565719604492 0.788663327694
-7.826305866241 -81.794525146484 -260.452331542969 1.019432425499
-146.445892333984 -83.388595581055 -258.540008544922 0.844914793968
-154.976364135742 -79.803649902344 -260.487792968750 0.464207857847
-145.852554321289 -84.283660888672 -263.709777832031 0.303002119064
-151.311904907227 -79.912521362305 -264.878479003906 0.618003726006
-150.855560302734 -84.223075866699 -270.779907226563 0.467481285334
-9.137051582336 -79.959457397461 -266.596221923828 0.843541026115
-2.664815902710 -81.198387145996 -272.332611083984 0.735195100307
13.223808288574 -82.272132873535 -268.638183593750 0.860268115997
8.837922096252 -79.127479553223 -279.410369873047 1.420853018761
5.863233089447 -80.017692565918 -279.974334716797 1.817022681236
-137.036010742188 -79.325523376465 -291.451477050781 1.002681374550
-143.442962646484 -82.261238098145 -291.439392089844 0.605268418789
-61.862110137939 -79.987174987793 -65.281677246094 1.424277663231
-42.664928436279 -78.532638549805 -63.332561492920 1.144078016281
-52.435043334961 -79.767242431641 -65.504165649414 0.401024878025
-47.714565277100 -78.887634277344 -64.348526000977 1.313004493713
-69.735939025879 -79.356018066406 -65.005249023438 2.137092590332
-80.249626159668 -79.856857299805 -73.270988464355 1.455151915550
-32.146991729736 -78.750755310059 -79.638839721680 1.283473730087
-41.076553344727 -79.492240905762 -84.711471557617 1.055768489838
-49.312263488770 -80.293495178223 -87.569374084473 0.914675533772
-87.475227355957 -79.882949829102 -87.065254211426 1.931666731834
-78.675033569336 -80.878669738770 -104.050819396973 0.829041182995
42.315963745117 -78.966590881348 -108.198631286621 1.859183549881
-85.979888916016 -80.488479614258 -109.947975158691 2.026795387268
39.643901824951 -80.100784301758 -117.293090820313 1.346441149712
39.868087768555 -79.321495056152 -125.149650573730 1.191533923149
34.162635803223 -79.101829528809 -119.785575866699 2.299506425858
31.412397384644 -78.825210571289 -124.908149719238 1.069563746452
34.935146331787 -79.370368957520 -136.268692016602 1.878110766411
24.929319381714 -78.199783325195 -144.319915771484 1.045673727989
-47.032413482666 -79.796379089355 -151.365585327148 1.580677866936
31.646854400635 -79.377166748047 -146.440719604492 1.022765994072
24.229557037354 -79.152542114258 -157.906204223633 1.263910889626
-45.798801422119 -79.922096252441 -154.606781005859 0.595436394215
27.962907791138 -79.580566406250 -155.327438354492 0.775322318077
-44.949962615967 -78.238319396973 -163.502716064453 0.891555964947
25.402435302734 -79.311416625977 -165.866516113281 0.950137972832
-59.365943908691 -80.043472290039 -169.217102050781 1.547229170799
-8.855125427246 -81.226783752441 -173.435821533203 0.962617874146
-36.082328796387 -79.888877868652 -173.041976928711 1.793705105782
-16.448963165283 -81.419807434082 -174.957168579102 0.908155918121
-55.153709411621 -79.929260253906 -174.498748779297 0.475373089314
21.712402343750 -78.977256774902 -172.456817626953 0.880349040031
-15.073919296265 -79.778244018555 -180.391571044922 1.337870359421
-22.762304306030 -79.571647644043 -185.660354614258 1.032616734505
-55.108280181885 -79.449630737305 -185.490966796875 2.741528034210
-29.281063079834 -80.004890441895 -184.078033447266 0.908010780811
19.314085006714 -78.285461425781 -187.748077392578 1.102697134018
-149.725906372070 -81.703392028809 -188.009521484375 0.920374572277
-27.566608428955 -79.823501586914 -188.656967163086 0.560170829296
-47.639820098877 -78.992660522461 -189.853210449219 1.284907698631
-150.436462402344 -83.134307861328 -195.790206909180 1.243666768074
-142.530090332031 -82.787956237793 -197.318023681641 0.716852307320
-22.466613769531 -79.779319763184 -196.051239013672 1.192303895950
-19.132946014404 -79.767425537109 -195.962783813477 0.573568582535
-46.626300811768 -79.755302429199 -197.004852294922 0.393193244934
-23.009628295898 -78.720199584961 -198.362289428711 2.176365613937
-49.188228607178 -79.658340454102 -201.759353637695 0.288308709860
-44.525028228760 -79.242828369141 -200.163589477539 0.422196477652
-56.621978759766 -79.341064453125 -202.304138183594 0.550637185574
-19.142751693726 -78.215721130371 -205.175170898438 1.163861870766
-149.637405395508 -82.941093444824 -210.775711059570 1.020418882370
-59.892787933350 -78.511856079102 -205.872039794922 0.564084768295
-55.759315490723 -79.604583740234 -205.939743041992 1.225587964058
-31.927806854248 -78.791687011719 -204.624679565430 1.478735446930
-16.205850601196 -79.455764770508 -204.373428344727 1.603240609169
-38.297737121582 -79.829544067383 -206.114639282227 0.441251903772
-78.847137451172 -80.411163330078 -210.953018188477 1.090208053589
-144.780929565430 -82.609382629395 -210.894821166992 0.554694592953
-32.340660095215 -80.270713806152 -206.427200317383 1.680683732033
9.751784324646 -78.958030700684 -209.505035400391 1.211745738983
-62.901092529297 -80.575508117676 -210.123413085938 1.549716234207
-69.821243286133 -80.953544616699 -212.484771728516 0.806153178215
-26.237586975098 -79.389053344727 -214.763168334961 0.915646433830
-11.628215789795 -79.590919494629 -210.418624877930 1.503845810890
-24.605016708374 -78.514663696289 -219.435195922852 0.633360028267
15.420628547668 -79.246818542480 -216.955657958984 0.855581521988
-150.362609863281 -82.691574096680 -224.445648193359 0.622153997421
-9.347245216370 -79.675262451172 -218.294235229492 2.255721807480
-153.094467163086 -82.987541198730 -228.128677368164 0.680788874626
8.945475578308 -80.191192626953 -228.693161010742 0.804293870926
12.822634696960 -79.053665161133 -227.278793334961 1.921058058739
-4.740272998810 -79.850646972656 -223.145263671875 1.047774672508
17.314964294434 -78.320350646973 -226.220092773438 0.882376670837
-135.248306274414 -82.308166503906 -231.173370361328 1.000219464302
9.912572860718 -78.235160827637 -224.623214721680 0.694399595261
-153.045394897461 -82.287536621094 -231.032501220703 0.521353840828
-145.351043701172 -83.573310852051 -233.486083984375 0.457653492689
-2.989351987839 -79.822799682617 -222.286270141602 1.336713194847
18.917934417725 -78.378593444824 -234.488616943359 2.019201755524
-32.086307525635 -79.902641296387 -239.817352294922 1.532041668892
-145.155654907227 -79.416885375977 -240.683486938477 0.597311615944
-39.523189544678 -79.997367858887 -240.849716186523 0.998588621616
-45.423873901367 -79.651275634766 -241.995132446289 1.697054266930
-28.508440017700 -79.749664306641 -241.195663452148 0.475343734026
19.949836730957 -79.721755981445 -241.274566650391 1.366973161697
-49.084007263184 -79.595344543457 -244.049255371094 1.292956829071
12.328603744507 -79.914047241211 -245.774047851563 1.134350895882
8.360443115234 -79.019111633301 -240.606628417969 0.803970813751
10.712438583374 -80.994209289551 -246.061203002930 0.610630750656
-44.424171447754 -79.200920104980 -245.424713134766 1.299325346947
21.685953140259 -79.733390808105 -246.912414550781 0.925810396671
-145.461074829102 -79.980850219727 -248.808639526367 0.585196912289
20.343944549561 -78.294105529785 -246.916595458984 0.915744483471
1.541082978249 -81.514251708984 -250.072570800781 1.628944993019
11.426209449768 -79.139175415039 -248.414031982422 1.858005404472
-151.279693603516 -79.432388305664 -253.285232543945 0.630546391010
-147.991683959961 -83.844520568848 -260.856201171875 0.793557822704
-142.728256225586 -80.895828247070 -261.466918945313 0.544918715954
-153.447937011719 -80.418510437012 -263.215545654297 0.639235794544
18.385486602783 -78.401641845703 -266.861938476563 0.761862158775
-151.191558837891 -80.180892944336 -270.563018798828 0.613169729710
-4.995951175690 -79.680473327637 -274.964569091797 0.718732655048
-149.296081542969 -79.266319274902 -275.610748291016 0.592321991920
-145.940307617188 -80.383522033691 -276.769012451172 0.774297833443
-151.358261108398 -80.244735717773 -277.331146240234 0.525387287140
-155.092651367188 -80.675132751465 -286.399902343750 0.645398259163
-135.309402465820 -80.371406555176 -288.254821777344 0.903693854809
-150.572631835938 -81.825775146484 -288.051635742188 0.609461724758
-147.433364868164 -84.454185485840 -290.112365722656 0.591518938541
-146.456436157227 -81.863853454590 -294.776580810547 0.464787900448
-151.946792602539 -80.727500915527 -294.916381835938 0.404368966818
-147.484481811523 -79.367721557617 -295.350067138672 0.579410135746
-152.190994262695 -80.661994934082 -300.120300292969 0.273234397173
-146.668670654297 -81.151931762695 -300.784301757813 0.583248853683
-149.770629882813 -80.698577880859 -302.055999755859 0.608650326729
-56.863632202148 -77.919532775879 -59.243335723877 0.968067288399
-62.862651824951 -78.482681274414 -61.069267272949 2.490887403488
-49.114540100098 -78.271598815918 -61.293888092041 2.645722627640
-29.388998031616 -78.660552978516 -71.842247009277 0.611226797104
-53.135841369629 -80.241279602051 -91.685882568359 1.191651582718
-87.634338378906 -82.247161865234 -101.234359741211 0.878784835339
47.606704711914 -78.306060791016 -105.058906555176 0.909602224827
-80.632171630859 -82.521400451660 -106.124069213867 0.441653251648
39.022956848145 -79.184318542480 -112.454772949219 1.033596158028
38.104953765869 -78.117820739746 -118.284751892090 1.883075714111
37.511421203613 -78.145378112793 -125.229583740234 1.471468091011
37.687278747559 -77.541542053223 -134.116806030273 1.792919397354
30.903381347656 -78.324432373047 -135.115722656250 2.205296993256
33.449577331543 -78.202194213867 -136.053543090820 2.286823034286
28.609125137329 -78.139404296875 -148.707107543945 1.331050753593
-44.791557312012 -78.904815673828 -148.518493652344 1.125990629196
27.110382080078 -79.407585144043 -141.099929809570 0.948906242847
-67.384078979492 -77.534278869629 -154.032409667969 0.754652261734
-40.674850463867 -79.827720642090 -155.586380004883 0.523691117764
-63.514297485352 -79.626113891602 -164.726364135742 1.772555589676
-42.116977691650 -78.446472167969 -158.646942138672 1.055045127869
28.869392395020 -77.414443969727 -155.221328735352 1.105686068535
-35.701797485352 -79.889770507813 -163.495971679688 2.149251699448
-4.877304077148 -80.037307739258 -168.407012939453 1.381807804108
29.584400177002 -78.354560852051 -159.944244384766 1.322686672211
-8.906479835510 -78.962097167969 -168.464447021484 0.759042441845
-61.349090576172 -79.102691650391 -164.473800659180 1.728154778481
-35.249679565430 -78.206382751465 -168.394790649414 0.592461287975
-29.363611221313 -78.550575256348 -171.516769409180 1.617007613182
25.065382003784 -78.556221008301 -173.356353759766 1.548775196075
-55.588020324707 -78.536308288574 -177.647567749023 2.172435045242
-32.173912048340 -78.434082031250 -175.668457031250 3.375818014145
22.345319747925 -78.699340820313 -179.157104492188 1.010067939758
-50.216209411621 -78.630989074707 -184.487014770508 0.860450029373
-26.580890655518 -78.014175415039 -185.634979248047 0.729856312275
-53.532173156738 -78.667716979980 -182.916458129883 0.870060265064
-41.010749816895 -79.736885070801 -193.796569824219 0.556817352772
-30.314498901367 -78.384925842285 -187.604965209961 1.110503673553
-44.169284820557 -78.698760986328 -196.108963012695 1.796902894974
-24.401731491089 -78.501022338867 -190.236450195313 0.584636688232
-135.548248291016 -81.915214538574 -197.342788696289 0.716316044331
16.880868911743 -78.631637573242 -197.750213623047 0.892262220383
-134.006439208984 -77.341461181641 -198.950912475586 0.631705164909
-22.969518661499 -77.617256164551 -195.648422241211 0.913783669472
-19.402221679688 -77.604232788086 -196.650054931641 0.609791517258
-41.134075164795 -78.690689086914 -196.895385742188 1.679827928543
16.493925094604 -78.382484436035 -191.341720581055 2.244597434998
-15.811499595642 -78.559013366699 -197.598129272461 0.708993136883
-61.881755828857 -79.298011779785 -204.443786621094 0.642637252808
-35.669235229492 -78.358276367188 -204.872100830078 1.648750901222
-67.323440551758 -77.714530944824 -207.335769653320 0.304417103529
-69.669372558594 -76.718582153320 -209.628372192383 0.256518989801
16.856792449951 -78.118446350098 -208.130554199219 0.736180901527
-84.544891357422 -79.173095703125 -214.230850219727 0.739984214306
-30.238210678101 -78.427131652832 -215.452804565430 0.892754137516
-79.737937927246 -79.803108215332 -214.932739257813 1.157577633858
-145.260452270508 -83.151512145996 -217.653030395508 0.635193586349
-8.244020462036 -77.627456665039 -215.777954101563 0.838029325008
-12.267762184143 -78.579605102539 -217.233032226563 1.492823004723
12.228524208069 -77.967506408691 -214.699066162109 0.472731769085
13.087963104248 -78.283500671387 -220.121383666992 0.604956150055
-3.146027088165 -78.604187011719 -230.423995971680 1.067128419876
-134.627822875977 -78.183151245117 -227.885360717773 0.537868857384
-148.483383178711 -83.226638793945 -230.984848022461 0.764038085938
-147.655731201172 -79.935104370117 -231.266326904297 0.639336526394
9.259937286377 -77.903541564941 -233.256301879883 1.305288553238
0.711199998856 -78.600700378418 -234.794677734375 0.735427439213
-23.692815780640 -78.781448364258 -239.346572875977 0.645312726498
-150.591033935547 -78.751213073730 -240.659027099609 0.645883083344
10.992781639099 -78.001838684082 -244.631683349609 1.369366168976
-24.183181762695 -78.153182983398 -242.002914428711 0.582027435303
18.345735549927 -76.828430175781 -238.675704956055 0.896335363388
-55.280941009521 -78.496986389160 -244.235565185547 0.894608318806
-51.131183624268 -78.704986572266 -246.680328369141 0.796880483627
-146.030563354492 -83.905441284180 -246.555267333984 0.455059945583
-64.084030151367 -77.654548645020 -246.781372070313 0.992619931698
-4.415102005005 -76.163093566895 -246.497848510742 0.697350859642
-10.211694717407 -79.038223266602 -257.692871093750 0.648791790009
-148.015380859375 -83.815780639648 -256.894744873047 0.752112746239
-134.871093750000 -79.562110900879 -258.259979248047 0.661534309387
-136.553176879883 -78.319900512695 -261.458221435547 0.904614508152
19.470064163208 -78.340568542480 -261.219146728516 0.999169290066
-145.821990966797 -80.624435424805 -271.250091552734 1.126849532127
17.454883575439 -79.310211181641 -269.380004882813 0.670413970947
-149.602386474609 -79.173355102539 -272.206970214844 0.672851383686
1.970355033875 -80.974784851074 -277.374450683594 1.089738488197
-146.061553955078 -80.941864013672 -282.933685302734 0.566493093967
4.369752883911 -78.079666137695 -283.156097412109 0.816594481468
-151.444229125977 -80.532211303711 -282.472503662109 0.775041043758
-142.592834472656 -79.339317321777 -286.571350097656 0.791061103344
-138.172683715820 -79.007499694824 -286.882537841797 0.768620729446
-148.569458007813 -85.922409057617 -290.909576416016 0.753146767616
-19.122936248779 -77.704528808594 -289.219146728516 0.706078469753
-154.410598754883 -81.309944152832 -292.496215820313 0.643026709557
-150.290374755859 -79.319320678711 -295.418151855469 0.603248834610
-148.952346801758 -79.258087158203 -311.585510253906 0.638663470745
-58.533275604248 -77.409751892090 -57.537368774414 1.227807402611
-40.131065368652 -77.309867858887 -61.166358947754 1.183232426643
-77.539093017578 -77.785537719727 -63.768447875977 1.755867958069
-28.161205291748 -77.198913574219 -68.248680114746 0.903685450554
-25.954793930054 -77.820846557617 -72.964218139648 1.293118119240
-85.293266296387 -79.889167785645 -81.675682067871 2.168091773987
87.739891052246 -76.427162170410 -84.117340087891 1.755206942558
-38.230445861816 -77.737548828125 -82.437828063965 2.746150493622
80.759452819824 -76.934234619141 -84.561569213867 1.591414451599
75.209442138672 -75.905326843262 -86.564544677734 1.155198574066
84.397666931152 -76.376098632813 -89.401702880859 1.610069632530
79.933013916016 -76.667526245117 -91.173797607422 1.188421726227
91.034652709961 -76.147277832031 -90.745880126953 1.657670855522
-92.870674133301 -76.466995239258 -95.645980834961 2.042426347733
50.463554382324 -76.956031799316 -104.667518615723 1.244907855988
-90.948066711426 -76.599136352539 -115.193794250488 0.986282467842
40.636802673340 -77.223449707031 -111.183013916016 1.242152094841
47.918838500977 -76.118400573730 -112.806365966797 1.323097109795
42.555770874023 -77.775360107422 -115.036933898926 0.778775811195
29.989683151245 -77.197921752930 -132.360595703125 1.115050315857
25.635538101196 -77.756538391113 -139.268722534180 1.116340398788
22.725458145142 -74.069183349609 -144.223022460938 0.936896085739
31.964942932129 -77.155639648438 -144.331207275391 1.102294087410
-49.674457550049 -78.552398681641 -153.329895019531 0.976663470268
-46.221618652344 -77.871177673340 -150.807632446289 1.077625632286
-42.331874847412 -77.861419677734 -154.232742309570 0.623578906059
26.427785873413 -77.567596435547 -149.645172119141 1.366576313972
23.489826202393 -77.242080688477 -166.783630371094 2.624224662781
-34.958469390869 -77.598564147949 -165.696197509766 1.538508296013
-35.373744964600 -77.975234985352 -160.072601318359 0.626101553440
-45.751251220703 -77.906471252441 -156.745727539063 0.600384771824
2.620789051056 -77.284355163574 -163.748062133789 1.036090493202
22.801193237305 -78.036270141602 -155.033386230469 2.115154743195
30.575035095215 -77.018386840820 -160.995178222656 1.514283299446
26.574733734131 -76.540763854980 -167.654815673828 2.351715087891
-11.068831443787 -77.569595336914 -169.904174804688 1.705972671509
-0.862700998783 -76.594306945801 -168.949798583984 1.303566813469
-57.280338287354 -78.525054931641 -169.554992675781 0.665992438793
-60.999778747559 -77.679061889648 -168.798416137695 1.258104085922
-40.013919830322 -78.563232421875 -170.701843261719 1.351499557495
-39.797145843506 -77.742332458496 -166.975448608398 0.633589625359
22.956930160522 -77.074127197266 -173.437347412109 2.558511495590
-20.294992446899 -79.496780395508 -176.908813476563 0.988272547722
-34.608421325684 -78.541862487793 -179.341629028320 1.377629160881
-60.187622070313 -78.329635620117 -178.417343139648 1.047306180000
105.045883178711 -76.189300537109 -180.533340454102 0.856097519398
20.037364959717 -78.155326843262 -170.593673706055 2.231913089752
-27.301259994507 -77.744285583496 -179.880035400391 2.345147132874
-49.764278411865 -76.830101013184 -181.425216674805 0.943164348602
-18.308744430542 -77.058708190918 -179.207550048828 0.663103222847
108.530227661133 -76.291465759277 -176.722030639648 1.459131240845
-49.790546417236 -79.082649230957 -181.273574829102 0.646030068398
16.777692794800 -77.661026000977 -184.087768554688 0.911570966244
25.171571731567 -77.148117065430 -179.569793701172 0.987445473671
-56.250553131104 -77.758308410645 -179.687896728516 0.463826835155
-22.762748718262 -77.421226501465 -181.225708007813 0.631714046001
-56.222553253174 -77.680976867676 -175.338165283203 0.926099240780
-35.522663116455 -75.777351379395 -181.613433837891 2.150706529617
-28.910600662231 -77.449447631836 -186.242889404297 1.924977540970
22.414648056030 -77.342155456543 -186.304595947266 0.955435454845
-51.469032287598 -77.463737487793 -186.761657714844 1.026811361313
104.367790222168 -76.376960754395 -188.755676269531 1.655613660812
-52.599834442139 -76.758605957031 -189.923751831055 0.437666326761
10.820249557495 -77.545471191406 -199.927993774414 1.652977824211
18.992624282837 -77.354850769043 -199.512680053711 1.363425254822
-47.625682830811 -76.790084838867 -190.083786010742 0.458305895329
-21.879980087280 -77.785316467285 -189.675491333008 1.426197767258
103.036392211914 -75.956359863281 -194.968109130859 1.644014596939
101.096138000488 -76.446052551270 -195.805587768555 1.642182469368
-46.699096679688 -77.499740600586 -189.507278442383 1.114246129990
-147.341354370117 -81.854660034180 -197.275650024414 0.640464782715
-46.203079223633 -77.900863647461 -198.490875244141 0.426765561104
-145.606353759766 -80.385551452637 -199.083251953125 0.615461826324
-137.163528442383 -77.718147277832 -202.053527832031 0.643352031708
-43.225601196289 -77.252098083496 -198.211013793945 1.808461785316
11.353086471558 -77.278320312500 -208.342987060547 0.901977539063
-17.199209213257 -77.402946472168 -203.585876464844 0.613841891289
15.186596870422 -76.871894836426 -201.971862792969 1.616384863853
92.202339172363 -76.065811157227 -207.761932373047 1.685371398926
-38.035453796387 -77.384963989258 -200.434097290039 1.166757941246
-10.201045989990 -78.294799804688 -207.694808959961 1.647590517998
-11.525324821472 -77.481994628906 -210.145370483398 1.274221658707
-38.053504943848 -78.368202209473 -207.960052490234 1.868034839630
10.888528823853 -76.296646118164 -204.889953613281 0.843604683876
-75.459297180176 -75.725769042969 -209.573989868164 0.750735223293
14.816327095032 -77.030944824219 -211.718093872070 0.868999361992
-35.761924743652 -77.476165771484 -206.808212280273 0.468771129847
-144.725936889648 -78.386314392090 -210.365127563477 0.674303054810
-145.946090698242 -76.065361022949 -212.087005615234 0.849704027176
-86.509445190430 -77.963516235352 -213.101623535156 0.686386644840
-35.846912384033 -76.634910583496 -211.112289428711 2.062073230743
-24.906639099121 -78.438224792480 -212.703994750977 1.623264193535
-29.412595748901 -77.365257263184 -212.277557373047 0.477324604988
-92.276885986328 -76.887809753418 -216.844085693359 0.777855515480
-88.755165100098 -77.787101745605 -216.223724365234 0.979975759983
9.225405693054 -77.241058349609 -220.179794311523 1.858020067215
-150.524215698242 -78.182510375977 -216.668991088867 0.857389628887
-12.432497978210 -77.444709777832 -213.155609130859 0.637581825256
7.981403827667 -78.798728942871 -217.199066162109 1.898432016373
-145.281082153320 -78.213272094727 -217.950042724609 0.656278669834
-20.098224639893 -78.171386718750 -219.402923583984 0.505538702011
-3.779131889343 -77.907279968262 -221.725708007813 0.826413571835
-3.464158058167 -78.455085754395 -218.222763061523 1.814616560936
-152.712326049805 -78.845962524414 -224.770858764648 0.700285792351
-137.571365356445 -77.906410217285 -226.808441162109 0.566339552402
-7.186507225037 -77.631576538086 -221.572753906250 0.528367519379
-149.467819213867 -82.774879455566 -228.438034057617 0.763970196247
1.517457008362 -76.558616638184 -230.242996215820 1.456301927567
16.368207931519 -77.540122985840 -231.806137084961 1.782493591309
-0.519541978836 -76.822219848633 -232.961868286133 3.000870943069
1.110525012016 -76.298866271973 -236.032135009766 0.805569946766
7.009664058685 -78.452491760254 -231.341583251953 1.801755189896
-150.670440673828 -78.564193725586 -235.385223388672 0.657712459564
-19.661268234253 -77.053390502930 -237.890365600586 0.559833347797
-35.295070648193 -78.323768615723 -239.016159057617 1.951438188553
5.873745918274 -75.791625976563 -231.387451171875 0.957451820374
-0.838292002678 -77.471199035645 -236.436859130859 0.724342346191
3.930879116058 -77.831932067871 -234.699539184570 0.897312164307
-53.944103240967 -76.655715942383 -242.631286621094 0.526953101158
-149.346054077148 -78.486778259277 -246.023422241211 1.065310835838
-151.233657836914 -79.916252136230 -248.254806518555 1.361920952797
9.020426750183 -78.136085510254 -245.901123046875 0.625576198101
21.096603393555 -76.917160034180 -247.735260009766 1.288536906242
-59.978584289551 -77.614486694336 -248.337295532227 1.161027908325
-145.460983276367 -79.897224426270 -253.061218261719 0.446678012609
-153.203872680664 -80.005439758301 -254.527740478516 0.646388232708
-149.749618530273 -83.975929260254 -257.923461914063 0.863411724567
-141.961959838867 -77.869361877441 -260.895599365234 0.517459571362
-137.067382812500 -77.870323181152 -256.842864990234 0.947776615620
-12.264104843140 -77.417350769043 -256.453430175781 0.630986094475
-143.808471679688 -79.862632751465 -263.748779296875 0.639656662941
-11.516947746277 -78.302513122559 -262.905670166016 2.230363130569
-147.270324707031 -78.717140197754 -276.819152832031 0.572825312614
-147.063781738281 -79.138824462891 -282.590362548828 0.570939302444
-150.611419677734 -78.991470336914 -282.329895019531 0.601922571659
-3.360394001007 -75.176856994629 -284.134979248047 1.287738919258
-142.442062377930 -75.584114074707 -286.673553466797 0.221822664142
-31.601003646851 -76.801803588867 -286.694702148438 0.493403792381
-32.308231353760 -77.461418151855 -287.836822509766 1.065525531769
-17.450788497925 -77.202262878418 -288.176025390625 0.632634639740
-9.577095031738 -76.909233093262 -287.416961669922 1.071759223938
14.867497444153 -77.884986877441 -291.088470458984 0.633005738258
-125.457756042480 -77.764144897461 -289.175598144531 0.539615511894
-56.271446228027 -77.008651733398 -288.682434082031 1.852577090263
-38.412715911865 -77.394775390625 -288.694183349609 0.731646299362
-31.555406570435 -77.847602844238 -289.337646484375 0.522111296654
-9.558359146118 -77.065673828125 -289.510345458984 1.822960257530
4.805644989014 -76.773635864258 -288.437957763672 1.582394719124
-143.664611816406 -80.943687438965 -292.926513671875 0.550287842751
8.623611450195 -77.243499755859 -290.186981201172 1.002603769302
-151.254653930664 -78.521469116211 -300.848144531250 0.612612485886
-149.068328857422 -79.230339050293 -301.266571044922 0.401019722223
-152.259902954102 -78.757865905762 -310.915527343750 0.763712584972
-146.382095336914 -78.477577209473 -311.263641357422 0.556245744228
-50.657600402832 -75.953216552734 -55.652832031250 1.470602989197
-57.676959991455 -76.613998413086 -56.179748535156 0.604044079781
-64.324584960938 -76.425773620605 -56.094093322754 0.569810092449
-44.086967468262 -76.873954772949 -58.423049926758 0.678468704224
-38.326091766357 -76.111152648926 -58.979942321777 0.339768499136
-23.237134933472 -75.704444885254 -67.147583007813 0.859575152397
-83.619377136230 -77.077796936035 -68.036247253418 1.059502959251
80.990783691406 -75.992370605469 -77.543472290039 1.614229321480
-89.978477478027 -77.066772460938 -82.285629272461 0.978837668896
82.823524475098 -76.606414794922 -81.226448059082 1.265195727348
84.589675903320 -75.942703247070 -82.561233520508 1.671709775925
92.121955871582 -75.109840393066 -84.893974304199 1.620064973831
-59.307315826416 -81.025573730469 -94.591880798340 1.808917045593
82.965545654297 -74.732475280762 -93.481025695801 1.598865628242
78.690017700195 -75.703529357910 -92.202217102051 1.107614159584
86.589782714844 -76.795600891113 -89.376846313477 1.448029994965
-63.965049743652 -80.406173706055 -97.188407897949 0.856925189495
52.685176849365 -75.918533325195 -96.343246459961 1.469823598862
45.420192718506 -76.769332885742 -105.975311279297 1.461554527283
41.315242767334 -76.730102539063 -104.430206298828 1.267352819443
38.068161010742 -76.338218688965 -108.154159545898 0.948422908783
-91.383712768555 -77.510490417480 -112.455909729004 0.726902782917
36.070327758789 -76.708152770996 -116.815086364746 2.024174213409
-85.154724121094 -78.363708496094 -110.746185302734 0.822397828102
42.804077148438 -77.999870300293 -121.963699340820 2.582736015320
34.264106750488 -77.088104248047 -121.985595703125 1.171273231506
33.143817901611 -75.263015747070 -121.472503662109 1.860888242722
42.173702239990 -76.944854736328 -119.531555175781 1.249996781349
38.904441833496 -77.086509704590 -126.105476379395 1.332996606827
-53.985805511475 -75.101531982422 -135.574523925781 0.430192381144
35.658279418945 -76.689323425293 -135.220840454102 1.151548981667
36.117832183838 -75.928016662598 -141.213287353516 1.145596027374
-51.909450531006 -74.608665466309 -139.097778320313 0.692958950996
-48.454860687256 -76.813789367676 -140.647109985352 1.865250110626
34.455444335938 -77.662384033203 -143.276031494141 1.068683743477
111.295562744141 -75.206275939941 -141.542388916016 1.573439717293
113.615501403809 -75.285034179688 -140.648101806641 1.305475234985
26.417625427246 -76.858436584473 -144.076660156250 1.283967733383
-42.377094268799 -77.288986206055 -148.416702270508 0.653566241264
111.383842468262 -75.755004882813 -153.924530029297 1.734849810600
-41.241001129150 -76.621566772461 -153.549942016602 0.639304876328
-68.349884033203 -78.078468322754 -157.609832763672 0.837783694267
110.519035339355 -76.022148132324 -161.465545654297 1.721383929253
22.638593673706 -76.088424682617 -162.046249389648 1.225428223610
-0.173500001431 -77.900177001953 -162.718688964844 1.190953731537
112.751075744629 -75.845474243164 -156.445846557617 1.538354277611
-64.376510620117 -76.882301330566 -163.787048339844 0.955576300621
-37.018264770508 -75.829704284668 -159.711959838867 0.922331809998
113.189903259277 -74.906288146973 -163.666259765625 1.374297380447
29.531501770020 -76.210731506348 -158.101638793945 1.060938477516
-63.979255676270 -75.719245910645 -166.628677368164 0.527932584286
110.858558654785 -76.178504943848 -166.392150878906 1.777975440025
-64.831962585449 -78.803199768066 -168.161727905273 0.877111196518
-52.093051910400 -77.790184020996 -177.559127807617 1.827209353447
106.275054931641 -74.549499511719 -171.204620361328 0.261871188879
-60.184528350830 -75.899658203125 -168.850677490234 0.795475244522
110.803932189941 -75.776985168457 -173.312072753906 1.125645995140
-59.798736572266 -77.638366699219 -173.432632446289 0.847682714462
-13.688714027405 -76.396911621094 -177.119171142578 0.870391547680
-13.137493133545 -77.829910278320 -178.365783691406 1.141025662422
107.896919250488 -75.994400024414 -171.842681884766 1.211542010307
20.514303207397 -76.256767272949 -171.978881835938 1.889279365540
28.067356109619 -76.632026672363 -170.740921020508 1.816574811935
-55.896965026855 -76.516357421875 -176.416107177734 0.489172101021
19.513231277466 -76.385826110840 -181.927276611328 0.941840410233
-57.976070404053 -76.220314025879 -176.850814819336 0.565218508244
-50.896366119385 -76.526000976563 -185.702331542969 0.676669001579
15.009859085083 -75.991897583008 -182.373016357422 0.467100471258
-58.735069274902 -77.165161132813 -181.198318481445 0.454342037439
107.767433166504 -75.831703186035 -183.949615478516 1.451175808907
22.885225296021 -76.145774841309 -180.251022338867 1.583781599998
-31.612108230591 -76.257644653320 -188.400543212891 0.555441796780
-42.123710632324 -76.371765136719 -192.398361206055 0.480251640081
11.111007690430 -75.621566772461 -194.248382568359 1.103073239326
-17.811712265015 -77.451141357422 -191.430465698242 0.765045881271
-50.597370147705 -77.580345153809 -193.091888427734 2.408643722534
103.864707946777 -76.013061523438 -184.475326538086 1.144916653633
16.424268722534 -76.276779174805 -190.657546997070 1.270312070847
-135.251113891602 -77.473815917969 -197.326858520508 0.822851896286
-41.450931549072 -78.016250610352 -192.653244018555 0.320529937744
97.500419616699 -76.025695800781 -198.483215332031 1.589495778084
-147.327011108398 -82.195632934570 -201.464309692383 0.920409739017
18.332225799561 -76.316574096680 -193.316986083984 2.977185010910
-41.536773681641 -76.338088989258 -204.517410278320 1.480789065361
-32.351520538330 -77.395904541016 -203.379425048828 0.502307415009
-36.986068725586 -76.414993286133 -205.373153686523 1.312168121338
-43.050304412842 -76.507301330566 -196.332550048828 0.225354939699
99.540420532227 -76.206939697266 -200.828704833984 1.311036229134
-19.397026062012 -76.488639831543 -202.782394409180 0.602700233459
-150.141540527344 -77.974563598633 -205.360198974609 1.150300621986
16.350633621216 -76.123802185059 -205.819122314453 0.889201104641
-75.871299743652 -79.707519531250 -208.710266113281 0.386561542749
-150.422653198242 -77.910011291504 -209.673706054688 0.724623560905
96.759536743164 -74.626068115234 -208.789779663086 1.902914166451
-32.468807220459 -76.349876403809 -207.050109863281 0.498058885336
-28.803367614746 -76.439483642578 -214.481033325195 1.203581452370
7.554245948792 -77.494476318359 -211.056991577148 0.897515594959
-70.892982482910 -77.722305297852 -212.631195068359 0.450054645538
-29.517683029175 -77.098564147949 -210.262557983398 0.750689327717
-4.411752223969 -76.178329467773 -213.975326538086 1.058263897896
-74.947547912598 -79.147659301758 -214.286285400391 0.467785298824
-14.601615905762 -76.599136352539 -216.886840820313 2.087530374527
8.373711585999 -75.466545104980 -213.578765869141 0.323754221201
17.365606307983 -77.063026428223 -218.839492797852 1.159235000610
-147.522674560547 -77.699905395508 -215.872482299805 1.002229809761
-7.106685161591 -76.287696838379 -214.569686889648 1.827085018158
-94.321182250977 -74.646636962891 -220.466232299805 0.327857851982
-21.472011566162 -75.889793395996 -219.928497314453 1.030258893967
92.147300720215 -76.207885742188 -211.080810546875 1.614435434341
6.006429195404 -76.721336364746 -227.000900268555 1.180307388306
16.083368301392 -75.233489990234 -216.441787719727 0.882617413998
82.137397766113 -75.265640258789 -221.017654418945 1.462257266045
1.075116991997 -75.679306030273 -226.116836547852 2.283198118210
86.523414611816 -75.794883728027 -217.078979492188 0.863932132721
-16.376831054688 -76.800308227539 -221.454711914063 0.598408520222
14.975442886353 -77.148254394531 -219.861816406250 0.845336675644
-145.201934814453 -78.912796020508 -223.550140380859 0.638695955276
-18.719085693359 -77.575759887695 -223.842193603516 0.512125968933
1.632469058037 -78.074851989746 -226.450759887695 1.987179756165
-154.570266723633 -79.532020568848 -228.178894042969 1.023204565048
-135.994644165039 -76.488739013672 -228.358230590820 0.551101088524
8.203002929688 -76.464347839355 -225.905563354492 0.807229518890
-4.029336929321 -76.894401550293 -232.190170288086 1.182459354401
-135.651626586914 -77.061538696289 -231.430801391602 1.313839316368
-145.250671386719 -78.785903930664 -234.959457397461 0.610857427120
-146.356414794922 -77.290695190430 -236.268371582031 0.618932962418
-33.010772705078 -76.823486328125 -238.387344360352 1.317073106766
-146.438278198242 -77.093559265137 -241.831863403320 0.607599496841
21.025335311890 -75.811157226563 -241.428421020508 1.390053272247
4.808207035065 -76.637077331543 -242.307754516602 1.416150927544
-149.781661987305 -77.094512939453 -235.640213012695 0.616670787334
-148.572052001953 -78.308303833008 -242.614746093750 1.315693140030
-47.486206054688 -77.116149902344 -241.223312377930 1.201207280159
-31.106632232666 -77.678894042969 -243.469696044922 0.457293808460
5.657695770264 -78.565246582031 -246.123718261719 1.233125805855
-38.994754791260 -76.965232849121 -245.040313720703 1.882751345634
23.195793151855 -76.982498168945 -247.068191528320 0.943352878094
-4.700966835022 -78.596679687500 -248.256622314453 0.531911551952
-150.155364990234 -77.616935729980 -252.463714599609 0.621206164360
-7.038533210754 -78.333770751953 -250.602050781250 0.406878590584
-146.667037963867 -77.891983032227 -252.134445190430 0.590484857559
-67.802528381348 -77.256065368652 -248.984924316406 0.609967052937
-149.730514526367 -83.655426025391 -260.034912109375 0.612194895744
-125.611175537109 -76.657432556152 -259.029693603516 0.717432975769
-148.815155029297 -74.476257324219 -261.003051757813 0.595707595348
-13.055164337158 -75.208396911621 -265.039093017578 0.634211480618
-146.264053344727 -79.080589294434 -265.128723144531 0.685964584351
-150.220474243164 -78.089843750000 -265.476135253906 0.605673968792
-9.669762611389 -78.452850341797 -269.433990478516 0.761730849743
-146.985351562500 -78.305473327637 -271.274658203125 0.572268605232
-3.337657928467 -77.312255859375 -279.089843750000 0.740464270115
-46.233844757080 -76.902503967285 -286.745056152344 3.096891880035
-133.533905029297 -77.551651000977 -288.413421630859 0.900087773800
-132.615478515625 -76.397636413574 -286.056518554688 0.438252270222
-126.276092529297 -76.958549499512 -286.812011718750 1.044955372810
-53.262489318848 -76.354003906250 -286.477233886719 0.317871809006
-115.283233642578 -74.959220886230 -288.453216552734 0.266588956118
15.717886924744 -76.461791992188 -288.950592041016 0.726816534996
-60.046279907227 -76.560409545898 -288.689422607422 0.464847415686
-141.756240844727 -76.594665527344 -290.247894287109 0.857190072536
-61.828193664551 -76.212959289551 -289.798126220703 0.259665936232
-142.416442871094 -78.960281372070 -290.943725585938 0.715041100979
-117.470413208008 -76.936759948730 -289.916900634766 0.540656387806
-47.281944274902 -76.287895202637 -290.236724853516 0.378818899393
-35.207126617432 -77.084228515625 -290.441772460938 0.983329653740
-133.387619018555 -77.448356628418 -290.849609375000 0.475041717291
-10.480121612549 -76.752532958984 -290.590179443359 0.693351209164
0.939927995205 -76.687103271484 -290.825103759766 0.800364077091
6.513496875763 -76.581520080566 -291.479492187500 0.851051807404
15.167303085327 -76.746955871582 -292.961914062500 0.967376828194
-149.473297119141 -77.432708740234 -295.742889404297 1.260696053505
-148.015777587891 -77.156349182129 -299.815582275391 1.170490741730
-70.386001586914 -77.444343566895 -59.621417999268 1.757295489311
86.627410888672 -74.293800354004 -74.208282470703 1.419741511345
78.091415405273 -75.079566955566 -75.229797363281 1.108477592468
-26.817268371582 -76.665840148926 -76.584968566895 0.917402565479
84.202552795410 -74.191017150879 -76.042869567871 1.073849439621
-35.752868652344 -76.314064025879 -79.962478637695 1.003331303596
87.522560119629 -75.838455200195 -77.700302124023 0.821271479130
92.227142333984 -75.227844238281 -81.347732543945 1.690670728683
-65.717918395996 -71.249702453613 -92.732887268066 0.916894435883
75.265098571777 -74.942733764648 -92.664665222168 1.312005281448
80.370635986328 -75.059028625488 -96.104103088379 1.193360924721
91.252029418945 -75.073005676270 -93.195449829102 1.632870674133
54.763797760010 -75.151901245117 -97.677490234375 1.101722240448
-76.553352355957 -79.528724670410 -101.333274841309 1.266693830490
-75.522521972656 -72.331626892090 -101.570808410645 0.538540303707
48.453582763672 -76.009162902832 -104.989814758301 1.671088218689
-91.616233825684 -78.219535827637 -105.362304687500 0.867768108845
44.362045288086 -75.870529174805 -116.250953674316 1.726289629936
110.191024780273 -74.164031982422 -117.121910095215 1.711190462112
111.772468566895 -75.027618408203 -131.166275024414 1.729418754578
26.914512634277 -75.242912292480 -138.148559570313 1.639528632164
110.005683898926 -74.449615478516 -125.687774658203 0.933170378208
26.363168716431 -76.118522644043 -134.167037963867 2.800435304642
113.573989868164 -74.151893615723 -128.009948730469 1.443170309067
38.480514526367 -76.039390563965 -133.951766967773 2.387382507324
-51.161262512207 -77.887794494629 -143.696807861328 1.472740411758
34.471721649170 -74.038818359375 -140.969940185547 1.143382430077
109.511001586914 -73.728019714355 -137.497940063477 1.558139920235
-50.924404144287 -76.468658447266 -144.522338867188 1.804829835892
31.996913909912 -76.178283691406 -147.260055541992 1.597844719887
-56.204189300537 -75.524040222168 -138.946105957031 1.671316146851
