-11.958059310913 -77.970870971680 -213.331481933594 0.325290560722
8.433524131775 -79.585784912109 -217.391738891602 1.070147514343
-144.806640625000 -76.885299682617 -218.064025878906 0.927322626114
-19.635728836060 -78.560684204102 -219.578552246094 0.767743170261
-3.315537929535 -78.509826660156 -221.908065795898 0.613356649876
-3.006649971008 -79.079383850098 -218.408050537109 2.026726722717
-152.248794555664 -77.381507873535 -224.884246826172 1.030484437943
-137.097198486328 -76.640464782715 -226.924591064453 0.929220259190
-6.718723773956 -78.187973022461 -221.752044677734 0.677036762238
-149.060287475586 -81.336395263672 -228.572540283203 1.149910688400
1.995506048203 -77.191757202148 -230.421142578125 1.118449926376
16.830654144287 -78.369941711426 -231.996505737305 1.314587116241
-0.046087998897 -77.413696289063 -233.140274047852 2.711636543274
1.589727997780 -76.897529602051 -236.208709716797 0.794283926487
7.460628986359 -79.155601501465 -231.531860351563 1.526003718376
-150.207733154297 -77.074920654297 -235.498062133789 0.750152528286
-19.191276550293 -77.356552124023 -238.060409545898 0.405841857195
-34.841571807861 -78.405807495117 -239.184783935547 1.943912506104
6.361461162567 -76.479156494141 -231.563919067383 1.425486803055
-0.375229001045 -78.040870666504 -236.618316650391 0.431281626225
4.389257907867 -78.475944519043 -234.885162353516 1.026421546936
-53.467388153076 -76.462974548340 -242.782333374023 0.783313989639
-148.886947631836 -76.962661743164 -246.136398315430 1.180263757706
-150.794998168945 -78.354843139648 -248.373962402344 0.960205852985
9.469364166260 -78.794265747070 -246.090637207031 0.564207375050
21.560405731201 -77.732673645020 -247.924652099609 0.708172202110
-59.516933441162 -77.310035705566 -248.490081787109 1.056695103645
-145.024658203125 -78.391349792480 -253.183059692383 1.257197499275
-152.768936157227 -78.385566711426 -254.646270751953 1.240833520889
-149.371154785156 -82.386268615723 -258.063476562500 0.978340268135
-141.501358032227 -76.372802734375 -261.008941650391 1.436210989952
-136.605545043945 -76.461418151855 -256.958709716797 1.118129372597
-11.807731628418 -77.729721069336 -256.628723144531 0.514966428280
-143.376388549805 -78.326187133789 -263.871124267578 1.391522288322
-11.075587272644 -78.592887878418 -263.085632324219 2.445971965790
-146.827682495117 -77.067893981934 -276.933929443359 1.359177231789
-146.629425048828 -77.463569641113 -282.707244873047 1.400070309639
-150.174591064453 -77.268661499023 -282.444305419922 1.423306703568
-2.885776996613 -75.473968505859 -284.303161621094 1.401536822319
-141.960906982422 -73.952529907227 -286.774963378906 1.630814790726
-31.147180557251 -76.696929931641 -286.856964111328 0.768384456635
-31.863912582397 -77.341026306152 -288.002014160156 0.910588324070
-17.004459381104 -77.284881591797 -288.347259521484 0.742287874222
-9.127153396606 -77.104141235352 -287.590637207031 1.336529850960
15.300107955933 -78.398216247559 -291.279052734375 0.330099046230
-125.009315490723 -76.353820800781 -289.296264648438 1.151017665863
-55.818973541260 -76.553970336914 -288.833496093750 1.600183725357
-37.967266082764 -77.186019897461 -288.855987548828 0.651468694210
-31.117120742798 -77.730049133301 -289.505126953125 0.876606047153
-9.111465454102 -77.250373840332 -289.684783935547 1.979734778404
5.255651950836 -77.161590576172 -288.618072509766 1.013850569725
-143.259841918945 -79.263481140137 -293.053955078125 1.451775789261
9.066037178040 -77.675277709961 -290.371276855469 1.004211544991
-150.819152832031 -76.697418212891 -300.959655761719 1.565486550331
-148.643005371094 -77.434242248535 -301.382690429688 1.300809502602
-151.831848144531 -76.869697570801 -311.027587890625 1.534363865852
-145.950897216797 -76.668670654297 -311.377227783203 1.435690164566
-50.091945648193 -76.739051818848 -55.804370880127 1.415484666824
-57.119972229004 -77.300430297852 -56.331108093262 1.466786742210
-63.764335632324 -77.021080017090 -56.241230010986 1.398025751114
-43.535804748535 -77.736381530762 -58.582389831543 0.850753605366
-37.765205383301 -77.050247192383 -59.138324737549 0.800702095032
-22.675556182861 -76.810684204102 -67.311294555664 1.268956303596
-83.071350097656 -77.347625732422 -68.176940917969 0.738047301769
81.534057617188 -78.482521057129 -77.760002136230 1.747410535812
-89.435768127441 -77.177879333496 -82.422943115234 1.163837790489
83.356597900391 -79.103370666504 -81.446899414063 1.944518566132
85.131156921387 -78.457397460938 -82.779235839844 1.545529961586
92.673210144043 -77.716743469238 -85.111518859863 1.936053872108
-58.827301025391 -81.497360229492 -94.763938903809 1.371078133583
83.519210815430 -77.170425415039 -93.692054748535 1.656846523285
79.231254577637 -78.088859558105 -92.415985107422 1.785383582115
87.116424560547 -79.303741455078 -89.600006103516 1.612127780914
-63.477161407471 -80.800903320313 -97.355041503906 0.611853480339
53.224159240723 -77.924934387207 -96.545181274414 1.820594906807
45.944046020508 -78.627479553223 -106.177772521973 1.356539368629
41.840682983398 -78.539421081543 -104.630462646484 1.263158202171
38.597724914551 -78.084259033203 -108.350814819336 1.803967833519
-90.859817504883 -77.451606750488 -112.594367980957 0.617259860039
36.591300964355 -78.383407592773 -117.012489318848 0.848266363144
-84.642448425293 -78.399078369141 -110.891990661621 0.409969627857
43.304420471191 -79.742042541504 -122.170806884766 2.526808738708
34.777816772461 -78.712631225586 -122.183937072754 1.091008305550
33.682998657227 -76.874862670898 -121.661193847656 1.701114058495
42.689674377441 -78.690597534180 -119.733116149902 1.065020799637
39.415977478027 -78.754386901855 -126.306045532227 1.184285759926
-53.442115783691 -75.442718505859 -135.719177246094 1.056561231613
36.171718597412 -78.267036437988 -135.417709350586 1.016791105270
36.639167785645 -77.482231140137 -141.406509399414 0.984669744968
-51.360668182373 -74.960922241211 -139.240951538086 0.334243744612
-47.937446594238 -77.205665588379 -140.802963256836 2.287499904633
34.952159881592 -79.183219909668 -143.477066040039 1.314719796181
111.819549560547 -77.794570922852 -141.769165039063 2.836818695068
114.138565063477 -77.909744262695 -140.876434326172 1.388130068779
26.925844192505 -78.264633178711 -144.269683837891 1.625196099281
-41.870109558105 -77.725761413574 -148.577819824219 0.333366811275
111.894989013672 -78.282653808594 -154.153930664063 1.508889913559
-40.727115631104 -77.048446655273 -153.708236694336 0.305618286133
-67.855224609375 -78.111480712891 -157.761932373047 0.345448523760
111.023376464844 -78.500221252441 -161.695770263672 1.460096597672
23.150135040283 -77.352951049805 -162.233352661133 0.791310012341
0.314960986376 -78.846893310547 -162.903533935547 1.095024943352
113.259780883789 -78.379371643066 -156.676345825195 2.432621002197
-63.868373870850 -76.939346313477 -163.935073852539 0.582315146923
-36.496490478516 -76.284088134766 -159.868316650391 0.989600419998
113.708427429199 -77.410293579102 -163.892211914063 2.139256954193
30.042381286621 -77.589897155762 -158.292800903320 0.831962227821
-63.456340789795 -75.767700195313 -166.771057128906 0.060146890581
111.358619689941 -78.636650085449 -166.623245239258 1.873236775398
-64.352111816406 -78.831924438477 -168.319046020508 0.849955141544
-51.604450225830 -77.947601318359 -177.717575073242 1.395727872849
106.795944213867 -76.920654296875 -171.425277709961 1.380898237228
-59.665409088135 -75.989280700684 -168.995803833008 1.141933321953
111.306579589844 -78.199882507324 -173.541061401367 1.401663184166
-59.305553436279 -77.710243225098 -173.586563110352 0.338976293802
-13.184383392334 -77.085731506348 -177.289672851563 0.624897480011
-12.653490066528 -78.519950866699 -178.543685913086 0.993529438972
108.397476196289 -78.384559631348 -172.071334838867 1.428867697716
21.019498825073 -77.442443847656 -172.165649414063 1.662853121758
28.567188262939 -77.927894592285 -170.933303833008 1.383809328079
-55.389968872070 -76.627220153809 -176.566329956055 0.073212660849
20.012510299683 -77.508041381836 -182.114059448242 0.629467010498
-57.464981079102 -76.300392150879 -176.998535156250 0.829057693481
-50.393928527832 -76.659400939941 -185.854965209961 0.796049535275
15.514804840088 -77.049896240234 -182.555618286133 0.851495206356
-58.238777160645 -77.212989807129 -181.350326538086 0.071485102177
108.265098571777 -78.159667968750 -184.177230834961 2.199922561646
23.388204574585 -77.322837829590 -180.438308715820 1.723616123199
-31.108955383301 -76.643264770508 -188.561340332031 0.216804012656
-41.622833251953 -76.592613220215 -192.554489135742 0.158995628357
11.616373062134 -76.566619873047 -194.427047729492 1.141355872154
-17.327606201172 -78.011627197266 -191.603988647461 1.195406913757
-50.112632751465 -77.680862426758 -193.249832153320 2.084414482117
104.360015869141 -78.284622192383 -184.701919555664 1.949599981308
16.921628952026 -77.312881469727 -190.842147827148 1.127704262733
-134.758651733398 -76.387023925781 -197.442367553711 1.015957474709
-40.972881317139 -78.244918823242 -192.817886352539 0.544694006443
97.990196228027 -78.139663696289 -198.706542968750 0.956707835197
-146.900222778320 -80.921333312988 -201.597335815430 1.051320791245
18.827724456787 -77.365676879883 -193.502700805664 2.185973882675
-41.040645599365 -76.506538391113 -204.673507690430 1.799038410187
-31.870353698730 -77.696456909180 -203.545333862305 0.217222407460
-36.491794586182 -76.641853332520 -205.531860351563 0.885398864746
-42.552879333496 -76.695732116699 -196.488845825195 0.469171345234
100.026512145996 -78.337287902832 -201.053909301758 1.698715686798
-18.904338836670 -76.970733642578 -202.950195312500 0.286035805941
-149.657989501953 -76.642494201660 -205.470748901367 0.864574193954
16.843656539917 -77.083229064941 -206.002731323242 0.525477468967
-75.420112609863 -79.381690979004 -208.866119384766 0.712565958500
-149.940017700195 -76.552551269531 -209.783737182617 0.911955535412
97.264289855957 -76.678543090820 -209.005630493164 0.975595593452
-31.974781036377 -76.630599975586 -207.210693359375 0.239046290517
-28.314086914063 -76.733612060547 -214.643798828125 0.736581027508
8.026991844177 -78.306434631348 -211.243026733398 1.199774384499
-70.416587829590 -77.445701599121 -212.779571533203 0.335706502199
-29.035619735718 -77.403831481934 -210.428298950195 1.075692296028
-3.920977115631 -76.811027526855 -214.148849487305 1.207333683968
-74.491111755371 -78.806785583496 -214.439743041992 0.745400011539
-14.116908073425 -77.076873779297 -217.057388305664 1.904754281044
8.873247146606 -76.277427673340 -213.755065917969 1.162914037704
17.840049743652 -77.971351623535 -219.028121948242 1.199071049690
-147.040054321289 -76.351478576660 -215.982818603516 0.464245200157
-6.617413043976 -76.880287170410 -214.742416381836 1.886252999306
-93.803512573242 -74.008506774902 -220.587585449219 0.611285686493
-20.978172302246 -76.257789611816 -220.092071533203 1.019630908966
92.629714965820 -78.185218811035 -211.302246093750 1.183468699455
6.483188152313 -77.432487487793 -227.182113647461 1.065191984177
16.584163665771 -76.136314392090 -216.620697021484 0.514064669609
82.629524230957 -77.055580139160 -221.229309082031 0.981482744217
1.567078948021 -76.327041625977 -226.290420532227 1.809540629387
87.009498596191 -77.664848327637 -217.295501708984 1.127582311630
-15.896669387817 -77.230773925781 -221.625320434570 0.335502505302
15.448505401611 -78.018539428711 -220.049682617188 0.457329660654
-144.739532470703 -77.557884216309 -223.667572021484 0.965198278427
-18.250402450562 -77.961959838867 -224.015487670898 0.697163939476
2.091228961945 -78.728347778320 -226.636566162109 2.365852594376
-154.117462158203 -78.024879455566 -228.294738769531 0.841693878174
-135.501754760742 -75.236930847168 -228.468078613281 0.927603065968
8.683560371399 -77.211242675781 -226.086593627930 0.456851303577
-3.556216001511 -77.441375732422 -232.367218017578 0.782880127430
-135.167968750000 -75.799064636230 -231.543640136719 1.697412610054
-144.791366577148 -77.373397827148 -235.076095581055 1.043809294701
-145.876953125000 -75.856582641602 -236.376998901367 1.060361385345
-32.536556243896 -76.940292358398 -238.549636840820 1.383441686630
-145.958465576172 -75.630577087402 -241.939392089844 1.100118279457
21.507068634033 -76.657295227051 -241.612335205078 0.970276951790
5.279726982117 -77.255325317383 -242.487762451172 0.933359801769
-149.298904418945 -75.616371154785 -235.746170043945 1.275724649429
-148.109100341797 -76.811882019043 -242.727264404297 1.165581703186
-47.015853881836 -77.019355773926 -241.379867553711 1.589213728905
-30.646543502808 -77.796470642090 -243.637130737305 0.445638775826
6.100944995880 -79.175949096680 -246.313705444336 1.542657136917
-38.524753570557 -76.966377258301 -245.200271606445 1.553586006165
23.658781051636 -77.830261230469 -247.258956909180 0.559748411179
-4.258073806763 -79.054031372070 -248.441619873047 1.178902149200
-149.686920166016 -76.049621582031 -252.571884155273 1.203229188919
-6.592792987823 -78.747238159180 -250.784561157227 0.872566521168
-146.202590942383 -76.374336242676 -252.245712280273 1.175452589989
-67.335472106934 -76.840644836426 -249.132034301758 0.746820747852
-149.348541259766 -82.055519104004 -260.173309326172 1.255419492722
-125.134643554688 -75.395568847656 -259.145111083984 1.165811300278
-148.307205200195 -72.885124206543 -261.096099853516 1.255666494370
-12.571933746338 -75.467262268066 -265.202880859375 0.587798833847
-145.821548461914 -77.503509521484 -265.245971679688 1.099670886993
-149.764083862305 -76.456634521484 -265.586456298828 1.297527432442
-9.233427047729 -78.736061096191 -269.615570068359 1.046818852425
-146.534713745117 -76.687866210938 -271.387573242188 1.316590428352
-2.890319108963 -77.634635925293 -279.268737792969 0.655693411827
-45.780036926270 -76.595779418945 -286.900604248047 3.233260631561
-133.081451416016 -76.033889770508 -288.529022216797 1.414836883545
-132.146209716797 -74.904418945313 -286.166839599609 1.328180432320
-125.815475463867 -75.548828125000 -286.928253173828 1.189417839050
-52.800342559814 -75.951858520508 -286.626586914063 0.861620247364
-114.796806335449 -73.692962646484 -288.564910888672 1.119396805763
16.170934677124 -76.997550964355 -289.134521484375 0.574730932713
-59.587272644043 -76.053741455078 -288.836425781250 0.689185082912
-141.290603637695 -74.954582214355 -290.354644775391 1.104304909706
-61.364704132080 -75.676246643066 -289.942504882813 0.929652750492
-141.983627319336 -77.307373046875 -291.061950683594 1.600142478943
-117.011650085449 -75.632858276367 -290.037353515625 1.062312960625
-46.821052551270 -75.949371337891 -290.388641357422 0.865038633347
-34.758445739746 -76.910942077637 -290.603607177734 0.512280881405
-132.934783935547 -75.920463562012 -290.964752197266 1.397351264954
-10.029285430908 -76.919181823730 -290.762603759766 0.730276107788
1.390480041504 -77.009902954102 -291.002838134766 0.734114170074
6.964694023132 -76.977851867676 -291.659423828125 0.735317766666
15.614768028259 -77.255081176758 -293.146942138672 0.931057751179
-149.020812988281 -75.658798217773 -295.849914550781 1.220996260643
-147.561340332031 -75.382225036621 -299.921905517578 0.887196242809
-69.840713500977 -77.938430786133 -59.770587921143 1.359416961670
87.194976806641 -76.878433227539 -74.419174194336 1.814473271370
78.648521423340 -77.541427612305 -75.440376281738 1.866594791412
-26.272609710693 -77.675544738770 -76.751579284668 1.268631577492
84.770980834961 -76.733100891113 -76.252029418945 2.216132164001
-35.203952789307 -77.183860778809 -80.122879028320 0.897048771381
88.067268371582 -78.417823791504 -77.919296264648 1.892155408859
92.778259277344 -77.853889465332 -81.565963745117 1.807939529419
-65.101806640625 -71.643501281738 -92.853065490723 0.388823777437
75.816940307617 -77.278656005859 -92.872940063477 1.022968530655
80.918930053711 -77.448104858398 -96.315444946289 1.644324183464
91.800331115723 -77.626495361328 -93.412277221680 1.621760964394
55.312580108643 -77.180358886719 -97.876617431641 1.412602901459
-76.053939819336 -79.729438781738 -101.489257812500 1.407866597176
-74.924140930176 -72.546134948730 -101.691421508789 0.521196365356
48.988040924072 -77.914100646973 -105.190002441406 1.470494747162
-91.099067687988 -78.192779541016 -105.504272460938 0.432242095470
44.894008636475 -77.662910461426 -116.448287963867 1.810649514198
110.739875793457 -76.859107971191 -117.343261718750 1.718988537788
112.303291320801 -77.674293518066 -131.392532348633 1.644561171532
27.447465896606 -76.685714721680 -138.333862304688 1.699287056923
110.546966552734 -77.099357604980 -125.910346984863 1.771397948265
26.885803222656 -77.573501586914 -134.356475830078 2.544787645340
114.118049621582 -76.839233398438 -128.232772827148 1.531257748604
39.003181457520 -77.662391662598 -134.146820068359 2.233237266541
-50.659687042236 -78.227050781250 -143.856628417969 2.093981504440
35.019344329834 -75.571777343750 -141.152938842773 0.977580606937
110.057250976563 -76.312080383301 -137.716522216797 1.644763112068
-50.403648376465 -76.807212829590 -144.675201416016 2.145561933517
32.512619018555 -77.645523071289 -147.452423095703 1.732050895691
-55.667545318604 -75.817794799805 -139.091720581055 1.431398868561
-52.483676910400 -77.774864196777 -147.756134033203 0.851479053497
-49.931049346924 -77.113319396973 -149.466506958008 0.541037201881
-64.629920959473 -77.353553771973 -156.327331542969 0.091272018850
115.469207763672 -77.471588134766 -148.190155029297 1.752218604088
-50.216335296631 -77.105567932129 -155.275360107422 2.320222139359
21.875757217407 -77.438018798828 -154.263778686523 2.668805837631
110.385719299316 -77.543174743652 -156.150787353516 1.980981707573
-66.611495971680 -75.581298828125 -156.715103149414 0.110660925508
-47.481224060059 -77.185691833496 -155.717590332031 1.945782303810
8.485396385193 -75.238197326660 -154.839309692383 2.327811956406
-66.713256835938 -75.521881103516 -159.966476440430 1.032766342163
-60.685466766357 -76.405517578125 -161.610427856445 0.658210337162
-0.975820004940 -76.920783996582 -161.836456298828 0.549262166023
-40.842521667480 -76.961898803711 -166.989990234375 1.876172184944
31.429351806641 -75.880142211914 -163.729644775391 0.926874220371
-61.500385284424 -76.580322265625 -165.423950195313 1.074320554733
-57.067111968994 -76.547058105469 -168.479904174805 0.089720569551
20.300098419189 -76.932975769043 -160.926391601563 0.872703850269
-30.959529876709 -77.021354675293 -169.389465332031 1.420483946800
-30.121124267578 -77.708312988281 -167.276245117188 1.918592214584
17.517488479614 -76.980484008789 -174.268783569336 1.870736479759
-39.766109466553 -77.141761779785 -172.740509033203 0.659631311893
-11.745147705078 -76.364852905273 -172.896972656250 0.963141560555
-59.462722778320 -75.618629455566 -172.648422241211 1.479157924652
-4.684167861938 -75.226440429688 -170.854095458984 0.925217807293
-22.869651794434 -77.209365844727 -179.444808959961 0.334378778934
24.364660263062 -76.483955383301 -180.551101684570 0.675881683826
-38.638545989990 -75.804695129395 -171.919708251953 1.063328385353
18.581569671631 -76.057304382324 -178.124176025391 1.732243418694
-22.498430252075 -74.333686828613 -182.815826416016 0.307887345552
-31.989263534546 -76.971168518066 -181.904418945313 0.222914829850
-146.648620605469 -76.096672058105 -186.214202880859 0.876691222191
-21.685579299927 -77.019149780273 -186.128067016602 1.415811061859
-144.027526855469 -75.613838195801 -188.166900634766 1.293898344040
-149.188812255859 -74.640678405762 -187.391189575195 0.617798566818
-46.795970916748 -75.573081970215 -186.495269775391 2.170711040497
98.753890991211 -76.781227111816 -193.935409545898 2.929073095322
-144.091171264648 -75.836669921875 -193.352005004883 0.634194552898
-152.757629394531 -76.684661865234 -196.825897216797 0.927582681179
21.469850540161 -76.683830261230 -197.715530395508 2.856240749359
-135.065277099609 -74.412597656250 -198.188461303711 0.718205273151
19.494512557983 -76.068695068359 -197.824584960938 2.140125513077
-140.312301635742 -74.375907897949 -197.895812988281 0.757124781609
13.474519729614 -76.160453796387 -196.069717407227 1.421290397644
-134.887191772461 -74.634292602539 -201.420623779297 1.731317639351
8.197472572327 -76.847541809082 -206.744079589844 0.463166654110
-148.743469238281 -75.031494140625 -206.430831909180 0.878665149212
93.735496520996 -76.699516296387 -203.188125610352 1.132689952850
-14.296314239502 -77.276702880859 -202.000396728516 1.180171251297
-29.747406005859 -75.813613891602 -206.573410034180 0.250983893871
-9.267861366272 -76.843315124512 -205.633041381836 1.157766699791
-148.880691528320 -75.467475891113 -212.116149902344 0.859091281891
-34.873485565186 -76.188919067383 -205.966140747070 0.931580543518
-80.892448425293 -77.223510742188 -210.519683837891 1.466504096985
-26.239202499390 -76.857032775879 -209.851562500000 2.234399080276
19.121324539185 -76.248619079590 -209.003921508789 0.364608764648
-147.382217407227 -76.118499755859 -212.936111450195 1.153108119965
-90.680595397949 -75.074058532715 -214.313980102539 1.239161133766
-29.465888977051 -75.326667785645 -212.686355590820 1.446866512299
-25.001598358154 -74.854164123535 -218.014007568359 0.927286088467
-13.909420013428 -76.517791748047 -213.478439331055 0.866259157658
-26.978902816772 -75.666763305664 -212.640747070313 1.152183294296
-80.423767089844 -75.396278381348 -216.324859619141 0.459768861532
-85.662414550781 -76.294998168945 -217.651260375977 1.669609308243
-23.550186157227 -76.277748107910 -218.894485473633 1.161962389946
-1.657608985901 -76.107963562012 -221.046600341797 0.405246645212
-148.859375000000 -74.864875793457 -217.200790405273 0.950416624546
-1.846071004868 -77.400741577148 -218.067611694336 0.389643013477
84.830749511719 -76.999992370605 -222.896224975586 0.993800878525
-142.129837036133 -76.810646057129 -225.154220581055 1.041304349899
-9.248810768127 -77.237075805664 -223.703277587891 0.366060465574
-141.112335205078 -76.073074340820 -226.838531494141 0.704849600792
-146.558883666992 -81.320976257324 -227.387222290039 1.012414216995
-6.355967998505 -74.948310852051 -229.755065917969 0.519447863102
16.363510131836 -75.894599914551 -221.745727539063 0.511756122112
-140.595611572266 -75.142295837402 -229.613571166992 0.973431468010
-14.808118820190 -75.854751586914 -229.197143554688 0.380402237177
78.883628845215 -76.761322021484 -227.141326904297 0.535894632339
77.544647216797 -76.029769897461 -230.642608642578 1.262541532516
8.599337577820 -76.256179809570 -231.133590698242 0.450646549463
-26.073274612427 -77.344779968262 -237.831802368164 0.924165368080
-17.721971511841 -77.407333374023 -239.988815307617 0.480203688145
6.482450008392 -75.055595397949 -242.855606079102 0.652083873749
-47.405872344971 -75.185348510742 -241.711380004883 1.046438097954
-22.833744049072 -76.128959655762 -242.695159912109 0.443696469069
8.497827529907 -76.179878234863 -243.488647460938 0.636597156525
-63.002223968506 -75.721496582031 -245.251113891602 2.097700595856
-30.265727996826 -75.678627014160 -243.432907104492 2.364203691483
-42.595397949219 -74.137756347656 -244.871917724609 1.082187771797
-149.688522338867 -75.399803161621 -246.463104248047 1.086660623550
-46.497863769531 -76.624481201172 -246.779968261719 0.696025371552
-53.114227294922 -76.107566833496 -248.262023925781 1.250244855881
-66.365806579590 -76.046508789063 -250.683563232422 1.994582533836
-10.346520423889 -75.857749938965 -250.976379394531 0.820224940777
-80.674461364746 -75.048736572266 -252.385162353516 0.978847682476
-154.303695678711 -77.956871032715 -256.931793212891 1.023944973946
-141.499343872070 -76.564193725586 -256.990753173828 0.862848997116
-124.987121582031 -75.136596679688 -261.534484863281 0.808689415455
-152.844558715820 -72.634490966797 -264.434387207031 1.524755120277
21.838562011719 -76.977203369141 -262.799591064453 0.752307534218
-11.814478874207 -76.654151916504 -267.853118896484 0.595344841480
-149.847442626953 -76.602310180664 -271.448455810547 1.681889891624
-149.994674682617 -77.234382629395 -277.619659423828 1.386628508568
-143.444137573242 -78.813926696777 -284.719940185547 1.707981705666
-56.942195892334 -74.215118408203 -285.727142333984 2.456614971161
-37.660545349121 -75.599845886230 -286.313140869141 0.798967659473
-24.903718948364 -74.117698669434 -286.312530517578 1.189666271210
-11.993751525879 -75.899543762207 -286.609191894531 0.810848355293
-64.641174316406 -75.630744934082 -287.229522705078 2.064517021179
-78.335327148438 -74.458030700684 -287.110626220703 1.490584373474
-3.177313089371 -76.368324279785 -287.484771728516 1.436332941055
9.076205253601 -75.882614135742 -287.821960449219 0.720169484615
-134.964904785156 -74.666725158691 -290.553924560547 1.079791426659
-77.024703979492 -75.245651245117 -289.046508789063 1.016626596451
-146.845504760742 -75.166969299316 -288.959869384766 1.401854991913
-93.280418395996 -74.550506591797 -288.860992431641 1.945701479912
-77.574790954590 -75.008392333984 -289.500061035156 1.518602013588
-82.840530395508 -74.273765563965 -290.800170898438 0.661805510521
-59.034423828125 -75.034393310547 -290.493072509766 0.925412595272
-25.423355102539 -74.714187622070 -291.587188720703 2.297264337540
-2.834252119064 -75.364738464355 -291.984710693359 0.839228987694
-152.936981201172 -73.551315307617 -294.595062255859 1.432412266731
-151.128723144531 -74.836181640625 -300.051177978516 1.635609388351
-145.312362670898 -76.049972534180 -301.325103759766 1.720786690712
-153.994323730469 -74.873687744141 -307.525970458984 1.473014116287
-57.443550109863 -76.408714294434 -54.724308013916 1.395603060722
-45.143787384033 -75.001190185547 -53.019336700439 1.089500665665
-38.604637145996 -75.552291870117 -55.447711944580 1.215230345726
-75.535942077637 -76.177619934082 -58.606178283691 0.840775072575
-28.425575256348 -76.195449829102 -61.848011016846 1.654450178146
-30.264856338501 -76.655532836914 -78.901908874512 0.762738764286
75.900833129883 -77.352844238281 -79.343849182129 1.694795966148
75.713302612305 -78.498306274414 -81.325210571289 2.375562906265
75.397010803223 -77.877876281738 -83.674369812012 1.661067605019
96.261024475098 -76.591590881348 -88.961891174316 2.790741443634
73.610481262207 -77.633354187012 -89.116790771484 1.610859274864
53.810958862305 -76.414474487305 -92.508224487305 1.438277840614
47.687423706055 -78.452430725098 -98.754188537598 1.886669516563
-67.379096984863 -76.549232482910 -99.459350585938 0.795408308506
-71.579780578613 -70.411048889160 -101.265182495117 0.816826403141
45.289421081543 -77.287597656250 -102.915000915527 2.051806688309
-82.278816223145 -78.541221618652 -108.320426940918 0.971407651901
-93.490318298340 -74.767517089844 -112.464973449707 0.354068666697
50.987155914307 -76.176254272461 -104.939575195313 0.822531282902
107.793190002441 -76.199951171875 -109.078033447266 1.620296359062
32.480159759521 -77.852409362793 -119.170936584473 2.486428022385
46.142963409424 -76.767906188965 -118.368011474609 1.280529022217
42.930648803711 -77.838478088379 -125.394874572754 1.134329915047
29.843267440796 -77.045211791992 -125.041252136230 1.036279559135
108.998329162598 -76.684661865234 -118.006454467773 1.670245409012
39.750949859619 -76.615463256836 -127.748435974121 2.345838308334
30.140275955200 -75.413330078125 -129.987426757813 1.009102225304
-46.788585662842 -76.329940795898 -144.374206542969 0.743093609810
-72.174079895020 -75.479576110840 -145.897827148438 1.424095034599
-54.579845428467 -74.490768432617 -143.612609863281 0.279305785894
-70.271652221680 -75.360343933105 -146.006835937500 1.632287740707
-41.573661804199 -74.241149902344 -146.615402221680 1.566582798958
109.259704589844 -74.630325317383 -149.321243286133 1.238358616829
-71.582092285156 -75.882141113281 -154.755203247070 1.743153333664
24.493595123291 -75.835594177246 -149.204025268555 1.680561661720
33.723949432373 -77.080413818359 -152.763626098633 2.140201091766
115.227508544922 -76.991493225098 -157.945709228516 1.987298965454
9.144353866577 -75.459785461426 -158.837432861328 0.667983949184
31.580566406250 -75.879684448242 -154.848678588867 0.868744492531
-64.972457885742 -74.836608886719 -158.641174316406 1.376138806343
-43.548313140869 -75.949806213379 -167.961090087891 0.760676920414
18.983911514282 -74.355117797852 -162.843475341797 0.728419303894
-63.361629486084 -74.585273742676 -163.890426635742 1.598948955536
-67.663841247559 -76.070312500000 -164.826934814453 0.499395281076
107.767692565918 -76.635299682617 -165.200958251953 1.290320754051
-6.837820053101 -75.332740783691 -168.393692016602 1.271472215652
-61.132369995117 -76.036125183105 -176.538894653320 1.977329969406
-27.623432159424 -75.690216064453 -170.461471557617 1.454331874847
-55.264381408691 -74.608444213867 -173.763397216797 0.364341706038
28.040754318237 -76.310691833496 -168.214630126953 3.020694255829
110.251907348633 -76.233024597168 -172.046081542969 1.715857028961
103.279617309570 -76.762344360352 -182.807769775391 1.297436356544
107.792030334473 -76.949691772461 -188.442550659180 1.204302787781
107.852844238281 -76.037269592285 -177.421310424805 1.596678137779
-53.350742340088 -75.520538330078 -187.198837280273 2.156813621521
-51.322391510010 -74.340736389160 -182.090744018555 1.615585327148
25.916341781616 -77.041099548340 -182.315872192383 0.416675120592
-49.729042053223 -74.063415527344 -188.684555053711 0.141767308116
-19.572889328003 -76.532714843750 -184.493499755859 1.146730661392
-50.278518676758 -75.443374633789 -191.365982055664 0.141212910414
-149.513092041016 -75.181076049805 -193.475723266602 0.945481777191
102.155708312988 -75.986045837402 -192.712783813477 1.649690866470
-44.800315856934 -74.334655761719 -192.276214599609 0.166526585817
-16.881431579590 -76.684509277344 -196.816085815430 0.303546339273
-140.450851440430 -76.583084106445 -197.097564697266 0.757191836834
-45.279251098633 -74.258979797363 -195.709045410156 2.293501138687
103.936073303223 -76.819946289063 -197.100738525391 1.314743638039
106.260406494141 -76.013023376465 -185.899841308594 2.856953382492
-46.042343139648 -75.563224792480 -197.351516723633 1.572699666023
-23.857532501221 -76.810195922852 -195.675064086914 1.122577190399
-148.725769042969 -80.082939147949 -199.411300659180 1.351882934570
-24.530220031738 -77.146217346191 -198.520782470703 1.609155178070
-153.606399536133 -76.456428527832 -199.603500366211 0.876020193100
-152.424591064453 -77.304870605469 -202.409759521484 0.589498698711
-140.601043701172 -76.475906372070 -201.906997680664 0.581099629402
-37.840991973877 -75.586051940918 -197.909072875977 2.515652179718
100.771202087402 -75.811119079590 -198.593917846680 2.120185852051
-38.900745391846 -74.263648986816 -199.098114013672 1.857258796692
-144.143112182617 -77.550338745117 -205.153839111328 0.616220235825
-38.056613922119 -74.173042297363 -205.947952270508 1.905824542046
-18.243562698364 -76.729705810547 -209.524795532227 1.080079078674
96.361053466797 -75.767669677734 -203.620986938477 2.175579071045
93.277450561523 -75.664276123047 -210.294021606445 1.640172958374
-30.087638854980 -74.973930358887 -216.673309326172 1.236941099167
-85.855140686035 -75.265235900879 -212.160537719727 1.437344789505
-75.151542663574 -74.818557739258 -211.550979614258 1.154815435410
-17.239255905151 -75.675094604492 -218.823699951172 0.995495617390
-149.151550292969 -73.733558654785 -211.647171020508 0.914327442646
88.646697998047 -76.953147888184 -211.953903198242 1.118009328842
90.054046630859 -76.920387268066 -217.839355468750 1.049920558929
91.203651428223 -75.139213562012 -218.294326782227 1.776343345642
-101.066909790039 -73.339782714844 -222.559906005859 0.889432251453
-150.260696411133 -76.938499450684 -223.638092041016 1.006481647491
-19.076299667358 -75.628021240234 -220.423797607422 1.397460579872
79.269905090332 -75.886711120605 -223.294754028320 0.957369029522
-148.178085327148 -76.641914367676 -227.296112060547 2.323001861572
-25.861160278320 -75.713462829590 -221.161804199219 0.640839457512
-131.853652954102 -74.220809936523 -228.975463867188 1.386082172394
-12.217233657837 -76.735115051270 -227.210494995117 1.166902899742
18.402362823486 -75.929435729980 -221.209091186523 0.623808324337
19.481508255005 -76.294036865234 -231.167160034180 1.484488010406
-153.297271728516 -77.704315185547 -232.700286865234 0.908249795437
-124.376586914063 -73.453895568848 -232.897888183594 0.325346559286
-7.548116207123 -74.352088928223 -234.171371459961 1.109367132187
0.475565999746 -75.257362365723 -235.979003906250 0.776911497116
69.882339477539 -75.528068542480 -234.706069946289 0.702993273735
73.239189147949 -74.910499572754 -235.406982421875 0.892540633678
0.015049999580 -75.837356567383 -239.793853759766 1.962260365486
17.532838821411 -74.124313354492 -238.589126586914 1.512424349785
-27.864467620850 -74.018730163574 -238.943298339844 0.439004302025
-34.990699768066 -74.979194641113 -239.929397583008 0.447320669889
-43.470386505127 -73.815406799316 -242.352722167969 0.492974787951
-36.828662872314 -74.037948608398 -242.160568237305 1.677847385406
-18.439241409302 -76.237403869629 -241.913452148438 1.486547231674
-52.647472381592 -74.238220214844 -242.867294311523 1.519017577171
2.648737907410 -75.024749755859 -244.252258300781 0.495462894440
-67.255508422852 -72.922355651855 -245.970214843750 1.581020951271
20.072967529297 -75.166099548340 -246.309249877930 0.817387759686
-146.179916381836 -75.814163208008 -246.919692993164 1.137184143066
-71.522277832031 -76.120819091797 -248.583267211914 0.564898073673
14.220329284668 -77.551338195801 -247.331054687500 1.059962868690
-161.086074829102 -73.614486694336 -249.905227661133 1.267745494843
18.592798233032 -76.510017395020 -250.679763793945 1.426083445549
-78.717399597168 -75.049263000488 -250.443572998047 1.035053491592
-73.674842834473 -75.569717407227 -251.294265747070 1.118432641029
21.934289932251 -75.614974975586 -255.654678344727 0.866179287434
-88.100250244141 -74.045539855957 -254.079574584961 1.242057442665
-124.907554626465 -74.133941650391 -256.183807373047 0.736210703850
-134.720779418945 -73.612937927246 -258.234771728516 1.138032078743
-132.760910034180 -74.931045532227 -258.300903320313 1.123816728592
-146.879211425781 -72.562026977539 -260.085235595703 1.411784768105
-141.071563720703 -74.010108947754 -259.473052978516 1.026433467865
-135.231262207031 -73.121536254883 -261.961517333984 0.612418532372
-160.961715698242 -73.691673278809 -261.743835449219 1.351346373558
-124.849609375000 -72.146591186523 -264.650207519531 0.940258920193
-133.108078002930 -74.513763427734 -262.230651855469 0.923578083515
-165.098800659180 -73.120819091797 -263.598571777344 1.882025599480
-157.857604980469 -72.803535461426 -263.802764892578 1.256887912750
-150.673736572266 -73.258880615234 -265.482269287109 1.390301227570
-146.269958496094 -73.733161926270 -265.823516845703 1.275411248207
16.466833114624 -77.302680969238 -277.170959472656 0.921447157860
-165.015579223633 -73.327835083008 -269.450225830078 1.458471894264
-151.970886230469 -73.091018676758 -273.771667480469 1.374634861946
-6.224647998810 -79.223342895508 -273.177612304688 1.774046778679
-160.115829467773 -73.200218200684 -268.961395263672 3.495805740356
13.137476921082 -78.348060607910 -279.070678710938 0.522995054722
-150.951980590820 -73.713317871094 -282.751708984375 1.426635861397
-161.588287353516 -73.524055480957 -286.741668701172 1.537944316864
-153.414123535156 -73.384933471680 -284.146606445313 1.555752992630
-165.378387451172 -73.724449157715 -285.994995117188 1.569051504135
3.262844085693 -75.031562805176 -287.356506347656 0.650223314762
8.014221191406 -76.876541137695 -284.670440673828 0.996302545071
-96.438285827637 -73.783729553223 -287.935791015625 2.155191659927
-149.925369262695 -73.410789489746 -287.870422363281 1.481466650963
-148.079452514648 -73.360321044922 -287.510620117188 1.449140429497
-108.813362121582 -73.451179504395 -288.764007568359 1.934524774551
-150.032699584961 -73.377075195313 -290.327636718750 1.483706712723
-148.100540161133 -73.382873535156 -290.706542968750 1.473165154457
-67.063491821289 -74.070289611816 -290.897521972656 0.972310304642
-161.866683959961 -73.781143188477 -290.742462158203 1.329906582832
-123.408866882324 -73.262001037598 -291.398040771484 0.870470046997
-43.066802978516 -75.113197326660 -290.819366455078 0.898610293865
-155.927795410156 -73.564720153809 -290.084503173828 1.715194582939
-135.221633911133 -71.836845397949 -293.276733398438 0.668760418892
-15.794844627380 -73.712165832520 -291.736389160156 0.238221541047
-125.732856750488 -73.977073669434 -294.114166259766 0.973535716534
5.761640071869 -74.934272766113 -292.558959960938 2.106928110123
16.257266998291 -74.371139526367 -291.997985839844 0.828032791615
-133.396301269531 -74.292922973633 -293.359283447266 1.391905426979
-145.391632080078 -73.577163696289 -295.174591064453 1.367832183838
-155.351303100586 -72.516075134277 -311.862213134766 1.295403480530
-72.801315307617 -72.853881835938 -51.629638671875 1.550350666046
-23.131866455078 -73.680366516113 -60.179981231689 1.794982314110
-21.571783065796 -75.326705932617 -64.680534362793 2.097647666931
74.713218688965 -75.230590820313 -73.530570983887 1.791996717453
91.967338562012 -76.649536132813 -74.426383972168 1.850991964340
-38.270534515381 -74.390838623047 -77.146934509277 1.139966368675
73.910476684570 -76.303192138672 -76.392639160156 1.700692296028
88.359931945801 -78.164718627930 -80.046508789063 1.762531042099
70.456153869629 -75.311080932617 -81.275505065918 1.642030715942
71.676132202148 -76.376396179199 -84.764617919922 1.913759946823
-49.371421813965 -77.560630798340 -88.007789611816 0.750384271145
-91.956062316895 -75.670425415039 -86.616912841797 1.557097554207
57.675571441650 -75.646903991699 -92.678337097168 1.467179298401
49.597393035889 -75.472007751465 -96.322616577148 1.043765664101
95.126586914063 -76.412811279297 -94.563209533691 1.905615687370
-94.398582458496 -73.869178771973 -101.916061401367 2.129020929337
84.647354125977 -76.642829895020 -96.278724670410 1.649197697639
75.103149414063 -75.614830017090 -96.913017272949 1.729365229607
92.259979248047 -75.716018676758 -97.479087829590 1.380301952362
82.363578796387 -74.605064392090 -99.238555908203 1.553833007813
86.596839904785 -77.643363952637 -96.659210205078 1.395009636879
-80.660934448242 -76.131057739258 -102.058692932129 0.738369047642
39.969070434570 -76.856132507324 -108.900970458984 1.514764904976
106.373298645020 -75.845237731934 -109.499206542969 1.877843141556
110.003089904785 -75.774765014648 -109.668983459473 1.762905359268
45.544319152832 -75.775009155273 -115.405204772949 1.222562074661
108.124725341797 -75.564117431641 -122.220390319824 2.721227884293
115.598030090332 -76.256187438965 -133.411636352539 2.108367204666
-52.522602081299 -74.618576049805 -134.121444702148 0.354176521301
26.863451004028 -74.992256164551 -133.212295532227 3.114331722260
39.995506286621 -75.365722656250 -132.512832641602 1.263166904449
26.140611648560 -73.435173034668 -143.231506347656 1.772240281105
113.437637329102 -75.419380187988 -139.390869140625 1.612862348557
112.429100036621 -74.980422973633 -133.167404174805 1.595301985741
-73.451232910156 -75.048645019531 -148.167907714844 1.908011317253
-44.337360382080 -75.109550476074 -146.392761230469 1.847480416298
-70.812568664551 -73.651184082031 -149.285552978516 2.094715118408
21.679914474487 -75.327201843262 -151.604278564453 0.804848670959
113.522994995117 -75.642288208008 -150.512008666992 2.070973634720
-52.656925201416 -74.691574096680 -148.906387329102 0.912410855293
-69.322189331055 -73.312942504883 -149.012298583984 1.913985013962
-38.147907257080 -77.217140197754 -153.950088500977 0.357335358858
33.677505493164 -73.014602661133 -151.482772827148 1.904329776764
112.275451660156 -75.319557189941 -151.454879760742 1.536135673523
113.354904174805 -75.056724548340 -157.505081176758 1.168668270111
-67.930946350098 -72.705184936523 -153.477539062500 1.221794366837
-68.793090820313 -74.327995300293 -162.626068115234 0.058057840914
21.728544235229 -75.543350219727 -162.466461181641 0.623851537704
-59.424983978271 -73.685462951660 -166.400238037109 1.071313023567
-33.039546966553 -75.338539123535 -160.692260742188 0.524981617928
7.046401977539 -74.862197875977 -161.984848022461 1.566578149796
111.296737670898 -75.704803466797 -161.051223754883 1.671653151512
4.748148918152 -75.241653442383 -164.292831420898 0.603440225124
-33.176563262939 -75.074020385742 -165.093536376953 0.296504855156
0.791297018528 -74.622596740723 -166.986389160156 0.559675514698
109.457427978516 -75.167701721191 -169.177932739258 1.594422698021
-40.464302062988 -72.636573791504 -168.509445190430 1.480207443237
27.738613128662 -72.833320617676 -169.665023803711 1.216295123100
111.002716064453 -74.997756958008 -171.601470947266 1.957030653954
-57.022640228271 -73.101661682129 -176.996551513672 0.935903310776
-28.397022247314 -75.013664245605 -172.831451416016 1.672347187996
105.445022583008 -74.449134826660 -172.767852783203 1.541740179062
29.101604461670 -74.733650207520 -172.119384765625 1.628403544426
112.799423217773 -76.904067993164 -173.194595336914 1.893270015717
-36.594387054443 -74.276390075684 -176.249511718750 1.943396091461
106.613059997559 -74.972923278809 -179.646713256836 1.346720337868
-59.261955261230 -74.384788513184 -177.636810302734 1.836651444435
-24.732469558716 -76.417190551758 -180.337265014648 0.892933189869
-144.326690673828 -73.167785644531 -182.582305908203 0.690610826015
-53.968894958496 -74.001502990723 -183.401809692383 0.584716439247
-146.223831176758 -73.915374755859 -187.345840454102 1.556074500084
-32.155120849609 -73.573646545410 -187.360992431641 1.250066399574
23.762601852417 -74.884040832520 -186.067764282227 0.655165851116
108.013015747070 -74.845054626465 -182.050781250000 0.906352877617
-29.798681259155 -76.227508544922 -186.788833618164 1.090039968491
12.271211624146 -75.401824951172 -190.187911987305 2.037087440491
19.685861587524 -74.525077819824 -200.057189941406 1.284684181213
-145.909683227539 -74.343582153320 -192.976181030273 0.770107030869
103.177871704102 -74.770256042480 -194.151565551758 1.254480123520
-17.562633514404 -72.454719543457 -193.489303588867 0.658044636250
103.018402099609 -74.835708618164 -189.294815063477 0.720581531525
14.883668899536 -73.977050781250 -187.491195678711 1.728296518326
-131.380645751953 -73.267875671387 -200.935302734375 0.706175684929
-140.044708251953 -74.535118103027 -201.173019409180 0.776342749596
97.602149963379 -74.764129638672 -200.205673217773 0.920610368252
-11.541726112366 -76.257209777832 -201.008544921875 0.505771279335
-14.298534393311 -75.885314941406 -200.606933593750 2.325274467468
9.794445991516 -75.350242614746 -206.851211547852 1.184479951859
-149.565719604492 -71.094474792480 -205.982971191406 1.277971386909
-145.272857666016 -74.988723754883 -206.326644897461 0.851008951664
99.053901672363 -74.699020385742 -202.245559692383 1.188818573952
-77.667251586914 -73.523071289063 -209.450073242188 0.979740202427
-36.751522064209 -73.695823669434 -203.402618408203 1.355277538300
17.327280044556 -74.994361877441 -210.145324707031 2.159852027893
-25.586153030396 -74.504119873047 -211.468750000000 1.644392848015
-78.410606384277 -73.388816833496 -211.451965332031 0.712089836597
91.601287841797 -74.806518554688 -210.119506835938 1.100115060806
-81.762664794922 -73.025962829590 -212.924163818359 0.844245910645
-145.679718017578 -74.919860839844 -218.278289794922 0.933484971523
-78.770652770996 -74.072578430176 -214.620727539063 0.706152856350
-15.098095893860 -73.015106201172 -213.405517578125 1.274453163147
-20.314065933228 -73.234550476074 -216.882415771484 0.340414136648
19.311157226563 -73.354316711426 -210.831329345703 0.560404658318
-5.382256031036 -75.201866149902 -215.363204956055 2.271713733673
-87.376792907715 -72.551979064941 -218.503402709961 0.519664347172
92.578575134277 -74.638252258301 -212.645751953125 1.884507298470
-95.072883605957 -74.361724853516 -216.383834838867 1.328612685204
-149.020599365234 -75.011245727539 -222.755599975586 0.989320397377
-18.537593841553 -73.234962463379 -222.125564575195 0.666310310364
16.518201828003 -73.766014099121 -216.243453979492 0.532134413719
-101.106521606445 -72.962631225586 -220.309051513672 0.622880458832
8.157773971558 -74.803680419922 -220.760040283203 0.470434516668
-22.661231994629 -74.737411499023 -217.066894531250 0.440596282482
84.253547668457 -74.638641357422 -222.567947387695 1.004991650581
-145.928588867188 -74.618820190430 -222.601440429688 1.232923626900
4.979331970215 -72.508834838867 -225.438659667969 1.616956949234
-8.879630088806 -75.746803283691 -222.118576049805 2.411977529526
17.783807754517 -72.784408569336 -220.595382690430 1.725237727165
83.774459838867 -74.666198730469 -220.952468872070 1.795376181602
-11.592129707336 -73.894691467285 -227.282058715820 1.210503339767
-130.063308715820 -73.119110107422 -226.313873291016 2.207780361176
-11.411959648132 -75.269523620605 -224.761993408203 0.378846585751
17.506185531616 -75.971420288086 -233.752197265625 1.502529263496
-124.431472778320 -73.897392272949 -227.951171875000 0.789023578167
-148.096466064453 -71.589622497559 -227.742675781250 1.014833569527
-140.610733032227 -73.002227783203 -229.045486450195 0.968927621841
-133.996643066406 -72.864356994629 -230.759628295898 0.932599246502
-15.127387046814 -74.384094238281 -226.750274658203 1.741602540016
72.403488159180 -74.381294250488 -229.255661010742 0.783165276051
-140.800689697266 -72.532981872559 -231.932769775391 0.442668050528
74.820594787598 -75.933502197266 -229.059478759766 1.082340955734
-18.673210144043 -75.624450683594 -227.046173095703 2.031479120255
-141.164505004883 -76.926620483398 -231.709915161133 0.733335673809
79.176879882813 -74.113967895508 -227.637878417969 0.949864864349
9.601262092590 -75.525115966797 -235.485290527344 2.582795381546
-143.333282470703 -77.770393371582 -234.435073852539 1.470752596855
-150.134078979492 -72.562286376953 -235.610458374023 1.085570573807
16.186901092529 -73.454826354980 -232.470153808594 1.749466061592
-2.426860094070 -74.055442810059 -235.213211059570 1.058975577354
-24.037412643433 -74.422973632813 -237.748413085938 1.321854233742
-1.160557031631 -72.292381286621 -239.497070312500 1.141559362411
-160.498458862305 -73.019515991211 -238.029907226563 1.179740309715
11.934640884399 -75.361366271973 -244.605545043945 0.783240437508
-163.914413452148 -72.421798706055 -236.081161499023 1.168077349663
-13.523966789246 -75.171325683594 -237.906326293945 0.791698217392
66.412666320801 -74.975296020508 -238.738632202148 1.492836594582
-11.702504158020 -74.426109313965 -240.412384033203 0.451467603445
-24.042335510254 -72.733230590820 -239.785400390625 0.302040278912
-25.330919265747 -73.586166381836 -241.767257690430 1.656729102135
-15.307550430298 -73.149108886719 -242.129684448242 0.467106133699
-145.563705444336 -72.743400573730 -235.802551269531 1.097410678864
9.120295524597 -74.584342956543 -243.475128173828 0.404282033443
65.112533569336 -73.956192016602 -241.489974975586 1.585209488869
13.905623435974 -73.952987670898 -244.773727416992 0.546082437038
-160.791076660156 -72.390701293945 -240.284179687500 2.034782886505
-48.118331909180 -73.100654602051 -243.938034057617 0.742268085480
2.857814073563 -79.645896911621 -246.701049804688 0.890852749348
17.202758789063 -73.712699890137 -245.525634765625 0.563790500164
-54.153820037842 -72.558830261230 -246.911178588867 0.792026817799
-3.489727020264 -73.169448852539 -245.286422729492 1.194596767426
22.057970046997 -74.731132507324 -246.319122314453 0.756761252880
-164.192108154297 -72.757774353027 -248.855957031250 1.283099532127
-70.332023620605 -74.669357299805 -246.834609985352 0.802412807941
