# This PCD file was generated using the MATLAB® pcwrite function
# from Computer Vision Toolbox®.
# .PCD v.7 - Point Cloud Data file format
VERSION .7
FIELDS x y z
SIZE 4 4 4
TYPE F F F
COUNT 1 1 1
WIDTH 1418
HEIGHT 1
VIEWPOINT 0 0 0 1 0 0 0
POINTS 1418
DATA ascii
86.418747 -71.585770 -213.484848
-90.854973 -72.345551 -214.455795
-16.028336 -71.843277 -213.839523
-6.567045 -72.814369 -213.482849
14.923742 -71.330788 -214.226425
-88.492859 -70.131287 -215.613571
94.748520 -71.769905 -215.613266
84.358025 -73.280685 -215.887756
-95.985909 -70.817619 -215.798203
-88.272308 -72.088783 -216.234222
-23.867846 -72.724510 -216.975601
-99.375603 -72.477676 -218.453552
-12.720678 -72.119125 -218.878998
8.518137 -72.183815 -217.428513
80.599449 -70.111069 -219.824829
89.703949 -72.520264 -219.809174
5.975206 -71.420967 -220.944839
85.998184 -71.541908 -219.729828
-22.373079 -71.793060 -220.529022
0.094188 -72.513138 -220.951813
-19.964937 -69.998505 -220.556915
9.106557 -71.517540 -222.094727
14.949508 -71.685753 -222.464890
-1.590853 -72.125763 -222.183685
82.054001 -72.024582 -220.771149
-97.216995 -71.570335 -223.204544
-144.624802 -71.365036 -223.878128
-22.329187 -70.852928 -223.788712
-13.732922 -70.822281 -223.188644
-143.185593 -71.200912 -224.048111
-123.783684 -70.938019 -225.523926
-10.196996 -72.465469 -224.996719
-9.493093 -70.696373 -225.558121
-142.986343 -71.068672 -225.280624
-22.058205 -71.073547 -225.609177
-104.315666 -71.660515 -226.373444
6.016876 -72.424591 -225.667191
13.486065 -71.151138 -226.515137
-112.560844 -71.142769 -227.859314
9.377337 -71.659729 -225.893524
-115.652702 -71.579826 -227.129272
-111.315994 -71.430229 -227.483017
6.006706 -71.653709 -227.518997
76.891029 -71.722282 -227.704758
-106.855324 -72.192917 -229.183228
79.121010 -71.509415 -228.405594
-10.051736 -71.851990 -229.730682
-12.404490 -71.194107 -228.671844
10.119880 -72.641434 -229.895752
71.057655 -72.347664 -229.425705
7.279546 -71.276543 -230.706894
-14.892513 -71.142395 -232.037186
-113.447807 -72.546402 -231.336990
72.914169 -71.876961 -230.893692
-121.570213 -71.491058 -231.787766
-142.093552 -71.783432 -233.060776
-7.673600 -72.446877 -232.429092
-141.711044 -71.562386 -234.563644
0.146710 -72.288239 -231.479248
11.659264 -71.835220 -232.313751
-12.823975 -71.661797 -232.044952
66.232399 -70.704605 -234.633209
-125.284462 -72.923676 -233.833084
16.364578 -70.910538 -233.601501
-132.092804 -70.477615 -235.057098
-145.715744 -72.017296 -235.646820
64.248825 -72.529877 -236.212662
73.256386 -72.166069 -234.493042
-166.616974 -72.159805 -236.608246
-13.114017 -71.606392 -236.034729
-9.123603 -71.460167 -237.581085
-2.025349 -70.615906 -238.351929
-6.486120 -71.430801 -237.775513
8.007454 -71.601784 -238.603104
61.933838 -72.015343 -238.300995
-167.104691 -70.871460 -238.777573
0.862369 -71.945984 -238.752548
70.665756 -71.512718 -239.478363
17.729982 -70.163780 -240.016312
62.664902 -71.992302 -239.291763
-8.815284 -71.852264 -239.768631
-19.472044 -70.702477 -241.033279
-16.212795 -71.901604 -240.735870
5.077402 -71.378929 -243.163422
12.659809 -71.182968 -242.986984
3.549848 -71.128967 -241.746017
-8.307185 -71.803871 -242.921570
7.815903 -73.002235 -243.850586
12.962869 -70.591202 -244.651550
13.603225 -71.722786 -244.774796
16.354553 -71.695671 -245.158432
17.591963 -71.574341 -246.695450
-67.720238 -72.362282 -247.258438
-11.718426 -71.544029 -247.960953
-72.760071 -70.815056 -248.172531
-61.574860 -73.336533 -247.399475
-144.817947 -71.745529 -246.975586
18.448469 -72.450432 -247.491074
47.842640 -71.546616 -248.517395
-82.888336 -71.553833 -249.560730
53.003475 -72.297684 -249.059540
-66.363541 -71.501846 -250.817505
-168.084305 -71.573265 -251.090118
50.845631 -71.013870 -251.208694
-89.629135 -71.917862 -251.136063
-70.768883 -70.930763 -251.155655
48.232944 -70.743362 -250.906494
-92.567078 -71.880264 -252.517517
-73.574341 -70.328896 -252.238083
-74.600410 -70.867073 -253.357651
41.454784 -71.666718 -253.119873
-78.426270 -72.193863 -253.508835
-133.934982 -71.588699 -255.140503
-141.599594 -72.411140 -254.221558
-116.892380 -72.958122 -256.416229
-116.699905 -70.855545 -257.068909
23.581095 -71.692772 -257.486084
-111.600555 -71.672050 -257.281097
-94.566048 -72.538498 -258.542725
-124.364525 -72.193657 -263.149658
-167.259003 -71.332756 -262.772156
-134.112411 -71.847374 -265.070953
-129.704376 -72.073265 -265.219666
-167.457870 -72.303719 -268.148834
-168.796768 -72.176094 -269.560730
-146.535965 -71.938301 -273.383636
-168.169342 -71.772255 -275.396057
21.552916 -72.381210 -276.966797
-9.218992 -72.558945 -278.928528
-146.222794 -71.929771 -282.172119
-126.743439 -71.857628 -283.743927
-167.715103 -71.935616 -285.020905
-159.535629 -71.526352 -285.270630
-81.024254 -72.960915 -286.373566
-67.665009 -72.060226 -285.491943
-98.606773 -71.432350 -286.020691
-70.440193 -70.149048 -285.925537
-60.022873 -70.970390 -286.051727
-160.007111 -70.976105 -287.867950
-44.050652 -71.339111 -287.602448
-41.836300 -71.890923 -287.770782
-168.008301 -71.511810 -287.191986
-5.075370 -72.325203 -287.843811
-27.848072 -72.650978 -288.768585
-15.539261 -71.663193 -287.681946
-39.616180 -71.365425 -289.157074
-165.671387 -71.447601 -289.176819
-23.596188 -71.904495 -289.722260
-15.321939 -71.880760 -288.492157
-5.466234 -71.202019 -289.159393
-52.761803 -71.875282 -289.733948
-48.182430 -71.872604 -289.544128
-33.840340 -72.662987 -289.684387
-23.411421 -71.644379 -289.425110
10.231644 -71.758347 -289.440765
-41.180897 -72.566704 -288.716827
-23.811464 -72.097664 -288.983185
-17.009083 -71.050385 -289.817413
-13.808457 -71.323494 -289.794952
-57.748253 -71.401802 -290.379578
-67.941391 -71.918068 -290.950928
-7.004210 -71.600838 -289.849792
-3.640787 -72.732651 -291.322327
-75.168121 -71.649529 -291.120056
-76.630005 -70.589966 -291.174042
-14.492855 -71.201172 -291.246033
4.084724 -71.743584 -290.577240
-91.523537 -70.894730 -290.677856
-87.083160 -71.749069 -290.947174
-106.255333 -72.231354 -292.497040
-93.998611 -71.713982 -291.469666
-139.777039 -71.656563 -292.497375
-123.112144 -71.123009 -292.521667
-142.439606 -72.979538 -293.045074
-116.898064 -72.883408 -293.453979
-135.085846 -71.559525 -294.462524
-125.280441 -71.270729 -294.459076
-126.803963 -71.764938 -293.825928
-142.948730 -72.681000 -302.964691
-143.913162 -72.302673 -310.938843
-145.726929 -71.342819 -312.549469
41.276100 -70.257362 -14.529625
27.844267 -70.574799 -12.700563
26.512642 -71.893936 -14.864749
24.369179 -70.729195 -15.970075
35.138565 -72.179077 -16.803692
30.491953 -70.866203 -16.568146
22.443771 -71.075874 -18.007607
39.451416 -69.613625 -17.912697
29.875803 -71.080490 -18.777601
21.362135 -71.629944 -18.433216
21.994469 -71.185097 -19.050089
21.686665 -71.077324 -19.898455
20.257545 -71.908966 -22.599903
26.083384 -70.816757 -22.606564
49.992329 -71.536957 -22.576752
19.283869 -70.328529 -23.462528
26.416338 -70.708786 -24.766043
45.539318 -71.305405 -26.140797
19.010138 -71.677795 -26.673857
25.883909 -72.021088 -26.424957
49.051449 -70.461830 -27.925592
20.369246 -70.206131 -30.609161
26.432007 -70.841652 -30.347229
26.641460 -71.360100 -32.775745
49.166992 -70.714851 -32.698349
22.282694 -70.970543 -33.288975
29.172625 -70.837654 -35.158401
22.559067 -69.958641 -35.126389
22.061424 -71.126045 -34.903591
22.386623 -70.932106 -35.592396
31.198942 -71.713898 -36.384163
33.646435 -71.440155 -36.272182
25.761559 -70.381134 -38.348217
29.750511 -71.335625 -39.501026
33.743668 -72.119766 -39.962505
36.558819 -70.662567 -41.028328
-53.980671 -70.394661 -48.509125
-35.993828 -70.063416 -51.451122
-29.430887 -70.147636 -53.255569
-80.262688 -70.705437 -53.349945
-82.673347 -70.494225 -55.790962
-19.025940 -70.633141 -58.465439
-86.147430 -70.738129 -61.681332
-17.851866 -70.897530 -60.966278
-13.625036 -70.498070 -64.535767
82.684486 -70.470566 -65.770630
-90.466728 -69.262543 -66.971245
75.995628 -70.644142 -67.901268
74.382751 -70.112778 -69.785583
94.518845 -70.418304 -69.331543
-20.235794 -71.306755 -73.323685
69.108368 -69.657578 -75.699028
99.687523 -69.983513 -75.142899
-23.696110 -69.458481 -75.230812
98.408958 -70.468681 -74.725311
-38.192284 -71.492615 -76.335274
-37.569374 -69.770195 -77.203583
100.550713 -70.588646 -78.043213
68.235794 -70.629898 -79.526245
101.454826 -70.409370 -82.591660
-95.338089 -70.959000 -83.924843
-49.092457 -70.660255 -84.606171
63.057968 -71.207680 -89.010643
53.455261 -70.947166 -89.621437
-57.567589 -70.462357 -89.083801
61.195187 -69.382622 -89.249138
56.568592 -71.443481 -89.948921
100.534309 -70.506516 -90.749969
50.795403 -70.553200 -92.692726
69.946877 -70.339249 -93.553696
61.072487 -71.083244 -92.887192
99.532211 -71.657188 -97.100235
102.877487 -71.256409 -98.211327
69.869759 -71.481682 -98.144554
103.863914 -71.013748 -98.398911
-66.567719 -71.996017 -99.101768
42.522530 -71.402298 -99.183174
57.708527 -71.360893 -101.460327
44.817863 -70.537842 -101.328468
83.518860 -70.079826 -102.764465
52.407421 -69.782997 -102.997414
87.107368 -71.005516 -103.433006
109.354378 -71.355614 -103.508781
-95.406242 -72.039948 -105.100517
108.666611 -70.202164 -108.029556
107.059921 -72.119247 -110.345009
108.652443 -69.557922 -110.039116
112.089294 -71.695175 -108.965698
49.993191 -70.971031 -111.236328
35.816826 -71.143227 -111.240761
107.349556 -70.526451 -111.693123
45.940582 -70.156929 -111.990509
-78.952782 -70.935364 -114.237495
41.349731 -69.460373 -113.160492
43.281620 -71.105270 -114.560104
-82.016678 -71.311821 -115.481583
-77.744415 -70.475685 -115.052315
105.435204 -70.673553 -114.370201
38.102009 -70.911110 -115.369789
109.189514 -71.385773 -115.749748
41.860321 -70.434509 -117.492973
110.973747 -70.019623 -117.127518
-94.736855 -70.910667 -118.273232
-94.377945 -71.106461 -119.468979
-83.326561 -71.122116 -119.428421
-82.770889 -71.045128 -119.665398
-91.306725 -70.232498 -119.809662
108.935791 -70.950294 -119.857780
-81.452576 -70.956749 -119.094643
31.950382 -70.661705 -120.339157
39.080284 -71.239433 -121.284340
-80.413345 -70.856369 -122.069290
110.272125 -71.548523 -121.918663
107.054848 -71.965584 -122.929588
111.539673 -71.218445 -124.956749
-83.019066 -70.205582 -125.443726
35.822727 -71.254654 -124.880516
-85.771576 -70.191216 -126.411453
-78.448296 -71.133522 -127.842880
-52.990898 -70.540512 -128.782013
32.533649 -71.339523 -128.786804
36.581085 -70.570023 -129.129547
-85.906166 -70.098946 -130.508148
30.794437 -71.330986 -131.264526
33.919842 -71.112694 -130.206436
109.205353 -72.752869 -132.927414
116.253334 -71.896011 -132.324417
-60.943184 -70.478523 -132.468948
-72.295235 -69.783852 -133.334274
-50.797737 -70.754326 -135.744003
35.994122 -70.438766 -137.327515
-61.104961 -70.679207 -136.343933
117.432159 -72.006622 -138.314911
26.912695 -70.363411 -138.962738
29.742666 -70.542084 -139.249237
32.297413 -71.143723 -138.396881
-75.220406 -71.000740 -139.471680
-59.296440 -70.963844 -140.999023
34.302826 -70.941803 -141.913452
28.063244 -70.248505 -142.042267
-73.081802 -70.927658 -141.783600
-58.618881 -70.931602 -143.226028
109.435463 -70.127953 -144.277451
-76.404449 -72.377342 -144.229263
29.976059 -69.955177 -145.363632
34.774029 -71.871841 -145.848602
25.799400 -70.789864 -147.857834
116.297623 -70.056702 -147.359253
-45.212605 -72.030365 -147.516251
22.993433 -70.935928 -148.385071
30.616283 -71.471191 -148.595215
27.898287 -69.621460 -149.841400
30.159081 -70.286774 -150.533417
32.254498 -70.863663 -151.416840
-66.383385 -70.306862 -151.393982
-42.431328 -70.437592 -152.416077
109.960999 -71.577904 -152.785416
25.569447 -70.429611 -152.506866
-39.451694 -70.155716 -152.358688
-49.435307 -71.214851 -153.024902
-70.696732 -70.044434 -156.609818
-68.528465 -69.173958 -156.985901
-66.831795 -69.814812 -155.681885
-42.758724 -69.314987 -156.907318
-68.597015 -70.934669 -158.781418
11.843178 -70.463112 -157.712158
13.614324 -70.083313 -158.301239
115.610336 -70.301544 -159.808960
-44.650406 -69.785271 -158.671463
22.567595 -72.032784 -158.822571
-39.861477 -70.191811 -159.945786
3.691728 -70.324821 -159.386795
-33.824669 -70.857880 -162.672211
31.082193 -70.298859 -162.269684
108.720284 -70.996254 -163.277725
114.161400 -69.944206 -163.602844
27.633856 -71.536552 -165.229126
-37.250523 -70.780800 -166.580093
-31.291975 -70.656021 -166.088028
-40.281933 -70.978256 -165.683395
29.243938 -71.275925 -166.488007
-38.065937 -70.009872 -166.440689
18.171648 -70.044487 -165.951126
-41.780560 -70.720612 -169.702972
-37.621082 -71.556946 -169.378265
28.917337 -70.087730 -168.636169
108.167809 -70.606018 -170.732254
-27.297348 -72.536835 -172.231949
111.898560 -71.176231 -172.682953
-33.075256 -70.058235 -172.153488
25.788136 -70.575638 -174.223938
27.437883 -72.224930 -175.946289
111.949783 -70.607124 -174.818298
-28.597136 -70.460266 -177.127106
-32.633099 -71.195610 -177.761597
-32.078884 -70.015114 -178.558487
105.284050 -71.205269 -176.581146
-23.565794 -70.429108 -179.270081
26.570374 -70.150299 -178.822861
109.682373 -69.719666 -179.686066
14.686869 -71.110947 -179.340179
-27.930094 -70.562569 -180.286957
106.061272 -70.612579 -180.745071
-35.041317 -71.268356 -182.401260
108.269463 -69.726898 -182.122849
109.741966 -70.953316 -181.319107
-150.703232 -70.911919 -184.181534
-24.920530 -70.478897 -183.090164
-21.538698 -70.650887 -182.852432
25.992453 -70.864067 -184.127701
17.120770 -69.473228 -184.816711
11.914173 -70.963158 -186.619781
104.564262 -70.915627 -185.616440
-152.607300 -71.058556 -186.923096
-23.993540 -69.215019 -186.619904
-19.038736 -71.141884 -187.908813
106.183266 -71.016022 -188.100098
-149.992355 -70.886375 -188.287292
-143.830124 -71.273262 -189.275345
-28.142553 -70.492546 -189.270355
102.100388 -69.740196 -190.307709
-27.986750 -71.056335 -190.109299
-16.066370 -70.404312 -192.570648
-150.797531 -71.207100 -193.216461
-151.556763 -70.673889 -192.936035
-154.982361 -71.635498 -193.769363
-142.855164 -71.278465 -193.614639
-157.501633 -69.210663 -195.278717
103.121391 -70.198212 -195.089844
-17.542322 -71.398155 -195.907822
99.317131 -70.926949 -195.254593
-108.702194 -70.805183 -196.014465
9.180145 -70.475700 -196.990387
-161.292419 -70.816628 -197.203003
-111.253204 -70.758003 -196.348114
-114.436417 -70.636070 -197.377029
-110.288193 -70.898285 -198.048843
-115.550240 -71.996941 -198.341568
-14.557347 -70.177170 -199.185822
-24.700392 -71.962738 -199.488342
96.372124 -71.898949 -200.096222
13.186365 -70.410454 -200.699203
11.659393 -70.564514 -202.643768
-122.208290 -70.953194 -202.653259
-141.655121 -71.038956 -203.128815
-164.403946 -71.096756 -203.703262
-23.114067 -70.767342 -202.859329
99.781998 -70.491608 -203.355484
-142.877548 -70.529984 -205.305130
94.250221 -70.750198 -205.035828
-11.630302 -71.576103 -205.801239
18.805975 -70.503601 -204.240311
8.267387 -71.191902 -205.028564
-143.942505 -71.427490 -205.773743
92.648804 -71.307480 -207.189667
-22.271950 -71.630379 -207.019333
16.288033 -70.279999 -208.046097
96.917389 -69.985794 -206.687180
-8.457096 -71.667038 -208.001572
97.127495 -69.965561 -208.149872
-11.180428 -70.101860 -209.734177
18.171658 -70.249100 -210.438660
-143.714340 -70.939827 -212.082428
-5.200437 -71.260902 -212.629333
87.375275 -69.972878 -213.083649
6.893524 -70.989799 -214.866730
93.024986 -70.832397 -215.167511
11.968543 -69.762863 -214.010986
17.308674 -72.078110 -215.784958
14.184258 -70.198143 -217.352036
-93.050362 -70.572647 -216.366028
-90.559631 -71.473351 -216.563766
-5.767021 -71.166031 -217.191040
-99.244057 -71.560783 -217.550247
-14.516143 -71.532654 -217.457703
-90.404388 -70.914436 -218.900543
-91.157433 -70.055794 -217.597244
-1.350716 -71.454018 -220.006927
-165.957169 -71.349251 -219.304932
-13.084825 -70.915649 -219.285126
-103.912224 -71.833176 -221.177643
81.343956 -70.465515 -220.959488
-143.875900 -72.604462 -220.761765
-93.054100 -71.238289 -220.648514
8.782100 -70.551361 -219.339798
9.892145 -70.343384 -220.107803
88.346397 -70.516571 -219.769012
-9.683816 -70.642998 -222.603043
16.447758 -71.308510 -222.258163
12.255773 -69.744095 -223.638184
-107.903313 -71.290558 -223.423523
78.427536 -71.000999 -223.801575
-125.848549 -71.423683 -224.355392
-124.394249 -70.231354 -224.798599
-18.025896 -70.963081 -224.069687
86.789131 -71.869087 -223.815964
7.978261 -71.192055 -223.944534
-116.509186 -69.758072 -225.162170
-13.137450 -70.331909 -224.267609
-6.115294 -70.504913 -225.609253
-135.485260 -70.996605 -226.026138
-11.250159 -70.294785 -226.290710
16.565811 -71.180786 -225.678421
-114.653320 -70.711037 -227.281616
-166.693039 -71.936050 -227.848129
-16.505754 -71.078850 -226.683990
-6.594841 -72.822845 -227.783142
73.627373 -70.024704 -227.940964
75.373955 -70.129837 -229.269974
82.715363 -70.858994 -228.797974
-15.616363 -70.928825 -230.712982
-8.850791 -70.491508 -230.700790
-116.641121 -71.209770 -232.460190
-9.976475 -71.370834 -232.748352
15.299441 -70.263435 -233.750397
72.915215 -70.563889 -234.217773
5.618097 -70.361473 -234.541946
68.800491 -71.538261 -234.660751
70.795181 -70.510979 -233.451523
2.110410 -72.141960 -234.549881
10.259061 -70.643646 -236.009476
-142.957260 -71.464233 -236.692322
-5.603190 -70.744499 -236.294846
-13.471088 -70.729141 -236.424454
-0.903692 -70.118507 -238.051941
65.303299 -70.193993 -237.746490
69.367256 -70.107864 -236.648621
11.022798 -72.083519 -237.844391
72.218025 -70.981155 -239.658554
-6.811843 -71.521751 -240.171509
-1.286107 -70.558311 -239.652512
14.796328 -70.842354 -239.691376
15.106973 -71.035645 -240.176254
10.614441 -71.349892 -240.956924
56.338650 -71.557152 -240.966141
64.191200 -71.225845 -240.817627
9.097110 -70.344704 -240.867020
-9.766468 -69.967773 -242.821213
59.618111 -70.939568 -242.727310
-10.774731 -71.160194 -243.161270
60.820061 -71.950195 -243.732132
57.113461 -71.167374 -244.969910
15.840763 -70.790100 -246.496948
-167.643723 -70.753952 -245.764023
16.455687 -70.820549 -246.691071
56.770412 -70.718338 -246.503525
58.309357 -71.061226 -247.497299
51.724270 -70.541870 -246.325058
-71.662819 -69.709221 -247.934601
-68.240547 -70.160210 -248.472260
-74.904938 -69.770889 -248.749405
-79.293091 -70.687271 -248.940598
43.706516 -70.179047 -248.627472
-71.058678 -70.974998 -251.045639
-144.126694 -70.154884 -252.664063
-14.975575 -70.535500 -252.142990
-167.201569 -71.236603 -253.302811
38.446514 -70.196198 -253.276382
48.095837 -70.726456 -253.842850
-142.145828 -70.637062 -254.653702
-126.527489 -71.424606 -253.494370
-78.727142 -70.545937 -253.984573
-133.867157 -71.415565 -254.173828
-14.486340 -71.812843 -253.927414
39.411186 -71.418236 -254.207657
-135.783051 -71.297478 -256.672791
-123.905533 -70.544037 -256.013306
-84.941582 -71.651314 -255.809479
43.641903 -70.140739 -255.948532
-108.370049 -71.558815 -256.206329
32.115471 -69.787910 -257.804657
35.642437 -70.347832 -259.461731
-156.655228 -70.162109 -260.531250
-107.760193 -71.731163 -261.106323
-15.377710 -71.694191 -263.000488
-114.002159 -71.136772 -262.322021
-141.781448 -70.233994 -263.732788
-139.201462 -70.967796 -261.752319
-115.268944 -71.615288 -262.821594
-154.433594 -69.763374 -263.782715
-125.292580 -71.066345 -264.482605
-158.212296 -69.715347 -266.053711
-144.439194 -71.339134 -267.240875
-153.965958 -70.199425 -267.838959
-158.828537 -71.263863 -267.394104
23.731295 -71.503670 -270.639740
-14.130863 -70.581505 -271.930054
-152.934097 -69.822296 -274.654175
22.561756 -70.278358 -272.997070
-167.250427 -70.696777 -273.914429
-160.664871 -69.954147 -276.727417
-158.327087 -70.366058 -275.973236
-146.190369 -70.519844 -276.053406
-153.441345 -69.851486 -276.416290
-12.178229 -70.045471 -277.128876
-159.102615 -70.522858 -279.271729
-153.125214 -70.716324 -279.454437
-145.959579 -71.806480 -282.110962
-167.247635 -71.404030 -283.170227
-133.725388 -71.499886 -284.023132
-154.709702 -71.344009 -284.313812
-142.226425 -70.116447 -286.521301
-136.496933 -71.558899 -284.891968
-116.727127 -70.598503 -286.205048
-157.112152 -71.901405 -286.906067
-105.829643 -71.185638 -286.591187
-88.215454 -71.053505 -286.110870
12.268769 -71.343529 -285.573761
-162.279053 -69.596977 -286.309662
-84.687744 -70.497124 -287.288208
-59.830208 -70.253517 -286.775787
-73.979362 -70.552368 -287.453552
-63.834927 -71.094185 -288.410156
-6.728447 -70.635727 -288.047607
-151.381332 -69.085602 -289.378876
-57.985138 -69.779434 -287.311005
-52.590424 -70.352303 -287.145935
9.792637 -70.610374 -288.541809
-163.691849 -69.136421 -290.566772
-52.175262 -70.171890 -289.486908
8.177694 -71.193832 -290.835510
-71.089676 -70.201447 -289.981232
-64.603256 -71.537560 -290.210602
-4.069562 -71.095657 -291.126801
-163.369370 -70.523529 -292.037323
-97.299507 -69.860115 -291.813202
-1.332000 -70.947922 -291.284760
3.532019 -70.245102 -290.651154
-92.678650 -70.209373 -290.479767
-114.331192 -70.291786 -292.491852
-136.918381 -70.811508 -293.472443
-117.943878 -69.535362 -292.903351
-159.020096 -69.918755 -292.717072
-159.018143 -70.669716 -294.204315
-155.749146 -71.041000 -297.543274
-153.373108 -70.358986 -296.474396
-154.466949 -71.829483 -297.669647
-144.129974 -71.077171 -310.540955
-154.416534 -71.395439 -312.789520
34.733791 -70.491943 -10.107496
31.327147 -70.267342 -11.905537
42.759838 -69.799522 -14.099263
25.707829 -70.879356 -15.964831
48.226635 -69.940285 -17.535460
40.613949 -70.243965 -18.544907
47.682636 -71.097298 -19.477314
27.509638 -71.529823 -21.249767
26.959908 -69.508812 -22.502472
51.135090 -70.315720 -24.087608
44.240910 -69.649239 -27.157633
50.978073 -69.883057 -28.855139
44.592575 -70.383690 -30.328693
51.058430 -69.553413 -32.237274
49.015160 -69.554550 -32.524139
40.696770 -69.953300 -35.111893
49.120743 -69.448662 -34.855431
38.631241 -69.819847 -34.894096
46.402863 -69.602234 -35.664833
35.553085 -70.749954 -36.874969
45.099655 -69.399529 -37.213009
35.047928 -71.104401 -38.188969
44.216461 -70.345833 -38.170624
42.065769 -69.679924 -39.052502
43.546432 -70.328362 -39.790577
33.733967 -69.768036 -40.220921
34.589241 -69.707062 -40.282532
31.696276 -70.433395 -41.322010
32.911175 -69.576553 -41.251823
37.490574 -69.888733 -42.143692
39.214428 -70.023834 -40.836967
-62.245026 -68.803246 -48.863632
-52.375992 -69.928604 -47.500248
-48.513222 -70.078529 -48.228550
-70.258759 -69.476212 -48.542648
-43.911015 -69.127090 -48.608578
-40.712639 -69.927887 -48.278965
-20.650635 -68.733170 -56.449207
-85.757248 -70.494240 -57.866806
76.595917 -69.878922 -65.819260
79.836075 -69.161911 -66.039230
90.854805 -70.955582 -65.634506
72.864227 -70.339584 -67.097351
-92.988571 -70.283188 -68.294983
-16.112713 -69.337265 -70.045113
70.958923 -68.799614 -71.309296
-19.992607 -70.553284 -73.228394
68.650719 -70.457794 -78.439926
-94.282265 -69.819992 -78.914780
67.100121 -69.466393 -80.815773
61.096409 -67.645882 -84.484055
67.112503 -69.845932 -84.163673
59.127224 -68.709091 -88.539581
62.131004 -69.396965 -88.820381
102.073616 -70.648407 -88.640862
63.990612 -69.969910 -90.475853
60.160267 -69.889999 -92.279915
-64.117126 -70.537025 -93.469887
67.462082 -69.339897 -92.708092
100.319885 -69.190651 -94.297668
46.153156 -69.806244 -94.158546
60.753815 -69.215210 -96.960594
69.340668 -69.764107 -97.395531
108.185646 -70.862808 -98.251480
-96.624924 -70.542152 -97.683983
104.037109 -69.803856 -97.562737
100.078262 -69.603172 -97.370895
-74.271904 -69.780128 -98.051712
-79.310036 -69.395996 -101.097878
54.776737 -69.722458 -100.218246
73.017448 -69.683929 -99.876846
-73.170197 -70.718437 -101.037369
97.339821 -70.367844 -100.022011
101.878281 -70.185516 -101.418701
-82.135696 -69.114861 -103.084808
104.534843 -69.019501 -102.313446
106.484032 -70.701553 -102.792511
77.812653 -69.055176 -103.615463
105.746216 -69.750267 -104.210022
41.895836 -70.040466 -105.118309
44.407433 -70.342422 -104.476532
95.009010 -68.784088 -103.289490
103.694260 -70.560982 -104.337616
54.886436 -68.723610 -104.753151
78.262459 -69.575745 -105.588181
86.446251 -70.291298 -104.926483
-84.888504 -70.868889 -107.400536
46.175228 -69.566933 -108.950577
42.668682 -69.914757 -108.852875
46.553276 -70.209702 -108.561462
-75.334534 -70.048271 -110.573235
107.264267 -69.507591 -109.595100
-96.281815 -70.517830 -112.061188
-79.343582 -69.505112 -110.913254
108.432388 -70.210732 -111.310478
-87.161041 -68.747284 -112.471512
-76.363220 -70.516808 -113.125412
114.197548 -69.468994 -113.865524
45.746292 -70.291008 -114.423950
-94.518837 -70.565147 -116.719803
34.748192 -68.742203 -118.703423
42.156471 -68.410927 -120.118469
34.484062 -69.795227 -121.785332
115.833176 -69.921883 -122.506676
-77.044708 -70.269554 -124.105316
-56.110756 -70.352661 -125.264046
109.299477 -69.339287 -125.422401
38.702686 -69.133720 -128.823593
31.685619 -69.270325 -127.654785
-57.621223 -69.632835 -129.243164
108.328720 -70.801796 -128.128159
115.378891 -70.387138 -128.350769
-74.270103 -69.145302 -130.592606
-53.313992 -70.063042 -130.054764
30.860954 -69.336800 -131.307037
-85.350174 -69.675156 -132.619827
-88.558510 -70.669235 -132.903320
114.754936 -70.515228 -133.498428
-80.289558 -69.414055 -133.622818
-77.026199 -68.975029 -132.656052
-49.569229 -68.326874 -134.816238
36.461132 -69.879333 -133.838821
-76.244499 -69.582657 -135.453201
-71.638168 -69.961090 -137.218735
110.855652 -69.931747 -137.654633
-71.983765 -70.544136 -137.943161
-91.502495 -69.764069 -138.477600
-58.984730 -69.437263 -138.523697
-46.294685 -70.387817 -140.224686
27.917913 -70.165833 -138.021545
-69.912781 -70.155815 -140.432373
-73.668434 -69.857079 -139.763794
-74.346596 -69.173569 -139.425156
35.983276 -70.951721 -141.120453
-57.301495 -70.773819 -140.536865
116.134651 -70.013168 -142.004761
-69.460762 -70.517792 -142.302139
-73.623375 -70.328896 -142.985855
18.749701 -68.218315 -145.217758
111.194237 -68.625595 -145.331207
-68.306007 -70.185196 -146.717026
23.787037 -70.778709 -147.679398
33.724785 -70.299820 -146.853729
15.400801 -68.128822 -146.902023
112.736221 -69.213524 -146.508942
-42.525696 -69.887733 -147.685883
114.878891 -69.513100 -146.619995
-75.039139 -69.365921 -149.103394
-52.245937 -70.393051 -148.595856
-45.954918 -70.355530 -149.028839
-46.259899 -70.720108 -149.359375
11.747679 -70.974380 -151.465225
-71.912323 -69.174316 -151.333481
-53.000088 -70.103119 -151.589874
17.116829 -69.584328 -151.660202
111.751724 -69.765800 -152.886810
114.938889 -69.078522 -151.787262
-39.189377 -69.596535 -154.074417
26.069439 -68.605972 -153.821640
-45.865585 -70.046967 -155.249908
14.727868 -70.161423 -154.725281
21.634644 -69.996605 -155.721054
13.405124 -70.005096 -157.445572
-47.839520 -69.729126 -156.662140
7.076038 -68.249146 -156.968063
27.089401 -69.215187 -156.441193
12.706722 -70.364021 -158.129959
9.789789 -68.844131 -158.265625
13.880017 -68.544647 -159.280884
19.935595 -70.614861 -160.201279
114.225243 -70.395096 -158.523636
23.316870 -70.206139 -161.546585
27.201685 -69.788078 -159.694092
-45.214970 -69.977676 -161.280182
28.517488 -69.466179 -161.462769
113.928848 -69.342667 -160.633102
112.724655 -69.890610 -161.088608
-45.306812 -69.972328 -161.904480
25.363192 -69.376678 -162.905319
-34.850140 -69.612213 -163.207184
109.422867 -69.684875 -164.765366
21.242073 -70.977516 -166.534714
112.818901 -69.517250 -167.105286
-41.689182 -69.393578 -167.267105
26.761503 -70.892853 -167.371201
24.125114 -69.249268 -168.468674
-30.690338 -69.696457 -168.115112
16.496193 -69.559288 -170.845337
109.424713 -69.998451 -173.502213
110.342186 -70.006645 -172.324936
19.980568 -70.393181 -173.714157
-37.479145 -70.618874 -173.172501
-151.618362 -70.010910 -175.084579
24.933985 -69.695709 -174.744461
107.499672 -70.182877 -175.254181
-142.067978 -70.627518 -177.287857
20.584572 -69.841690 -176.581924
-26.789537 -69.728409 -177.910110
18.965660 -69.405075 -178.231033
22.582024 -71.416771 -181.064819
-141.039597 -71.421989 -181.342850
-34.071281 -68.971077 -181.494843
107.206810 -70.419113 -181.177750
-108.656853 -69.896591 -181.500076
24.154953 -69.336937 -181.409012
-23.205887 -68.774521 -183.280487
105.351959 -69.677689 -184.728363
-111.019569 -69.523422 -186.743271
-107.460915 -69.843010 -186.564194
-29.746441 -69.018265 -188.467896
-142.457764 -70.273735 -187.008667
-142.543930 -70.961731 -187.998871
22.106001 -69.705841 -189.080856
24.023027 -69.671478 -189.261139
-24.468424 -70.002945 -189.445129
104.428101 -70.180275 -189.564713
11.900082 -70.930092 -191.070374
-111.448883 -70.308701 -191.758911
-17.910208 -70.412186 -190.524750
-24.961266 -70.278130 -193.413574
-19.727814 -68.975517 -193.353363
14.733468 -69.637085 -193.667923
-144.001205 -70.293900 -193.345673
-130.859161 -69.869797 -195.001266
-124.768921 -69.872917 -193.822311
22.337954 -69.345589 -194.796432
-122.961342 -69.525742 -195.837509
-16.358765 -68.505997 -196.494431
-141.104095 -69.950829 -195.933777
-133.375183 -69.829277 -195.911865
-21.232969 -68.476868 -195.751923
-112.861526 -69.060242 -196.597000
20.011465 -70.877762 -197.208008
-162.458359 -69.946587 -197.585602
99.938477 -70.455284 -197.597748
-108.980888 -70.095467 -199.119720
10.286146 -70.341827 -199.320419
20.894489 -70.468712 -198.753998
-21.933853 -69.364296 -199.731094
-111.308899 -70.282196 -201.207886
-15.757489 -70.050148 -201.142715
19.135988 -70.006134 -200.857880
-165.753189 -70.915291 -201.024673
14.807746 -68.398178 -202.448090
-139.275375 -70.139153 -202.286102
-113.846619 -69.420799 -202.268112
97.853928 -69.661400 -202.069748
-133.884033 -68.790359 -203.716949
-10.273831 -70.498802 -202.802887
-133.208023 -71.090317 -203.391647
96.377716 -70.056633 -204.759811
-131.319626 -70.436798 -205.335678
-127.146706 -70.785072 -204.941345
20.200989 -69.359619 -205.314545
-17.708389 -69.482208 -205.193329
-12.943123 -69.551521 -208.556808
95.432304 -70.809898 -208.781326
12.104929 -71.099762 -208.334579
11.908963 -68.786781 -208.913147
-17.112991 -70.000877 -210.416122
-166.342758 -69.733116 -209.674591
-11.800467 -69.336670 -210.306519
91.927612 -70.648514 -211.223633
9.313343 -69.577858 -211.822815
13.478895 -70.021935 -211.752289
-17.460682 -68.426971 -212.370056
-13.797641 -70.748840 -213.956390
92.176903 -69.974998 -214.535553
-7.679631 -70.556709 -215.386200
87.954185 -68.130264 -216.807037
86.492157 -69.132835 -217.358673
-144.267883 -70.786743 -217.916367
88.523087 -69.275368 -218.128693
-93.351395 -70.175537 -218.201263
-10.698950 -70.243179 -219.585495
-1.469703 -68.211449 -220.836380
15.541949 -69.529915 -220.374115
-106.454414 -70.701767 -220.710983
-144.106247 -69.907333 -222.012253
-4.069153 -70.457321 -221.535873
86.568825 -70.052589 -222.714767
80.114182 -69.895935 -222.542999
-132.194138 -69.979599 -224.219421
-99.414063 -69.581009 -224.632660
9.538470 -69.598198 -224.323776
-5.963238 -69.903831 -223.969406
-140.498993 -70.510788 -225.892670
-133.660141 -68.977203 -225.254974
-134.709091 -69.902374 -224.850128
-122.693153 -69.925591 -225.504410
-117.157387 -68.346413 -225.973846
-110.225014 -70.853905 -225.746689
11.788902 -68.693993 -226.203384
0.137407 -70.314453 -225.662079
-16.014975 -70.004349 -226.341171
-12.977404 -68.935173 -227.582184
13.940349 -69.536247 -225.820099
-7.852107 -69.850204 -225.995468
81.183228 -69.450272 -227.124130
-105.148407 -69.918900 -228.052338
4.026094 -70.567589 -226.956512
10.392087 -70.622551 -229.654434
-14.485631 -69.173050 -230.169266
-1.467658 -70.379059 -230.246170
-156.036148 -68.123398 -230.365128
79.731651 -70.229340 -230.455856
-110.792107 -69.819450 -231.002060
-4.204794 -68.181656 -232.189026
11.490376 -69.697945 -231.568588
14.333101 -69.528572 -232.115036
67.954224 -70.166313 -231.566132
-8.297004 -69.123337 -233.506546
6.537678 -69.895248 -232.830017
-115.342216 -68.773415 -233.356400
-134.934128 -70.267021 -233.591446
-167.623856 -71.025986 -233.894470
-3.602939 -70.068436 -234.214951
-134.011795 -69.322182 -234.256836
-156.524765 -68.786034 -233.643509
-153.314377 -69.331512 -234.328079
-125.470406 -70.051804 -234.179321
64.783318 -70.613670 -234.863144
75.435478 -69.624550 -234.789764
-143.490158 -70.541245 -235.442184
-4.907854 -69.848961 -235.527710
-2.680110 -70.735512 -235.430527
68.648743 -69.996429 -235.766418
-9.503112 -69.093964 -236.944412
-144.356232 -69.976753 -238.009979
-8.875501 -69.802673 -237.353775
69.121300 -70.214554 -236.357590
61.186588 -70.812614 -236.143112
-155.774231 -68.468094 -238.357285
-14.057764 -68.220993 -237.347656
9.198143 -69.840088 -237.747467
-16.074802 -69.817604 -240.733658
70.195000 -69.852493 -239.506073
5.010055 -70.472900 -240.055527
61.592793 -69.719383 -241.437485
62.707855 -68.774689 -240.076172
64.951981 -70.795601 -240.731796
9.184640 -69.385162 -243.052505
57.622604 -70.576431 -243.119217
-168.201691 -70.111794 -244.263245
-156.515137 -69.966293 -244.481995
62.527687 -70.248589 -243.991165
-13.168497 -69.466949 -245.768250
47.668682 -70.597168 -246.335800
-152.558121 -69.163338 -246.973145
54.556503 -69.264954 -247.596100
49.111725 -69.395309 -248.034302
49.475857 -69.963585 -249.667877
-167.349701 -69.313759 -251.197174
-156.652771 -68.591797 -250.804489
-151.715240 -69.589851 -250.899918
22.053585 -71.218132 -251.501816
49.130630 -69.121498 -251.950836
-85.269836 -68.325539 -251.477692
-76.243492 -69.443634 -251.207291
-15.702608 -70.269768 -252.589310
-92.917610 -70.111198 -252.123184
-94.856834 -71.865936 -252.146423
-81.055138 -69.387169 -252.665710
22.577261 -70.331192 -252.497910
-151.847916 -69.787552 -252.750443
-155.891266 -69.937019 -253.205688
-153.408875 -70.864548 -253.992584
-102.759567 -71.009552 -255.438385
-84.401451 -69.061592 -254.455292
-15.200953 -70.469933 -253.706223
-139.936661 -70.344955 -254.808441
-105.283806 -69.621178 -256.072113
23.597326 -69.842064 -255.187714
-167.915482 -69.625916 -256.728088
32.058365 -69.238846 -255.183380
-90.181564 -70.235634 -258.087189
-155.945038 -70.119324 -257.161499
28.512207 -70.317139 -258.686523
-97.573029 -69.674622 -259.025909
24.542862 -68.692856 -259.456421
-100.956291 -69.629295 -260.011322
26.846010 -69.478165 -261.026276
33.240639 -70.040062 -260.304199
-103.987129 -71.051552 -259.998413
-13.916125 -69.830734 -260.894196
24.009109 -68.956657 -261.505890
30.318417 -69.377060 -261.484619
-14.838668 -70.311974 -261.372284
27.324335 -70.242912 -261.250366
-122.953918 -70.684669 -262.257294
-140.596344 -70.404121 -263.144104
-135.694260 -70.203819 -264.314545
-167.347305 -70.286125 -263.363251
-166.113846 -69.810013 -264.183716
-133.287781 -70.718483 -264.023834
-152.175949 -70.092033 -264.221100
-159.735779 -69.007118 -264.955872
-145.380676 -69.262482 -266.150513
-160.871521 -71.166046 -267.356445
-166.253586 -70.097092 -266.955200
24.136034 -69.800575 -267.006317
-168.376755 -70.271309 -269.184906
-163.832413 -69.811203 -269.654572
-145.076553 -68.598564 -269.800995
-13.126589 -68.850136 -272.104279
-161.471436 -68.985085 -274.569946
-165.622742 -69.300201 -275.754425
-11.910954 -70.136192 -276.128906
-166.806519 -68.456696 -277.201447
20.191271 -70.611931 -278.689423
-161.506210 -68.994545 -279.977875
-166.758423 -69.051094 -279.096466
-9.601566 -69.681534 -279.709991
18.628347 -70.102554 -281.281403
-166.329117 -68.556396 -283.592346
-153.465179 -69.388557 -283.790527
-126.646698 -70.973587 -283.343567
-163.008835 -69.397591 -284.302460
-155.927368 -69.698563 -284.469727
-7.839941 -70.155243 -284.598785
-124.623138 -69.935791 -286.387421
-124.355721 -69.260696 -285.448151
-165.093536 -69.547104 -286.070923
-157.028259 -69.021049 -287.000854
-116.529732 -69.693100 -286.121521
-114.974525 -70.328896 -287.581421
-109.087936 -70.209564 -286.882233
-96.667419 -69.763794 -287.451233
-148.395660 -69.522705 -286.848938
-90.122620 -68.600708 -287.514252
-69.536415 -69.684792 -289.251099
-78.413483 -69.126282 -289.270020
-72.515182 -69.210587 -288.091797
-161.814545 -69.024353 -287.309235
-79.437325 -68.865013 -289.234222
-95.729691 -70.095398 -289.940277
-82.898979 -70.055885 -289.265930
-78.137146 -71.216553 -290.828674
-92.651451 -68.603004 -290.950806
-155.694229 -69.873611 -291.869385
-106.656487 -69.160614 -291.318787
-100.340668 -70.833038 -290.513245
-142.946350 -70.284607 -291.778595
-111.581970 -69.476700 -292.503174
5.874354 -69.991241 -292.304993
-156.028854 -68.400223 -292.462311
-145.351837 -70.949425 -293.588348
-134.231964 -70.800728 -294.551056
-145.022873 -69.789810 -296.056671
-146.140259 -70.970871 -300.096497
-154.607544 -71.545982 -300.849030
-143.933517 -69.747627 -300.653015
-155.322891 -70.775757 -305.556305
-154.884781 -70.355164 -310.642334
-153.637360 -70.343849 -311.860504
-145.334671 -69.300232 -311.044586
-149.816528 -69.957382 -313.864777
38.238300 -69.062660 -12.249505
41.702717 -68.986168 -14.213530
43.039982 -70.339386 -15.320090
48.539230 -69.467758 -20.772026
42.642075 -69.057617 -20.471598
49.178818 -69.325829 -22.255390
49.431248 -69.521873 -22.513472
50.911366 -69.027489 -24.322075
50.069141 -70.625404 -30.822714
33.310806 -70.366508 -35.450367
33.602455 -69.237938 -38.086586
-68.962242 -69.780617 -47.508564
-74.404869 -68.829216 -48.858700
-39.000679 -68.700600 -48.246189
-78.874214 -68.828415 -51.638630
-26.650957 -68.582184 -52.720547
-81.147812 -68.388161 -52.024258
84.103561 -67.921013 -64.998474
88.750580 -68.659676 -64.351280
85.184776 -68.439308 -66.389778
72.742592 -68.601860 -69.549118
96.386208 -68.965927 -70.537239
98.859482 -67.598686 -73.357185
-96.120384 -69.156693 -73.244682
68.384140 -68.437599 -73.457764
101.011307 -68.580414 -77.364326
-41.234142 -68.299171 -77.400475
101.510162 -69.882523 -79.108170
-45.232628 -69.641159 -82.369888
66.008354 -68.490303 -82.320053
65.415382 -68.840637 -85.381462
57.405388 -68.654343 -86.113022
101.214912 -69.395096 -84.906250
67.132774 -69.613510 -86.606499
51.558830 -70.021271 -88.322845
54.814877 -69.638710 -89.438103
65.762970 -68.102715 -89.568420
66.450890 -69.497070 -90.319389
64.471970 -68.911110 -92.048859
59.120216 -69.055702 -95.900169
102.687592 -68.817078 -95.844696
67.453918 -69.746208 -96.374596
47.142834 -68.951614 -97.790573
102.057571 -69.092537 -98.846664
103.545959 -68.253326 -98.160530
69.786339 -69.462997 -99.024025
109.062851 -67.970848 -101.899635
46.419304 -67.496109 -104.691673
73.081718 -68.613991 -104.148926
-96.772011 -69.079735 -104.513016
47.915367 -68.858925 -104.494545
41.841717 -68.728943 -104.754578
48.388531 -68.685280 -105.947968
93.559059 -68.114182 -105.890259
-75.721809 -68.652443 -106.360558
104.826134 -68.547615 -108.576103
39.437988 -69.130440 -109.487083
47.502991 -69.802002 -110.598465
-80.657730 -69.713608 -112.490387
38.333385 -67.977814 -113.602303
-77.496490 -68.705933 -115.027611
41.991352 -69.184769 -115.746506
113.329063 -69.246185 -117.440903
-83.828842 -68.892456 -118.491646
38.945854 -68.679359 -117.952538
111.913269 -67.252243 -118.019928
-90.718086 -69.127121 -118.839470
40.402939 -68.816071 -119.734001
107.224594 -69.434944 -120.200974
-79.299492 -69.362656 -119.667213
-95.027824 -68.920319 -121.582367
114.333160 -70.333832 -121.093170
-81.080482 -68.434273 -122.250717
108.477509 -68.732674 -123.077637
-86.438683 -68.101746 -123.014267
38.786461 -67.917938 -122.956055
-60.264259 -69.173782 -123.654900
-88.530228 -67.818108 -125.214119
-80.804970 -69.268669 -125.372841
-62.388634 -69.185944 -125.890854
35.388226 -68.950851 -125.292839
-75.453674 -69.984055 -127.694679
113.525490 -69.052620 -126.898499
38.407963 -68.622246 -128.270309
111.199944 -69.169678 -128.525955
-83.483940 -70.057350 -129.341217
34.602489 -67.646446 -129.182800
-74.795868 -67.726059 -129.049591
-49.177135 -68.410484 -131.659592
-90.378143 -68.777496 -130.704254
113.533783 -68.458313 -134.709000
-58.913654 -68.297745 -135.387375
-80.670990 -68.086105 -135.624252
-61.216297 -69.409859 -135.517090
31.411848 -67.322090 -135.716095
33.533924 -69.572044 -136.370605
-92.940331 -69.275436 -136.461380
-77.355682 -69.450844 -136.414505
111.819969 -68.928452 -139.182144
35.447178 -68.725632 -137.858322
114.296486 -68.391212 -139.871780
-60.852562 -69.526703 -140.049316
-88.705460 -67.974785 -140.882339
-58.348831 -68.674484 -143.035812
-49.131439 -69.684135 -143.479355
-76.261345 -68.742561 -143.944244
33.078209 -68.040962 -144.912384
27.172323 -69.076248 -145.124664
-53.373363 -69.431770 -145.974411
-51.693169 -67.849083 -145.653534
-47.852421 -67.508011 -145.572952
28.783102 -68.369087 -145.754684
-95.559746 -68.914703 -146.903137
-91.956360 -68.251030 -144.666977
20.920666 -68.330635 -146.747055
113.770828 -69.475372 -146.221725
26.785955 -69.313171 -146.956879
-69.836136 -69.783325 -148.439636
29.836811 -67.242615 -150.083740
19.560490 -68.847267 -149.303452
-43.155312 -68.479622 -150.205414
-51.276176 -68.482300 -152.004471
23.475899 -69.197128 -152.898285
-99.121330 -68.396950 -154.353912
-96.838928 -67.927345 -152.209274
-41.143337 -69.637169 -152.948273
30.248758 -68.808685 -154.190170
7.935660 -68.996826 -153.172318
12.572182 -68.000229 -157.200943
-45.990891 -68.502182 -157.248520
8.670350 -68.167755 -156.208267
-39.234535 -69.284042 -158.422394
-99.640915 -68.416527 -159.260040
22.274618 -68.476578 -158.066528
27.329964 -68.727180 -159.980057
-102.695099 -68.356430 -161.318634
-37.679379 -68.820518 -161.105560
-101.713554 -69.210617 -164.102692
19.095560 -68.822586 -165.542633
-101.659004 -69.080513 -166.271133
-104.559883 -69.607895 -167.209473
-38.841736 -69.189476 -166.944168
-40.074638 -69.066879 -167.769318
-103.874420 -67.822868 -168.572586
22.576323 -67.664726 -169.408691
-103.753532 -68.597260 -169.929810
23.924179 -69.883415 -172.219574
-107.089005 -68.866661 -172.473526
-33.576488 -67.906235 -172.687317
-31.204870 -67.081024 -172.180786
-35.298782 -67.615784 -175.190399
-147.011856 -68.919556 -175.936096
-106.421394 -69.778946 -177.378067
25.828888 -69.395332 -176.365417
-153.553436 -69.782318 -177.709259
20.602556 -68.074913 -176.435013
-29.434538 -68.528069 -177.592270
-152.690643 -69.204880 -178.442978
15.612633 -69.626259 -178.625870
-141.239380 -68.697708 -179.940399
-109.460533 -69.541573 -179.719788
-26.520420 -68.115738 -180.292496
21.161686 -69.452461 -180.681915
19.136690 -68.928253 -180.928238
24.990984 -69.389870 -182.147110
22.136814 -68.553848 -181.921036
-29.921284 -68.937210 -184.582611
-108.091034 -69.534622 -185.547989
-27.033634 -68.758980 -184.722961
-152.003845 -69.175156 -185.053574
13.841901 -69.399040 -185.323380
-140.278564 -69.432564 -186.008698
17.520420 -68.324745 -188.168594
-112.830460 -67.405823 -188.921860
-20.763945 -68.659798 -187.639267
19.591099 -67.391617 -187.616684
-150.699768 -68.583969 -188.926086
-108.329506 -68.049957 -190.091675
-113.312607 -69.706146 -191.850555
17.547426 -68.895691 -192.517914
-150.820908 -68.530403 -192.856232
19.046535 -68.432770 -193.585999
-156.124939 -68.281029 -194.046341
-107.780350 -67.966454 -194.216125
12.270964 -68.877052 -194.043854
-25.732363 -68.989883 -193.987473
-116.571945 -69.429047 -195.774734
-19.260447 -68.706650 -197.123581
17.137207 -68.805344 -198.401825
13.376373 -69.118813 -198.340363
-23.509777 -68.793449 -199.381866
-13.587292 -69.552017 -199.679123
-18.742899 -69.524445 -201.585480
-121.795326 -68.696449 -204.228561
-113.014084 -68.924431 -202.146805
19.481873 -70.161301 -203.468842
-13.670341 -69.436760 -203.541489
10.096189 -69.754341 -203.893555
-157.654785 -67.764458 -205.687836
-123.566666 -68.814575 -204.404327
-142.616776 -69.004326 -204.339981
-18.788921 -68.689896 -205.967224
-20.713089 -69.500854 -205.623886
-143.721878 -69.384583 -206.689911
-15.674341 -68.630005 -207.123840
-166.702988 -68.448593 -208.849655
16.444876 -68.237236 -208.238922
-14.416940 -68.715042 -207.915192
-158.263641 -67.656509 -210.685089
-6.955518 -69.124908 -211.563843
-153.232544 -68.607498 -212.434128
-152.662445 -67.638123 -212.662567
-13.066111 -68.859619 -212.348755
15.733137 -69.573631 -212.521011
-5.812774 -69.758385 -214.600082
15.583090 -69.119606 -215.162506
-9.520155 -68.520332 -216.499557
9.631062 -68.348885 -217.070190
-7.785754 -69.063278 -217.844101
-166.044922 -69.205078 -217.647522
-13.801725 -68.980209 -218.472580
-96.587364 -67.907616 -218.812881
-99.847473 -68.008446 -218.724136
-158.027893 -68.913429 -220.563980
-94.865738 -68.624237 -219.437790
-5.085062 -68.730865 -220.630798
-7.488857 -69.283867 -221.355515
12.679360 -68.139771 -221.980652
-98.092491 -68.884033 -222.870453
-11.281670 -68.228668 -222.014587
-158.576752 -68.739426 -222.938416
-5.466148 -69.063713 -223.767166
83.674454 -67.461296 -223.108032
-151.480072 -69.326035 -222.319962
-126.009949 -69.550987 -224.662949
11.303167 -68.275360 -224.644363
-155.617859 -68.040894 -225.026779
-134.741638 -69.806175 -224.567520
-133.915604 -68.602165 -224.432159
80.065834 -68.028473 -225.025070
-124.210999 -68.292130 -226.048599
-122.433548 -68.629150 -226.698334
-113.712959 -68.880753 -225.414124
-1.004684 -69.477524 -227.003967
3.668025 -68.307953 -227.288498
-167.033447 -68.649918 -227.450897
-155.739471 -69.620667 -227.062119
-1.690648 -68.504608 -227.851532
79.899231 -68.973175 -229.301666
4.033805 -69.748222 -229.775711
-8.110862 -68.558121 -230.404327
2.665969 -68.298897 -230.930435
71.406731 -67.880325 -231.893494
-10.863397 -68.394279 -231.632675
-166.795349 -69.023033 -232.524460
77.520874 -68.248741 -232.238983
-122.795479 -69.803802 -233.678879
-132.814117 -69.275650 -234.353912
0.060781 -68.631096 -234.160980
64.368950 -69.295532 -235.216705
-152.469406 -69.142502 -235.309402
-2.647694 -69.275551 -236.044357
0.140925 -69.098717 -235.256424
-8.426421 -69.491180 -237.458084
7.073916 -68.213341 -236.387604
-158.706253 -68.699287 -237.981354
-3.670841 -69.081116 -237.495010
71.081253 -69.322937 -238.510513
-164.215195 -67.355652 -239.322418
-13.118949 -67.494141 -238.835495
1.454640 -69.436180 -240.076843
58.745998 -68.660446 -239.389114
-158.427887 -68.611145 -242.486404
-9.952421 -68.542259 -241.990341
-150.992249 -67.152252 -242.950546
-166.445053 -69.310707 -243.494827
55.942883 -69.570206 -243.545410
-158.678879 -69.283943 -243.615311
13.985212 -68.406158 -243.732620
58.020718 -68.298836 -244.283508
-163.781143 -67.838440 -244.824509
-160.742157 -69.101852 -244.393311
15.584940 -69.642792 -245.887390
-165.728943 -68.827278 -246.601578
-165.154144 -68.615875 -246.965149
-145.944168 -69.632912 -246.579391
59.667282 -69.088791 -248.682648
48.127666 -69.267891 -248.075302
-159.476303 -67.714539 -248.359177
19.728609 -69.395851 -248.513733
-15.163411 -68.611237 -249.123093
46.016003 -68.913719 -249.344330
-164.892929 -67.372673 -250.897385
39.546589 -68.995148 -250.733414
-164.682022 -68.395645 -251.210693
-151.230240 -68.605293 -251.627670
-159.493195 -68.823097 -251.506882
-144.402527 -69.390869 -252.502319
-84.544273 -68.993179 -252.324707
51.182743 -68.315491 -251.628616
-87.895790 -68.066658 -251.718979
40.361095 -68.183594 -253.050797
45.644161 -68.767242 -252.645996
-126.029785 -70.124077 -254.630295
-96.753441 -67.429535 -254.376617
-87.366829 -68.621895 -254.212341
40.783566 -68.934006 -254.293488
-13.548739 -69.293488 -255.089096
-143.830566 -68.309540 -256.192474
-135.304443 -69.645294 -255.921158
-104.936264 -68.042442 -254.845276
-141.026108 -69.636314 -255.505981
-123.324654 -68.842178 -256.226593
-114.338562 -68.985878 -255.892975
-165.066681 -68.219711 -256.649994
-113.669899 -69.296730 -256.797211
-166.641113 -70.159081 -257.414337
-93.574013 -69.187912 -257.199799
-159.604523 -67.130066 -258.235382
33.226692 -67.627426 -257.358948
-95.449020 -69.265717 -259.135956
24.340397 -68.557495 -259.209381
37.065044 -68.815338 -258.582458
-156.027573 -70.590118 -259.358154
-13.334948 -68.998688 -259.383026
-166.386047 -69.970932 -260.647156
-158.958817 -68.213646 -260.673798
-148.775223 -68.195198 -259.872192
-110.719742 -67.346588 -261.425751
-162.432220 -66.954964 -263.137787
-109.166306 -69.048470 -262.087097
-154.415009 -69.416283 -261.533691
-114.337044 -68.917732 -261.754822
-117.231148 -68.963768 -263.272766
-11.358953 -68.734528 -263.390503
27.992479 -68.309265 -263.777130
28.259138 -69.004189 -262.923401
-154.149292 -69.069229 -264.825287
-134.796295 -69.914070 -264.970306
-165.315781 -68.882874 -264.864014
-144.717712 -68.722443 -263.987061
