2.317226886749 -81.502906799316 -281.564727783203 2.214784860611
-135.664672851563 -80.765235900879 -293.011505126953 2.811444044113
-142.318298339844 -85.376396179199 -290.841003417969 1.577000498772
-61.185035705566 -78.835678100586 -66.213447570801 1.354253649712
-42.085102081299 -79.172447204590 -65.200996398926 1.328596472740
-55.903884887695 -80.797317504883 -67.101699829102 1.248416662216
-46.045864105225 -79.478683471680 -68.673591613770 1.119623899460
-72.702941894531 -81.398101806641 -65.201301574707 2.536427497864
-83.470718383789 -81.323959350586 -74.211120605469 3.743701696396
-31.401510238647 -77.947669982910 -82.428649902344 2.815464019775
-42.059898376465 -80.320686340332 -87.665008544922 3.273187637329
-48.042209625244 -80.165115356445 -85.589035034180 1.667526364326
-85.759201049805 -79.566658020020 -87.555427551270 2.609310865402
-76.738845825195 -79.877410888672 -104.103729248047 1.387222886086
41.659549713135 -80.370452880859 -109.923057556152 0.876719951630
-84.726768493652 -82.450775146484 -111.976440429688 3.287451744080
40.259849548340 -79.938987731934 -119.771438598633 1.169423818588
41.681957244873 -81.335830688477 -128.802078247070 3.448016643524
35.482372283936 -77.603874206543 -122.233963012695 0.639609575272
33.347965240479 -81.079544067383 -127.139358520508 3.233758926392
35.062786102295 -77.974731445313 -139.556167602539 1.708268880844
24.983655929565 -75.910217285156 -146.688446044922 1.821164608002
-45.030323028564 -82.495529174805 -150.494125366211 2.869715690613
28.390922546387 -77.846557617188 -148.315139770508 1.367887258530
23.639524459839 -78.705062866211 -156.794982910156 2.441259145737
-47.644821166992 -80.274948120117 -157.809844970703 3.030046224594
27.600822448730 -80.402122497559 -153.481811523438 2.025533437729
-43.623805999756 -79.054946899414 -163.925292968750 0.497489809990
26.999540328979 -78.197311401367 -167.684844970703 2.250125408173
-60.840332031250 -81.664413452148 -170.440185546875 1.583663940430
-9.435407638550 -82.659545898438 -178.109741210938 2.785629034042
-35.703273773193 -75.182739257813 -174.497177124023 2.695888519287
-16.772035598755 -79.194305419922 -175.398452758789 1.763139963150
-54.473972320557 -78.600616455078 -176.772262573242 2.248658657074
22.563245773315 -77.743873596191 -172.078918457031 1.902369141579
-16.467355728149 -80.243438720703 -182.789337158203 1.083162069321
-22.893453598022 -82.897735595703 -187.542190551758 0.894109666348
-58.536357879639 -80.277351379395 -186.135864257813 4.323271274567
-27.229587554932 -79.146606445313 -184.447906494141 1.886347293854
18.374946594238 -77.511642456055 -187.387756347656 1.246679425240
-151.635284423828 -79.687904357910 -185.722427368164 2.948774814606
-27.886127471924 -78.198585510254 -189.363601684570 1.588544607162
-49.919799804688 -78.695671081543 -192.484085083008 1.392779827118
-150.364273071289 -84.682167053223 -195.469253540039 2.441499233246
-143.371124267578 -83.856796264648 -200.879333496094 1.358337640762
-18.738672256470 -79.283660888672 -196.006729125977 1.073838591576
-17.126525878906 -80.900924682617 -201.014205932617 2.197683572769
-50.714084625244 -80.970329284668 -197.190505981445 2.705936908722
-22.214817047119 -76.658065795898 -199.960357666016 2.179786682129
-51.461017608643 -80.311042785645 -205.490585327148 2.522141218185
-44.855598449707 -82.298728942871 -203.588043212891 2.170163869858
-56.252536773682 -83.446708679199 -202.344131469727 1.103651404381
-17.848096847534 -78.143348693848 -207.869277954102 2.416645765305
-150.058273315430 -84.333747863770 -209.786972045898 1.974222064018
-57.205837249756 -79.594413757324 -204.291198730469 0.968913853168
-56.516483306885 -80.260261535645 -208.344039916992 1.060783743858
-31.332363128662 -79.118370056152 -203.131225585938 1.703585505486
-15.027940750122 -81.521232604980 -202.278274536133 1.613908886909
-38.110202789307 -80.258926391602 -207.390716552734 1.042141675949
-77.313354492188 -84.511184692383 -214.481262207031 4.146155357361
-144.195358276367 -84.726501464844 -213.835205078125 3.663368463516
-33.605159759521 -81.330780029297 -205.333175659180 1.750315070152
6.751822948456 -78.812698364258 -211.162292480469 1.852762222290
-59.765029907227 -80.497428894043 -212.728652954102 3.474084854126
-70.834022521973 -79.262428283691 -215.340240478516 2.847890853882
-26.084783554077 -76.901672363281 -218.793289184570 2.150304079056
-10.666476249695 -79.152763366699 -214.568634033203 1.205984950066
-24.420543670654 -80.218017578125 -222.311203002930 2.792972564697
13.889277458191 -78.641334533691 -216.189163208008 1.245261669159
-151.198013305664 -81.144210815430 -225.371231079102 1.521441578865
-9.587119102478 -78.102790832520 -217.483978271484 1.194817066193
-150.668258666992 -83.321838378906 -231.047515869141 0.784352362156
7.469126224518 -82.870384216309 -233.216812133789 3.864177942276
14.099132537842 -81.455070495605 -225.546386718750 2.557805299759
-4.251252174377 -80.734535217285 -226.077285766602 1.193554520607
16.863788604736 -77.689430236816 -227.270111083984 0.860036671162
-137.074447631836 -83.813018798828 -231.316085815430 1.785709500313
9.415877342224 -81.125160217285 -224.741210937500 1.681635141373
-153.273635864258 -80.597816467285 -233.992477416992 2.357112884521
-147.877120971680 -84.860702514648 -235.026824951172 2.221722364426
-2.713285923004 -78.427459716797 -223.617568969727 1.617326259613
17.445705413818 -77.865867614746 -236.819915771484 1.794848799706
-32.333507537842 -82.369598388672 -242.929122924805 2.653042554855
-144.708419799805 -79.817611694336 -240.110641479492 1.006921291351
-41.163829803467 -79.188598632813 -240.885635375977 0.872287869453
-46.016017913818 -81.105102539063 -244.496490478516 0.985799551010
-28.027183532715 -81.172302246094 -245.276504516602 3.343319177628
16.754518508911 -79.393714904785 -245.010635375977 2.967423439026
-47.464065551758 -81.626182556152 -245.188659667969 2.111517667770
16.258342742920 -81.221282958984 -245.155960083008 1.835654735565
9.827818870544 -77.016632080078 -238.260787963867 1.082307934761
10.050337791443 -81.776596069336 -246.117279052734 0.958663582802
-43.849685668945 -78.720230102539 -248.657928466797 3.309195280075
19.814350128174 -80.744369506836 -247.649490356445 1.426060318947
-142.443496704102 -83.004776000977 -250.177703857422 3.060923576355
21.779785156250 -79.253807067871 -248.917098999023 1.159520387650
2.710427999496 -82.660667419434 -247.951629638672 2.012026071548
9.806141853333 -78.992881774902 -252.110687255859 3.419077157974
-150.906021118164 -80.722778320313 -257.534301757813 2.811017513275
-149.140594482422 -82.605361938477 -261.665649414063 1.616194009781
-143.424087524414 -84.766845703125 -264.054199218750 2.577803134918
-154.624679565430 -80.229393005371 -262.793029785156 1.204740762711
16.438755035400 -79.429771423340 -269.497894287109 1.660256862640
-152.975463867188 -78.986816406250 -274.968719482422 2.763978958130
-5.619923114777 -79.706298828125 -278.688659667969 2.961997509003
-152.440856933594 -76.973274230957 -275.291503906250 2.563854217529
-145.196060180664 -81.464660644531 -275.946716308594 1.613499999046
-151.831542968750 -81.184333801270 -278.279663085938 1.757682919502
-154.251495361328 -80.260398864746 -286.839202880859 1.274668574333
-135.205322265625 -78.953041076660 -289.071868896484 0.992450177670
-150.052749633789 -84.207511901855 -291.053466796875 1.778005838394
-150.207916259766 -89.277877807617 -291.391357421875 3.564483642578
-148.518325805664 -82.537010192871 -298.448699951172 3.126084089279
-153.059997558594 -80.679702758789 -295.698150634766 1.027622818947
-147.689819335938 -77.169532775879 -295.986785888672 1.117838978767
-150.681488037109 -81.423416137695 -302.303009033203 1.479818224907
-147.542388916016 -81.336051940918 -302.378112792969 2.107376337051
-148.062911987305 -79.897613525391 -302.562835693359 2.019672632217
-55.342716217041 -79.765830993652 -57.877021789551 3.417418003082
-60.172748565674 -80.982788085938 -60.469116210938 2.810931921005
-48.189582824707 -79.435554504395 -63.653141021729 1.775205731392
-29.800737380981 -82.363250732422 -74.183456420898 2.810324192047
-55.053268432617 -80.143104553223 -90.536842346191 3.007769107819
-86.825935363770 -84.730247497559 -102.600837707520 2.945943832397
49.507236480713 -81.389816284180 -107.725578308105 2.802636146545
-80.614120483398 -83.163192749023 -105.346656799316 1.430078387260
38.582630157471 -78.892044067383 -112.511817932129 1.340753436089
38.037738800049 -78.984375000000 -122.010574340820 2.531520366669
36.078330993652 -77.749122619629 -124.012092590332 1.069900274277
37.221618652344 -76.721015930176 -136.579711914063 1.153197884560
30.959087371826 -77.625610351563 -138.439651489258 1.749811530113
33.890773773193 -79.004791259766 -134.759140014648 1.087764859200
28.803009033203 -78.113677978516 -150.167526245117 1.278157591820
-43.452827453613 -80.379631042480 -147.899642944336 2.334063529968
27.612585067749 -77.316757202148 -142.915283203125 0.501653432846
-64.056007385254 -79.291976928711 -154.566894531250 2.738512754440
-39.859455108643 -82.289978027344 -154.197494506836 2.826870441437
-60.248004913330 -81.183586120605 -167.024673461914 1.434344291687
-43.055854797363 -80.133827209473 -161.007461547852 1.495672106743
30.043428421021 -79.950912475586 -155.875213623047 1.078419327736
-35.876682281494 -82.521820068359 -165.779541015625 2.160120248795
-3.682329893112 -77.569412231445 -167.672912597656 2.339766740799
30.829988479614 -78.628364562988 -159.561035156250 1.080869913101
-12.337534904480 -80.984230041504 -168.053024291992 3.897347450256
-63.352123260498 -77.875717163086 -165.552917480469 1.324570536613
-37.432960510254 -80.318092346191 -168.913253784180 1.119173049927
-28.510936737061 -76.422454833984 -176.118743896484 2.284264326096
27.723440170288 -79.381065368652 -174.902908325195 2.446974277496
-55.949390411377 -80.317207336426 -179.888824462891 1.594038963318
-30.651409149170 -76.662857055664 -178.019531250000 2.226348876953
23.433427810669 -79.969978332520 -181.436035156250 2.346036434174
-51.834724426270 -79.096458435059 -186.127960205078 1.446487307549
-25.789863586426 -77.200736999512 -189.137527465820 2.539364814758
-54.647247314453 -78.678451538086 -182.269607543945 1.050284981728
-38.359584808350 -81.195343017578 -197.901870727539 1.059937477112
-30.209051132202 -82.327934265137 -190.180709838867 1.650452375412
-41.330852508545 -80.416961669922 -195.535568237305 1.709092855453
-25.007568359375 -77.760040283203 -193.527267456055 1.723908543587
-134.486740112305 -80.681602478027 -200.248519897461 0.820705711842
16.854003906250 -78.517196655273 -202.233947753906 1.926096081734
-137.332000732422 -76.403640747070 -199.172180175781 2.346257209778
-24.528474807739 -77.465972900391 -199.833007812500 2.104673862457
-18.314783096313 -75.539642333984 -198.536483764648 2.213986873627
-41.165428161621 -76.610458374023 -195.793777465820 1.840005636215
14.738314628601 -79.709434509277 -191.672912597656 3.204639434814
-16.778326034546 -78.896614074707 -200.631546020508 2.246257543564
-61.419727325439 -78.708030700684 -208.707321166992 1.626776456833
-37.305000305176 -76.620689392090 -204.266738891602 2.046847581863
-65.658027648926 -77.890541076660 -208.384887695313 1.396526575089
-70.711677551270 -78.031074523926 -209.757736206055 1.790473580360
19.919187545776 -78.408226013184 -212.901473999023 2.596336126328
-86.326751708984 -81.878890991211 -213.904586791992 3.691251993179
-29.896205902100 -79.653144836426 -219.095901489258 2.913047075272
-82.267501831055 -81.710273742676 -215.081481933594 2.900684118271
-146.475143432617 -83.402671813965 -219.846160888672 1.927933692932
-9.239113807678 -78.363914489746 -215.072174072266 1.936643004417
-11.620932579041 -76.954849243164 -221.227966308594 2.699783563614
13.801668167114 -77.915672302246 -212.611938476563 1.350328564644
13.585431098938 -80.432052612305 -222.278579711914 0.913712680340
-3.846810102463 -78.131576538086 -232.660278320313 0.893429756165
-133.305541992188 -80.349021911621 -227.447479248047 1.736719846725
-147.212432861328 -83.397666931152 -230.242782592773 1.298931479454
-147.560836791992 -76.354858398438 -233.140533447266 2.930620193481
10.137587547302 -78.866432189941 -233.113967895508 1.932214379311
1.309126019478 -78.499061584473 -236.297515869141 1.317558526993
-25.476055145264 -77.175315856934 -236.057861328125 2.201575994492
-149.420944213867 -80.956924438477 -238.039138793945 2.279232740402
9.736723899841 -76.109970092773 -246.145141601563 2.013376951218
-25.310712814331 -79.092864990234 -245.315048217773 3.403522729874
18.516193389893 -75.644844055176 -237.535675048828 1.664345979691
-55.919910430908 -79.708839416504 -246.670883178711 1.313652276993
-51.521759033203 -76.110488891602 -248.808197021484 2.322793006897
-145.185501098633 -82.380836486816 -246.451217651367 1.427481532097
-62.467075347900 -79.115692138672 -247.997360229492 1.771372556686
-4.920454978943 -73.306831359863 -251.674285888672 5.030703544617
-9.854786872864 -79.714340209961 -256.852600097656 1.302883744240
-148.606719970703 -82.919128417969 -258.574310302734 1.297742486000
-134.683853149414 -79.685722351074 -259.536987304688 0.713456451893
-136.027709960938 -78.740036010742 -262.917205810547 2.206815004349
18.193887710571 -75.088737487793 -262.830993652344 3.872180461884
-145.590393066406 -83.606422424316 -272.616729736328 2.595706701279
18.236064910889 -81.964851379395 -270.601257324219 2.733324050903
-149.721359252930 -78.243171691895 -270.227294921875 0.759702563286
4.617226123810 -84.703742980957 -277.975708007813 3.000548839569
-147.398284912109 -79.956062316895 -284.203277587891 2.056106567383
2.802469015121 -76.009681701660 -285.146636962891 2.614489555359
-154.654647827148 -83.435997009277 -284.354248046875 1.852923512459
-141.390884399414 -79.728607177734 -291.183807373047 1.503675699234
-137.040878295898 -80.367774963379 -285.031036376953 2.317155838013
-149.050018310547 -84.722747802734 -292.925781250000 1.642962813377
-17.950729370117 -78.885704040527 -290.908538818359 1.916620254517
-154.464157104492 -80.334281921387 -293.271423339844 1.231781721115
-150.158432006836 -80.957489013672 -295.122619628906 2.034251451492
-149.220245361328 -77.766365051270 -312.228149414063 1.307139158249
-57.077587127686 -77.586212158203 -59.952262878418 0.676496028900
-39.235282897949 -80.060272216797 -63.252910614014 2.628736257553
-72.160224914551 -80.514015197754 -62.279067993164 3.754094839096
-29.440305709839 -77.844367980957 -71.184936523438 0.780359447002
-28.375322341919 -81.872245788574 -74.829795837402 2.672845363617
-86.597206115723 -79.156471252441 -86.003463745117 0.834743261337
86.483909606934 -74.459030151367 -84.192932128906 2.980688571930
-38.357391357422 -77.353675842285 -82.597206115723 2.620073318481
81.090316772461 -79.361595153809 -83.555236816406 2.477824687958
75.426094055176 -76.000442504883 -88.458564758301 0.907935202122
85.844688415527 -73.083816528320 -92.982337951660 3.570145130157
81.131301879883 -75.033630371094 -92.274642944336 2.199194908142
92.850685119629 -75.680999755859 -91.834510803223 1.757119417191
-89.359680175781 -75.754241943359 -96.262054443359 3.889532804489
52.995616912842 -75.181465148926 -106.164970397949 2.606129646301
-92.640625000000 -77.009857177734 -118.034660339355 3.268441915512
37.215000152588 -77.930007934570 -112.946929931641 1.980104565620
49.898658752441 -77.035476684570 -113.763832092285 1.791980266571
39.939670562744 -78.007095336914 -117.844367980957 0.868961453438
30.481939315796 -78.053474426270 -131.762496948242 1.250332117081
26.054883956909 -79.477027893066 -141.942977905273 1.874847292900
26.786451339722 -76.032142639160 -145.525054931641 1.352867603302
32.165187835693 -76.543655395508 -149.601623535156 2.129580020905
-50.230564117432 -80.057846069336 -153.570327758789 2.134009361267
-45.516357421875 -79.986595153809 -152.859878540039 1.078115105629
-41.619445800781 -80.683311462402 -155.794372558594 0.913098812103
26.864473342896 -80.292839050293 -149.515502929688 1.273803472519
22.681484222412 -76.473350524902 -169.898941040039 1.251007199287
-36.775615692139 -78.732025146484 -163.359695434570 2.061463594437
-34.602298736572 -77.452453613281 -158.194717407227 2.281307935715
-47.751087188721 -76.433029174805 -155.882766723633 2.036348581314
1.132567048073 -78.160667419434 -167.495849609375 2.095481157303
25.295511245728 -77.203956604004 -158.326873779297 2.544612407684
30.074398040771 -72.567283630371 -160.563583374023 1.648657321930
26.559570312500 -77.476493835449 -169.023330688477 1.006929039955
-9.363162994385 -77.245483398438 -170.151184082031 0.585315108299
-1.150938034058 -77.525482177734 -170.883728027344 1.051846742630
-55.361156463623 -77.140190124512 -174.349441528320 1.414610266685
-61.359603881836 -78.887924194336 -168.601303100586 1.755839228630
-38.104595184326 -79.713920593262 -175.332656860352 3.011217832565
-38.533199310303 -77.119293212891 -167.555145263672 1.116684913635
22.789175033569 -77.481155395508 -173.997589111328 2.408153295517
-21.555107116699 -81.082786560059 -179.394760131836 1.040187597275
-36.155532836914 -82.630844116211 -181.937942504883 4.814268112183
-60.448364257813 -81.188430786133 -180.169769287109 3.117429494858
104.473052978516 -77.307662963867 -180.107467651367 1.149009108543
19.544673919678 -77.222175598145 -171.071121215820 1.549410700798
-25.504781723022 -77.002494812012 -179.842041015625 1.423418045044
-50.118648529053 -76.397460937500 -181.879394531250 1.314425349236
-16.247358322144 -75.748596191406 -179.350112915039 2.330066919327
107.815330505371 -76.828300476074 -179.479644775391 2.444203138351
-48.009361267090 -78.894363403320 -184.285095214844 2.202007055283
16.045370101929 -78.120048522949 -185.293457031250 1.173612952232
25.622024536133 -76.730918884277 -182.155532836914 0.268462270498
-54.459030151367 -78.537338256836 -182.247802734375 0.883825659752
-23.316904067993 -76.122077941895 -182.883926391602 2.136894941330
-56.750179290771 -80.805160522461 -176.183792114258 1.836652040482
-32.055248260498 -72.243568420410 -182.062728881836 0.642065942287
-27.183897018433 -78.319427490234 -185.710357666016 1.307311177254
21.840442657471 -79.743202209473 -187.506378173828 2.094632863998
-50.235359191895 -79.831794738770 -188.347229003906 1.322713971138
103.881874084473 -76.627494812012 -190.467269897461 1.504227995872
-51.323982238770 -75.022628784180 -191.580291748047 1.025338053703
13.273489952087 -79.417617797852 -201.607803344727 2.227299213409
16.370412826538 -76.973602294922 -202.266876220703 1.357974767685
-45.778209686279 -78.608528137207 -190.359542846680 1.335387945175
-19.337406158447 -76.566642761230 -190.914794921875 1.127287387848
103.211723327637 -77.037910461426 -197.393920898438 1.445777297020
104.115768432617 -77.919532775879 -197.188888549805 1.585388064384
-46.355026245117 -74.297798156738 -191.291198730469 1.771121740341
-149.328445434570 -82.028541564941 -195.184616088867 0.537212491035
-49.818698883057 -76.162544250488 -200.585830688477 3.679923295975
-146.099456787109 -79.384651184082 -200.733978271484 1.603051781654
-135.911453247070 -77.932899475098 -202.965667724609 1.660393714905
-42.638885498047 -75.401596069336 -198.956085205078 1.648552894592
12.075977325439 -77.758392333984 -209.216506958008 0.699077367783
-18.123912811279 -76.867401123047 -202.195053100586 1.347406029701
15.510249137878 -79.763832092285 -205.433364868164 1.077233076096
89.506835937500 -78.278373718262 -210.804504394531 1.961103320122
-39.254531860352 -76.526344299316 -199.979965209961 0.754868507385
-11.533805847168 -79.244720458984 -206.726852416992 2.564444780350
-10.627837181091 -78.492553710938 -210.996429443359 0.677316963673
-38.048919677734 -78.102157592773 -210.470657348633 1.862889885902
9.038240432739 -81.010955810547 -207.899780273438 2.110415220261
-75.447448730469 -76.770965576172 -211.666839599609 1.822047591209
13.691857337952 -79.120040893555 -214.626647949219 0.979042291641
-36.846389770508 -77.062835693359 -211.125305175781 1.652981519699
-143.257675170898 -78.905334472656 -208.393920898438 2.316988945007
-145.720642089844 -79.192115783691 -213.757019042969 2.292329788208
-85.831367492676 -78.581130981445 -214.160964965820 1.467045187950
-34.348480224609 -77.375709533691 -211.238632202148 2.229006290436
-24.600522994995 -77.898132324219 -215.333953857422 1.678692221642
-28.469104766846 -78.759986877441 -213.683547973633 1.792360186577
-91.120994567871 -79.584655761719 -219.984024047852 4.177857875824
-86.800231933594 -78.356910705566 -215.630889892578 1.130752682686
9.988171577454 -76.666160583496 -220.344146728516 2.278532981873
-148.170471191406 -78.116935729980 -218.246383666992 2.518257856369
-12.398097991943 -76.668006896973 -213.153381347656 1.290699958801
7.906867980957 -80.641662597656 -218.996002197266 1.816834568977
-142.431549072266 -80.167625427246 -218.162460327148 3.268427610397
-20.959985733032 -79.610656738281 -222.700622558594 2.464899778366
-3.824024915695 -77.154785156250 -223.981781005859 1.807302951813
-1.942893981934 -78.262390136719 -219.070877075195 1.241414070129
-152.509170532227 -78.807701110840 -224.546310424805 0.556217968464
-135.288055419922 -76.698410034180 -227.035690307617 1.364207029343
-5.493906974792 -76.752952575684 -227.087646484375 2.004222869873
-149.028518676758 -83.593406677246 -229.228942871094 1.813475012779
0.139924004674 -76.554084777832 -231.454010009766 2.117675304413
17.204284667969 -74.024291992188 -233.078308105469 1.358402490616
-2.939634084702 -74.666603088379 -237.032440185547 1.495714545250
1.424962997437 -77.298118591309 -234.683258056641 1.290836691856
8.318308830261 -81.792610168457 -234.799026489258 1.967918157578
-150.399520874023 -79.738761901855 -235.040130615234 1.732611060143
-18.297687530518 -77.088348388672 -238.885070800781 1.247800827026
-31.959852218628 -81.927925109863 -241.549987792969 2.523690938950
7.320195198059 -73.845382690430 -231.376693725586 2.204537630081
-0.512313008308 -75.328048706055 -238.680007934570 1.707757234573
4.914203166962 -78.078712463379 -236.139083862305 2.252323865891
-53.356174468994 -77.637741088867 -241.587722778320 1.508591294289
-151.698577880859 -77.732170104980 -247.202819824219 1.260407567024
-152.089157104492 -79.176414489746 -250.078170776367 2.761044979095
10.931331634521 -78.524658203125 -248.557739257813 2.161341428757
20.878654479980 -78.025070190430 -248.433486938477 0.826107025146
-59.160850524902 -77.491195678711 -249.578033447266 1.535437822342
-147.343872070313 -77.250488281250 -254.972763061523 2.535341024399
-153.249511718750 -82.905761718750 -256.280609130859 0.586399137974
-148.956222534180 -81.547996520996 -258.131530761719 1.890205025673
-144.424423217773 -81.407180786133 -259.676849365234 2.448289155960
-136.663497924805 -79.698303222656 -258.222290039063 1.656870365143
-12.768700599670 -76.664787292480 -258.469665527344 1.661746621132
-145.616104125977 -78.435867309570 -267.140380859375 2.474380254745
-11.788007736206 -79.952003479004 -261.805969238281 1.677246212959
-150.724121093750 -79.457267761230 -277.101257324219 0.847944796085
-150.920745849609 -80.919425964355 -284.199981689453 2.487179756165
-152.864608764648 -81.982810974121 -283.030700683594 2.046529054642
-5.357297897339 -73.385993957520 -289.047424316406 1.914102196693
-144.731445312500 -76.776985168457 -286.949493408203 2.514224767685
-34.824394226074 -76.961006164551 -284.136993408203 3.156391143799
-32.192993164063 -74.076835632324 -290.438171386719 1.110231876373
-20.464466094971 -76.801162719727 -287.297027587891 2.093076467514
-9.725907325745 -77.064033508301 -291.118255615234 0.923433065414
15.824073791504 -76.733085632324 -293.372497558594 0.975060224533
-125.805770874023 -77.693336486816 -289.566741943359 0.596648514271
-56.438327789307 -79.239433288574 -288.336456298828 2.795529365540
-39.394886016846 -76.328437805176 -293.166839599609 2.819255828857
-34.379524230957 -78.011726379395 -291.258605957031 1.145533561707
-9.975337982178 -77.336952209473 -290.192382812500 1.010865569115
6.061664104462 -75.583381652832 -288.832824707031 1.608581542969
-141.109130859375 -80.943168640137 -293.514862060547 2.911525964737
7.565558910370 -78.240303039551 -293.879394531250 2.459108591080
-154.350967407227 -80.897407531738 -304.911285400391 3.924649953842
-149.192703247070 -78.477302551270 -302.171112060547 0.966081142426
-152.079696655273 -77.750839233398 -312.472320556641 0.647049605846
-147.205169677734 -78.447120666504 -312.678344726563 1.878663420677
-51.854190826416 -76.633934020996 -54.204242706299 2.595527172089
-53.557365417480 -77.546997070313 -57.694305419922 1.102069377899
-67.544601440430 -77.491020202637 -56.513916015625 3.278309345245
-44.219120025635 -78.021171569824 -59.053348541260 0.994200885296
-39.845973968506 -74.504867553711 -60.086025238037 2.748963117599
-23.646530151367 -74.518035888672 -63.735889434814 0.153210103512
-82.406784057617 -78.533966064453 -67.972007751465 1.754756569862
81.839179992676 -75.253257751465 -80.720069885254 2.203535079956
-90.549407958984 -78.852493286133 -83.626792907715 3.112487316132
84.746742248535 -78.293342590332 -82.294136047363 1.008193731308
86.237785339355 -76.628494262695 -83.923759460449 1.483944296837
93.793762207031 -75.229736328125 -85.048728942871 0.857004642487
-59.451862335205 -82.701751708984 -94.713951110840 1.951727986336
85.294654846191 -77.592971801758 -94.437454223633 2.371867656708
80.343597412109 -74.828376770020 -93.788467407227 1.625908970833
91.372161865234 -77.965866088867 -92.306289672852 1.153142929077
-61.637832641602 -81.070678710938 -98.413398742676 2.002293109894
55.154594421387 -75.432258605957 -97.989730834961 0.815286457539
46.005554199219 -77.133346557617 -106.330429077148 2.161156415939
39.664775848389 -77.213180541992 -107.805702209473 1.261827826500
37.929534912109 -76.248840332031 -110.265724182129 1.321487545967
-92.188217163086 -77.327713012695 -114.527824401855 2.317916154861
35.584102630615 -78.166503906250 -118.898933410645 1.459547638893
-83.748519897461 -78.481414794922 -113.253707885742 2.593565702438
42.291702270508 -77.441085815430 -126.237525939941 1.092840313911
33.185501098633 -76.990776062012 -122.965156555176 1.842139482498
32.907299041748 -78.293678283691 -124.087699890137 0.931006073952
42.324295043945 -75.489013671875 -122.399917602539 3.014922618866
40.012489318848 -79.278907775879 -127.824012756348 2.209609031677
-55.247642517090 -72.444595336914 -140.054092407227 1.508318424225
36.562847137451 -78.238655090332 -135.296554565430 1.068571448326
36.586570739746 -76.720802307129 -142.110305786133 0.315417379141
-49.365016937256 -73.351669311523 -140.519180297852 2.041562557220
-48.450454711914 -79.667953491211 -142.024978637695 2.399810314178
34.551895141602 -77.309875488281 -144.605590820313 1.343569874763
109.654251098633 -74.281654357910 -142.787536621094 1.797772884369
111.624671936035 -74.682380676270 -144.089706420898 1.319375991821
27.272426605225 -78.504096984863 -145.648086547852 1.847434759140
-42.497058868408 -77.083244323730 -148.414505004883 0.824102282524
112.519531250000 -77.626243591309 -158.854156494141 0.492901653051
-42.458423614502 -76.658134460449 -156.431060791016 2.252410888672
-64.879653930664 -79.530174255371 -161.339340209961 0.878873467445
110.962097167969 -75.938217163086 -163.470306396484 1.659323334694
24.645891189575 -77.815254211426 -166.906661987305 2.314823627472
-0.318453997374 -77.636657714844 -165.802703857422 2.350749731064
112.748741149902 -76.929817199707 -155.483810424805 0.948857426643
-62.975158691406 -78.853858947754 -162.924179077148 1.996336221695
-35.802593231201 -80.017341613770 -162.078765869141 1.558551907539
111.536209106445 -74.360580444336 -165.529724121094 1.694357633591
27.196865081787 -73.715057373047 -159.528091430664 3.279826164246
-65.588539123535 -77.194740295410 -169.682067871094 2.126551628113
108.686981201172 -73.998634338379 -171.285186767578 0.890962243080
-64.511306762695 -79.643455505371 -170.070587158203 2.662714242935
-52.596553802490 -79.642715454102 -179.087478637695 2.121443271637
105.853935241699 -74.615539550781 -177.000717163086 1.617257118225
-62.247611999512 -77.128944396973 -170.103729248047 2.397788524628
112.284400939941 -74.809249877930 -174.602981567383 0.872390389442
-58.859275817871 -79.587234497070 -173.715179443359 1.541368722916
-13.669995307922 -76.606498718262 -177.367568969727 0.551496446133
-11.263780593872 -77.746536254883 -179.986434936523 1.928021907806
106.624420166016 -76.013900756836 -172.440261840820 0.336758613586
21.396772384644 -76.156013488770 -170.502609252930 1.157841563225
28.856628417969 -77.706085205078 -170.266357421875 2.103328704834
-55.113693237305 -79.480911254883 -178.445266723633 2.131820678711
18.437248229980 -76.168365478516 -185.386032104492 2.559306621552
-57.240188598633 -78.288772583008 -180.148544311523 1.521197319031
-51.640293121338 -75.114830017090 -190.876541137695 1.386799931526
13.658851623535 -76.883155822754 -182.173431396484 1.761174082756
-60.606685638428 -76.218162536621 -184.753265380859 4.223281383514
109.616264343262 -73.109268188477 -186.109085083008 1.699892044067
21.629835128784 -77.075050354004 -181.119949340820 2.179788589478
-31.773273468018 -77.693176269531 -189.089828491211 1.359451055527
-44.061809539795 -74.952438354492 -195.230316162109 2.315594673157
10.700383186340 -75.419540405273 -196.926773071289 1.550889730453
-23.117683410645 -77.841651916504 -189.874404907227 1.506147265434
-52.317676544189 -77.794731140137 -196.121856689453 3.954672336578
101.624244689941 -77.452026367188 -187.884765625000 1.846710920334
14.818195343018 -74.865486145020 -191.873504638672 1.153417468071
-135.520202636719 -78.841484069824 -196.612716674805 2.016897439957
-41.910114288330 -76.597549438477 -192.713653564453 0.178621917963
100.833091735840 -76.981300354004 -198.406188964844 1.633501529694
-148.235015869141 -80.364906311035 -202.250808715820 1.821191787720
18.005117416382 -76.144599914551 -194.291931152344 2.150271654129
-44.071353912354 -81.956954956055 -205.374313354492 4.106857776642
-33.095024108887 -78.091270446777 -205.149551391602 1.504037261009
-39.203872680664 -74.715744018555 -206.240325927734 1.497617244720
-42.912807464600 -77.476303100586 -194.839630126953 1.625789523125
101.038696289063 -77.439651489258 -201.831237792969 1.408580422401
-18.673961639404 -76.097450256348 -203.356781005859 0.887058377266
-151.292617797852 -76.140609741211 -203.334045410156 1.194313645363
13.648933410645 -75.188926696777 -208.915832519531 2.886297464371
-73.398033142090 -79.962089538574 -206.283645629883 2.017253875732
-146.971755981445 -77.594520568848 -211.230072021484 1.431546926498
96.974296569824 -73.894691467285 -210.275512695313 1.445266485214
-34.089805603027 -77.044303894043 -207.836975097656 1.542872786522
-26.803579330444 -76.098999023438 -216.972000122070 0.508373081684
6.578969001770 -77.819335937500 -212.130645751953 1.800966978073
-71.679313659668 -76.986763000488 -213.467376708984 1.677299261093
-28.023630142212 -76.413208007813 -210.206970214844 1.918748974800
-6.706482887268 -78.886230468750 -217.395751953125 1.844098210335
-78.207977294922 -80.518135070801 -217.159255981445 2.502426385880
-13.888861656189 -78.963943481445 -219.522338867188 2.232906341553
9.045529365540 -75.578956604004 -216.046493530273 2.353137254715
17.540847778320 -81.122665405273 -221.698852539063 3.130733489990
-146.691406250000 -78.444702148438 -217.903991699219 1.827243208885
-5.311628818512 -74.805549621582 -216.730285644531 1.742467284203
-92.732551574707 -74.348159790039 -222.624359130859 2.557369470596
-22.472520828247 -73.862182617188 -220.173904418945 0.781419813633
93.517234802246 -76.357986450195 -213.095687866211 1.148653149605
6.247619152069 -77.867477416992 -229.498214721680 1.608729243279
15.252396583557 -78.580986022949 -216.856719970703 1.410493254662
80.065574645996 -71.001899719238 -222.917007446289 2.565811157227
2.098236083984 -75.448219299316 -227.346160888672 1.297592759132
85.901718139648 -74.139053344727 -221.088821411133 2.430411577225
-16.338502883911 -76.207649230957 -223.710540771484 1.241142511368
13.630790710449 -78.055297851563 -223.312408447266 1.241941094398
-147.828292846680 -80.002685546875 -225.479431152344 1.510664343834
-18.433446884155 -82.097511291504 -227.012344360352 4.988824367523
1.491083979607 -80.023490905762 -227.855865478516 2.517901897430
-152.612274169922 -80.763839721680 -229.214736938477 2.000004291534
-134.705551147461 -78.095336914063 -228.229324340820 0.734634459019
9.902632713318 -75.478767395020 -228.128601074219 2.782096385956
-5.367992877960 -76.374145507813 -238.860458374023 3.730945110321
-137.287078857422 -78.420654296875 -232.520721435547 1.411925315857
-147.446044921875 -81.295333862305 -235.775802612305 3.137903451920
-145.631164550781 -76.472236633301 -238.571228027344 2.690819740295
-28.451042175293 -77.221847534180 -237.159439086914 2.546281337738
-145.347457885742 -77.004440307617 -244.589096069336 2.281530618668
19.599018096924 -75.438354492188 -241.645584106445 1.799485802650
6.083105087280 -77.034797668457 -244.823699951172 1.178786039352
-151.776214599609 -76.423240661621 -236.955322265625 2.769972324371
-151.085235595703 -78.441337585449 -243.367431640625 2.912046432495
-46.408248901367 -77.345520019531 -241.347885131836 2.098341941833
-32.523551940918 -79.747123718262 -245.581207275391 2.450654268265
6.044967174530 -78.688133239746 -249.580535888672 2.537106275558
-36.792888641357 -75.690536499023 -247.539535522461 3.024782896042
23.725336074829 -77.818710327148 -251.059585571289 3.340898752213
-3.304049015045 -78.138854980469 -247.454620361328 1.841532111168
-153.024795532227 -77.047721862793 -253.348571777344 2.556825876236
-6.146498203278 -72.973266601563 -249.829376220703 3.032547235489
-143.244949340820 -79.525230407715 -253.202423095703 1.198115229607
-67.049804687500 -77.914154052734 -251.126342773438 2.507990598679
-152.499755859375 -84.853790283203 -259.628417968750 1.617361783981
-126.130035400391 -79.624526977539 -262.156127929688 3.805518865585
-149.871765136719 -74.624916076660 -261.060791015625 1.321305155754
-12.653397560120 -74.840705871582 -267.559417724609 1.797264218330
-145.796020507813 -80.113227844238 -265.426483154297 0.956161260605
-149.772018432617 -78.600593566895 -265.063049316406 1.125326156616
-10.527605056763 -78.806098937988 -269.704620361328 0.338214010000
-148.242202758789 -79.246818542480 -269.720367431641 2.237874031067
-4.606272220612 -78.871765136719 -283.173065185547 2.400866031647
-45.127979278564 -78.304801940918 -283.983764648438 4.023041248322
-136.960586547852 -79.471008300781 -287.194580078125 1.267991542816
-133.303588867188 -75.596519470215 -283.661254882813 2.280464887619
-126.155242919922 -77.344940185547 -285.526916503906 1.193961501122
-54.694557189941 -76.042083740234 -283.098510742188 3.832512617111
-114.815010070801 -76.432975769043 -290.475250244141 2.128695964813
15.288356781006 -80.162742614746 -290.650573730469 1.741417765617
-61.960018157959 -76.711097717285 -288.230865478516 1.218801617622
-141.844100952148 -75.909912109375 -288.955810546875 0.509277105331
-62.642742156982 -74.524810791016 -288.840301513672 2.262426376343
-143.421127319336 -82.373451232910 -291.387054443359 0.685164511204
-119.013214111328 -76.779167175293 -287.533630371094 2.062853574753
-47.529815673828 -76.202499389648 -292.241088867188 1.831332802773
-38.647151947021 -77.197662353516 -291.675415039063 1.503573775291
-134.401611328125 -77.981109619141 -291.209899902344 1.350390911102
-11.769178390503 -73.616401672363 -293.162261962891 1.587751746178
-0.920047998428 -78.732147216797 -292.961730957031 2.777145624161
7.248219966888 -76.320541381836 -292.472808837891 1.107555985451
13.570028305054 -76.082115173340 -294.623657226563 1.312231421471
-148.908843994141 -81.090049743652 -296.392822265625 2.238498449326
-146.779388427734 -76.753654479980 -299.626678466797 0.852592825890
-69.955055236816 -75.825653076172 -62.695579528809 2.974957942963
87.738159179688 -75.266128540039 -78.161109924316 1.291798830032
79.803459167480 -76.075691223145 -77.253501892090 0.943089604378
-26.296915054321 -79.818840026855 -76.300529479980 2.305632829666
85.733642578125 -74.190444946289 -76.002609252930 0.695911586285
-37.263591766357 -75.308853149414 -81.756599426270 1.596206188202
90.027313232422 -78.424041748047 -79.212310791016 2.070038795471
91.198982238770 -77.989288330078 -81.964370727539 2.659582853317
-68.219314575195 -73.015701293945 -94.190368652344 3.711766481400
78.136734008789 -75.248657226563 -92.566223144531 1.632935523987
80.789550781250 -73.641044616699 -98.576156616211 1.169021844864
92.547363281250 -74.585968017578 -92.485969543457 1.979122638702
54.688282012939 -75.817359924316 -95.363853454590 1.218187689781
-77.722717285156 -81.689331054688 -102.194122314453 2.159320116043
-80.156768798828 -73.013099670410 -101.116981506348 0.759887695313
49.997402191162 -75.579902648926 -109.314971923828 1.023262619972
-91.577812194824 -80.169105529785 -108.795288085938 3.935627937317
44.477413177490 -75.966178894043 -116.971832275391 1.028396964073
111.306991577148 -74.064491271973 -117.546165466309 1.480782270432
109.754615783691 -73.141609191895 -132.849685668945 2.206329107285
26.017391204834 -73.098518371582 -139.272888183594 1.555925130844
112.359626770020 -77.869438171387 -130.066070556641 2.687556028366
27.715177536011 -74.738426208496 -135.239456176758 2.101919889450
111.831909179688 -75.565689086914 -132.095764160156 0.949783205986
35.181983947754 -78.697502136230 -137.756759643555 1.469740033150
-51.777309417725 -79.465721130371 -149.234191894531 2.016665697098
35.169902801514 -75.263893127441 -142.034957885742 0.689683318138
111.430976867676 -73.493492126465 -138.739547729492 1.407533288002
-50.440357208252 -77.386650085449 -148.640121459961 1.354450702667
30.445772171021 -78.879234313965 -147.726837158203 1.683445334435
-55.342082977295 -76.712852478027 -137.192810058594 2.137700080872
-54.613098144531 -81.258003234863 -149.064788818359 4.605313301086
-51.777179718018 -74.711952209473 -151.451309204102 1.945476174355
-65.950996398926 -78.926582336426 -156.822982788086 0.802147984505
113.175659179688 -73.984329223633 -149.440673828125 0.806208550930
-50.919097900391 -76.258781433105 -154.146072387695 1.936776041985
20.143327713013 -77.662445068359 -158.609420776367 1.969828844070
109.675857543945 -77.856292724609 -158.321151733398 1.674719333649
-67.627876281738 -78.671417236328 -156.904312133789 1.237103700638
-48.417610168457 -76.051307678223 -157.553070068359 1.514813899994
7.372605800629 -74.778846740723 -157.642486572266 0.958947002888
-64.945060729980 -74.255752563477 -159.294494628906 0.960944950581
-59.929298400879 -77.611358642578 -163.106567382813 0.476753979921
-1.106320977211 -81.327804565430 -162.413864135742 3.082997322083
-43.569141387939 -78.924690246582 -170.960678100586 3.401312828064
28.393548965454 -73.574119567871 -165.489074707031 2.380663394928
-65.079956054688 -76.726791381836 -164.653549194336 1.331222057343
-53.033584594727 -73.769668579102 -169.406478881836 4.945197582245
21.650733947754 -75.503677368164 -163.123886108398 1.002785086632
-30.798818588257 -79.991088867188 -174.157821655273 2.384029388428
-32.069999694824 -73.536766052246 -168.562850952148 1.763261079788
15.256346702576 -74.441398620605 -176.656158447266 1.683330416679
-39.135513305664 -79.701721191406 -175.962539672852 3.687383174896
-9.453956604004 -75.664207458496 -175.063491821289 1.367162466049
-62.628639221191 -76.166831970215 -172.317123413086 1.500921726227
-5.761694908142 -76.085830688477 -171.941070556641 0.677139401436
-23.322193145752 -80.138557434082 -179.628280639648 1.066208124161
20.684391021729 -77.246566772461 -183.211364746094 1.064584493637
-37.560195922852 -75.434181213379 -175.703796386719 1.727926254272
17.539405822754 -76.231506347656 -179.536605834961 2.094142675400
-19.680004119873 -75.619773864746 -185.864852905273 0.636093497276
-32.996261596680 -76.934722900391 -181.970932006836 0.941344857216
-146.370697021484 -73.558723449707 -187.220474243164 1.400854587555
-23.971160888672 -76.510398864746 -187.107376098633 1.730777382851
-145.467086791992 -76.118232727051 -191.663772583008 1.567047238350
-151.531585693359 -77.437278747559 -188.642791748047 2.681065320969
-46.503871917725 -78.444465637207 -188.967666625977 0.421591550112
100.529991149902 -76.675491333008 -195.145629882813 1.812716364861
-145.495117187500 -76.752166748047 -193.059860229492 1.264656543732
-152.428344726563 -78.546638488770 -198.220062255859 1.606851816177
20.198009490967 -76.015350341797 -197.800704956055 2.428120374680
-135.353225708008 -74.660774230957 -196.714111328125 1.182906150818
21.028076171875 -71.838043212891 -198.748474121094 1.423944950104
-140.566970825195 -74.510345458984 -201.356353759766 0.944096326828
11.315652847290 -76.099105834961 -196.839401245117 1.560442209244
-136.780670166016 -75.826469421387 -202.601669311523 1.611315131187
7.438043117523 -74.745887756348 -207.141830444336 0.800417065620
-149.534240722656 -76.845909118652 -203.752090454102 1.037609219551
91.804534912109 -72.370582580566 -204.931167602539 2.355832338333
-14.441928863525 -74.996986389160 -206.131149291992 2.800262928009
-28.106981277466 -74.851707458496 -207.256805419922 1.589940905571
-10.119033813477 -79.198371887207 -205.047149658203 2.132608652115
-149.689071655273 -79.409439086914 -211.220199584961 1.474474191666
-39.005001068115 -78.045143127441 -207.809066772461 2.069017410278
-82.663642883301 -76.349250793457 -210.838333129883 0.772567987442
-29.038541793823 -76.924667358398 -212.756896972656 1.204059958458
17.965290069580 -72.375625610352 -209.973052978516 1.463407635689
-146.979156494141 -78.235694885254 -210.202331542969 2.072485208511
-88.636459350586 -76.098274230957 -214.570953369141 1.560593605042
-26.953844070435 -75.736694335938 -215.125000000000 0.930365800858
-25.748825073242 -72.709312438965 -220.988784790039 3.109097719193
-14.950149536133 -74.575309753418 -216.930099487305 0.998324930668
-26.110038757324 -75.362976074219 -215.570190429688 1.148305773735
-80.104766845703 -77.088821411133 -219.161483764648 3.465334892273
-84.874626159668 -77.852378845215 -221.836822509766 4.762284755707
-22.754590988159 -76.851730346680 -222.734664916992 2.684889793396
-4.675072193146 -74.642913818359 -222.696731567383 3.354636907578
-148.484054565430 -75.103187561035 -217.149185180664 0.929813086987
-2.521251916885 -74.300247192383 -218.942367553711 1.502618432045
83.008995056152 -73.577865600586 -225.780593872070 0.979361593723
-143.789794921875 -80.470123291016 -227.963989257813 2.446784257889
-7.640181064606 -75.313919067383 -224.605224609375 1.204068779945
-143.003387451172 -77.703697204590 -230.154449462891 2.004732608795
-149.074203491211 -84.460693359375 -226.929351806641 1.256277441978
-6.575998783112 -75.033309936523 -230.320465087891 0.224257007241
19.194362640381 -75.483604431152 -222.531738281250 2.228359460831
-141.114532470703 -76.984695434570 -229.292922973633 1.027653813362
-14.857737541199 -75.484382629395 -231.958190917969 2.586586236954
76.760543823242 -75.416969299316 -228.521606445313 0.815327107906
79.776657104492 -75.175926208496 -235.431762695313 4.031379699707
8.220507621765 -73.709091186523 -232.515213012695 1.059784054756
-25.781141281128 -74.973510742188 -242.200210571289 1.470985651016
-19.910953521729 -76.478233337402 -237.207427978516 1.482608795166
7.275886058807 -74.501861572266 -244.855682373047 2.145676136017
-47.397811889648 -73.212699890137 -243.346878051758 0.664597570896
-25.375991821289 -76.784194946289 -247.211563110352 4.318615913391
7.948198795319 -76.230804443359 -245.330749511719 1.312406420708
-64.381759643555 -76.287063598633 -249.336914062500 1.178393840790
-30.719671249390 -74.147422790527 -247.836151123047 4.820291996002
-43.665897369385 -74.666313171387 -245.029434204102 0.518036901951
-150.640930175781 -76.515182495117 -245.214736938477 1.180628418922
-48.845203399658 -77.215240478516 -249.391860961914 3.194580793381
-54.293472290039 -76.266677856445 -248.042846679688 0.773498952389
-65.695274353027 -80.080993652344 -251.527725219727 3.651171445847
-8.101813316345 -73.357978820801 -251.331115722656 2.885065078735
-83.296257019043 -74.341033935547 -253.582534790039 0.513138592243
-150.933807373047 -81.809585571289 -258.660461425781 1.808230638504
-139.556655883789 -82.598091125488 -258.981689453125 2.769177436829
-125.424110412598 -74.032135009766 -262.599975585938 1.242189049721
-154.091934204102 -74.662368774414 -263.591308593750 1.016147136688
19.964227676392 -74.817985534668 -262.829528808594 2.457642793655
-11.139848709106 -75.569862365723 -269.653015136719 2.369412660599
-151.727401733398 -78.021926879883 -268.534423828125 2.290414571762
-151.511001586914 -77.386795043945 -276.387847900391 1.641916632652
-142.702835083008 -80.031410217285 -282.860412597656 2.327236890793
-57.002880096436 -77.735229492188 -286.326324462891 3.278496980667
-36.968662261963 -74.814628601074 -288.330627441406 2.648919820786
-24.875373840332 -74.832351684570 -291.541625976563 2.571607828140
-13.467363357544 -75.551826477051 -287.918151855469 2.001143693924
-66.305282592773 -76.072639465332 -286.540740966797 1.747945189476
-77.823135375977 -74.881347656250 -287.393646240234 0.901799082756
-5.088901996613 -77.143974304199 -289.609497070313 1.136553525925
10.265303611755 -76.458145141602 -290.940185546875 1.605783581734
-134.444000244141 -78.354187011719 -290.604431152344 1.520096063614
-77.370956420898 -74.395149230957 -290.079254150391 1.699985027313
-147.643280029297 -77.078979492188 -291.705688476563 2.519265174866
-93.494155883789 -75.027938842773 -290.215545654297 1.224068999290
-72.502784729004 -74.221527099609 -290.670257568359 1.400496602058
-83.844223022461 -77.299034118652 -291.283081054688 2.646723270416
-62.446300506592 -77.674598693848 -290.984405517578 1.730319023132
-23.049861907959 -75.163642883301 -294.621978759766 4.457333087921
-2.655369043350 -74.044273376465 -292.444366455078 1.504151821136
-154.858978271484 -77.203712463379 -295.263214111328 2.951584100723
-147.589355468750 -78.234664916992 -299.067443847656 2.000266551971
-145.237564086914 -77.226516723633 -303.096282958984 0.688984274864
-154.389007568359 -76.575325012207 -308.672363281250 1.247218012810
-58.589256286621 -75.614074707031 -56.590484619141 1.077187180519
-46.789260864258 -73.792358398438 -54.154514312744 2.510797739029
-41.436229705811 -73.674400329590 -55.409198760986 1.614590525627
-76.070068359375 -79.513442993164 -59.533962249756 3.556623935699
-30.063907623291 -75.673896789551 -60.948986053467 1.750656604767
-29.120485305786 -75.795066833496 -79.573364257813 0.948701322079
75.458610534668 -78.296707153320 -84.900062561035 2.011982679367
78.746208190918 -76.418334960938 -85.798294067383 1.884166955948
77.962280273438 -74.187843322754 -86.793006896973 3.038119554520
96.566520690918 -76.946258544922 -91.472526550293 2.261148214340
73.163047790527 -75.728202819824 -92.169761657715 1.661314368248
55.744571685791 -75.842956542969 -94.753738403320 2.309159994125
45.760501861572 -75.873687744141 -101.869743347168 1.335694670677
-66.247962951660 -78.798843383789 -102.574989318848 3.676039218903
-72.801612854004 -72.783401489258 -100.650527954102 2.174406766891
44.566707611084 -73.769874572754 -104.137954711914 1.290799975395
-83.429458618164 -78.388053894043 -109.294158935547 1.083731412888
-92.641014099121 -73.298309326172 -112.508529663086 1.412772059441
49.611297607422 -73.302780151367 -104.847724914551 2.603523254395
105.921630859375 -72.858139038086 -113.017669677734 1.545436501503
33.316192626953 -76.517852783203 -121.785675048828 1.478752255440
45.349269866943 -77.660179138184 -118.411445617676 1.448955059052
43.419315338135 -76.584999084473 -125.173461914063 0.805892169476
