-38.451568603516 -74.423957824707 -201.806091308594 1.298827290535
-144.017456054688 -78.930458068848 -204.079071044922 0.985175848007
-37.814109802246 -75.355293273926 -209.321441650391 1.551866173744
-18.377161026001 -77.291786193848 -211.352340698242 1.432456135750
94.848701477051 -75.692054748535 -205.132919311523 1.780109524727
94.354171752930 -75.316436767578 -209.524032592773 1.230990648270
-27.982555389404 -76.539405822754 -217.785736083984 1.546865463257
-86.983627319336 -77.927169799805 -213.442611694336 0.992441892624
-72.162040710449 -76.418960571289 -213.132781982422 2.227332353592
-17.791454315186 -76.172348022461 -219.669677734375 1.230335235596
-149.807205200195 -73.197273254395 -214.364608764648 1.527459740639
86.920486450195 -77.046379089355 -216.471786499023 0.878287732601
88.478477478027 -73.389259338379 -221.775878906250 2.365501165390
89.347869873047 -76.512245178223 -219.815353393555 1.373809218407
-100.763633728027 -70.849884033203 -224.404571533203 1.438653826714
-147.840698242188 -77.738845825195 -225.507232666016 2.095753908157
-18.449480056763 -79.278152465820 -220.988327026367 1.491777777672
80.425918579102 -73.865669250488 -225.105789184570 1.362806439400
-146.193542480469 -81.451797485352 -227.549148559570 1.235337376595
-30.309804916382 -75.216018676758 -222.824371337891 4.632939815521
-132.430450439453 -71.352447509766 -232.864654541016 2.095969438553
-11.898386955261 -76.939575195313 -228.489013671875 1.493797421455
19.336414337158 -74.816825866699 -221.647247314453 2.035424470901
17.010271072388 -74.782081604004 -235.142227172852 1.453306674957
-155.251495361328 -79.414916992188 -235.363861083984 3.463990211487
-123.369071960449 -72.938209533691 -233.254562377930 1.437555313110
-8.057019233704 -74.847579956055 -234.537200927734 1.385318279266
1.092525959015 -73.534255981445 -239.941207885742 1.247123360634
67.970039367676 -76.395103454590 -236.599243164063 2.529663085938
70.189323425293 -73.956382751465 -237.545928955078 1.843465805054
0.974947988987 -76.078163146973 -242.002044677734 0.853032052517
19.203027725220 -75.056190490723 -239.209793090820 1.348269462585
-25.457286834717 -73.848060607910 -242.291870117188 1.632443547249
-37.866519927979 -77.465942382813 -245.418991088867 1.054555296898
-46.050376892090 -76.734947204590 -239.710876464844 2.262777090073
-39.628013610840 -76.537925720215 -244.031936645508 1.544716000557
-18.821943283081 -77.474960327148 -245.081253051758 3.267680406570
-54.020305633545 -73.042083740234 -242.983261108398 1.581080913544
4.512592792511 -74.656616210938 -246.021331787109 2.695989131927
-70.051849365234 -71.141677856445 -247.651321411133 1.824978470802
16.808599472046 -73.095359802246 -246.965835571289 0.384770989418
-146.163864135742 -77.577682495117 -249.314300537109 2.205728292465
-69.853317260742 -78.702850341797 -252.057098388672 2.570289850235
12.552310943604 -77.112594604492 -249.375152587891 2.037381410599
-163.560958862305 -75.279510498047 -251.685455322266 2.404751777649
17.993768692017 -74.029022216797 -251.417572021484 2.122071981430
-81.802200317383 -76.645431518555 -253.727539062500 1.912225961685
-74.000587463379 -73.264564514160 -252.521011352539 1.385934948921
22.956516265869 -74.684638977051 -258.066345214844 1.936897397041
-88.103118896484 -73.692092895508 -257.397216796875 1.310503840446
-128.476089477539 -76.093719482422 -256.962188720703 2.230053424835
-136.000106811523 -76.143852233887 -259.156799316406 1.757934570313
-133.638168334961 -76.032653808594 -259.694030761719 0.926538586617
-144.240661621094 -73.444267272949 -260.891326904297 2.072056770325
-139.922225952148 -77.350517272949 -258.583435058594 1.861490130424
-135.723953247070 -73.739746093750 -263.989074707031 1.788428187370
-159.163192749023 -76.033821105957 -260.492309570313 2.672831773758
-127.015884399414 -72.162796020508 -265.382720947266 0.872825503349
-134.086227416992 -73.700912475586 -261.089111328125 1.500791907310
-163.125106811523 -77.314949035645 -266.946350097656 3.649265050888
-155.744857788086 -75.007774353027 -265.110931396484 1.214537739754
-149.855133056641 -74.628517150879 -267.465484619141 1.714098691940
-145.845352172852 -78.394813537598 -266.618835449219 1.932351112366
15.086315155029 -81.073425292969 -281.553100585938 3.823885679245
-164.180938720703 -77.199974060059 -269.942199707031 2.953744888306
-153.788818359375 -72.473793029785 -276.858917236328 2.866336107254
-5.648756027222 -76.156150817871 -276.692016601563 2.671680450439
-160.060287475586 -75.269569396973 -269.244110107422 3.531032800674
14.638443946838 -78.568191528320 -281.463043212891 2.544122695923
-152.117904663086 -74.267288208008 -284.140991210938 1.586380720139
-160.984710693359 -73.042198181152 -291.412841796875 2.026009559631
-152.551651000977 -72.795852661133 -283.633361816406 2.042676210403
-167.357376098633 -70.523330688477 -284.434600830078 0.687293469906
3.062747955322 -73.756607055664 -289.492370605469 2.415053367615
10.251480102539 -78.340240478516 -284.711822509766 2.085275411606
-96.729003906250 -70.279716491699 -288.239166259766 2.392371177673
-150.907791137695 -75.896896362305 -289.626586914063 1.294576525688
-147.786163330078 -75.371208190918 -286.535675048828 1.301408290863
-109.747650146484 -72.380538940430 -291.839813232422 1.930434584618
-149.767532348633 -73.884368896484 -292.208740234375 2.315370321274
-148.800537109375 -74.034149169922 -294.272949218750 2.896475791931
-67.571800231934 -74.170661926270 -291.795562744141 1.134843349457
-161.562576293945 -76.913925170898 -293.444091796875 3.749058008194
-121.609802246094 -76.011398315430 -290.801269531250 2.525133848190
-42.772350311279 -77.814590454102 -292.747070312500 2.640599012375
-153.641906738281 -73.133872985840 -293.109802246094 2.166345834732
-139.116378784180 -74.027893066406 -293.431091308594 3.297521829605
-17.025049209595 -76.281364440918 -293.482604980469 2.141864538193
-125.818534851074 -73.734298706055 -298.093261718750 3.823477983475
3.884671926498 -74.856147766113 -292.884948730469 0.281246662140
13.641242980957 -75.970802307129 -291.827606201172 1.687465906143
-132.840408325195 -74.442794799805 -296.146667480469 3.062374353409
-144.857360839844 -73.589248657227 -296.319244384766 1.122383236885
-155.418777465820 -72.453308105469 -311.169830322266 1.269651651382
-71.935310363770 -75.115989685059 -51.545799255371 3.051635503769
-24.401973724365 -75.033927917480 -62.316402435303 1.650814294815
-22.216772079468 -76.778373718262 -66.659355163574 1.198806285858
74.688735961914 -74.837036132813 -74.772041320801 1.606781601906
90.979232788086 -75.516815185547 -76.690666198730 2.149593591690
-37.575870513916 -72.445770263672 -79.565719604492 2.297055244446
78.026908874512 -77.207901000977 -77.008728027344 1.402590036392
87.714904785156 -78.954521179199 -81.409919738770 2.528384447098
71.672714233398 -75.494659423828 -81.883041381836 1.840970873833
70.077651977539 -74.259651184082 -88.817802429199 1.428340315819
-46.992641448975 -79.110832214355 -87.359802246094 1.064353704453
-93.448318481445 -75.318435668945 -90.663566589355 3.224843263626
58.130344390869 -76.822265625000 -93.524024963379 2.500012874603
48.657524108887 -76.892837524414 -98.099884033203 2.384663343430
96.084922790527 -72.964118957520 -98.025581359863 1.848544239998
-94.311126708984 -73.597099304199 -104.478500366211 0.830187797546
84.672302246094 -75.387321472168 -97.563568115234 0.691050648689
80.134948730469 -75.343124389648 -100.226547241211 2.398501873016
91.293365478516 -76.363601684570 -97.402519226074 1.717057585716
82.361335754395 -72.305366516113 -103.380241394043 1.853255987167
91.197692871094 -75.387969970703 -100.448799133301 2.351511240005
-82.487602233887 -80.149612426758 -103.521011352539 3.861907005310
40.968811035156 -78.785751342773 -111.338432312012 1.117419481277
104.631072998047 -75.891136169434 -113.075149536133 2.809898614883
111.777130126953 -72.706222534180 -111.023674011230 1.728985667229
46.133617401123 -75.043090820313 -118.061248779297 0.829919457436
109.230834960938 -72.732284545898 -125.272415161133 1.581496715546
115.123985290527 -76.475540161133 -135.999771118164 1.721084952354
-52.137580871582 -74.529640197754 -133.199569702148 1.209439277649
29.313064575195 -76.047760009766 -134.352249145508 0.757141888142
36.174282073975 -78.456077575684 -130.981658935547 0.626554965973
23.344835281372 -72.907463073730 -144.274810791016 0.772663652897
114.096069335938 -74.618927001953 -140.009719848633 0.820679306984
111.314849853516 -75.547103881836 -134.962051391602 1.703097105026
-73.999877929688 -76.760612487793 -150.219818115234 2.264368534088
-46.889430999756 -76.961860656738 -149.294036865234 2.049965381622
-72.400421142578 -73.555976867676 -150.448287963867 2.181572198868
20.939901351929 -77.045181274414 -153.373992919922 3.177517414093
112.244178771973 -73.834503173828 -154.143600463867 1.067068219185
-54.164115905762 -75.775344848633 -152.551864624023 2.323576927185
-70.099830627441 -74.464439392090 -150.794891357422 1.391132593155
-39.775810241699 -79.143470764160 -156.930847167969 1.273098587990
35.838047027588 -74.299064636230 -151.977569580078 1.869551777840
110.557571411133 -75.625404357910 -156.065078735352 1.923322319984
116.309677124023 -75.773796081543 -158.348739624023 1.268455982208
-68.648841857910 -74.631172180176 -153.621032714844 0.375469923019
-71.323448181152 -76.090675354004 -164.962341308594 3.576346635818
20.601114273071 -78.016830444336 -164.070541381836 2.456288576126
-57.979824066162 -77.232315063477 -165.217178344727 2.593158483505
-31.348581314087 -80.950973510742 -164.078414916992 3.109769582748
7.214727878571 -73.987213134766 -164.774612426758 2.319175720215
111.691749572754 -76.475723266602 -165.765823364258 2.268254518509
5.704340934753 -74.925590515137 -166.412246704102 2.050664424896
-35.721710205078 -76.105224609375 -167.809295654297 2.639628887177
-0.305622994900 -73.327583312988 -166.662231445313 1.402888417244
106.275199890137 -73.653747558594 -174.219833374023 1.450466752052
-41.349830627441 -70.541557312012 -173.943695068359 1.784899950027
29.185443878174 -72.281555175781 -170.705718994141 1.920508861542
112.068771362305 -73.233871459961 -172.359497070313 1.698061466217
-53.343761444092 -74.237831115723 -180.117080688477 1.396677017212
-28.247293472290 -76.871360778809 -172.484466552734 1.077515244484
101.701820373535 -76.509292602539 -174.981079101563 4.107567787170
31.802764892578 -76.846435546875 -173.614135742188 3.473941326141
114.823326110840 -73.040794372559 -176.487854003906 2.318981647491
-37.716419219971 -76.849243164063 -174.490112304688 1.636000990868
106.830017089844 -73.241127014160 -181.763931274414 0.552794933319
-58.103240966797 -74.808097839355 -179.516967773438 1.460970282555
-24.235143661499 -75.536193847656 -178.910614013672 1.275377273560
-143.328582763672 -74.788269042969 -183.515808105469 1.804500341415
-54.321727752686 -74.922462463379 -185.919616699219 2.139105796814
-146.470413208008 -74.125312805176 -186.393051147461 1.284603238106
-32.190486907959 -74.381172180176 -188.383575439453 1.216098308563
22.269914627075 -74.281181335449 -188.079574584961 2.116147756577
110.226516723633 -71.584304809570 -183.068420410156 1.129406809807
-29.944137573242 -75.414573669434 -190.948242187500 2.310120582581
13.247553825378 -76.262222290039 -193.139373779297 2.500329732895
18.039869308472 -74.776466369629 -200.767333984375 1.249195098877
-147.901748657227 -73.180984497070 -194.705184936523 2.299683570862
102.837211608887 -76.828788757324 -197.986709594727 1.207839608192
-18.196891784668 -72.038383483887 -195.454986572266 1.044696807861
104.832084655762 -71.347167968750 -192.103546142578 2.314930438995
15.718546867371 -73.815383911133 -190.220764160156 1.681888699532
-130.694824218750 -73.971900939941 -203.401580810547 1.431970953941
-142.681747436523 -74.073616027832 -200.159759521484 2.771411895752
95.756805419922 -70.029983520508 -200.925109863281 1.240487575531
-11.408280372620 -74.699806213379 -201.988235473633 1.474390149117
-15.086496353149 -76.925498962402 -199.524856567383 2.233104467392
11.724028587341 -75.192085266113 -206.146392822266 1.924547314644
-147.569885253906 -73.416229248047 -207.763473510742 2.843739271164
-146.465408325195 -76.112190246582 -208.131637573242 2.455367326736
100.308494567871 -77.852981567383 -205.736267089844 2.145130634308
-75.571746826172 -75.754943847656 -211.465927124023 1.301546096802
-36.446521759033 -73.011314392090 -203.613204956055 1.883251547813
19.804824829102 -73.938606262207 -211.770751953125 1.277801513672
-24.050149917603 -76.850593566895 -211.833267211914 0.753910779953
-78.303428649902 -73.070213317871 -214.278991699219 1.753374576569
92.820556640625 -73.616302490234 -209.460433959961 1.239590287209
-81.697486877441 -71.837356567383 -215.716766357422 2.091187477112
-146.629806518555 -75.673377990723 -220.310440063477 2.427820920944
-78.420539855957 -76.179588317871 -217.320098876953 2.434432506561
-15.299922943115 -74.537857055664 -214.018920898438 1.152758002281
-21.191419601440 -75.342552185059 -218.788497924805 0.772582292557
22.020654678345 -72.679595947266 -212.416824340820 3.199860095978
-5.270589828491 -73.733734130859 -214.418960571289 1.944139122963
-83.081832885742 -73.846519470215 -220.671020507813 4.416297435760
91.833122253418 -74.272239685059 -215.273193359375 1.772519826889
-94.386222839355 -75.968460083008 -216.491302490234 1.777776241302
-146.627899169922 -79.770637512207 -226.061004638672 1.419748663902
-14.256281852722 -75.375343322754 -220.742141723633 2.611276388168
16.759771347046 -74.199340820313 -217.220794677734 1.043017268181
-102.712562561035 -73.134948730469 -220.970016479492 1.605818986893
9.232739448547 -76.007934570313 -221.218063354492 1.937151670456
-25.128473281860 -76.845581054688 -217.534057617188 1.126140356064
83.519897460938 -75.608154296875 -225.254379272461 1.402287125587
-145.750228881836 -74.380447387695 -222.320892333984 0.895067155361
7.168986797333 -71.824241638184 -227.163421630859 1.655659556389
-6.741240024567 -75.428337097168 -222.994155883789 1.762207150459
17.446887969971 -71.179542541504 -222.022811889648 1.774567008018
85.049095153809 -72.327392578125 -226.022033691406 2.489834070206
-12.426112174988 -74.872093200684 -227.966613769531 1.041369199753
-129.243255615234 -76.912223815918 -229.064926147461 2.163971900940
-8.477733612061 -77.631134033203 -226.432907104492 2.702282667160
17.466957092285 -74.104492187500 -235.457672119141 1.560263037682
-125.236061096191 -74.020156860352 -226.014373779297 0.695363521576
-149.237579345703 -74.979408264160 -230.659103393555 1.871791243553
-139.713195800781 -74.696472167969 -230.516433715820 1.764819860458
-132.069122314453 -73.917182922363 -231.254699707031 0.746526837349
-11.859330177307 -74.129417419434 -228.374526977539 1.231770396233
72.192390441895 -73.682289123535 -230.894470214844 1.201011896133
-140.835388183594 -74.882186889648 -236.219329833984 3.285943984985
73.466239929199 -73.286621093750 -229.021163940430 0.872681677341
-16.255216598511 -76.446311950684 -227.676773071289 2.116832494736
-141.565155029297 -79.509277343750 -233.391143798828 2.149989128113
78.097694396973 -76.509422302246 -232.620132446289 2.508077859879
12.956179618835 -77.350173950195 -237.580154418945 3.568267107010
-142.262100219727 -74.135299682617 -237.459243774414 3.650247097015
-149.256591796875 -74.601982116699 -238.057052612305 2.895612239838
14.184243202209 -70.619895935059 -235.303863525391 1.203398823738
-2.012835979462 -74.705764770508 -238.982803344727 1.350836157799
-23.484518051147 -72.642761230469 -243.108047485352 1.722270965576
-3.332587003708 -73.063369750977 -241.360092163086 0.743167996407
-161.203964233398 -75.350212097168 -238.708618164063 1.774501919746
10.921018600464 -74.406501770020 -246.565368652344 1.934928178787
-163.360366821289 -73.330497741699 -236.706100463867 0.761434912682
-15.535811424255 -73.944259643555 -235.605072021484 2.033734798431
67.913757324219 -75.023712158203 -240.356582641602 2.278352975845
-9.045394897461 -73.342529296875 -242.257247924805 1.896209955215
-24.891651153564 -73.881011962891 -240.724349975586 1.430538177490
-25.689342498779 -72.179931640625 -242.925918579102 2.681443452835
-14.803196907043 -71.896209716797 -245.749191284180 2.526768445969
-143.875320434570 -73.258071899414 -237.122192382813 2.465101242065
9.659501075745 -76.023071289063 -245.084457397461 1.605665564537
65.440673828125 -75.933952331543 -242.210983276367 2.947345256805
12.749966621399 -74.593955993652 -245.505294799805 1.095087647438
-161.520172119141 -73.311889648438 -241.259582519531 1.704469680786
-47.435638427734 -75.822746276855 -245.650665283203 1.209674596786
5.370418071747 -78.481903076172 -248.981658935547 2.759413003922
17.802215576172 -70.571540832520 -249.889709472656 2.358232498169
-56.529998779297 -73.515647888184 -250.646133422852 2.856340646744
-3.122931003571 -73.203285217285 -244.881668090820 0.781034350395
21.566970825195 -75.967544555664 -250.958267211914 2.447377681732
-164.965927124023 -73.992546081543 -248.345840454102 0.375558406115
-71.031982421875 -76.425750732422 -252.571289062500 2.592676162720
-51.446811676025 -72.560142517090 -248.774871826172 2.713734626770
-78.859748840332 -73.281829833984 -249.770614624023 1.691236972809
-160.552642822266 -73.239273071289 -246.212203979492 1.156032443047
-151.146163940430 -74.517471313477 -253.200195312500 1.082678318024
-58.810573577881 -71.923614501953 -253.482284545898 4.649558544159
-68.289680480957 -77.773086547852 -252.549484252930 2.286846160889
-153.583709716797 -72.916938781738 -254.575317382813 1.102949142456
-151.815475463867 -72.407608032227 -252.094406127930 1.333675980568
-77.223304748535 -73.931320190430 -253.159988403320 0.744676530361
-92.188224792480 -71.209197998047 -253.733673095703 2.224382400513
-163.643661499023 -74.911445617676 -252.586181640625 1.605117440224
-154.578018188477 -73.530097961426 -255.667739868164 0.772793412209
-133.993255615234 -71.652389526367 -258.066162109375 2.829532861710
-81.506782531738 -76.154075622559 -254.552368164063 1.854574322701
-162.901138305664 -71.615142822266 -254.984558105469 2.245112419128
-144.774139404297 -76.978118896484 -258.108856201172 2.682390213013
-89.655303955078 -73.793113708496 -256.189086914063 1.735073208809
-98.040153503418 -69.166755676270 -260.587219238281 1.610143303871
-148.076049804688 -72.979728698730 -259.778991699219 1.175386071205
-95.753067016602 -73.321556091309 -261.734405517578 3.712381839752
-150.388900756836 -73.192031860352 -256.643707275391 1.230819821358
-99.599899291992 -74.892005920410 -257.579101562500 1.436263084412
-165.732879638672 -76.591011047363 -258.991546630859 2.654563426971
-161.122787475586 -77.236534118652 -259.926666259766 2.744055986404
-122.710517883301 -72.598770141602 -258.188446044922 1.746619462967
-148.745254516602 -76.459091186523 -260.286163330078 1.724746465683
-110.507507324219 -72.813766479492 -261.496856689453 1.758377313614
-14.083766937256 -77.248641967773 -262.377960205078 2.520857810974
-142.351348876953 -72.859115600586 -263.058288574219 0.909192264080
-124.798652648926 -73.321334838867 -262.614532470703 1.026059269905
-155.410583496094 -73.338340759277 -265.288970947266 1.141752243042
22.060901641846 -74.535072326660 -269.408264160156 0.578483700752
-149.700057983398 -72.620979309082 -282.322021484375 2.947924613953
-167.358428955078 -72.418624877930 -280.181793212891 2.100185632706
-5.379299163818 -77.830284118652 -282.557312011719 2.298578500748
-147.706466674805 -75.635253906250 -282.340423583984 0.682859957218
-6.467527866364 -72.597877502441 -280.939849853516 2.582412481308
14.877976417542 -73.255599975586 -287.063842773438 2.161039829254
-133.695724487305 -72.560638427734 -288.497619628906 3.457364797592
-69.882156372070 -75.790222167969 -284.959472656250 2.244929075241
-36.736801147461 -73.003952026367 -285.160766601563 3.048815011978
-114.211212158203 -71.730628967285 -289.426940917969 2.506742954254
-90.684921264648 -73.572860717773 -294.020812988281 2.322065591812
-90.166831970215 -72.765762329102 -295.088195800781 3.436231613159
-47.655765533447 -76.414360046387 -290.810028076172 0.455531269312
-114.744209289551 -71.031791687012 -293.479705810547 1.309467077255
-108.477806091309 -73.994445800781 -293.016510009766 2.070500135422
-31.379737854004 -75.176841735840 -292.761230468750 1.972043633461
-114.192573547363 -74.011833190918 -291.667327880859 1.097554564476
-124.870643615723 -74.751121520996 -292.149475097656 0.661943495274
-143.572601318359 -75.236915588379 -295.216003417969 2.523557901382
9.307103157043 -71.428359985352 -291.236450195313 2.063046216965
15.336411476135 -74.988418579102 -294.968627929688 1.196283102036
-155.897674560547 -73.737731933594 -295.886749267578 1.777242422104
-154.138015747070 -73.936691284180 -304.148834228516 2.939539432526
-144.747436523438 -75.240196228027 -312.578063964844 1.162963867188
-149.746459960938 -70.629043579102 -311.242370605469 2.116986989975
-151.459747314453 -76.827163696289 -314.557464599609 2.632560491562
27.802444458008 -75.058822631836 -16.787025451660 3.164806127548
25.484436035156 -73.943099975586 -20.764158248901 2.002125024796
23.522739410400 -74.979522705078 -22.387710571289 2.664382696152
28.439550399780 -75.274726867676 -41.042823791504 3.282013416290
-53.993095397949 -70.403114318848 -53.811855316162 4.265044212341
-64.633132934570 -73.398117065430 -52.698692321777 1.495038866997
-38.755874633789 -74.192420959473 -53.900264739990 1.667794108391
-80.982933044434 -76.072265625000 -60.883438110352 1.476475000381
82.446525573730 -78.497901916504 -77.530242919922 1.874626874924
-18.549192428589 -74.088798522949 -74.307647705078 2.553326129913
90.304100036621 -77.184097290039 -70.372474670410 3.447922468185
97.137420654297 -73.840576171875 -80.526870727539 0.167240396142
-92.373588562012 -74.149200439453 -82.048355102539 2.263320922852
73.535011291504 -72.262779235840 -78.876235961914 3.073367357254
-41.033042907715 -78.175956726074 -85.860954284668 1.368888735771
101.520889282227 -73.608001708984 -85.101394653320 3.173935174942
-53.916572570801 -76.816230773926 -91.244552612305 1.107164263725
52.244945526123 -74.088691711426 -90.210533142090 1.966402649879
73.050132751465 -75.683044433594 -90.080924987793 1.112284302711
57.992610931396 -77.179733276367 -96.774948120117 3.141574859619
50.624481201172 -74.342994689941 -102.483047485352 2.304048538208
70.633445739746 -76.634574890137 -95.920433044434 3.551952123642
47.427398681641 -70.989097595215 -99.974403381348 2.278104305267
103.221412658691 -74.786804199219 -102.375152587891 2.032943725586
110.791519165039 -75.656532287598 -107.132316589355 2.729928255081
80.187660217285 -71.217613220215 -102.486167907715 1.695815920830
89.791084289551 -74.747398376465 -104.104713439941 2.722075939178
102.329109191895 -73.223869323730 -100.705963134766 3.101484775543
107.785217285156 -68.997856140137 -102.557312011719 1.814104437828
40.276115417480 -79.075897216797 -107.680885314941 3.017726898193
109.984214782715 -73.974899291992 -120.454406738281 1.877318501472
114.493545532227 -75.809288024902 -121.055000305176 2.390457630157
33.757949829102 -74.033638000488 -121.084419250488 0.709123313427
42.691364288330 -75.414451599121 -120.525848388672 2.636346340179
111.499114990234 -72.703330993652 -129.429489135742 1.653208255768
39.602882385254 -76.886978149414 -127.576843261719 2.082070589066
114.783523559570 -71.898162841797 -130.822326660156 2.090072870255
110.897308349609 -73.376396179199 -126.056190490723 0.392452985048
25.890586853027 -72.275909423828 -138.731033325195 0.794618248940
-47.936977386475 -76.622245788574 -134.986114501953 3.108401060104
-54.067268371582 -74.687171936035 -139.964767456055 1.110207557678
113.917304992676 -72.645050048828 -134.466415405273 1.500647068024
-72.622489929199 -76.465942382813 -144.178314208984 1.470601797104
-74.388298034668 -74.033065795898 -140.803161621094 1.109316706657
-57.352779388428 -76.333419799805 -143.042327880859 3.092136383057
34.528419494629 -74.210350036621 -141.120239257813 0.927984774113
108.885917663574 -72.687294006348 -147.246673583984 2.940670013428
-65.075195312500 -74.946861267090 -146.877166748047 2.741074562073
-44.495052337646 -71.366188049316 -145.824340820313 1.824912071228
38.335834503174 -77.575485229492 -150.623489379883 4.143398761749
-64.849128723145 -76.242294311523 -151.507919311523 1.409013867378
114.150489807129 -70.111282348633 -145.009918212891 1.627664089203
111.743156433105 -74.548980712891 -157.658294677734 0.989866495132
113.912445068359 -75.292739868164 -150.355804443359 1.643925905228
-37.472789764404 -74.356445312500 -156.487136840820 2.073521137238
-65.037826538086 -74.552574157715 -160.567886352539 0.796839594841
-70.136482238770 -69.838348388672 -155.785232543945 0.892067492008
31.088491439819 -72.385589599609 -152.305145263672 0.915949761868
-0.156662002206 -76.162536621094 -164.500411987305 2.405618190765
108.574920654297 -73.814575195313 -158.821029663086 0.348963022232
110.534667968750 -70.906608581543 -155.955017089844 0.891534328461
113.563827514648 -72.931282043457 -158.368408203125 0.981026172638
-64.072891235352 -76.115043640137 -162.679077148438 1.263586997986
-45.804172515869 -75.771469116211 -162.889801025391 1.445330381393
3.463857889175 -75.147964477539 -168.943847656250 3.314322948456
-24.776884078979 -72.212173461914 -175.191055297852 1.839973568916
106.975372314453 -73.973426818848 -164.873611450195 1.859845876694
-35.884178161621 -72.700836181641 -162.047592163086 2.446322441101
111.199745178223 -74.844902038574 -169.853942871094 1.018295049667
-40.775409698486 -73.012924194336 -173.321044921875 1.555514693260
111.104904174805 -74.992172241211 -168.267501831055 0.360541045666
-149.041702270508 -72.163856506348 -183.338439941406 2.400447845459
-29.512979507446 -72.408943176270 -176.370239257813 1.554117679596
-20.312097549438 -71.348419189453 -181.897705078125 1.691110610962
29.034973144531 -77.019714355469 -177.346969604492 3.243714094162
16.408760070801 -73.595039367676 -181.402725219727 1.189309835434
24.990098953247 -74.692108154297 -183.598556518555 1.910486102104
107.144500732422 -75.621826171875 -186.169082641602 2.764229297638
-151.212600708008 -71.689277648926 -188.843276977539 1.374249219894
-20.448820114136 -74.696479797363 -189.318710327148 1.464692831039
105.179809570313 -72.781341552734 -179.337219238281 1.510491728783
104.015670776367 -72.606117248535 -191.980911254883 1.560837626457
106.246322631836 -73.810157775879 -181.243789672852 0.840237796307
97.157936096191 -76.739250183105 -196.216293334961 1.099321365356
-153.578582763672 -80.871063232422 -197.626037597656 1.612595200539
99.873268127441 -76.995216369629 -204.419281005859 1.504602670670
-30.055408477783 -72.924537658691 -196.533203125000 3.520428419113
99.107528686523 -71.761337280273 -197.635711669922 1.582438707352
-125.899009704590 -74.272247314453 -196.205261230469 2.495470046997
-29.739719390869 -76.368453979492 -193.189605712891 2.308279037476
-140.794876098633 -73.929641723633 -202.301620483398 1.985566854477
92.914382934570 -73.058662414551 -200.429107666016 2.173342227936
9.714551925659 -73.749053955078 -201.008850097656 1.262692689896
23.958866119385 -75.349403381348 -196.371582031250 1.811176419258
-147.916107177734 -74.117790222168 -201.346725463867 2.244315147400
-138.560180664063 -72.026069641113 -206.012420654297 3.915956497192
-12.960310935974 -74.384651184082 -206.391418457031 2.675256013870
-124.541687011719 -77.981567382813 -204.156234741211 5.053073406219
-144.894348144531 -76.932350158691 -204.018646240234 1.132982730865
7.976380825043 -72.315986633301 -201.148941040039 1.400564908981
-23.264459609985 -73.983840942383 -204.914138793945 2.710079431534
19.653961181641 -73.351058959961 -207.035400390625 1.075502276421
7.741704940796 -73.728637695313 -211.019775390625 1.120321393013
88.282737731934 -73.887840270996 -211.607376098633 1.639225482941
-22.149705886841 -68.936813354492 -212.787094116211 4.664262294769
93.993095397949 -72.584121704102 -210.924102783203 0.745496511459
99.304244995117 -73.345474243164 -207.964141845703 3.479883193970
-145.922973632813 -70.971000671387 -219.253555297852 1.717154860497
95.848541259766 -70.986953735352 -211.907394409180 1.519838213921
6.832995891571 -71.575210571289 -210.401916503906 2.347497940063
5.170454978943 -73.452850341797 -213.019668579102 1.306742548943
-33.825637817383 -72.421508789063 -210.684585571289 1.975104451180
-90.371063232422 -70.851188659668 -215.170227050781 0.632391989231
-30.836090087891 -73.278579711914 -214.526504516602 2.002885341644
85.011123657227 -74.282905578613 -216.799026489258 1.228987574577
85.748550415039 -74.027976989746 -219.139755249023 1.159505009651
-35.190097808838 -70.659523010254 -215.701736450195 5.137516975403
-80.856620788574 -68.867889404297 -222.213470458984 8.015185356140
-2.390821933746 -73.368568420410 -217.649917602539 1.994933962822
88.675933837891 -73.693359375000 -218.004821777344 0.989410758018
-148.304458618164 -75.020042419434 -223.379714965820 1.672796607018
-167.157302856445 -74.484008789063 -214.499923706055 3.974771976471
-158.311828613281 -72.755058288574 -222.874191284180 0.775165319443
-19.549211502075 -74.639160156250 -228.946136474609 1.748449444771
-151.774551391602 -75.318557739258 -225.152847290039 3.124441862106
-6.883410930634 -77.843513488770 -228.164657592773 1.996148586273
7.392710208893 -71.939491271973 -219.069427490234 1.773414015770
-162.022460937500 -76.511581420898 -224.219818115234 3.573122262955
-162.404434204102 -73.061141967773 -227.354034423828 1.149395346642
79.374000549316 -73.226921081543 -231.097808837891 0.862397909164
4.756298065186 -73.147140502930 -230.092208862305 0.450061082840
-151.218627929688 -74.343551635742 -225.367218017578 2.818029165268
-142.034973144531 -73.784774780273 -224.924377441406 2.256093502045
-20.109106063843 -75.101737976074 -226.333267211914 1.678661227226
3.563937902451 -75.163444519043 -225.232833862305 0.912185251713
82.916152954102 -73.074714660645 -223.791229248047 1.442975640297
-159.385177612305 -74.481208801270 -230.562118530273 3.797883510590
-146.134750366211 -72.199554443359 -229.562637329102 1.789298295975
-124.377334594727 -71.375854492188 -231.481750488281 1.403746843338
81.756912231445 -74.972000122070 -230.529937744141 2.810468435287
-114.740875244141 -70.614135742188 -232.109573364258 1.812905192375
-147.152023315430 -75.076591491699 -230.698196411133 1.862693667412
-151.101577758789 -75.963104248047 -231.314086914063 2.818087577820
-146.690841674805 -73.439132690430 -229.971588134766 1.355084061623
-153.082015991211 -70.992317199707 -231.200912475586 2.189367055893
-165.526870727539 -71.032241821289 -235.481628417969 1.481580138206
-135.630493164063 -72.509071350098 -236.070907592773 3.467058658600
-134.220138549805 -73.020393371582 -234.457565307617 2.045187473297
-154.804656982422 -73.051544189453 -231.580368041992 0.643049895763
-144.772048950195 -71.874015808105 -234.688049316406 1.162261486053
-151.690719604492 -70.954261779785 -235.468109130859 1.853938579559
73.111968994141 -72.417953491211 -225.501861572266 3.590626001358
68.560104370117 -70.397285461426 -239.552597045898 1.579653024673
-159.934707641602 -72.220756530762 -239.186203002930 1.670012235641
70.169631958008 -72.849510192871 -234.707061767578 1.669062018394
-19.190059661865 -72.794273376465 -237.709564208984 1.616597652435
9.973193168640 -73.066627502441 -238.678756713867 2.430575132370
12.339730262756 -75.877326965332 -236.682174682617 2.991829395294
-146.006759643555 -72.801734924316 -245.491333007813 3.319096803665
15.305019378662 -72.771034240723 -243.425140380859 2.394404411316
65.796829223633 -73.955238342285 -238.043869018555 0.835919678211
12.398462295532 -72.186729431152 -237.486526489258 2.893848657608
6.303771018982 -75.493179321289 -244.585632324219 1.032644987106
-6.505331993103 -70.398147583008 -241.892715454102 1.895001530647
-18.347105026245 -75.446029663086 -246.475311279297 4.179394721985
1.086967945099 -75.210922241211 -244.107849121094 1.269659876823
3.342848062515 -72.274368286133 -243.255279541016 1.425808906555
57.654598236084 -74.110282897949 -242.622482299805 2.061169147491
-57.316028594971 -73.749938964844 -246.638580322266 1.671671986580
19.188861846924 -73.311614990234 -249.495361328125 0.936117887497
-58.928791046143 -72.754707336426 -246.352294921875 1.265643596649
-7.172968864441 -72.564094543457 -249.989440917969 2.374135494232
-63.667186737061 -70.908615112305 -253.250366210938 3.749656915665
-84.615188598633 -77.321632385254 -252.843048095703 3.017393350601
-81.284072875977 -75.544837951660 -252.480880737305 1.128031969070
-14.392487525940 -72.204635620117 -253.152389526367 1.583848595619
-123.705131530762 -75.491371154785 -260.285552978516 1.514218688011
-14.206238746643 -70.731781005859 -256.923492431641 1.053679823875
-119.727546691895 -72.938941955566 -257.870483398438 2.522426366806
-115.972084045410 -70.695816040039 -259.887145996094 3.244095802307
-102.931289672852 -75.708351135254 -259.662872314453 3.444994688034
-142.782958984375 -72.312500000000 -263.284912109375 1.152017951012
-145.354385375977 -71.433349609375 -267.794006347656 2.237935781479
-166.749114990234 -71.085250854492 -266.343322753906 2.394513368607
15.686443328857 -74.597816467285 -282.020568847656 1.895440340042
-57.343139648438 -74.582916259766 -285.862915039063 2.003533840179
-64.775802612305 -73.308044433594 -286.040222167969 0.684309303761
-42.890281677246 -74.539268493652 -286.558807373047 0.742546916008
-27.251663208008 -74.513801574707 -284.765136718750 1.985414743423
-93.590232849121 -72.848098754883 -292.771545410156 1.785620808601
-29.316501617432 -71.194572448730 -289.296813964844 1.747692346573
-2.148149967194 -69.845443725586 -287.239501953125 3.659185647964
-165.190719604492 -73.791290283203 -291.021392822266 2.282603263855
-13.184771537781 -74.362884521484 -290.136535644531 2.218934297562
8.473041534424 -70.317024230957 -290.416381835938 2.002769947052
15.508928298950 -69.667022705078 -291.498016357422 3.036322355270
-55.225940704346 -73.538986206055 -293.069946289063 2.502068281174
-28.269912719727 -74.698226928711 -289.410003662109 2.282676219940
15.820228576660 -70.594154357910 -291.758392333984 2.432867527008
-67.866714477539 -73.833526611328 -294.359741210938 3.629365682602
-36.755413055420 -72.184921264648 -291.897216796875 1.245586037636
-16.138349533081 -71.548706054688 -292.641357421875 1.903832197189
13.189570426941 -72.819244384766 -292.238861083984 1.083148837090
-11.867345809937 -74.579711914063 -291.460754394531 0.679561734200
5.832135200500 -70.865722656250 -293.594207763672 2.931613922119
13.554889678955 -72.745918273926 -293.997039794922 1.119232177734
-133.592086791992 -74.271492004395 -293.600341796875 1.417110681534
-141.447357177734 -74.413337707520 -303.296142578125 3.030801773071
-147.957138061523 -76.142601013184 -313.032592773438 0.605754137039
39.410511016846 -68.952987670898 -13.410818099976 2.243986845016
30.566286087036 -73.836463928223 -11.162131309509 2.879923105240
39.376972198486 -74.088272094727 -16.414184570313 2.753994226456
20.907958984375 -74.022476196289 -21.905572891235 2.129687786102
42.961845397949 -74.023193359375 -24.950889587402 3.776302576065
22.531852722168 -72.631980895996 -21.743154525757 0.853452622890
24.115133285522 -76.836517333984 -30.950895309448 4.618576049805
22.302631378174 -75.891143798828 -36.486980438232 3.883008241653
42.720767974854 -71.779167175293 -33.621459960938 1.203426599503
27.054426193237 -73.649963378906 -37.944778442383 2.696006298065
40.680294036865 -74.135971069336 -34.041072845459 2.868138074875
32.990295410156 -72.025032043457 -38.210544586182 1.482590079308
33.057060241699 -74.258193969727 -40.185844421387 1.882401466370
32.238449096680 -72.824829101563 -41.973503112793 1.798575282097
42.992824554443 -73.707588195801 -43.401714324951 4.527067184448
34.854827880859 -71.028739929199 -44.573623657227 3.559542655945
-38.283657073975 -69.941177368164 -54.860855102539 3.591054439545
-30.010662078857 -69.842483520508 -48.484336853027 2.823620080948
-88.423851013184 -71.290985107422 -57.599185943604 3.627742290497
-86.835227966309 -75.828674316406 -65.557563781738 2.758515357971
80.512344360352 -74.080810546875 -68.776832580566 1.512422323227
83.170867919922 -74.553558349609 -72.165092468262 0.926442325115
-15.819175720215 -74.835388183594 -75.057106018066 4.633182048798
-86.185409545898 -76.239440917969 -72.665145874023 2.993383169174
-24.330133438110 -73.808120727539 -79.733856201172 2.894936800003
-49.380283355713 -76.954185485840 -89.559257507324 1.555704593658
64.364509582520 -72.005821228027 -86.405662536621 1.923908472061
55.093376159668 -71.219787597656 -92.455848693848 1.621773719788
98.033035278320 -73.756446838379 -89.805091857910 0.791526734829
73.412773132324 -74.928382873535 -96.438621520996 1.529935717583
-64.049781799316 -77.370468139648 -94.182662963867 0.349594146013
-64.981445312500 -73.047142028809 -97.427406311035 0.873398125172
45.047771453857 -74.542900085449 -97.818595886230 1.385663509369
74.325477600098 -77.094680786133 -102.314979553223 4.700218200684
51.943382263184 -77.160095214844 -103.466079711914 1.460949182510
101.631332397461 -75.578933715820 -98.483818054199 2.820119619370
-91.478851318359 -74.057922363281 -108.352798461914 4.366567134857
39.122653961182 -78.123954772949 -111.951934814453 1.061801075935
107.377479553223 -71.855606079102 -108.527160644531 0.680096447468
46.897251129150 -71.109458923340 -111.428909301758 2.298720598221
103.790061950684 -71.518569946289 -107.931549072266 0.765920221806
-84.472007751465 -73.406806945801 -115.230957031250 2.916192293167
36.384307861328 -72.994705200195 -115.129776000977 1.603556752205
109.169708251953 -74.912254333496 -118.874221801758 0.484564930201
103.160758972168 -72.677436828613 -116.735542297363 3.520627021790
107.885742187500 -75.446113586426 -115.606597900391 3.090109109879
110.139976501465 -76.514915466309 -116.324180603027 2.321820735931
35.237167358398 -73.901695251465 -115.187461853027 0.934867441654
32.968303680420 -76.983200073242 -119.893241882324 1.888965845108
44.254508972168 -73.135078430176 -115.102287292480 1.604847192764
110.060890197754 -73.463111877441 -124.346336364746 1.941673040390
40.353771209717 -72.170822143555 -125.646247863770 1.873095631599
110.228309631348 -74.645050048828 -132.593109130859 1.926745772362
114.305908203125 -71.821441650391 -130.037353515625 2.154727697372
33.223674774170 -72.673049926758 -122.671813964844 1.461295366287
-76.838813781738 -75.055290222168 -128.056716918945 4.222728729248
117.159111022949 -76.177711486816 -136.220825195313 2.223798513412
-58.240150451660 -77.484016418457 -140.939697265625 3.350307464600
35.283939361572 -74.811950683594 -136.986480712891 1.753024339676
-73.142959594727 -73.818984985352 -140.294174194336 0.911991834641
29.658576965332 -72.231506347656 -135.634750366211 1.024793624878
-74.209487915039 -75.004158020020 -142.923645019531 1.227019309998
-43.467033386230 -76.137184143066 -147.119049072266 1.347795367241
-72.071105957031 -75.506935119629 -137.514968872070 2.386080026627
111.137443542480 -69.439041137695 -138.807342529297 1.750855445862
115.970664978027 -73.773468017578 -141.636383056641 1.616226077080
121.501884460449 -73.765869140625 -146.158172607422 5.288472652435
-71.765686035156 -74.017936706543 -146.027221679688 1.534784078598
9.578949928284 -71.929176330566 -151.504394531250 1.131721496582
-56.174789428711 -72.490943908691 -154.323516845703 3.673766136169
-47.133090972900 -75.596755981445 -155.576477050781 2.339675426483
109.177993774414 -71.506095886230 -159.942718505859 1.387467861176
-40.212604522705 -75.466758728027 -152.432540893555 1.934868574142
11.970188140869 -71.932334899902 -160.367431640625 2.469229221344
22.826814651489 -72.420745849609 -160.119964599609 0.848583519459
114.411506652832 -74.160041809082 -164.535156250000 2.105412006378
31.453449249268 -70.623161315918 -162.157897949219 1.161334395409
-1.623028993607 -76.402862548828 -161.740982055664 0.872127115726
31.869850158691 -72.975372314453 -163.674026489258 2.079084873199
-68.272438049316 -68.784965515137 -160.207138061523 2.317546606064
-62.583606719971 -71.886535644531 -160.138244628906 2.058808803558
-66.506759643555 -72.690422058105 -164.522003173828 1.392879843712
113.778411865234 -71.810485839844 -161.908264160156 1.762850165367
-45.014434814453 -71.384384155273 -164.570343017578 2.190239429474
18.743333816528 -76.518341064453 -170.346206665039 1.346208930016
-62.840065002441 -75.437820434570 -173.623641967773 0.936822056770
-59.649723052979 -75.200279235840 -174.220764160156 1.611540794373
-40.913349151611 -74.573936462402 -162.485305786133 3.194432020187
-34.542148590088 -68.795707702637 -169.338943481445 3.328593730927
114.031120300293 -70.179870605469 -173.777847290039 1.838074803352
-34.978393554688 -73.782752990723 -176.263641357422 2.122351408005
16.595668792725 -73.071670532227 -172.847488403320 1.072264790535
108.848243713379 -76.533805847168 -187.587463378906 2.409677505493
-150.485092163086 -75.580581665039 -178.098709106445 3.452562570572
-143.342178344727 -74.573554992676 -176.467956542969 2.050555944443
-151.202194213867 -72.475250244141 -178.913070678711 1.639917016029
-143.186111450195 -70.633705139160 -182.077529907227 1.579293727875
-27.770936965942 -71.823417663574 -184.335067749023 1.406682491302
-23.631296157837 -72.324012756348 -186.269042968750 1.492380857468
23.392795562744 -70.586509704590 -191.054199218750 1.367806315422
-141.439773559570 -73.032402038574 -188.521438598633 1.979314208031
-144.461242675781 -72.151458740234 -186.818923950195 1.844790577888
-21.094644546509 -67.061416625977 -188.507553100586 2.064701080322
14.619902610779 -76.239501953125 -183.353408813477 1.345723271370
-142.893692016602 -73.960601806641 -193.932250976563 0.794305562973
-33.572444915771 -76.541831970215 -184.348754882813 1.099667787552
101.857826232910 -74.767990112305 -189.751098632813 1.410528659821
107.983932495117 -71.813125610352 -193.237655639648 2.617921829224
22.063665390015 -72.289970397949 -191.959793090820 0.673906505108
-19.220174789429 -76.605598449707 -190.584564208984 1.033082604408
-24.951416015625 -75.929885864258 -197.848159790039 1.796531796455
-149.401321411133 -70.663558959961 -197.942062377930 0.984405279160
-133.004928588867 -72.511688232422 -199.459686279297 0.468729466200
-122.935035705566 -72.144699096680 -196.339050292969 1.064109802246
-122.798149108887 -74.245223999023 -199.122024536133 1.583340525627
-19.561634063721 -71.494804382324 -197.250244140625 2.435439109802
11.738727569580 -74.706649780273 -194.023422241211 1.885599851608
94.759460449219 -69.721702575684 -201.020843505859 1.474333167076
-146.449768066406 -73.182357788086 -197.709030151367 1.338525176048
-145.782012939453 -70.981933593750 -202.424957275391 1.790938258171
-147.105133056641 -68.846572875977 -199.959884643555 2.450240850449
-154.864929199219 -69.838859558105 -201.754180908203 2.091925621033
-27.357387542725 -72.639823913574 -201.454788208008 3.147209882736
-13.435500144958 -77.505851745605 -195.862030029297 2.128406047821
-145.480407714844 -68.627471923828 -199.250122070313 2.831211566925
-17.252197265625 -74.721694946289 -198.181579589844 1.860068559647
-162.448379516602 -73.498916625977 -200.717193603516 2.707049131393
-131.691833496094 -73.170112609863 -200.805572509766 0.732376873493
14.230138778687 -70.392730712891 -209.730316162109 2.326371431351
-162.369293212891 -71.971107482910 -204.645690917969 1.395890355110
-143.877349853516 -74.138259887695 -205.453094482422 2.289133071899
11.409570693970 -74.006324768066 -201.796081542969 1.754972338676
-154.404113769531 -74.637405395508 -206.658630371094 3.117130517960
-22.681823730469 -74.042434692383 -202.080612182617 1.285391449928
103.300376892090 -72.565849304199 -200.627471923828 2.797470331192
-153.916854858398 -72.718360900879 -216.307815551758 1.474925756454
-163.055374145508 -73.462905883789 -213.535507202148 1.413813352585
-78.657157897949 -71.211578369141 -214.004577636719 2.548710823059
91.266494750977 -72.241035461426 -210.926742553711 1.787978291512
-3.244944095612 -72.182403564453 -215.200607299805 0.935127317905
-152.089691162109 -72.738739013672 -213.102478027344 1.725772380829
-88.438697814941 -68.891120910645 -216.748687744141 2.313704252243
-6.356051921844 -72.939353942871 -211.417266845703 1.403189182281
15.710781097412 -71.130889892578 -223.375564575195 1.865859627724
-144.150588989258 -73.956855773926 -220.001190185547 2.247564315796
-2.253635883331 -74.063957214355 -221.229125976563 1.961797237396
-17.611555099487 -68.802307128906 -221.390853881836 2.601374149323
-16.960653305054 -69.463699340820 -219.876907348633 2.718881607056
88.096740722656 -73.203025817871 -216.108428955078 1.142804980278
-21.573095321655 -69.679367065430 -217.187301635742 2.439710140228
-28.130088806152 -72.797714233398 -218.418060302734 1.628448963165
-104.250541687012 -72.411895751953 -223.371963500977 1.775208234787
-14.561897277832 -71.925186157227 -225.325363159180 1.203448414803
90.298294067383 -71.216529846191 -219.742614746094 0.979954540730
81.950958251953 -71.624626159668 -219.345413208008 0.890334427357
6.983170032501 -75.580665588379 -224.056411743164 3.120177745819
-11.231516838074 -72.330741882324 -227.004165649414 1.535522103310
79.204490661621 -77.623008728027 -223.284103393555 2.462196350098
-125.968811035156 -72.502693176270 -225.047500610352 1.940414905548
-23.040985107422 -73.623794555664 -223.067596435547 1.264284133911
-100.760993957520 -70.917793273926 -226.264938354492 2.355273962021
-105.848777770996 -74.187561035156 -229.266510009766 3.093727588654
-133.862487792969 -72.033668518066 -229.257720947266 2.059013128281
80.333366394043 -72.614883422852 -224.824157714844 1.070004224777
-125.089027404785 -73.823448181152 -229.193161010742 1.533178925514
3.598306894302 -72.278808593750 -230.437942504883 1.225744962692
76.924407958984 -72.195312500000 -224.616134643555 1.269640803337
-14.189002037048 -73.440803527832 -229.477081298828 0.837452948093
-9.660028457642 -73.601928710938 -231.574172973633 1.344408392906
-4.695950984955 -71.820976257324 -232.634307861328 1.840471148491
8.367824554443 -73.114959716797 -229.865219116211 1.699405908585
84.688835144043 -72.726638793945 -225.985946655273 2.090585947037
14.261054992676 -72.727996826172 -233.253372192383 0.830543518066
3.473715066910 -73.818977355957 -231.798904418945 1.828780889511
-6.251685142517 -74.040634155273 -228.503311157227 1.942388176918
-5.667512893677 -70.986412048340 -234.869857788086 1.407867074013
16.700098037720 -71.085861206055 -233.081436157227 1.310051441193
-9.945047378540 -70.744346618652 -235.860061645508 1.437010645866
73.512153625488 -72.098617553711 -237.812164306641 1.871993541718
-7.729300022125 -70.375114440918 -236.682861328125 1.298236131668
21.194526672363 -73.108642578125 -232.781097412109 3.326914310455
-162.926010131836 -70.505409240723 -244.144821166992 1.991241216660
-4.446482181549 -72.115226745605 -242.302505493164 1.852877497673
-9.304762840271 -71.433685302734 -242.562225341797 1.145190119743
-166.791137695313 -71.088768005371 -257.130828857422 2.922171592712
-9.328484535217 -73.161087036133 -245.537948608398 0.798883855343
18.716672897339 -73.708122253418 -245.675155639648 1.433633565903
-146.510208129883 -74.985649108887 -253.290054321289 1.694081902504
-67.207473754883 -71.572494506836 -249.526840209961 0.875309765339
-58.406696319580 -70.865272521973 -249.198989868164 2.181955814362
54.832225799561 -71.478889465332 -248.246932983398 2.275821924210
-76.527778625488 -72.669174194336 -248.252014160156 1.465348601341
16.754045486450 -72.805900573730 -247.888580322266 1.046020507813
-75.008102416992 -72.339187622070 -252.753768920898 0.601292133331
-16.408523559570 -72.861251831055 -250.081939697266 2.429055929184
