-167.589096069336 -66.541290283203 -234.632934570313 3.179257869720
-158.403091430664 -68.007911682129 -238.322204589844 1.089848875999
-138.811706542969 -68.839759826660 -239.813278198242 6.191373825073
-9.520176887512 -72.319679260254 -235.472778320313 2.554889678955
-3.180546998978 -67.425445556641 -242.203079223633 3.130040645599
-160.657333374023 -67.291778564453 -240.970901489258 1.747776865959
7.453599929810 -70.272285461426 -241.410720825195 1.515281081200
7.931295871735 -66.673912048340 -238.281158447266 1.530928134918
-162.948623657227 -68.873908996582 -242.567245483398 1.932616710663
13.728848457336 -68.133552551270 -244.338150024414 1.843832612038
51.247112274170 -67.191680908203 -247.327713012695 1.081634402275
52.836124420166 -65.044105529785 -250.637481689453 1.293994069099
-9.740626335144 -68.947456359863 -246.513336181641 3.166401147842
50.305252075195 -65.462478637695 -247.841796875000 1.372159719467
-163.028442382813 -69.639480590820 -254.970184326172 3.257237672806
-163.900680541992 -67.653594970703 -249.743896484375 1.401614904404
-161.581405639648 -70.567329406738 -248.825347900391 2.939046859741
54.371452331543 -66.357688903809 -254.013473510742 3.576061487198
-90.052688598633 -70.765396118164 -253.782424926758 2.265594720840
-124.720726013184 -68.593490600586 -253.715759277344 1.079107046127
-106.568244934082 -70.327705383301 -255.401168823242 1.051831722260
30.677663803101 -67.981575012207 -257.617767333984 1.918515205383
40.633903503418 -67.886245727539 -253.478271484375 0.890385329723
-98.601043701172 -68.243370056152 -254.661239624023 0.618975639343
-93.069450378418 -67.274719238281 -257.153747558594 1.274332880974
45.221729278564 -66.324684143066 -255.907516479492 1.676262140274
42.115936279297 -65.793739318848 -255.902969360352 1.398493051529
-156.580795288086 -70.551780700684 -260.437042236328 1.168240189552
33.436180114746 -65.303634643555 -256.476287841797 1.942803263664
-139.854415893555 -71.219093322754 -265.533355712891 2.971268415451
-116.504753112793 -66.261337280273 -261.126434326172 0.542133688927
-133.201400756836 -68.005340576172 -265.777496337891 1.857855677605
33.288192749023 -70.400863647461 -264.571014404297 3.406178712845
-127.033157348633 -70.335449218750 -265.094635009766 1.136906862259
-10.241973876953 -65.807029724121 -259.292175292969 3.512465000153
22.345039367676 -69.632209777832 -274.324676513672 2.309421539307
-11.338424682617 -66.754638671875 -268.520324707031 2.753942966461
23.038204193115 -65.577033996582 -283.106323242188 4.310675144196
-150.422286987305 -70.014938354492 -283.553527832031 2.159829378128
-10.844725608826 -70.269485473633 -278.533721923828 1.990995287895
-153.988342285156 -71.643531799316 -287.841888427734 2.430972576141
-126.596145629883 -67.701820373535 -285.667327880859 0.696092367172
-158.511856079102 -71.149772644043 -289.136291503906 1.403778076172
-119.293724060059 -68.617057800293 -287.256866455078 3.055737733841
-106.123535156250 -70.762512207031 -290.610534667969 2.139621257782
-7.958024978638 -67.576774597168 -289.147857666016 2.274722099304
-110.501876831055 -68.916030883789 -293.381286621094 3.156814098358
-117.372505187988 -71.569145202637 -290.209075927734 2.810070037842
-119.698669433594 -70.178581237793 -292.155273437500 1.856563806534
-136.776947021484 -66.716957092285 -290.610565185547 1.479976654053
-124.716300964355 -71.954109191895 -293.951873779297 1.338000297546
-158.298690795898 -70.493484497070 -290.486968994141 2.045885324478
-145.678680419922 -73.415916442871 -296.943817138672 1.259077072144
-152.494338989258 -68.647155761719 -299.144989013672 0.981208860874
-154.047241210938 -66.932342529297 -309.235900878906 1.660303831100
-157.650787353516 -68.344604492188 -302.099456787109 3.130766153336
-146.735107421875 -70.455978393555 -312.687469482422 1.629760146141
-150.270080566406 -69.019096374512 -313.724029541016 2.258311748505
35.177207946777 -69.814849853516 -15.949535369873 1.595957398415
45.055732727051 -71.099105834961 -18.376293182373 1.186163187027
28.973070144653 -65.046165466309 -30.142288208008 3.178710937500
51.576896667480 -68.208953857422 -31.077175140381 2.612396478653
31.464412689209 -68.660835266113 -37.381389617920 2.365602970123
39.501354217529 -72.868652343750 -36.934200286865 1.664657831192
-55.358345031738 -69.175132751465 -45.919967651367 2.042940378189
85.402442932129 -67.515975952148 -61.992237091064 1.823889374733
82.671401977539 -67.771163940430 -66.841072082520 2.728573560715
-92.212516784668 -67.091293334961 -63.380214691162 3.044800758362
-12.497215270996 -67.234481811523 -63.213153839111 1.540880560875
-88.244674682617 -72.867317199707 -67.807014465332 2.889328479767
97.522232055664 -66.830894470215 -70.969284057617 2.157212018967
-15.690417289734 -66.257003784180 -68.582069396973 1.344737052917
69.153457641602 -69.616195678711 -77.519157409668 2.243785381317
-38.306739807129 -71.829109191895 -77.418930053711 0.813523888588
-28.429300308228 -73.328491210938 -80.410690307617 2.362354040146
56.994735717773 -66.114707946777 -87.240310668945 2.311542749405
-45.688335418701 -78.872207641602 -87.957397460938 2.421742677689
63.686786651611 -64.452079772949 -83.473442077637 1.483707904816
54.394889831543 -67.862792968750 -86.709533691406 0.659071028233
50.768802642822 -71.312286376953 -93.132019042969 0.598739266396
64.904754638672 -66.925300598145 -92.795593261719 1.612585186958
58.951110839844 -67.855331420898 -98.777908325195 1.965774178505
103.364059448242 -64.702224731445 -96.756446838379 1.228510379791
104.693794250488 -69.396156311035 -96.980209350586 1.289917707443
58.894813537598 -71.227264404297 -99.118286132813 0.480778634548
108.358200073242 -65.507598876953 -100.101234436035 1.650440096855
-72.360862731934 -73.733528137207 -100.766609191895 3.025035619736
-70.826103210449 -70.447967529297 -102.687088012695 1.947969675064
103.879165649414 -69.680984497070 -98.494735717773 1.069536447525
54.585357666016 -66.864143371582 -102.171768188477 1.713202238083
71.899864196777 -69.287834167480 -102.459167480469 1.827932834625
-70.021804809570 -64.263488769531 -102.754814147949 1.401579976082
-81.048301696777 -67.335464477539 -106.807212829590 3.068259477615
94.771606445313 -66.518745422363 -110.082817077637 3.684090137482
43.452098846436 -67.691123962402 -105.480522155762 1.075588226318
102.691864013672 -66.825645446777 -103.328636169434 1.659922719002
44.426956176758 -66.865867614746 -112.422195434570 1.340983510017
112.458457946777 -64.645484924316 -108.679473876953 4.173725605011
-82.917243957520 -65.494125366211 -108.813385009766 2.278236389160
106.324249267578 -63.463768005371 -110.500381469727 3.538642883301
-85.729148864746 -66.369392395020 -118.083877563477 1.731310009956
-58.185802459717 -70.298454284668 -126.751663208008 2.077184915543
-56.699436187744 -67.260299682617 -128.501480102539 2.009255170822
-72.930229187012 -70.061241149902 -130.459472656250 1.522618174553
-50.013931274414 -69.906257629395 -131.499557495117 2.227918386459
-85.422744750977 -69.486175537109 -133.026550292969 0.620155572891
-77.380531311035 -70.921554565430 -135.528259277344 1.563011169434
-84.234504699707 -68.673072814941 -128.843917846680 1.498266935349
-55.506763458252 -71.686927795410 -139.323272705078 2.310884952545
-72.049720764160 -67.460052490234 -139.847320556641 1.392612338066
-59.284500122070 -68.124549865723 -136.824722290039 1.273395895958
-61.993595123291 -70.374458312988 -139.326400756836 1.920037627220
23.171558380127 -69.107284545898 -141.258666992188 2.130341291428
-87.351394653320 -70.298294067383 -145.158264160156 4.525011062622
-45.684783935547 -70.723960876465 -146.543075561523 1.682941317558
-98.321426391602 -66.725196838379 -150.431610107422 1.289529442787
-101.216583251953 -67.917640686035 -152.926162719727 2.786587476730
18.102823257446 -71.200439453125 -153.885131835938 2.413271903992
14.428894996643 -70.575721740723 -159.648040771484 0.648562371731
-98.945808410645 -69.089706420898 -159.693817138672 0.663539111614
-100.397270202637 -67.166549682617 -158.634277343750 1.735110282898
-97.159576416016 -68.054283142090 -169.256576538086 4.110658645630
20.369655609131 -65.354988098145 -170.753265380859 2.521730661392
-111.437316894531 -70.896392822266 -169.326705932617 5.640123367310
19.537061691284 -69.331047058105 -169.751892089844 1.266994118690
-145.647064208984 -71.149177551270 -178.110977172852 2.766081094742
17.376747131348 -67.770072937012 -177.359710693359 0.816269040108
22.727157592773 -68.663955688477 -187.408218383789 0.987075328827
-153.094482421875 -67.542938232422 -188.309417724609 1.374097943306
20.306552886963 -69.186920166016 -180.458343505859 1.444956064224
16.411306381226 -66.379493713379 -179.053604125977 2.010625839233
-138.409622192383 -74.276626586914 -191.250900268555 5.436756610870
-151.211517333984 -70.895538330078 -190.089813232422 1.991482496262
18.174537658691 -66.510963439941 -190.411163330078 1.570034861565
20.054323196411 -65.537948608398 -187.992706298828 2.123261213303
-145.136901855469 -69.060684204102 -193.233261108398 2.321248054504
-108.274368286133 -71.947555541992 -196.123611450195 2.952552795410
21.751220703125 -67.122688293457 -197.407836914063 2.084388732910
-125.264457702637 -66.046936035156 -193.572998046875 1.826203227043
11.894254684448 -68.617599487305 -198.892318725586 1.474441409111
-132.253341674805 -66.451507568359 -195.966049194336 1.662840008736
-151.811355590820 -68.853065490723 -193.958496093750 1.069905638695
-162.309219360352 -71.750953674316 -200.805435180664 2.184272766113
-162.562561035156 -67.706787109375 -201.221160888672 1.584470987320
-18.772418975830 -65.373756408691 -203.539443969727 1.704042196274
-166.008956909180 -69.470420837402 -202.161254882813 1.393539667130
-22.045333862305 -66.965919494629 -194.416839599609 0.492111742496
-15.447524070740 -67.212196350098 -199.160400390625 2.221684455872
13.290683746338 -67.030906677246 -196.165328979492 1.557540297508
-158.884933471680 -66.735031127930 -198.716461181641 0.949901938438
-110.555625915527 -67.495742797852 -202.593322753906 1.507938861847
-17.361145019531 -69.189941406250 -207.730590820313 1.275196313858
-156.625335693359 -70.520324707031 -201.704055786133 2.781418323517
17.506952285767 -64.705581665039 -200.721405029297 3.111328363419
-164.103607177734 -68.800987243652 -201.785614013672 1.913722872734
-121.158409118652 -71.331993103027 -205.344467163086 2.833620548248
-111.272277832031 -67.499168395996 -207.576461791992 4.608901977539
-125.297286987305 -65.385894775391 -207.913665771484 3.017865419388
-13.600399017334 -69.676612854004 -204.395431518555 1.373480916023
-17.373531341553 -65.358276367188 -205.694396972656 2.531564474106
-163.081237792969 -66.884002685547 -210.011001586914 1.603273510933
-160.515121459961 -67.744781494141 -214.051681518555 1.463732838631
-165.406143188477 -69.844886779785 -219.763565063477 1.257469534874
-147.177200317383 -71.027717590332 -211.610504150391 2.956211805344
-143.609375000000 -68.807304382324 -224.274230957031 1.668614387512
-6.292646884918 -65.777404785156 -222.056762695313 1.422499418259
-12.930987358093 -66.436637878418 -218.805801391602 1.697099804878
-100.387443542480 -68.370559692383 -222.895065307617 1.460698723793
-6.750020980835 -66.445686340332 -223.388610839844 1.923969745636
-164.589385986328 -68.110282897949 -226.916488647461 0.705413401127
-112.527679443359 -65.098701477051 -231.896041870117 1.443913578987
-0.302603006363 -65.334266662598 -229.471511840820 1.874970674515
5.127730846405 -65.391105651855 -231.019683837891 1.303874254227
-112.233222961426 -68.228103637695 -233.650039672852 2.496104240417
-2.532644987106 -63.387069702148 -232.544281005859 4.071352005005
-115.772033691406 -67.385978698730 -237.273742675781 3.015405893326
-5.281513214111 -64.793685913086 -239.790969848633 2.300596952438
-3.703373908997 -68.374496459961 -234.198791503906 1.253427863121
-0.840937018394 -65.902648925781 -240.090103149414 1.054621100426
67.963012695313 -67.050949096680 -237.348129272461 0.169130384922
-14.306024551392 -69.459938049316 -237.120254516602 1.473015189171
4.056219100952 -66.023567199707 -238.821655273438 1.065003991127
10.741419792175 -66.795837402344 -242.390350341797 1.314375638962
7.273342132568 -69.759643554688 -240.247177124023 1.087672710419
1.122547030449 -70.447280883789 -241.864608764648 1.378433108330
66.515052795410 -68.155990600586 -239.204528808594 2.121515750885
70.484848022461 -66.035072326660 -241.031173706055 3.163804531097
13.749139785767 -68.443267822266 -243.375274658203 1.673610687256
58.670837402344 -66.110488891602 -241.356201171875 0.974789679050
56.894477844238 -69.142982482910 -240.868972778320 0.618530213833
47.016551971436 -63.141601562500 -246.505508422852 2.926892042160
37.597038269043 -67.836196899414 -252.222640991211 1.480541467667
39.797988891602 -67.471328735352 -254.172561645508 1.089048743248
-134.166717529297 -68.681678771973 -255.244934082031 0.964735150337
-14.612477302551 -70.284095764160 -253.024993896484 1.444205284119
25.787740707397 -68.429901123047 -259.256683349609 0.916175901890
47.792816162109 -66.718086242676 -253.945816040039 1.697859525681
24.256036758423 -63.732341766357 -256.385314941406 1.051880002022
-100.494148254395 -67.055572509766 -260.692535400391 2.046354532242
33.198482513428 -65.818389892578 -256.193359375000 1.445322632790
-150.399856567383 -68.561470031738 -260.790954589844 0.865295410156
-116.064163208008 -65.331710815430 -261.084472656250 1.188332319260
-104.037086486816 -68.470298767090 -256.396545410156 2.339383125305
-6.661615848541 -65.792030334473 -260.197937011719 1.403795242310
-152.303436279297 -72.530456542969 -256.663787841797 3.000685453415
31.560247421265 -64.496330261230 -259.276885986328 1.634056329727
-112.332717895508 -69.429962158203 -256.764892578125 1.146553993225
28.400596618652 -66.589714050293 -259.364776611328 1.636133313179
-133.175567626953 -66.604614257813 -261.236694335938 1.788097262383
-117.837852478027 -68.364288330078 -260.852020263672 2.567249774933
-105.940567016602 -65.024223327637 -261.248168945313 2.805589437485
-116.430465698242 -67.546150207520 -264.782501220703 1.524532318115
-137.736679077148 -69.572616577148 -263.819854736328 2.326745748520
27.773178100586 -65.364334106445 -264.394927978516 1.774545788765
-118.268089294434 -66.131813049316 -266.144744873047 2.699212312698
-143.531234741211 -69.434043884277 -268.374206542969 2.943454504013
-5.000130176544 -68.176750183105 -273.366241455078 1.480378985405
-153.521621704102 -68.381378173828 -281.312957763672 2.082536935806
-9.369932174683 -67.982414245605 -283.209350585938 2.282682657242
-3.675493955612 -68.792701721191 -287.647644042969 2.750834941864
-134.792709350586 -70.383972167969 -287.610626220703 1.929168105125
-122.520301818848 -65.696395874023 -289.971618652344 2.668469190598
-137.703033447266 -66.069610595703 -292.441589355469 2.861756324768
-127.509353637695 -69.576995849609 -295.830474853516 1.375376224518
-151.013153076172 -69.978660583496 -296.373657226563 2.039244651794
-151.210388183594 -71.231277465820 -302.156768798828 3.748728752136
-148.836639404297 -72.510910034180 -304.396057128906 4.999145507813
-150.528182983398 -65.727455139160 -299.369598388672 1.714986205101
-143.291473388672 -69.491371154785 -303.391448974609 2.763454675674
-145.465454101563 -68.643379211426 -304.353790283203 2.153930664063
-149.697006225586 -68.978462219238 -312.187347412109 2.191421508789
23.072977066040 -72.437652587891 -31.905141830444 0.751211702824
49.079387664795 -70.659126281738 -35.821205139160 1.756493806839
28.085775375366 -73.673179626465 -39.109146118164 1.569959759712
33.410343170166 -70.895568847656 -41.791385650635 1.359881043434
-45.060794830322 -67.277061462402 -50.551631927490 3.523806571960
-78.727767944336 -69.089927673340 -51.344673156738 1.113459467888
80.795166015625 -66.214134216309 -63.947544097900 1.460489153862
80.223472595215 -64.310943603516 -62.630146026611 2.392705440521
70.803558349609 -67.364059448242 -68.243560791016 1.606066703796
-96.774841308594 -67.833404541016 -73.293815612793 2.540791273117
100.959663391113 -67.980041503906 -75.147140502930 1.187391281128
-34.948669433594 -64.188659667969 -77.863121032715 3.037594318390
69.343811035156 -67.823646545410 -78.413253784180 3.147888898849
-43.390094757080 -65.761909484863 -81.098991394043 1.157015442848
-50.416156768799 -66.944931030273 -82.774147033691 1.981781363487
51.898078918457 -67.571914672852 -90.779129028320 1.172325849533
102.486206054688 -66.610137939453 -90.114547729492 1.138725519180
65.833099365234 -65.320594787598 -95.432983398438 0.315071135759
57.157268524170 -66.726287841797 -95.962059020996 1.315767526627
49.053878784180 -67.748878479004 -103.599143981934 1.100704312325
60.205715179443 -65.338066101074 -98.886344909668 3.096976518631
105.569190979004 -65.853439331055 -100.162078857422 1.664995312691
71.507263183594 -69.254493713379 -107.787124633789 4.365329265594
50.478584289551 -66.563789367676 -107.697158813477 1.722209692001
78.318634033203 -67.512641906738 -107.448478698730 1.572277784348
91.372245788574 -65.755661010742 -111.576377868652 3.043168067932
-79.192016601563 -69.547775268555 -110.416999816895 2.501713991165
-86.053611755371 -70.899620056152 -110.423561096191 1.022566080093
-84.752487182617 -69.641983032227 -116.225280761719 2.257983207703
-60.936408996582 -67.391899108887 -117.855094909668 2.222473144531
-55.074485778809 -72.065605163574 -124.249771118164 3.958037376404
-93.638870239258 -66.024642944336 -122.024589538574 0.872501909733
-78.122238159180 -68.292343139648 -121.103172302246 0.858864784241
-76.665733337402 -69.105270385742 -129.039093017578 1.339788913727
-60.789920806885 -70.024261474609 -127.607597351074 2.076337814331
-88.862022399902 -62.905918121338 -130.835052490234 1.545527458191
-92.336509704590 -68.859268188477 -130.830993652344 2.644431352615
-49.416717529297 -69.350044250488 -138.026535034180 1.961441516876
-55.391567230225 -65.288009643555 -137.017837524414 1.250593543053
-76.562286376953 -66.489540100098 -139.390274047852 1.777368187904
-55.488887786865 -67.386917114258 -143.668899536133 1.221767067909
-74.191238403320 -68.572631835938 -146.949829101563 1.175880908966
22.195932388306 -65.286033630371 -142.107620239258 2.164217710495
-58.318916320801 -67.864288330078 -146.611358642578 2.304895162582
-50.624477386475 -67.397254943848 -147.993835449219 2.349828243256
13.412935256958 -68.408935546875 -154.954605102539 1.409367799759
14.452692031860 -65.716705322266 -153.239486694336 2.287895202637
-143.526733398438 -66.546798706055 -176.568069458008 1.504061818123
-107.262512207031 -70.469650268555 -180.892822265625 1.680074334145
-108.011779785156 -68.685081481934 -187.694076538086 1.300932407379
-148.715332031250 -69.481536865234 -195.345214843750 3.086027622223
-111.151985168457 -67.860794067383 -186.184082031250 1.216251492500
-152.942337036133 -66.301536560059 -196.868026733398 1.491776347160
-114.498565673828 -64.579917907715 -196.882705688477 1.069689512253
-146.211791992188 -69.784019470215 -199.349868774414 2.071850776672
-150.525329589844 -72.649711608887 -203.929428100586 1.588381528854
-152.515853881836 -72.165367126465 -211.447372436523 2.196339845657
-145.055175781250 -69.838119506836 -222.036010742188 1.008470177650
-153.267272949219 -71.997322082520 -223.881256103516 1.539109468460
-104.304817199707 -67.940216064453 -223.669631958008 1.426674485207
-102.101020812988 -67.871643066406 -227.354522705078 1.820743083954
-122.876358032227 -63.732864379883 -226.842590332031 2.425265550613
-110.730621337891 -65.025299072266 -228.440795898438 2.005096197128
-154.574310302734 -70.337318420410 -233.184524536133 2.367305994034
-3.414235115051 -68.296913146973 -230.765426635742 2.447172641754
-131.520217895508 -66.403457641602 -230.182785034180 3.236254453659
-155.949661254883 -69.833015441895 -236.599548339844 1.065929651260
-135.014968872070 -67.197395324707 -235.057693481445 1.493248701096
-11.033290863037 -67.858436584473 -242.359085083008 1.330412268639
7.428033828735 -68.724960327148 -243.915405273438 2.180751800537
62.989582061768 -62.518302917480 -241.979522705078 3.930364608765
20.038064956665 -67.377662658691 -248.612609863281 1.119641900063
60.896217346191 -64.965400695801 -247.661071777344 2.867429494858
40.828613281250 -64.082199096680 -246.247604370117 5.168542861938
54.193164825439 -66.091087341309 -249.971359252930 1.620257496834
-151.812896728516 -69.261756896973 -252.676193237305 1.324194192886
-152.996383666992 -68.076499938965 -252.724151611328 1.873629331589
42.052825927734 -69.718833923340 -254.698928833008 1.389918088913
30.838594436646 -64.089042663574 -260.280700683594 1.566384911537
47.935779571533 -63.520961761475 -251.018661499023 1.290842890739
-143.257156372070 -70.189743041992 -257.296325683594 2.524043083191
-135.045516967773 -66.755760192871 -255.763793945313 1.009785175323
-125.719497680664 -67.516319274902 -258.287109375000 1.617986917496
-133.436233520508 -64.704719543457 -258.285217285156 0.599767446518
-140.492263793945 -64.978843688965 -259.378631591797 2.104932785034
-123.468872070313 -67.359535217285 -257.864532470703 1.008045077324
-142.223190307617 -67.795234680176 -261.052398681641 1.250673770905
-125.639572143555 -68.803878784180 -261.769836425781 2.241172790527
-125.525329589844 -63.740264892578 -262.492553710938 2.050583124161
-125.816024780273 -71.098953247070 -264.086151123047 1.082503914833
-118.144439697266 -67.957801818848 -261.932830810547 2.000933408737
-3.804583072662 -67.151382446289 -265.839782714844 1.283964633942
28.267261505127 -68.269058227539 -263.904754638672 1.602025389671
-146.000244140625 -70.651115417480 -265.542633056641 1.111920833588
29.551755905151 -62.930225372314 -267.956176757813 3.977631092072
-5.610321044922 -65.733589172363 -270.525573730469 1.470272421837
16.428962707520 -69.896804809570 -284.762542724609 1.574133872986
-142.346664428711 -68.507110595703 -290.369659423828 0.765821993351
-124.029457092285 -66.288467407227 -288.821655273438 0.888910293579
-133.768890380859 -68.125381469727 -286.567352294922 1.608040213585
-157.316238403320 -66.125373840332 -289.974060058594 1.904173374176
-124.154579162598 -67.340583801270 -289.260284423828 1.220152616501
-117.254089355469 -64.221084594727 -289.549713134766 1.328146338463
-126.968559265137 -66.052482604980 -291.259002685547 0.785604357719
-152.049545288086 -69.313240051270 -297.005493164063 1.991612672806
29.115201950073 -70.867851257324 -14.798356056213 1.323422193527
29.536388397217 -72.924995422363 -20.049718856812 2.289903879166
39.583961486816 -72.617012023926 -19.173763275146 2.145298480988
46.835826873779 -64.166442871094 -26.269275665283 3.255669593811
25.280408859253 -71.211128234863 -28.593315124512 1.411458134651
25.492486953735 -71.417366027832 -33.898097991943 2.158530950546
-35.717372894287 -69.591865539551 -46.013942718506 3.331704854965
-80.809829711914 -69.645652770996 -51.885833740234 2.038978099823
-13.591149330139 -67.683029174805 -57.510791778564 2.202680110931
70.581825256348 -65.864334106445 -67.059371948242 1.129962086678
97.321792602539 -66.201171875000 -68.144607543945 1.672446131706
64.439483642578 -65.797187805176 -81.540046691895 0.795026898384
62.619689941406 -61.674800872803 -82.830154418945 1.551930665970
100.211860656738 -62.429683685303 -84.169830322266 4.321878433228
-62.124984741211 -65.326354980469 -88.490806579590 1.542472362518
-63.543605804443 -64.828376770020 -93.515464782715 0.731995284557
49.060810089111 -63.924114227295 -95.391677856445 0.806056499481
-62.469985961914 -64.908409118652 -97.938537597656 3.798605680466
-69.488708496094 -63.982879638672 -100.376571655273 1.924691200256
-100.550773620605 -65.399879455566 -97.832420349121 2.450839757919
-72.874168395996 -66.119644165039 -101.307197570801 0.904864788055
48.509975433350 -66.134223937988 -105.220428466797 0.681878447533
-70.418617248535 -68.784286499023 -104.302322387695 2.171562671661
51.182968139648 -66.427772521973 -100.575942993164 1.094681859016
97.933219909668 -67.364135742188 -103.105148315430 1.297140836716
90.935760498047 -66.547737121582 -108.669105529785 1.482112050056
-74.481948852539 -67.700790405273 -112.729751586914 1.330555319786
-81.998405456543 -67.841011047363 -111.514030456543 1.845758557320
-62.963687896729 -64.566368103027 -119.504135131836 1.283880710602
-95.113212585449 -66.071640014648 -118.190040588379 2.031861782074
-77.112312316895 -70.536857604980 -129.235137939453 1.653214693069
-90.154968261719 -62.934787750244 -127.180786132813 3.872123479843
-63.699909210205 -65.755973815918 -121.610458374023 1.524802923203
-59.591106414795 -66.422149658203 -118.872314453125 1.651241064072
-88.250724792480 -64.603050231934 -131.184844970703 1.239395499229
-61.291904449463 -67.549346923828 -130.095092773438 0.975380182266
-82.174270629883 -65.803230285645 -128.008239746094 1.206553459167
-71.546493530273 -67.194862365723 -132.863494873047 1.518495917320
-66.980316162109 -68.179321289063 -132.028976440430 4.449080944061
-60.438137054443 -64.011474609375 -137.285232543945 1.336148381233
-53.803153991699 -66.300254821777 -138.674118041992 1.881132721901
-91.261413574219 -66.909797668457 -136.994720458984 2.627767324448
-97.082221984863 -66.882499694824 -141.688919067383 1.914162874222
-87.328041076660 -68.832763671875 -137.912612915039 1.375329136848
24.365774154663 -67.115783691406 -148.418395996094 1.768748402596
-50.043811798096 -67.555709838867 -144.471817016602 1.907870888710
14.908164024353 -63.529224395752 -149.554367065430 2.254509925842
-97.992729187012 -64.862480163574 -162.213150024414 1.079597353935
-97.944480895996 -64.576553344727 -171.500198364258 3.854049682617
-98.475181579590 -62.145092010498 -172.329818725586 4.754501819611
-108.971008300781 -68.722854614258 -169.442718505859 2.684413194656
-105.837066650391 -68.856407165527 -183.220993041992 1.838517904282
-108.816955566406 -63.433330535889 -181.614151000977 1.246354818344
-144.821441650391 -67.371765136719 -188.076248168945 1.769746780396
-110.232162475586 -66.925178527832 -187.945693969727 2.775863409042
-133.452102661133 -62.908119201660 -192.575332641602 3.757883548737
-144.444046020508 -70.380538940430 -198.548934936523 1.881036877632
-124.227760314941 -67.793449401855 -198.400024414063 2.825991868973
-155.910964965820 -69.737884521484 -199.038299560547 2.643311023712
-143.188888549805 -66.264801025391 -201.061599731445 2.662209033966
-121.724906921387 -62.390274047852 -199.973739624023 1.995771408081
-134.517410278320 -66.925071716309 -203.952331542969 0.831876218319
-145.996734619141 -65.805625915527 -210.581832885742 1.052270889282
-131.935287475586 -66.665283203125 -223.781143188477 1.580224633217
-112.441291809082 -65.239318847656 -228.719482421875 0.974513649940
-150.465042114258 -69.266723632813 -228.623016357422 1.982714176178
-117.842666625977 -64.100761413574 -232.025054931641 1.918718218803
-108.976150512695 -65.601371765137 -233.396759033203 3.826691865921
-124.510787963867 -68.357353210449 -235.428268432617 1.471218824387
-129.889694213867 -68.878776550293 -235.862655639648 1.474071025848
-118.046554565430 -63.356002807617 -236.755554199219 3.495786666870
2.408250093460 -66.874114990234 -236.353530883789 1.301095962524
-149.728393554688 -67.654930114746 -236.552291870117 1.855481266975
7.287390232086 -68.504554748535 -233.596984863281 1.495977163315
8.124077796936 -63.415744781494 -241.887084960938 2.038374900818
1.311748027802 -67.233413696289 -240.954605102539 1.803593754768
14.046373367310 -64.628303527832 -241.438995361328 1.452804565430
-144.038665771484 -67.864738464355 -237.658340454102 2.084950685501
-4.057847976685 -65.610893249512 -245.651321411133 1.611896634102
18.937723159790 -62.114757537842 -243.131698608398 2.340127944946
47.413661956787 -63.083435058594 -249.665222167969 2.359051942825
50.755748748779 -64.177047729492 -246.187469482422 1.982087492943
-147.555633544922 -68.649131774902 -252.169265747070 1.930786252022
-6.434212207794 -68.002395629883 -254.922760009766 3.061124563217
29.225902557373 -64.725364685059 -257.608245849609 1.736159205437
-133.308303833008 -61.810970306396 -260.530426025391 2.965677738190
-128.196868896484 -64.753570556641 -261.893524169922 1.410306692123
-127.871223449707 -66.908622741699 -259.304840087891 3.034660100937
25.148153305054 -64.442192077637 -261.951141357422 1.529866695404
-137.506607055664 -66.650268554688 -264.005706787109 2.852919101715
29.665792465210 -66.368644714355 -259.766265869141 1.379155516624
30.316879272461 -64.602981567383 -266.489562988281 3.195172548294
-153.424743652344 -66.498107910156 -265.384307861328 2.559693336487
-148.018371582031 -70.374931335449 -289.442199707031 1.193082809448
-153.942977905273 -67.610473632813 -291.624114990234 2.540481328964
-142.988922119141 -66.168251037598 -290.977966308594 0.872465312481
7.783438205719 -66.838218688965 -295.212707519531 3.317527770996
-154.680191040039 -67.257888793945 -296.262512207031 2.973034620285
45.221321105957 -71.646980285645 -27.509689331055 1.420904755592
36.384864807129 -72.028610229492 -41.378456115723 1.074809432030
-65.961807250977 -67.521522521973 -47.874019622803 2.147855758667
-75.815246582031 -65.360481262207 -47.075626373291 1.875093340874
-27.782587051392 -67.459098815918 -51.801445007324 2.057075262070
-22.212429046631 -67.752487182617 -59.712886810303 3.619243383408
-13.561389923096 -66.586029052734 -68.150772094727 0.922829329967
-27.220909118652 -63.770698547363 -71.983322143555 2.897199630737
66.959732055664 -66.122695922852 -73.518531799316 2.315517187119
-97.826736450195 -65.839469909668 -81.572433471680 2.337089538574
-49.293415069580 -65.990196228027 -84.462875366211 1.205732584000
54.159130096436 -63.948040008545 -85.322120666504 1.702817678452
56.801017761230 -65.839073181152 -89.041007995605 2.027688503265
69.107345581055 -65.057464599609 -87.753280639648 4.042958736420
103.934028625488 -64.986709594727 -94.457580566406 1.050806283951
54.146133422852 -64.085678100586 -92.852516174316 1.152151107788
98.583007812500 -65.473953247070 -102.658203125000 1.585653066635
-79.249740600586 -67.912666320801 -104.329818725586 2.907385587692
-98.083709716797 -68.157485961914 -104.896850585938 2.612280130386
77.129196166992 -64.870658874512 -111.085601806641 2.630673885345
-76.621856689453 -65.379287719727 -102.802215576172 1.694994449615
-80.235458374023 -67.797927856445 -118.864013671875 2.260583162308
-83.906051635742 -65.128921508789 -120.596977233887 0.641248941422
-54.718856811523 -67.373847961426 -126.721488952637 1.290294289589
-80.075241088867 -64.816764831543 -126.676612854004 1.746351599693
-61.536231994629 -68.280250549316 -131.502471923828 1.166643261909
-79.520317077637 -69.534095764160 -136.009872436523 2.518021821976
-74.354362487793 -62.932331085205 -133.550048828125 2.492793798447
-81.715553283691 -63.673934936523 -126.905776977539 1.534327626228
-87.377365112305 -65.194816589355 -129.442611694336 1.378931760788
-61.610919952393 -66.512008666992 -132.345748901367 0.950611054897
-90.068840026855 -66.888862609863 -134.476058959961 1.956939339638
-51.647754669189 -67.718002319336 -133.714553833008 1.923104763031
-54.062404632568 -66.944091796875 -142.143737792969 1.367984890938
26.447898864746 -65.755294799805 -139.107772827148 1.075602293015
-59.386173248291 -62.037406921387 -136.557846069336 1.049138784409
12.470007896423 -66.678695678711 -147.632247924805 1.682337045670
19.623775482178 -63.659805297852 -148.724700927734 1.017194628716
17.974124908447 -64.958747863770 -152.938079833984 1.132444500923
-97.186294555664 -68.079345703125 -145.932968139648 2.514593601227
-94.922920227051 -66.306938171387 -155.906982421875 2.637416839600
-98.346778869629 -61.575077056885 -154.335662841797 2.178498029709
-97.626647949219 -66.497917175293 -157.478012084961 1.626893520355
-93.717224121094 -63.978748321533 -160.333389282227 3.540821075439
-151.651687622070 -71.816139221191 -177.509033203125 0.901037693024
-153.481414794922 -68.554512023926 -177.841461181641 1.316461563110
-105.504997253418 -67.525718688965 -185.994781494141 1.979943990707
-143.064712524414 -62.785926818848 -179.285705566406 1.484427452087
-111.155258178711 -67.100097656250 -180.146148681641 1.018172502518
-150.479415893555 -66.367919921875 -188.959335327148 1.114360809326
-113.549354553223 -66.468208312988 -193.398544311523 1.001548409462
-106.079673767090 -65.948738098145 -188.052337646484 0.742682158947
-144.129089355469 -67.372413635254 -196.816253662109 2.793463945389
-134.220275878906 -66.518013000488 -199.998641967773 2.578163385391
-107.866485595703 -65.594734191895 -199.969619750977 2.015654802322
-115.421150207520 -66.482780456543 -201.920791625977 2.082559108734
-114.435897827148 -64.281349182129 -203.066604614258 0.532644450665
-113.393379211426 -64.588798522949 -205.266281127930 2.518360853195
-133.782394409180 -65.328308105469 -200.172531127930 1.377765774727
-135.249481201172 -66.198593139648 -200.542480468750 2.567454814911
-131.934921264648 -67.978187561035 -202.292999267578 2.280928611755
-124.027038574219 -63.456085205078 -204.076950073242 0.545303463936
-123.744903564453 -64.012351989746 -208.865585327148 4.535166740417
-116.933685302734 -63.567615509033 -206.419326782227 2.473438262939
-146.461120605469 -66.832366943359 -218.851730346680 1.420164227486
-151.305786132813 -66.286697387695 -227.072769165039 2.638458251953
-155.900360107422 -63.603771209717 -224.421310424805 2.576454877853
-141.251937866211 -68.194885253906 -225.880874633789 0.777413129807
-136.097778320313 -65.164649963379 -229.313552856445 1.192035675049
-125.308540344238 -67.019050598145 -224.716003417969 1.371598720551
-141.890640258789 -63.994285583496 -232.332580566406 1.308416008949
-148.490997314453 -68.412033081055 -231.462982177734 0.830940902233
-139.597930908203 -65.592643737793 -227.193145751953 1.720322728157
-131.960357666016 -63.357334136963 -229.522964477539 1.586274027824
-149.291809082031 -66.800689697266 -232.866210937500 2.317264080048
-135.537368774414 -65.723526000977 -234.649307250977 2.159188985825
-125.524894714355 -62.995021820068 -231.561737060547 0.855623722076
-7.005566120148 -66.915672302246 -238.539505004883 1.626937866211
3.523540973663 -64.575187683105 -238.261276245117 1.097488999367
10.295578956604 -63.695755004883 -243.464614868164 1.708346843719
11.727274894714 -64.461837768555 -242.589431762695 1.312024235725
-9.460485458374 -66.134429931641 -245.903030395508 1.881928205490
-11.922575950623 -61.845050811768 -249.356277465820 3.925189018250
43.611476898193 -59.722034454346 -253.593490600586 4.245192527771
49.985813140869 -65.334884643555 -251.103195190430 1.580652475357
-146.312850952148 -64.608688354492 -257.842651367188 1.766234993935
42.150981903076 -62.618274688721 -258.768524169922 3.953198432922
32.805568695068 -62.946762084961 -253.242630004883 3.149161100388
-158.164474487305 -63.568660736084 -258.076812744141 2.472230911255
-151.400787353516 -64.191673278809 -261.647460937500 1.560499191284
-147.385406494141 -67.014022827148 -262.674804687500 2.852959871292
2.042449951172 -65.103057861328 -265.617187500000 1.699593067169
-154.625473022461 -65.153823852539 -267.174316406250 3.511874198914
1.352288007736 -63.556911468506 -277.251403808594 3.424255847931
-145.286270141602 -67.583923339844 -274.448760986328 2.823971271515
-145.927749633789 -64.725616455078 -286.405151367188 0.845119059086
-152.572463989258 -65.882583618164 -284.137573242188 1.760884642601
-150.647766113281 -64.008872985840 -284.380432128906 1.051041483879
-146.224578857422 -64.346214294434 -285.073944091797 0.862632751465
-155.804428100586 -61.863624572754 -289.724792480469 2.650126218796
-150.867675781250 -62.441184997559 -286.149871826172 0.838875949383
-151.170974731445 -65.580421447754 -286.069854736328 1.385184288025
-145.277938842773 -68.076538085938 -288.896148681641 2.959774494171
-142.436996459961 -64.450881958008 -289.460845947266 0.808668255806
14.116280555725 -65.391738891602 -293.953033447266 4.452082633972
-149.170181274414 -61.526203155518 -290.363891601563 2.469256877899
-157.866104125977 -64.837188720703 -291.932220458984 1.906892776489
-151.679077148438 -64.054290771484 -290.694885253906 0.646049737930
-149.879440307617 -64.016853332520 -295.797821044922 1.549244761467
-152.929367065430 -64.566902160645 -290.042358398438 1.253734469414
-150.154998779297 -67.797630310059 -293.112976074219 2.689675569534
2.406658887863 -60.662284851074 -295.117950439453 3.821723461151
-145.140625000000 -65.030418395996 -294.904113769531 0.876472830772
-145.731857299805 -65.558380126953 -295.013702392578 0.496923685074
30.350549697876 -61.221187591553 -20.938722610474 2.201329708099
39.437347412109 -66.483222961426 -17.007736206055 2.820541143417
42.133239746094 -63.023868560791 -25.483634948730 2.192085027695
19.512489318848 -71.365867614746 -32.879699707031 2.130962610245
30.223358154297 -61.762687683105 -37.331943511963 1.832715272903
41.513336181641 -73.545219421387 -37.658214569092 2.581017971039
-57.961601257324 -65.237556457520 -44.493339538574 1.374284863472
-54.740203857422 -66.985824584961 -47.498184204102 2.422267436981
90.864555358887 -64.646820068359 -60.800514221191 0.974144876003
-96.456497192383 -64.641426086426 -66.270622253418 1.788884878159
94.093780517578 -67.059097290039 -68.759254455566 3.140272617340
63.736289978027 -62.225746154785 -68.522132873535 3.328222990036
103.717086791992 -65.730384826660 -78.548538208008 0.588702976704
65.414131164551 -64.257896423340 -74.136734008789 0.917945981026
-40.628391265869 -68.644699096680 -79.723182678223 2.106773376465
59.081436157227 -62.518379211426 -84.539169311523 1.823879241943
-59.532627105713 -63.926357269287 -78.097198486328 3.568144083023
62.356647491455 -61.687465667725 -86.367691040039 2.329006910324
64.191711425781 -63.660381317139 -82.608802795410 0.914814710617
-99.478637695313 -66.308113098145 -81.646392822266 2.912446022034
51.308509826660 -65.233306884766 -91.770423889160 1.479225039482
50.813808441162 -66.358184814453 -95.726760864258 0.826905131340
65.330482482910 -64.536766052246 -93.480056762695 1.162149906158
52.589714050293 -61.619117736816 -96.064605712891 1.381905078888
-81.731025695801 -66.908760070801 -110.303741455078 1.739899277687
85.020248413086 -68.097137451172 -106.408187866211 1.989346385002
-76.283813476563 -63.663749694824 -115.233757019043 1.385855317116
-74.684989929199 -64.255805969238 -109.555397033691 1.938807964325
-83.356285095215 -66.645141601563 -122.314903259277 2.754008769989
-86.940612792969 -65.274467468262 -111.489913940430 0.901122450829
-89.527870178223 -68.031044006348 -120.831314086914 3.126293182373
-78.228302001953 -65.424919128418 -125.329475402832 1.390309453011
-54.187103271484 -61.570747375488 -128.306671142578 1.870763778687
-74.238159179688 -67.831230163574 -135.550811767578 1.295856237411
-54.479595184326 -62.009803771973 -137.426055908203 1.557514429092
-89.567695617676 -64.906661987305 -136.413864135742 1.922713518143
27.854787826538 -62.607662200928 -139.570556640625 2.629980802536
19.671268463135 -64.115577697754 -140.486953735352 0.992303431034
-92.260116577148 -65.959663391113 -140.066467285156 2.656370401382
18.629781723022 -63.526535034180 -154.247161865234 2.025104761124
-88.664581298828 -67.089347839355 -146.169219970703 2.427608489990
-94.488006591797 -64.325164794922 -147.252746582031 2.363998413086
19.300981521606 -63.530899047852 -155.262664794922 2.867232322693
-96.104881286621 -62.631904602051 -147.233139038086 0.982266604900
-95.560188293457 -62.916244506836 -147.515655517578 0.983152329922
-100.118881225586 -63.701175689697 -158.360641479492 1.974145412445
-98.832008361816 -66.278091430664 -159.407272338867 2.218161821365
-106.019325256348 -63.888553619385 -174.956756591797 1.219986677170
-105.091018676758 -63.372493743896 -168.847122192383 1.270507097244
-101.366531372070 -67.210838317871 -164.946319580078 1.801809191704
-105.775558471680 -63.177635192871 -173.449386596680 1.083700418472
-135.861938476563 -70.975959777832 -178.488250732422 6.114953994751
-107.634315490723 -64.651107788086 -178.250274658203 1.757770895958
-142.746246337891 -64.244567871094 -188.956100463867 1.879142522812
-148.889205932617 -68.276924133301 -187.576217651367 2.608217239380
-148.965911865234 -64.873298645020 -195.451629638672 2.261936187744
-125.331001281738 -64.289520263672 -196.734634399414 1.106116771698
-130.719360351563 -62.237796783447 -200.764205932617 1.724304318428
-119.688369750977 -64.577980041504 -198.308547973633 3.012716531754
-140.976593017578 -67.534065246582 -204.834747314453 1.492008924484
-124.275581359863 -64.745880126953 -204.636474609375 0.957253634930
-146.240875244141 -67.055343627930 -206.899154663086 2.063585758209
-150.697128295898 -69.385414123535 -206.819656372070 2.397684335709
-158.293426513672 -63.779159545898 -231.111038208008 3.365372896194
-141.549179077148 -66.268951416016 -235.434844970703 2.874080896378
-127.612838745117 -64.278594970703 -235.434692382813 2.685374736786
-152.876815795898 -63.098064422607 -233.096450805664 1.269963622093
-2.809547901154 -66.214866638184 -237.086151123047 0.209283441305
13.478028297424 -66.645202636719 -241.566329956055 1.255215883255
-1.873240947723 -61.879878997803 -242.173049926758 1.697591185570
-150.052886962891 -66.159362792969 -245.765075683594 0.645041882992
-5.836059093475 -63.691253662109 -249.022460937500 1.385640740395
-148.926635742188 -63.144687652588 -253.882812500000 1.347972393036
-6.804002761841 -63.071750640869 -251.366317749023 2.036108970642
-150.576324462891 -66.327232360840 -252.885589599609 0.960976004601
25.559074401855 -65.144126892090 -255.553024291992 1.395899295807
-154.429031372070 -64.534538269043 -256.794677734375 1.155454635620
-147.207748413086 -66.289916992188 -253.549270629883 1.582909941673
-151.805191040039 -61.730625152588 -254.651321411133 0.928744554520
-151.063125610352 -64.007575988770 -259.384307861328 1.402482032776
34.344905853271 -63.546798706055 -255.167724609375 1.498100161552
29.269754409790 -63.954715728760 -262.270935058594 1.274513602257
-146.029357910156 -64.398170471191 -257.962707519531 1.784866213799
-150.380172729492 -61.338050842285 -260.779968261719 1.631366848946
-156.442077636719 -63.118125915527 -259.674224853516 1.623239755630
-147.922775268555 -65.097763061523 -264.034301757813 1.667810082436
26.641504287720 -62.338130950928 -263.305969238281 1.259564399719
27.751207351685 -61.629798889160 -265.336944580078 1.422688126564
-152.151443481445 -61.996398925781 -263.705017089844 1.016301631927
-142.359069824219 -64.462059020996 -263.484252929688 1.559052944183
-151.834213256836 -65.039276123047 -266.807159423828 1.483229041100
-145.939178466797 -63.484920501709 -261.478454589844 0.672284305096
-148.291412353516 -67.066062927246 -265.478302001953 1.570929884911
-151.811050415039 -62.614288330078 -268.473937988281 2.967783689499
-150.273712158203 -65.000282287598 -269.078735351563 3.280362129211
-151.696762084961 -64.865447998047 -283.270477294922 0.864250361919
-148.824539184570 -67.524551391602 -284.415802001953 2.810960054398
-149.183013916016 -65.691329956055 -280.211853027344 2.733755350113
15.471291542053 -63.925483703613 -285.522766113281 1.662358760834
-154.921127319336 -62.712230682373 -285.176849365234 1.875007510185
-145.468078613281 -61.952701568604 -283.615264892578 1.992879033089
-4.224495887756 -66.753677368164 -290.682312011719 0.869786202908
8.092115402222 -64.468383789063 -296.283843994141 3.974485635757
-151.591308593750 -65.853218078613 -296.738616943359 1.833909034729
25.796878814697 -71.639305114746 -21.806760787964 1.598883628845
42.175422668457 -63.958072662354 -28.355110168457 1.973567843437
51.271793365479 -70.150978088379 -31.419565200806 1.747844219208
41.892860412598 -63.771499633789 -33.656608581543 0.251599311829
25.362255096436 -71.652160644531 -39.075103759766 1.103618979454
41.445697784424 -72.615692138672 -38.507221221924 1.651250481606
80.857543945313 -64.626853942871 -62.458980560303 1.668064713478
77.224143981934 -62.597320556641 -59.995643615723 1.537464976311
-14.366097450256 -68.231712341309 -69.845321655273 2.205417633057
65.581184387207 -62.085144042969 -67.993072509766 1.986819744110
-27.552082061768 -70.615493774414 -76.512237548828 2.337469577789
-28.343015670776 -65.918998718262 -80.067245483398 3.749452114105
-54.151557922363 -64.789634704590 -79.480484008789 2.683826208115
-50.522838592529 -66.543434143066 -80.915359497070 3.398681402206
64.753715515137 -67.456466674805 -83.182014465332 1.455295920372
102.855743408203 -66.015472412109 -91.585098266602 2.219929695129
-61.945461273193 -61.044689178467 -87.795516967773 1.469626903534
53.472343444824 -65.189979553223 -97.257995605469 0.750502824783
62.828384399414 -60.049987792969 -94.368415832520 2.669461011887
104.569412231445 -62.210784912109 -96.277374267578 1.667506814003
-64.787605285645 -62.036991119385 -98.269096374512 1.974553465843
57.545925140381 -59.241542816162 -97.605529785156 4.111939430237
-70.653427124023 -67.522575378418 -104.098999023438 0.943539559841
66.665267944336 -64.482604980469 -98.528869628906 2.159204959869
69.737342834473 -63.023136138916 -103.284851074219 0.296899914742
-70.646102905273 -67.178771972656 -109.814300537109 3.129520416260
-96.918861389160 -63.031509399414 -112.412742614746 1.981220960617
-68.210853576660 -61.470546722412 -110.545135498047 0.974298238754
-81.084426879883 -61.915149688721 -110.353889465332 1.843619823456
-64.980651855469 -62.935958862305 -111.909622192383 1.578979492188
-82.583488464355 -62.606643676758 -115.231491088867 1.171114921570
-79.715705871582 -62.947093963623 -119.253021240234 1.192139744759
-75.048416137695 -65.401840209961 -120.362457275391 1.113865256310
-68.272132873535 -67.641754150391 -124.328140258789 4.905236721039
-80.621726989746 -66.907455444336 -128.776779174805 1.871930837631
31.346424102783 -64.299728393555 -126.084548950195 2.830617666245
-52.419578552246 -63.010437011719 -128.803512573242 1.840717911720
28.524787902832 -63.334239959717 -132.797958374023 1.198023915291
28.725761413574 -65.844238281250 -134.627075195313 1.310899496078
32.861629486084 -61.852363586426 -135.726364135742 1.707812428474
-51.555007934570 -65.223953247070 -138.240386962891 2.538333177567
21.717107772827 -62.841518402100 -148.430496215820 2.063924312592
25.157688140869 -60.992496490479 -139.887588500977 2.756000041962
-144.362289428711 -60.609073638916 -177.826950073242 1.493605136871
-149.026168823242 -64.492553710938 -176.547775268555 2.584300994873
-149.337417602539 -65.554016113281 -179.103363037109 3.271240711212
-147.123550415039 -63.054363250732 -188.361968994141 0.653114795685
-146.123458862305 -63.507930755615 -189.167221069336 1.268257856369
-146.621505737305 -66.446456909180 -193.270141601563 2.308500051498
-141.490600585938 -65.023460388184 -194.502197265625 1.584638237953
-146.294357299805 -63.955085754395 -196.269744873047 2.548115491867
-123.069747924805 -58.865314483643 -199.084442138672 3.918837308884
-133.921081542969 -64.502410888672 -201.723342895508 0.218252778053
-147.366882324219 -63.446773529053 -210.892395019531 1.747807621956
-147.092193603516 -64.852081298828 -224.039154052734 1.954502940178
-151.081665039063 -64.569801330566 -224.195922851563 2.370592594147
-145.031738281250 -60.393795013428 -229.861145019531 1.590441107750
-155.453033447266 -63.031181335449 -227.490829467773 1.475142955780
-148.563201904297 -62.663944244385 -234.643005371094 1.564257740974
-150.173477172852 -63.110561370850 -230.253326416016 0.500792562962
-147.112579345703 -61.518569946289 -230.392822265625 1.171955943108
-140.317077636719 -60.700466156006 -230.941360473633 2.397367954254
-145.384384155273 -62.626247406006 -234.800354003906 1.729923844337
-157.234344482422 -62.467323303223 -234.592529296875 3.512498140335
7.891074180603 -61.807388305664 -242.005996704102 1.730994224548
