-2.343745946884 -77.749053955078 -238.077529907227 1.854144454002
-23.758419036865 -75.409667968750 -242.349075317383 1.163615226746
-3.624099969864 -76.155616760254 -240.509048461914 2.762920141220
-161.518646240234 -75.390136718750 -238.416198730469 1.727021932602
10.619135856628 -77.925231933594 -245.614242553711 0.865657329559
-163.643218994141 -73.269912719727 -236.484832763672 0.632907629013
-15.861286163330 -76.630332946777 -234.778350830078 3.362745523453
67.568595886230 -79.424217224121 -239.163146972656 5.062167167664
-9.338089942932 -76.354568481445 -241.419952392578 3.393679141998
-25.196819305420 -76.547737121582 -239.934295654297 2.495356798172
-25.954694747925 -74.900093078613 -242.189910888672 1.422214031219
-15.055602073669 -74.907699584961 -244.977264404297 3.157598495483
-144.158981323242 -73.576789855957 -236.825546264648 2.272653102875
9.322231292725 -79.471733093262 -244.089691162109 2.330324649811
65.085037231445 -80.344070434570 -240.998718261719 6.201307296753
12.440600395203 -78.114540100098 -244.541687011719 1.792059779167
-161.787551879883 -73.425216674805 -241.029434204102 1.361603021622
-47.756664276123 -78.214828491211 -244.888580322266 1.456284165382
5.000644207001 -81.967514038086 -247.927062988281 2.444960832596
17.582923889160 -74.323883056641 -249.026718139648 1.360436677933
-56.788722991943 -75.890960693359 -249.988220214844 2.306768894196
-3.405169963837 -76.407104492188 -244.023849487305 3.068630695343
21.248502731323 -79.819908142090 -249.915130615234 2.232910156250
-165.221481323242 -74.257385253906 -248.105239868164 0.770062625408
-71.336563110352 -78.585281372070 -251.881256103516 3.163516044617
-51.694744110107 -74.974449157715 -248.126815795898 1.422212958336
-79.112899780273 -75.210456848145 -249.208953857422 0.888179004192
-160.802001953125 -73.522346496582 -245.978073120117 1.340764164925
-151.397705078125 -75.190429687500 -252.886367797852 1.398933410645
-59.029117584229 -74.343811035156 -252.880676269531 3.449275970459
-68.620330810547 -79.982666015625 -251.807449340820 3.591261148453
-153.799865722656 -73.587150573730 -254.319381713867 0.774224162102
-152.030731201172 -73.035514831543 -251.848159790039 1.097451567650
-77.477539062500 -75.993995666504 -252.570404052734 1.531629562378
-92.386238098145 -73.009681701660 -253.286346435547 1.292845010757
-163.902450561523 -75.330276489258 -252.310287475586 1.903861880302
-154.801879882813 -74.214622497559 -255.396514892578 1.023704648018
-134.177230834961 -72.798713684082 -257.769317626953 2.060262203217
-81.797561645508 -78.177337646484 -253.911300659180 3.150834083557
-163.089553833008 -72.123435974121 -254.805160522461 1.717375755310
-145.056762695313 -77.919509887695 -257.692291259766 2.618070125580
-89.894348144531 -75.714683532715 -255.651672363281 1.800500273705
-98.175155639648 -71.068115234375 -260.222229003906 1.331564784050
-148.276733398438 -73.912681579590 -259.496795654297 1.099902629852
-95.963226318359 -75.298355102539 -261.233001708984 4.415972709656
-150.603820800781 -73.985427856445 -256.365722656250 1.510273098946
-99.853179931641 -76.668319702148 -257.046997070313 3.222728967667
-166.001312255859 -77.165405273438 -258.669647216797 3.336428642273
-161.401107788086 -77.925834655762 -259.566284179688 3.503634691238
-122.914070129395 -73.960472106934 -257.817871093750 0.958677530289
-149.009933471680 -77.392730712891 -259.900177001953 2.027039051056
-110.706138610840 -74.506080627441 -261.069671630859 2.395011186600
-14.381121635437 -80.778884887695 -261.431915283203 3.504229068756
-142.539672851563 -74.000144958496 -262.755462646484 0.747389912605
-125.000457763672 -74.778678894043 -262.228088378906 0.978045344353
-155.597991943359 -74.301643371582 -265.022369384766 0.721834599972
21.832105636597 -78.962043762207 -268.398132324219 3.057984590530
-149.817092895508 -74.213211059570 -282.046539306641 1.850232362747
-167.475646972656 -73.613342285156 -279.983642578125 1.979562640190
-5.620738029480 -82.141181945801 -281.549377441406 5.183227062225
-147.880844116211 -77.263603210449 -281.965026855469 1.606805920601
-6.615242004395 -76.842201232910 -280.096740722656 0.935796558857
14.734674453735 -78.088371276855 -286.112945556641 3.654707908630
-133.793594360352 -74.642883300781 -288.157470703125 2.003287076950
-70.064933776855 -78.962554931641 -284.268920898438 4.479255676270
-36.872283935547 -76.807739257813 -284.423492431641 2.515916109085
-114.293815612793 -74.208351135254 -289.034271240234 1.215073943138
-90.791130065918 -76.632484436035 -293.476287841797 3.763658761978
-90.254241943359 -75.868301391602 -294.565734863281 4.012954711914
-47.834587097168 -80.183357238770 -290.009338378906 3.665630340576
-114.799728393555 -73.623916625977 -293.108551025391 1.767614126205
-108.592117309570 -76.688369750977 -292.530273437500 3.181828498840
-31.531515121460 -79.312492370605 -291.932769775391 2.650547504425
-114.310745239258 -76.556968688965 -291.203918457031 2.315258502960
-124.999198913574 -77.109664916992 -291.705688476563 1.224442481995
-143.696487426758 -77.337150573730 -294.830230712891 3.402024507523
9.213577270508 -76.285148620605 -290.361450195313 1.758433938026
15.187076568604 -80.070503234863 -293.959259033203 2.574942350388
-155.988632202148 -75.627601623535 -295.595367431641 1.575681090355
-154.205001831055 -76.112274169922 -303.840484619141 2.240285873413
-144.812210083008 -77.849433898926 -312.188629150391 1.997490882874
-149.727584838867 -73.106361389160 -311.014160156250 1.163668513298
-151.546585083008 -79.369659423828 -314.145324707031 2.915679693222
26.704786300659 -71.865737915039 -15.857797622681 1.430468678474
24.421825408936 -70.828796386719 -19.876306533813 2.481293916702
22.446390151978 -71.877319335938 -21.475250244141 1.318680047989
27.420061111450 -72.835479736328 -40.092979431152 1.702407360077
-54.861827850342 -66.806968688965 -53.332122802734 6.333490848541
-65.560356140137 -69.565834045410 -52.170345306396 3.784733772278
-39.698825836182 -70.883163452148 -53.244308471680 2.133014202118
-81.929954528809 -72.181076049805 -60.334552764893 2.975472927094
81.479988098145 -78.188667297363 -76.250183105469 2.565527915955
-19.424606323242 -71.783981323242 -73.564910888672 1.281597733498
89.336662292480 -76.804557800293 -69.104698181152 3.893873691559
96.266479492188 -73.902359008789 -79.329177856445 1.343652963638
-93.210243225098 -70.692420959473 -81.593383789063 2.409197330475
72.692680358887 -71.831100463867 -77.821243286133 2.502377986908
-41.942417144775 -75.798973083496 -85.077323913574 1.255761742592
100.669082641602 -73.892326354980 -83.891220092773 2.697436809540
-54.779560089111 -74.362464904785 -90.551048278809 1.769349455833
51.410480499268 -73.602058410645 -89.179023742676 2.113090515137
72.181221008301 -75.582794189453 -88.918167114258 2.077063083649
57.120883941650 -77.000030517578 -95.623161315918 3.170143127441
49.827178955078 -74.201133728027 -101.444396972656 3.181668043137
69.766799926758 -76.666877746582 -94.735458374023 4.167135238647
46.685634613037 -70.712524414063 -99.052009582520 2.127167701721
102.405639648438 -75.630767822266 -101.114059448242 3.716385841370
109.974052429199 -76.787857055664 -105.812355041504 3.360113620758
79.444053649902 -71.633979797363 -101.425468444824 1.148847103119
88.984405517578 -75.391654968262 -102.897361755371 2.118177652359
101.537406921387 -74.000991821289 -99.496910095215 2.447192668915
107.078773498535 -69.936965942383 -101.454689025879 1.151468276978
39.408809661865 -78.895324707031 -106.536430358887 3.099888801575
109.243957519531 -75.499641418457 -119.182662963867 0.525858998299
113.719787597656 -77.436050415039 -119.709068298340 3.373701572418
33.032783508301 -74.143722534180 -120.113410949707 1.292704939842
41.936523437500 -75.674606323242 -119.477462768555 2.398293018341
110.813125610352 -74.531944274902 -128.186279296875 1.746502995491
38.844688415527 -77.303771972656 -126.492446899414 1.427865505219
114.116889953613 -73.831680297852 -129.589981079102 1.864545345306
110.187232971191 -75.090072631836 -124.796424865723 0.811949849129
25.260061264038 -72.778945922852 -137.836547851563 1.656800985336
-48.648849487305 -75.619140625000 -134.254058837891 2.316638946533
-54.724487304688 -73.722297668457 -139.313766479492 0.431106358767
113.249076843262 -74.673263549805 -133.212997436523 1.999886393547
-73.295639038086 -75.279769897461 -143.544738769531 1.226988077164
-75.026535034180 -72.711997985840 -140.252456665039 1.809723615646
-58.030090332031 -75.399818420410 -142.352661132813 1.943014502525
33.867809295654 -74.947708129883 -140.131271362305 1.960237383842
108.261215209961 -75.011787414551 -146.005889892578 3.188027620316
-65.711822509766 -73.986198425293 -146.258682250977 2.205996274948
-45.071292877197 -70.762763977051 -145.233886718750 1.550796508789
37.643112182617 -78.673004150391 -149.512191772461 3.910333871841
-65.494583129883 -75.426704406738 -150.846817016602 1.166422128677
113.565963745117 -72.468048095703 -143.827911376953 1.363741517067
111.118057250977 -77.244514465332 -156.344421386719 1.624815344810
113.248069763184 -77.805213928223 -149.014068603516 2.016908884048
-38.070697784424 -74.209365844727 -155.772460937500 2.064735174179
-65.620506286621 -74.011672973633 -159.954803466797 0.575279057026
-70.645248413086 -69.058273315430 -155.338546752930 1.113980174065
30.501028060913 -73.401565551758 -151.380233764648 2.067016124725
-0.768420994282 -76.961372375488 -163.578582763672 1.306857943535
107.968246459961 -76.486557006836 -157.541595458984 1.975902199745
109.972930908203 -73.529655456543 -154.757904052734 2.242215394974
112.971412658691 -75.683837890625 -157.096328735352 1.335094213486
-64.678146362305 -75.655860900879 -162.013488769531 1.689304351807
-46.405578613281 -75.662612915039 -162.162002563477 0.580055713654
2.885720968246 -76.151496887207 -168.036499023438 3.005005836487
-25.273040771484 -72.877456665039 -174.482528686523 2.538948774338
106.386543273926 -76.800361633301 -163.592819213867 2.394293069839
-36.432167053223 -72.754806518555 -161.374511718750 1.837205410004
110.610557556152 -77.903091430664 -168.527404785156 0.494031995535
-41.290119171143 -73.319534301758 -172.652526855469 0.847930967808
110.507560729980 -77.999954223633 -166.937606811523 1.707328915596
-149.486358642578 -70.740837097168 -183.121185302734 2.769761562347
-30.007982254028 -73.021080017090 -175.673980712891 2.360468864441
-20.769956588745 -72.303405761719 -181.194625854492 1.880835294724
28.445234298706 -78.760101318359 -176.276916503906 3.548623085022
15.899931907654 -75.224189758301 -180.485427856445 1.210543870926
24.466384887695 -76.549148559570 -182.612655639648 1.497372746468
106.596763610840 -79.102310180664 -184.827224731445 2.814343214035
-151.629180908203 -70.394126892090 -188.646530151367 1.169795155525
-20.944810867310 -75.873741149902 -188.510482788086 2.100308179855
104.662994384766 -76.017715454102 -178.093093872070 2.971506118774
103.545326232910 -76.207473754883 -190.740768432617 1.668221712112
105.716308593750 -77.124252319336 -179.963119506836 1.366964340210
96.625015258789 -80.338500976563 -194.875244140625 4.882394313812
-154.138656616211 -79.794151306152 -197.154296875000 2.244694709778
99.362861633301 -80.896316528320 -203.055740356445 4.589221954346
-30.491594314575 -74.142921447754 -195.813796997070 3.174401521683
98.673271179199 -75.443893432617 -196.438171386719 1.285918831825
-126.344131469727 -73.676811218262 -195.825637817383 2.431612730026
-30.252489089966 -77.488273620605 -192.365432739258 2.766219377518
-141.210067749023 -73.240715026855 -201.988739013672 1.592966437340
92.466209411621 -76.709335327148 -199.215255737305 4.077064514160
9.270626068115 -75.851936340332 -200.104156494141 0.520651280880
23.466279983521 -77.577354431152 -195.363662719727 2.671317338943
-148.336791992188 -73.265571594238 -201.056838989258 1.442591309547
-138.927154541016 -71.493919372559 -205.746994018555 3.285617351532
-13.393803596497 -76.225242614746 -205.554870605469 1.116165399551
-125.030250549316 -77.652496337891 -203.654235839844 4.650259971619
-145.359786987305 -76.216888427734 -203.629577636719 1.953745841980
7.560369014740 -74.391387939453 -200.294845581055 1.642124652863
-23.693483352661 -75.585670471191 -204.131454467773 1.660259366035
19.236198425293 -75.825515747070 -206.100524902344 0.554447829723
7.332524776459 -76.100662231445 -210.118804931641 1.663936972618
87.857681274414 -77.792793273926 -210.381317138672 2.351468086243
-22.456691741943 -70.803703308105 -212.150283813477 4.085778236389
93.589340209961 -76.576438903809 -209.715469360352 1.750528573990
98.875053405762 -77.346664428711 -206.712570190430 1.854504346848
-146.223663330078 -70.706077575684 -219.043304443359 2.031356811523
95.478004455566 -75.045280456543 -210.739669799805 1.072306990623
6.462635993958 -73.912628173828 -209.570587158203 1.777860283852
4.773759841919 -75.837860107422 -212.136383056641 2.610703229904
-34.203552246094 -74.002189636230 -209.988815307617 2.468087911606
-90.693603515625 -71.506423950195 -214.744873046875 1.128209352493
-31.217727661133 -75.032470703125 -213.790863037109 2.130889415741
84.596824645996 -78.284881591797 -215.571441650391 2.980281352997
85.346893310547 -78.115585327148 -217.915908813477 2.026484251022
-35.517379760742 -72.369155883789 -215.062774658203 3.934055566788
-81.119461059570 -69.918830871582 -221.807525634766 7.108589649200
-2.768801927567 -75.753036499023 -216.797058105469 1.092812418938
88.276214599609 -77.801536560059 -216.780105590820 2.123956680298
-148.667312622070 -74.833923339844 -223.053390502930 1.405621409416
-167.536697387695 -73.671958923340 -214.269058227539 4.014390468597
-158.631683349609 -72.366683959961 -222.656997680664 0.656234204769
-19.909709930420 -77.045585632324 -228.117309570313 2.860979080200
-152.136398315430 -75.121208190918 -224.830368041992 3.070827960968
-7.309537887573 -80.462234497070 -227.188079833984 2.211039066315
7.044787883759 -74.552337646484 -218.220642089844 2.234460592270
-162.408157348633 -76.092147827148 -223.902084350586 3.442222356796
-162.714126586914 -72.732620239258 -227.141632080078 1.442723155022
79.029289245605 -77.560935974121 -229.918075561523 2.334142208099
4.423442840576 -76.046806335449 -229.211807250977 1.877375483513
-151.561401367188 -74.163848876953 -225.072189331055 2.428395748138
-142.370361328125 -73.764640808105 -224.610122680664 2.141082525253
-20.487127304077 -77.417411804199 -225.493789672852 0.988969504833
3.176644086838 -77.890731811523 -224.297927856445 1.245343804359
82.548851013184 -77.251945495605 -222.605529785156 1.113980650902
-159.711395263672 -74.306709289551 -230.292861938477 3.341562747955
-146.423645019531 -72.245201110840 -229.310852050781 1.488538980484
-124.648124694824 -71.890022277832 -231.167755126953 1.535431861877
81.376808166504 -79.332344055176 -229.287734985352 4.368394851685
-114.996902465820 -71.329269409180 -231.780258178711 1.506948471069
-147.491317749023 -75.135993957520 -230.362106323242 1.853171944618
-151.454833984375 -75.966476440430 -230.966339111328 2.771336793900
-147.001693725586 -73.486030578613 -229.683990478516 1.441219687462
-153.341217041016 -70.958175659180 -231.012786865234 2.140919923782
-165.769989013672 -70.894927978516 -235.339691162109 1.344733834267
-135.905075073242 -72.951210021973 -235.764846801758 3.523860931396
-134.510131835938 -73.439376831055 -234.131072998047 2.005972385406
-155.101211547852 -72.995277404785 -231.336059570313 0.950657844543
-145.037628173828 -72.102302551270 -234.438354492188 1.559897661209
-151.934951782227 -71.076858520508 -235.273590087891 1.759390234947
72.764717102051 -76.463516235352 -224.374343872070 5.209095954895
68.299644470215 -74.788337707520 -238.498168945313 0.458637207747
-160.188766479492 -72.301185607910 -238.984024047852 1.858958840370
69.846015930176 -77.121032714844 -233.573699951172 2.412141084671
-19.485952377319 -75.476722717285 -236.931457519531 1.959536552429
9.670059204102 -76.327140808105 -237.776016235352 0.519201099873
11.976189613342 -79.119476318359 -235.685195922852 1.406942009926
-146.252975463867 -73.336669921875 -245.213104248047 2.936400175095
15.022613525391 -76.277236938477 -242.507995605469 3.704189300537
65.464424133301 -78.245864868164 -236.892547607422 3.896343231201
12.107481956482 -75.456962585449 -236.601577758789 2.874720096588
5.975452899933 -78.863800048828 -243.620620727539 1.835226655006
-6.744015216827 -73.448722839355 -241.135360717773 0.941272854805
-18.663564682007 -78.410774230957 -245.608779907227 3.993740320206
0.763332009315 -78.468971252441 -243.172393798828 3.179126024246
3.071470975876 -75.550666809082 -242.400894165039 0.892622113228
57.336311340332 -78.387702941895 -241.496597290039 5.419884681702
-57.592647552490 -75.987716674805 -245.978530883789 2.734291791916
18.916122436523 -77.076210021973 -248.543411254883 2.162931680679
-59.187252044678 -74.954040527344 -245.729171752930 2.027561664581
-7.425021171570 -75.848396301270 -249.164810180664 2.575786828995
-63.866413116455 -73.231010437012 -252.699142456055 2.777647733688
-84.933296203613 -79.233383178711 -252.179504394531 4.578231811523
-81.570404052734 -77.509315490723 -251.858505249023 2.221285820007
-14.625663757324 -75.450119018555 -252.365905761719 3.019513368607
-123.956115722656 -76.896636962891 -259.829620361328 1.876523971558
-14.398770332336 -74.097068786621 -256.179412841797 1.047186374664
-119.939163208008 -74.346809387207 -257.477813720703 2.014340639114
-116.135101318359 -72.237457275391 -259.547058105469 2.086380958557
-103.192329406738 -77.485206604004 -259.118103027344 4.810973167419
-142.960083007813 -73.452697753906 -263.000366210938 0.947603940964
-145.499084472656 -72.663681030273 -267.544372558594 1.955158591270
-166.888214111328 -71.868972778320 -266.190002441406 3.163249731064
15.500466346741 -79.290649414063 -281.027893066406 2.937377214432
-57.502311706543 -78.019523620605 -285.158966064453 3.802910804749
-64.908874511719 -76.611083984375 -285.404632568359 2.475550889969
-43.048934936523 -78.269073486328 -285.798461914063 1.712233185768
-27.418809890747 -78.482933044434 -283.944274902344 3.426469326019
-93.686431884766 -75.815322875977 -292.261260986328 2.201361656189
-29.405065536499 -75.265625000000 -288.583312988281 2.864794015884
-2.223181009293 -74.365501403809 -286.460205078125 1.840073466301
-165.297500610352 -75.357482910156 -290.767608642578 2.513921737671
-13.333415985107 -78.761032104492 -289.261871337891 1.550457715988
8.397916793823 -75.133750915527 -289.579010009766 1.738246560097
15.448477745056 -74.649612426758 -290.652038574219 1.361547470093
-55.341278076172 -77.236564636230 -292.386047363281 3.037125349045
-28.424587249756 -78.790176391602 -288.585357666016 2.892438173294
15.743060112000 -75.589965820313 -290.882751464844 0.833874464035
-67.980918884277 -77.332588195801 -293.716461181641 3.805225372314
-36.852516174316 -76.194946289063 -291.181823730469 0.659390687943
-16.224687576294 -75.969741821289 -291.863128662109 0.776460647583
13.072411537170 -77.778831481934 -291.305541992188 1.635292530060
-12.015839576721 -79.043014526367 -290.573577880859 1.564696669579
5.757905006409 -75.729629516602 -292.749084472656 1.816691756248
13.445021629333 -77.766212463379 -293.063659667969 0.876092016697
-133.705017089844 -76.510673522949 -293.205169677734 1.087475538254
-141.528610229492 -76.801254272461 -302.923217773438 3.660674810410
-148.036849975586 -78.704788208008 -312.628143310547 1.759976625443
38.414791107178 -65.878929138184 -12.623429298401 1.757065773010
29.472148895264 -70.524101257324 -10.261896133423 2.887468576431
38.294281005859 -71.102149963379 -15.468772888184 2.067270517349
19.848566055298 -70.856948852539 -21.032939910889 1.649917244911
41.908714294434 -71.365676879883 -23.989177703857 2.642013549805
21.497920989990 -69.492927551270 -20.906585693359 1.438105106354
23.032613754272 -74.006202697754 -29.975349426270 2.327894449234
21.257137298584 -73.196693420410 -35.544864654541 2.730606555939
41.739589691162 -69.383804321289 -32.725086212158 2.041511058807
26.055416107178 -71.090942382813 -37.051498413086 1.639130115509
39.656318664551 -71.713531494141 -33.080677032471 2.119003295898
32.021842956543 -69.586845397949 -37.343147277832 2.373974084854
32.053043365479 -71.880249023438 -39.249092102051 0.937313318253
31.267780303955 -70.487091064453 -41.082901000977 0.789559483528
42.008316040039 -71.615280151367 -42.440769195557 2.598077774048
33.926494598389 -68.820922851563 -43.726211547852 3.088342189789
-39.142986297607 -66.672927856445 -54.332313537598 5.790278911591
-30.891302108765 -66.534858703613 -47.928966522217 1.208327174187
-89.290168762207 -67.162437438965 -57.227344512939 1.343394637108
-87.760688781738 -71.970535278320 -65.037147521973 1.822003364563
79.600021362305 -73.470268249512 -67.643424987793 1.790848374367
82.260620117188 -74.096366882324 -71.005088806152 0.727654039860
-16.706676483154 -72.604370117188 -74.280380249023 2.780676603317
-87.094619750977 -72.610687255859 -72.126235961914 2.900869607925
-25.180742263794 -71.560729980469 -79.020080566406 2.163851022720
-50.252441406250 -74.534103393555 -88.844322204590 2.123125314713
63.554302215576 -71.632133483887 -85.391380310059 2.410048246384
54.320297241211 -70.857276916504 -91.499519348145 1.471609592438
97.195030212402 -74.118949890137 -88.602012634277 1.468365311623
72.579666137695 -75.029922485352 -95.294441223145 0.977328002453
-64.911415100098 -74.815597534180 -93.511108398438 0.417913019657
-65.750068664551 -70.576797485352 -96.889961242676 2.273442506790
44.231872558594 -74.153327941895 -96.798210144043 1.583053469658
73.471160888672 -77.391746520996 -101.098274230957 4.878386497498
51.095863342285 -77.071296691895 -102.335746765137 2.107751369476
100.787651062012 -76.273437500000 -97.206710815430 3.773235559464
-92.224609375000 -71.422683715820 -107.884590148926 3.776296377182
38.288078308105 -78.052947998047 -110.839096069336 1.076141119003
106.637306213379 -72.967826843262 -107.336105346680 1.693125367165
46.192207336426 -71.173225402832 -110.499519348145 2.573081254959
103.054901123047 -72.545310974121 -106.765312194824 1.098492264748
-85.183387756348 -71.114204406738 -114.751533508301 3.407539367676
35.658096313477 -72.972709655762 -114.182853698730 0.901318490505
108.406501770020 -76.372734069824 -117.577857971191 1.937444925308
102.433685302734 -73.960906982422 -115.532264709473 3.849770784378
107.101570129395 -76.782142639160 -114.300582885742 2.924821853638
109.337600708008 -77.914611816406 -114.976249694824 3.732929706573
34.494201660156 -73.859298706055 -114.217391967773 0.657793164253
32.183422088623 -77.040084838867 -118.835906982422 2.685169696808
43.524093627930 -73.260200500488 -114.119827270508 2.412935733795
109.343521118164 -75.108688354492 -123.088066101074 2.192283868790
39.678131103516 -72.545722961426 -124.703720092773 1.405170559883
109.516548156738 -76.545280456543 -131.294189453125 1.900025129318
113.638153076172 -73.722015380859 -128.809631347656 1.751387238503
32.529743194580 -72.822517395020 -121.743690490723 1.601640939713
-77.539230346680 -73.297546386719 -127.490577697754 3.547904968262
116.429389953613 -78.318305969238 -134.845870971680 3.286887884140
-58.946212768555 -76.468666076660 -140.219436645508 3.216195821762
34.597763061523 -75.436683654785 -135.978118896484 2.593305587769
-73.779113769531 -72.505912780762 -139.745285034180 1.329732656479
29.017683029175 -72.710731506348 -134.728134155273 1.100466728210
-74.858940124512 -73.750694274902 -142.341583251953 1.752333402634
-44.129348754883 -75.589630126953 -146.378280639648 2.058117389679
-72.748832702637 -74.127914428711 -136.911621093750 1.484422564507
110.545135498047 -71.549827575684 -137.660766601563 1.473644495010
115.305046081543 -76.058914184570 -140.336959838867 1.319646716118
120.850746154785 -76.293693542480 -144.834869384766 4.927017211914
-72.386383056641 -72.906021118164 -145.464080810547 1.965666532516
9.001372337341 -72.516334533691 -150.679244995117 2.031983852386
-56.741294860840 -71.927078247070 -153.741104125977 3.954923152924
-47.755783081055 -75.239295959473 -154.862762451172 1.668960809708
108.618705749512 -74.225227355957 -158.730819702148 0.371798098087
-40.844791412354 -75.143394470215 -151.696792602539 1.537415862083
11.422208786011 -72.835594177246 -159.528488159180 1.532942056656
22.266750335693 -73.520347595215 -159.223098754883 1.058516263962
113.816627502441 -77.116386413574 -163.219284057617 1.591100573540
30.932731628418 -71.948539733887 -161.280670166016 1.775922179222
-2.248435974121 -77.089546203613 -160.818954467773 1.969445347786
31.309690475464 -74.353439331055 -162.722625732422 1.502753138542
-68.746597290039 -68.175895690918 -159.783111572266 3.052685499191
-63.117748260498 -71.380378723145 -159.596984863281 1.312036275864
-67.040496826172 -72.244049072266 -163.969726562500 0.861829400063
113.219184875488 -74.676078796387 -160.667861938477 1.885677695274
-45.527259826660 -71.344627380371 -163.972503662109 1.412942528725
18.141208648682 -77.851303100586 -169.335662841797 2.586693525314
-63.395565032959 -75.337066650391 -172.968627929688 1.738400697708
-60.199291229248 -75.177955627441 -173.560043334961 2.018710374832
-41.494373321533 -74.545478820801 -161.774826049805 3.181027412415
-34.991725921631 -69.100486755371 -168.776260375977 3.279210567474
113.543022155762 -73.414360046387 -172.580596923828 0.657185018063
-35.498748779297 -74.287933349609 -175.547195434570 2.932532072067
16.067655563354 -74.442970275879 -171.949493408203 1.190563797951
108.287750244141 -80.089141845703 -186.210327148438 4.033300876617
-151.011932373047 -73.967933654785 -177.785385131836 1.794341444969
-143.856811523438 -73.046035766602 -176.157775878906 1.028126955032
-151.667373657227 -70.876022338867 -178.697006225586 2.090371608734
-143.607162475586 -69.283256530762 -181.884307861328 2.576853036880
-28.228132247925 -72.712341308594 -183.645965576172 2.223993062973
-24.092161178589 -73.349655151367 -185.547317504883 2.718712091446
22.972389221191 -72.644218444824 -190.196426391602 1.376811027527
-141.884658813477 -71.910377502441 -188.245025634766 1.375957846642
-144.894683837891 -70.921081542969 -186.582214355469 2.388606786728
-21.448787689209 -68.206642150879 -187.935302734375 0.849133729935
14.067985534668 -77.892967224121 -182.361587524414 2.033141374588
-143.337509155273 -72.976142883301 -193.630722045898 1.694863080978
-34.117813110352 -77.319000244141 -183.538696289063 0.902912795544
101.339385986328 -78.259155273438 -188.454605102539 1.860840916634
107.532119750977 -75.528091430664 -192.005340576172 1.520889520645
21.614341735840 -74.349281311035 -191.054870605469 1.898618698120
-19.748220443726 -77.843467712402 -189.712585449219 1.144911289215
-25.440950393677 -77.282569885254 -197.016128540039 0.347997069359
-149.767929077148 -69.681472778320 -197.765106201172 1.924392223358
-133.404373168945 -71.883270263672 -199.160476684570 0.746087372303
-123.339988708496 -71.610488891602 -196.012512207031 1.206886529922
-123.233428955078 -73.797355651855 -198.729522705078 1.272408008575
-19.970266342163 -72.933448791504 -196.532440185547 3.215306758881
11.252584457397 -76.633300781250 -193.084793090820 2.304097890854
94.376098632813 -73.427337646484 -199.901214599609 0.600127041340
-146.865371704102 -72.247039794922 -197.443588256836 0.667074382305
-146.140090942383 -70.204864501953 -202.221786499023 1.849007725716
-147.430923461914 -67.970581054688 -199.828323364258 1.846009969711
-155.201980590820 -68.871139526367 -201.622299194336 1.599306225777
-27.771970748901 -74.059700012207 -200.731018066406 2.883930206299
-13.963726997375 -79.013397216797 -194.937088012695 2.989800453186
-145.804763793945 -67.760475158691 -199.119125366211 1.980253219604
-17.719158172607 -76.230194091797 -197.355682373047 0.817126154900
-162.856796264648 -72.354461669922 -200.504226684570 2.115872859955
-132.099411010742 -72.607147216797 -200.480422973633 1.370609402657
13.878511428833 -72.849510192871 -208.905990600586 3.500474691391
-162.735473632813 -70.949310302734 -204.477172851563 1.421122789383
-144.285217285156 -73.487609863281 -205.144592285156 1.756927013397
10.963135719299 -76.165000915527 -200.876434326172 1.583221316338
-154.815383911133 -73.825294494629 -206.376144409180 2.584273815155
-23.121686935425 -75.568496704102 -201.295166015625 1.661115884781
102.860282897949 -76.418281555176 -199.387298583984 1.436777472496
-154.259140014648 -72.211814880371 -216.077377319336 1.099654912949
-163.419479370117 -72.699172973633 -213.319976806641 1.136837244034
-78.992630004883 -72.051277160645 -213.522247314453 2.161448001862
90.869743347168 -76.182365417480 -209.739410400391 1.616934061050
-3.608639001846 -74.476638793945 -214.388504028320 1.569653034210
-152.443588256836 -72.168502807617 -212.865692138672 1.811359763145
-88.719139099121 -69.632255554199 -216.374740600586 1.605851888657
-6.746345043182 -75.058845520020 -210.596206665039 1.419455051422
15.391249656677 -74.032455444336 -222.516372680664 0.999955058098
-144.505569458008 -73.746208190918 -219.692413330078 1.766142606735
-2.632647037506 -76.560043334961 -220.352798461914 1.327911496162
-17.887613296509 -71.017829895020 -220.736053466797 1.763880252838
-17.254489898682 -71.644729614258 -219.200042724609 2.761923074722
87.699966430664 -77.242614746094 -214.901870727539 1.931264996529
-21.879295349121 -71.691223144531 -216.523452758789 0.894287168980
-28.489910125732 -74.721862792969 -217.684509277344 1.244139671326
-104.572196960449 -73.055923461914 -222.950241088867 1.535706996918
-14.884254455566 -74.316421508789 -224.561264038086 1.911834597588
89.951042175293 -75.409980773926 -218.586212158203 0.801922619343
81.596183776855 -75.648643493652 -218.209915161133 3.254327058792
6.583353996277 -78.336013793945 -223.095764160156 2.686068296432
-11.556460380554 -74.835716247559 -226.213653564453 1.288779139519
78.750076293945 -81.711975097656 -221.974578857422 6.422284126282
-126.282485961914 -72.789375305176 -224.708496093750 1.756974816322
-23.401588439941 -75.785369873047 -222.286407470703 1.928426980972
-101.045196533203 -71.716926574707 -225.873580932617 1.839466214180
-106.183723449707 -74.980697631836 -228.794143676758 3.487149953842
-134.151535034180 -72.300956726074 -228.962387084961 1.684360384941
79.978752136230 -76.775428771973 -223.662277221680 1.831532120705
-125.413787841797 -74.252639770508 -228.808380126953 1.177453756332
3.283272027969 -75.167823791504 -229.588485717773 1.484264135361
76.577659606934 -76.285644531250 -223.480682373047 2.658269882202
-14.526008605957 -75.965080261230 -228.663269042969 0.961404263973
-9.993798255920 -76.275451660156 -230.736465454102 1.002091407776
-4.993334770203 -74.621452331543 -231.830734252930 0.825534462929
8.034140586853 -76.075637817383 -228.971557617188 2.243155002594
84.335243225098 -77.004577636719 -224.802780151367 1.400421738625
13.945113182068 -75.903427124023 -232.346527099609 3.059056997299
3.134177923203 -76.746292114258 -230.902282714844 1.074759602547
-6.604814052582 -76.684043884277 -227.640136718750 2.079626083374
-5.941331863403 -73.837532043457 -234.094558715820 1.955809831619
16.414197921753 -74.302970886230 -232.215072631836 1.600266814232
-10.210133552551 -73.545455932617 -235.108673095703 2.305649995804
73.212669372559 -76.528488159180 -236.686965942383 2.236736536026
-7.985013008118 -73.243309020996 -235.933547973633 2.095058679581
20.868499755859 -76.399803161621 -231.835296630859 2.179054737091
-163.130233764648 -70.682357788086 -244.004531860352 2.273292303085
-4.716646194458 -75.215957641602 -241.484375000000 1.925973534584
-9.560252189636 -74.451416015625 -241.784072875977 2.758496046066
-166.961578369141 -71.589881896973 -256.981964111328 2.660853385925
-9.606553077698 -76.268280029297 -244.705764770508 3.585718154907
18.423545837402 -77.346717834473 -244.714782714844 2.829896926880
-146.771179199219 -75.748260498047 -252.943481445313 1.993363618851
-67.431251525879 -73.713966369629 -248.971176147461 2.376046180725
-58.619834899902 -73.162719726563 -248.630111694336 1.143340349197
54.583358764648 -75.876968383789 -247.209915161133 3.832475662231
-76.774925231934 -74.595619201660 -247.700500488281 1.779611945152
16.485870361328 -76.475875854492 -246.962493896484 2.157185792923
-75.234001159668 -74.432136535645 -252.204177856445 0.903087198734
-16.664180755615 -75.974456787109 -249.284866333008 4.664280891418
-147.613906860352 -74.334556579590 -255.450424194336 2.061592578888
48.822029113770 -75.157608032227 -248.641067504883 3.052629470825
-80.902389526367 -71.631675720215 -251.719635009766 2.874102354050
-97.931961059570 -74.201271057129 -256.234497070313 1.052449703217
-96.211425781250 -78.477699279785 -254.432067871094 4.733164310455
-120.617034912109 -74.648948669434 -258.851745605469 3.397850990295
-106.932861328125 -72.854759216309 -258.080108642578 1.342403888702
-106.861289978027 -72.977996826172 -260.779388427734 0.976551890373
19.925064086914 -76.746612548828 -259.466522216797 1.479960560799
-127.880348205566 -71.389144897461 -267.014099121094 2.336730003357
-9.147090911865 -78.374183654785 -277.116424560547 2.687195062637
-145.690841674805 -75.857368469238 -283.406402587891 1.673251152039
-168.377197265625 -72.904571533203 -284.404602050781 0.919979989529
-126.114440917969 -74.886848449707 -288.300079345703 1.731305718422
-114.802352905273 -75.097137451172 -284.004791259766 3.361613273621
-77.210662841797 -71.593597412109 -288.468658447266 2.492876052856
-55.849620819092 -71.795730590820 -289.312561035156 0.910479068756
-43.443321228027 -74.914863586426 -287.109008789063 1.510377407074
-13.357125282288 -75.307312011719 -289.228973388672 2.665577650070
-11.563359260559 -74.848197937012 -288.652282714844 2.139086246490
-35.590312957764 -75.980522155762 -289.908905029297 1.843932271004
-33.895713806152 -74.934921264648 -288.576080322266 2.244239091873
-18.935596466064 -73.754013061523 -291.677124023438 0.747143983841
-71.090286254883 -76.399185180664 -292.578308105469 2.759804487228
-53.565834045410 -73.479522705078 -293.727722167969 3.253841876984
-13.542158126831 -72.925346374512 -291.489807128906 0.785119235516
-13.778906822205 -76.186920166016 -291.476196289063 2.302643537521
-3.916510105133 -75.365676879883 -291.662322998047 1.953407764435
3.622411012650 -73.556457519531 -294.050079345703 1.922481298447
-87.855552673340 -74.259735107422 -288.845031738281 1.509689927101
-144.382415771484 -72.144798278809 -291.266448974609 2.543679952621
-117.075660705566 -75.299087524414 -295.649627685547 4.130109786987
-153.222518920898 -77.018188476563 -301.444183349609 1.248061895370
-154.393173217773 -74.556678771973 -300.531341552734 1.636013269424
-143.906127929688 -74.582344055176 -303.128479003906 1.504314184189
44.976783752441 -72.500839233398 -22.554744720459 2.711862564087
17.520154953003 -70.430137634277 -24.145566940308 2.887729644775
48.495147705078 -72.356956481934 -26.117986679077 1.069057703018
47.111988067627 -73.619560241699 -33.272018432617 2.935072422028
85.637817382813 -69.824142456055 -67.094779968262 1.107767105103
95.679733276367 -71.839996337891 -74.014465332031 1.330168128014
97.749511718750 -71.697998046875 -80.103439331055 1.704049587250
96.018730163574 -72.690483093262 -85.363159179688 1.588927030563
52.725830078125 -72.833190917969 -87.636337280273 2.653676748276
48.929996490479 -73.364692687988 -92.620681762695 2.395318031311
61.004074096680 -70.878829956055 -91.590583801270 1.120293259621
-65.480339050293 -66.789649963379 -93.039131164551 2.091373443604
70.200248718262 -74.059600830078 -89.397064208984 1.738773822784
101.900787353516 -72.207397460938 -94.022666931152 2.101251602173
73.409645080566 -75.915016174316 -99.327186584473 3.151598691940
94.056060791016 -71.097023010254 -97.899841308594 3.302637338638
-81.724975585938 -71.716369628906 -101.954559326172 1.999894857407
44.478225708008 -73.062500000000 -103.120307922363 1.208180189133
-87.039070129395 -72.771865844727 -108.724250793457 2.603441715240
49.715644836426 -74.499824523926 -112.076240539551 1.181746602058
40.611045837402 -70.163017272949 -105.575340270996 1.558709859848
103.442214965820 -75.123779296875 -104.296203613281 2.016612052917
38.858436584473 -70.444244384766 -108.533210754395 1.019750833511
39.744907379150 -74.015205383301 -114.850997924805 2.750145435333
41.464218139648 -70.366874694824 -114.999916076660 1.138677358627
104.791397094727 -70.535469055176 -115.687126159668 1.922865271568
-82.214942932129 -70.035903930664 -120.987007141113 1.051948189735
111.968772888184 -75.273651123047 -123.027061462402 1.365702033043
37.894718170166 -69.286231994629 -120.272903442383 1.392701268196
42.336399078369 -72.867156982422 -118.286491394043 2.833304166794
33.661495208740 -73.254478454590 -121.155914306641 0.617253303528
-56.391273498535 -71.250823974609 -131.451187133789 1.773577332497
29.593599319458 -71.824821472168 -122.914558410645 2.279605627060
-77.808357238770 -72.947265625000 -137.466079711914 1.006468772888
-58.925884246826 -71.039566040039 -134.414077758789 1.938043117523
-78.039443969727 -69.601562500000 -133.500152587891 1.755825161934
33.377044677734 -72.246788024902 -127.568641662598 2.502892494202
-57.733604431152 -69.945320129395 -133.607498168945 1.832452654839
36.969612121582 -72.811653137207 -133.049423217773 2.660055398941
-75.524215698242 -71.261169433594 -139.818099975586 0.886953949928
-58.550357818604 -73.918144226074 -140.215820312500 1.458381175995
28.527730941772 -72.238357543945 -139.023529052734 1.502657771111
110.227981567383 -77.462547302246 -144.454833984375 2.123142004013
117.260726928711 -74.278648376465 -136.746826171875 2.379446268082
32.232482910156 -72.217681884766 -140.014404296875 1.907462000847
-47.183776855469 -69.871681213379 -143.604141235352 2.196714401245
109.071685791016 -74.277252197266 -154.901947021484 2.725622892380
-73.975204467773 -71.103660583496 -147.644805908203 1.801858544350
-53.969989776611 -72.823745727539 -140.874755859375 1.693192601204
32.966373443604 -76.138931274414 -150.960891723633 1.625984907150
-72.836280822754 -72.299110412598 -145.483245849609 1.895848155022
-70.927619934082 -73.120529174805 -148.672836303711 1.646138310432
116.527526855469 -72.283897399902 -147.878692626953 1.369832396507
-64.321037292480 -71.131500244141 -151.504211425781 2.709617614746
-40.287570953369 -71.151504516602 -152.226913452148 1.880759835243
29.426403045654 -69.724586486816 -151.108139038086 2.396007299423
-75.758941650391 -70.914253234863 -149.686126708984 1.016332745552
9.591979980469 -74.774909973145 -156.347579956055 1.448041796684
32.846557617188 -70.979751586914 -155.559539794922 0.837829649448
27.304328918457 -73.454010009766 -149.640167236328 3.097290277481
8.218835830688 -76.339759826660 -155.248672485352 2.632919788361
-48.428272247314 -70.186645507813 -154.201324462891 0.676260113716
25.591167449951 -72.417579650879 -152.338241577148 2.028236389160
-46.817729949951 -72.910079956055 -149.749710083008 3.370378971100
6.213556766510 -74.234321594238 -151.799163818359 3.350619554520
21.004594802856 -73.595893859863 -148.980697631836 2.713891506195
-72.607208251953 -74.120277404785 -154.818038940430 1.774780511856
-45.477233886719 -71.599563598633 -155.240783691406 2.023651361465
-69.845924377441 -69.410827636719 -160.431015014648 2.801730155945
12.249692916870 -68.795928955078 -162.393051147461 3.732024192810
21.227169036865 -73.256164550781 -147.612426757813 2.427894830704
1.524770021439 -71.549942016602 -162.377792358398 1.727381467819
21.047336578369 -71.431762695313 -155.508407592773 1.216297388077
29.274457931519 -74.221885681152 -163.049087524414 1.086694717407
-47.134517669678 -74.242881774902 -162.743316650391 1.615487933159
-33.467868804932 -72.294982910156 -161.181549072266 0.368801474571
-38.254268646240 -71.137496948242 -161.260208129883 1.361443877220
29.176498413086 -74.023727416992 -162.305358886719 1.372648954391
-45.315963745117 -72.461891174316 -166.969909667969 1.325317382813
-42.495208740234 -72.289459228516 -162.918563842773 1.358632683754
20.184434890747 -74.897079467773 -164.080520629883 1.870351433754
-41.738105773926 -72.237785339355 -173.336318969727 1.836388587952
30.909233093262 -71.785499572754 -172.224166870117 2.460343599319
115.730377197266 -73.153190612793 -164.428070068359 2.998499631882
-32.515167236328 -71.841590881348 -173.141113281250 1.751615166664
105.941940307617 -72.657951354980 -170.592590332031 2.044059753418
-34.077144622803 -70.224166870117 -177.758499145508 1.337916731834
-38.001663208008 -73.413131713867 -180.232330322266 1.674667596817
17.671974182129 -75.202842712402 -174.804489135742 1.850027680397
103.320793151855 -72.790664672852 -179.388824462891 1.902266740799
-29.027090072632 -72.180000305176 -183.901275634766 1.625552296638
-32.204319000244 -68.332855224609 -174.482086181641 1.360933780670
-23.138742446899 -74.384025573730 -186.515975952148 2.117793798447
-147.333786010742 -74.382553100586 -188.829299926758 1.859588265419
13.902617454529 -75.299530029297 -182.681091308594 1.797989130020
106.456794738770 -73.917335510254 -191.320892333984 1.101782798767
-157.709152221680 -70.601242065430 -195.450973510742 1.305404543877
-26.208799362183 -73.297439575195 -191.264404296875 2.033010721207
-115.353797912598 -70.072402954102 -196.301193237305 1.466405749321
-132.145248413086 -71.788810729980 -198.437194824219 1.792526364326
-108.497764587402 -70.090461730957 -201.921188354492 3.110151767731
-110.820381164551 -69.147415161133 -200.807006835938 1.707222223282
-15.457886695862 -70.983100891113 -198.553604125977 0.640163719654
19.406232833862 -75.512374877930 -197.236511230469 2.040734052658
-19.339191436768 -67.839607238770 -201.369216918945 1.352645516396
-125.010307312012 -70.079322814941 -204.379943847656 1.480905890465
-24.481771469116 -71.705123901367 -207.142044067383 3.348526716232
-130.472702026367 -74.415779113770 -204.011962890625 2.143736124039
-12.103329658508 -71.196899414063 -202.071899414063 1.663370966911
-144.317581176758 -71.052124023438 -205.152084350586 0.163219735026
90.963745117188 -74.617324829102 -208.225463867188 1.234306335449
-165.183197021484 -70.914756774902 -204.423995971680 1.467523097992
-1.746567010880 -75.819999694824 -213.615722656250 2.460696220398
12.210833549500 -69.819160461426 -211.097396850586 0.863288044930
9.574049949646 -70.846160888672 -216.567230224609 2.536783456802
83.262657165527 -74.818824768066 -217.771560668945 1.646344065666
4.776282787323 -71.397026062012 -215.156341552734 2.588140010834
15.154976844788 -74.239334106445 -213.809768676758 2.125564575195
-14.965633392334 -77.766487121582 -213.958633422852 1.611402034760
-89.339019775391 -72.117111206055 -216.235870361328 1.425062298775
-99.890197753906 -73.446479797363 -217.960632324219 2.321802616119
-3.304435014725 -72.856567382813 -221.135452270508 1.783736228943
-167.863098144531 -71.642730712891 -229.364685058594 1.953793406487
12.413707733154 -72.442176818848 -220.441848754883 1.877380967140
-143.281661987305 -72.449035644531 -224.183578491211 0.932111084461
12.120497703552 -72.187835693359 -225.634506225586 1.079988598824
-133.988723754883 -72.299758911133 -223.680480957031 1.430788874626
-115.978576660156 -71.875633239746 -228.187194824219 1.228605031967
18.424898147583 -70.324348449707 -223.853103637695 2.882609367371
75.243072509766 -74.682746887207 -227.318237304688 2.812637805939
5.235609054565 -71.841888427734 -224.865783691406 1.873775362968
-113.832839965820 -73.738853454590 -225.218154907227 2.889158725739
75.169593811035 -74.595008850098 -226.957550048828 2.971290349960
79.994560241699 -76.567070007324 -230.265594482422 1.884389400482
-122.463119506836 -72.615463256836 -231.959411621094 0.990238308907
-117.670356750488 -73.993125915527 -232.949295043945 3.013594865799
-11.077765464783 -73.484176635742 -231.388565063477 1.020512700081
70.367507934570 -77.292015075684 -227.995727539063 4.324375152588
66.464942932129 -74.281417846680 -235.192016601563 2.251978635788
73.620620727539 -74.422637939453 -232.370040893555 1.838745713234
-133.342712402344 -73.475646972656 -237.801467895508 4.425910949707
70.118125915527 -78.719116210938 -233.994064331055 3.683454513550
65.584724426270 -77.394027709961 -235.180740356445 3.733885288239
-167.098510742188 -73.409782409668 -229.155395507813 1.633755445480
-0.218780994415 -76.728836059570 -240.766143798828 1.706750750542
16.095884323120 -74.128181457520 -243.432250976563 2.623701095581
-4.137692928314 -75.612243652344 -241.574142456055 2.168022871017
14.346802711487 -76.570755004883 -242.094909667969 3.651106357574
67.513351440430 -76.731513977051 -239.514007568359 2.747521400452
10.701587677002 -77.257591247559 -240.294631958008 2.251846075058
-8.125549316406 -71.063293457031 -243.688369750977 0.966719388962
-2.081808090210 -74.822952270508 -244.337783813477 1.607287883759
66.044555664063 -75.448921203613 -244.161941528320 3.622978448868
6.230030059814 -77.013618469238 -244.933929443359 1.112420320511
-9.385543823242 -74.529899597168 -241.256713867188 2.691433906555
14.618335723877 -76.345603942871 -246.097869873047 1.333116650581
-165.938949584961 -68.223098754883 -242.462295532227 1.079755902290
60.629833221436 -73.847106933594 -248.773162841797 3.364213705063
52.654781341553 -74.573760986328 -249.940460205078 2.827966928482
56.450702667236 -78.084693908691 -241.529327392578 5.599625110626
-13.246660232544 -74.010162353516 -251.139190673828 1.970201373100
55.422134399414 -78.037330627441 -245.714767456055 5.401863098145
-73.361953735352 -74.601333618164 -249.128173828125 1.919795274734
51.865917205811 -76.771362304688 -250.491058349609 4.990605831146
-89.350585937500 -75.252822875977 -254.601119995117 1.434997558594
-127.013061523438 -74.923500061035 -254.918228149414 1.600281596184
-134.056335449219 -69.138458251953 -253.902099609375 1.247304320335
48.881340026855 -74.678993225098 -255.396469116211 4.525214195251
-136.882736206055 -71.104087829590 -257.630035400391 2.651531219482
-107.478820800781 -78.009559631348 -254.785629272461 5.445092201233
-112.114906311035 -71.876281738281 -258.484619140625 1.990456223488
-83.707771301270 -74.164215087891 -253.291915893555 0.968721330166
-112.053146362305 -74.889137268066 -263.312652587891 3.316529273987
-124.264602661133 -71.438690185547 -265.555633544922 1.423825144768
-144.422668457031 -71.966285705566 -267.028930664063 1.603972673416
-13.236334800720 -75.858779907227 -261.175384521484 1.432068824768
-170.564346313477 -71.370727539063 -267.303344726563 3.656943082809
-10.778212547302 -77.602348327637 -271.626190185547 1.806115031242
-158.356323242188 -68.470405578613 -267.563812255859 2.316702365875
-153.555877685547 -69.765678405762 -274.539215087891 0.794175207615
-168.432388305664 -68.558479309082 -276.305541992188 2.591078758240
-12.130457878113 -72.827072143555 -276.152679443359 1.799851894379
-133.239440917969 -73.703804016113 -284.499359130859 0.890673279762
-157.736480712891 -70.436439514160 -288.760559082031 0.877633392811
-143.581283569336 -72.372718811035 -282.986541748047 2.107992172241
-135.550903320313 -75.673820495605 -285.582183837891 1.819027423859
-8.448774337769 -74.901535034180 -282.829071044922 1.982921600342
-124.240745544434 -77.340141296387 -284.209411621094 2.852157592773
-141.376708984375 -73.784111022949 -286.626892089844 1.418261766434
-114.552879333496 -72.263580322266 -286.533996582031 1.215540885925
-76.779624938965 -72.718452453613 -289.485076904297 2.707403182983
-61.671772003174 -74.309226989746 -285.203887939453 2.447977542877
-4.975086212158 -75.991622924805 -288.415740966797 1.018567800522
-50.500499725342 -75.503723144531 -290.309906005859 2.626654863358
-60.254024505615 -75.411170959473 -288.296264648438 1.562496185303
-68.878173828125 -72.674812316895 -291.558959960938 1.136863470078
-86.439140319824 -75.094375610352 -295.105865478516 4.734611511230
