-148.500579833984 -68.876701354980 -198.432357788086 2.341757535934
-132.132614135742 -71.040405273438 -199.835494995117 2.100525140762
-122.075210571289 -70.823600769043 -196.660995483398 1.275982618332
-121.961357116699 -72.956336975098 -199.420394897461 1.450970649719
-18.703758239746 -72.072166442871 -196.983154296875 2.258371829987
12.514036178589 -75.820075988770 -193.541641235352 2.217651605606
95.649887084961 -72.428779602051 -200.113479614258 1.340123772621
-145.597030639648 -71.446319580078 -198.155273437500 0.901708245277
-144.862823486328 -69.309745788574 -202.890640258789 2.957252264023
-146.160278320313 -67.123954772949 -200.456329345703 1.223696112633
-153.926849365234 -67.993728637695 -202.284561157227 0.956164240837
-26.495662689209 -73.120117187500 -201.220031738281 2.504342794418
-12.696651458740 -78.178710937500 -195.495147705078 3.067748785019
-144.535781860352 -66.926887512207 -199.739593505859 1.892913103104
-16.448705673218 -75.350624084473 -197.866439819336 1.287373781204
-161.581771850586 -71.503173828125 -201.252044677734 2.661404848099
-130.824325561523 -71.737266540527 -201.166641235352 2.051138639450
15.171505928040 -71.723022460938 -209.279327392578 2.298578977585
-161.452819824219 -70.019775390625 -205.196212768555 3.111462593079
-142.999496459961 -72.533004760742 -205.873672485352 1.996538519859
12.241047859192 -75.198211669922 -201.323135375977 2.796399593353
-153.526763916016 -72.852813720703 -207.134429931641 1.410473465919
-21.843179702759 -74.614616394043 -201.803787231445 1.295236468315
104.134918212891 -75.424049377441 -199.640350341797 1.578129053116
-152.950698852539 -71.047767639160 -216.800704956055 1.536584377289
-162.116638183594 -71.595130920410 -214.073287963867 1.868637919426
-77.689994812012 -70.891197204590 -214.079971313477 2.683133363724
92.166542053223 -74.991195678711 -210.011718750000 1.511013507843
-2.302725076675 -73.252395629883 -214.830749511719 1.221203446388
-151.142089843750 -71.066757202148 -213.584854125977 1.357611536980
-87.411933898926 -68.422332763672 -216.905197143555 2.929196357727
-5.448200225830 -73.911308288574 -211.057479858398 0.845259487629
16.714313507080 -72.636085510254 -222.907104492188 1.382698655128
-143.188369750977 -72.504463195801 -220.424194335938 2.159798860550
-1.312523007393 -75.217041015625 -220.832885742188 1.108975529671
-16.570287704468 -69.677764892578 -221.139663696289 1.762111306190
-15.940056800842 -70.334472656250 -219.614974975586 2.217518091202
89.008575439453 -75.951278686523 -215.200958251953 1.442944526672
-20.570579528809 -70.436660766602 -216.949829101563 2.291091442108
-27.176677703857 -73.447875976563 -218.184799194336 1.413780927658
-103.248542785645 -71.725311279297 -223.581298828125 2.208299160004
-13.556524276733 -72.898330688477 -225.022750854492 0.653454065323
91.266372680664 -74.044860839844 -218.843521118164 0.721716701984
82.910873413086 -74.296073913574 -218.490097045898 2.020251512527
7.910531044006 -76.932815551758 -223.590423583984 1.743507623672
-10.224840164185 -73.382850646973 -226.677856445313 1.593289494514
80.076889038086 -80.285652160645 -222.379867553711 4.530444145203
-124.955162048340 -71.437515258789 -225.380950927734 1.299665212631
-22.077762603760 -74.417175292969 -222.795776367188 1.825735092163
-99.716140747070 -70.326675415039 -226.470001220703 2.108156442642
-104.846214294434 -73.535324096680 -229.465545654297 2.889323472977
-132.815368652344 -70.870063781738 -229.641387939453 3.274858474731
81.305931091309 -75.315986633301 -223.967117309570 2.321792125702
-124.076675415039 -72.819015502930 -229.507034301758 1.188509821892
4.622335910797 -73.639083862305 -230.026443481445 0.941761136055
77.904129028320 -74.831985473633 -223.783248901367 1.179444670677
-13.188363075256 -74.465461730957 -229.155715942383 0.816702425480
-8.651496887207 -74.732032775879 -231.224822998047 2.101413011551
-3.649784088135 -73.053665161133 -232.275390625000 2.577278614044
9.372466087341 -74.555969238281 -229.417282104492 2.709990024567
85.665016174316 -75.519882202148 -225.102493286133 1.549770355225
15.290573120117 -74.313499450684 -232.775390625000 1.759176015854
4.477114200592 -75.191398620605 -231.371490478516 1.170043706894
-5.268915176392 -75.199592590332 -228.129821777344 2.479165792465
-4.593423843384 -72.225791931152 -234.525344848633 1.702874779701
17.758310317993 -72.714424133301 -232.607025146484 1.780693054199
-8.860225677490 -71.916381835938 -235.542739868164 1.968036770821
74.567733764648 -74.816123962402 -236.999008178711 1.967782020569
-6.633535861969 -71.596633911133 -236.356658935547 1.758780121803
22.213169097900 -74.815605163574 -232.259078979492 3.490630626678
-161.762680053711 -68.972709655762 -244.711349487305 0.450823247433
-3.351927995682 -73.457283020020 -241.938278198242 0.942071259022
-8.195381164551 -72.689964294434 -242.233291625977 1.411717653275
-165.565475463867 -69.626197814941 -257.712432861328 2.607211828232
-8.234193801880 -74.448822021484 -245.190383911133 2.386683940887
19.796564102173 -75.509552001953 -245.160018920898 1.068194985390
-145.381088256836 -73.851028442383 -253.713134765625 0.903780221939
-66.051254272461 -71.846527099609 -249.529708862305 0.910476207733
-57.240955352783 -71.296676635742 -249.158752441406 1.915517449379
55.960681915283 -73.968475341797 -247.547363281250 2.938778638840
-75.397056579590 -72.758865356445 -248.296920776367 0.623169302940
17.863157272339 -74.595695495605 -247.394287109375 2.062942266464
-73.846549987793 -72.505546569824 -252.793136596680 0.977890253067
-15.282142639160 -74.069007873535 -249.778060913086 2.503421306610
-146.219345092773 -72.388626098633 -256.193511962891 2.538128376007
50.201972961426 -73.224563598633 -248.976501464844 1.319004654884
-79.517814636230 -69.718704223633 -252.265670776367 0.556378424168
-96.535934448242 -72.209175109863 -256.867218017578 1.927287817001
-94.816459655762 -76.519294738770 -255.145858764648 3.041779279709
-119.215019226074 -72.619117736816 -259.541900634766 2.807668447495
-105.533721923828 -70.832054138184 -258.705383300781 2.278034210205
-105.456268310547 -70.901931762695 -261.406433105469 1.902922511101
21.329431533813 -74.617378234863 -259.893737792969 1.512757420540
-126.462898254395 -69.203277587891 -267.654022216797 3.343964576721
-7.703589916229 -75.914123535156 -277.635223388672 1.267573475838
-144.235122680664 -73.357994079590 -284.169860839844 1.101881980896
-166.921218872070 -70.400085449219 -285.158691406250 1.089039444923
-124.648872375488 -72.278945922852 -289.001037597656 2.896361589432
-113.345916748047 -72.567008972168 -284.686279296875 2.685558319092
-75.747032165527 -68.952789306641 -288.998718261719 0.744568586349
-54.384098052979 -69.125015258789 -289.800201416016 0.975687861443
-41.980510711670 -72.279388427734 -287.631805419922 1.176596283913
-11.889572143555 -72.611312866211 -289.693939208984 1.492040514946
-10.097354888916 -72.162559509277 -289.104431152344 2.932175636292
-34.120792388916 -73.284698486328 -290.435150146484 2.345626831055
-32.429759979248 -72.264572143555 -289.078308105469 1.536332845688
-17.463785171509 -71.013427734375 -292.123046875000 1.759950160980
-69.614654541016 -73.672515869141 -293.189178466797 3.006903648376
-52.089706420898 -70.719902038574 -294.242767333984 3.995320320129
-12.071312904358 -70.185279846191 -291.907714843750 2.603533267975
-12.305934906006 -73.446632385254 -291.959014892578 1.312911272049
-2.443706035614 -72.615783691406 -292.107543945313 1.270443201065
5.099140167236 -70.755119323730 -294.442779541016 3.111126899719
-86.389328002930 -71.617553710938 -289.450683593750 2.019459486008
-142.912231445313 -69.490150451660 -291.952209472656 0.990303277969
-115.594032287598 -72.540412902832 -296.337707519531 3.953191757202
-151.727188110352 -74.167106628418 -302.243316650391 3.020537376404
-152.901428222656 -71.724830627441 -301.284576416016 2.268902540207
-142.408798217773 -71.692733764648 -303.859008789063 1.528257966042
45.868419647217 -75.034461975098 -22.890630722046 3.932937145233
18.413915634155 -72.949722290039 -24.499696731567 2.913268804550
49.394348144531 -74.818077087402 -26.442714691162 3.406816959381
48.027420043945 -75.940040588379 -33.623256683350 4.750284194946
86.623435974121 -71.453773498535 -67.281021118164 0.570486664772
96.681549072266 -73.326416015625 -74.217399597168 2.316094875336
98.764335632324 -73.062942504883 -80.297882080078 1.714746713638
97.045532226563 -73.952461242676 -85.579910278320 1.238232135773
53.757728576660 -74.077011108398 -87.949180603027 2.483080863953
49.972984313965 -74.512344360352 -92.951255798340 2.458548307419
62.043170928955 -72.039840698242 -91.846145629883 0.895197689533
-64.440498352051 -68.001022338867 -93.487480163574 1.866093993187
71.236701965332 -75.257621765137 -89.695938110352 2.900567770004
102.945884704590 -73.294860839844 -94.215438842773 3.459057569504
74.468681335449 -76.914627075195 -99.653785705566 3.752130746841
95.108795166016 -72.113006591797 -98.086914062500 2.410155534744
-80.662658691406 -72.760795593262 -102.533584594727 1.899222612381
45.543617248535 -74.005661010742 -103.452476501465 1.599939107895
-85.961471557617 -73.685714721680 -109.334274291992 2.255775451660
50.801246643066 -75.262649536133 -112.423675537109 1.683597564697
41.679817199707 -71.060661315918 -105.858154296875 0.958499550819
104.511344909668 -76.006881713867 -104.541183471680 2.903179168701
39.933761596680 -71.284523010254 -108.824783325195 1.698670983315
40.836189270020 -74.729499816895 -115.209907531738 3.435793399811
42.553405761719 -71.077873229980 -115.283050537109 0.470404356718
105.882011413574 -71.193733215332 -115.836357116699 1.407994031906
-81.112770080566 -70.705192565918 -121.530158996582 1.271461009979
113.078300476074 -75.781646728516 -123.252853393555 0.820966184139
38.994548797607 -69.895538330078 -120.541389465332 0.924984395504
43.434307098389 -73.512237548828 -118.616455078125 2.687186479568
34.765857696533 -73.848197937012 -121.511734008789 0.879402041435
-55.265850067139 -71.697311401367 -131.960357666016 1.032407045364
30.700813293457 -72.386611938477 -123.250610351563 1.659833192825
-76.668807983398 -73.287910461426 -138.053924560547 1.579843282700
-57.794216156006 -71.429168701172 -134.923980712891 1.686357736588
-76.910644531250 -70.021293640137 -134.023223876953 1.751157760620
34.494544982910 -72.714263916016 -127.903915405273 2.851743936539
-56.604396820068 -70.350326538086 -134.093368530273 2.017682552338
38.099269866943 -73.168594360352 -133.386978149414 2.300810575485
-74.380729675293 -71.554290771484 -140.367248535156 1.009428977966
-57.404300689697 -74.192405700684 -140.780593872070 0.816028296947
29.669887542725 -72.482673645020 -139.366867065430 1.568661212921
111.385070800781 -77.548126220703 -144.723388671875 2.351156234741
118.399108886719 -74.512687683105 -136.938812255859 3.299476146698
33.376750946045 -72.440147399902 -140.349121093750 1.565278053284
-46.033130645752 -70.072807312012 -144.063751220703 1.884481668472
110.249153137207 -74.157897949219 -155.108062744141 2.440445661545
-72.814979553223 -71.241325378418 -148.185943603516 1.353953361511
-52.823249816895 -73.082382202148 -141.407867431641 2.638444423676
34.136791229248 -76.144058227539 -151.369277954102 1.289983510971
-71.679916381836 -72.478515625000 -146.045944213867 1.225827574730
-69.763862609863 -73.235626220703 -149.246994018555 1.915311455727
117.688545227051 -72.298988342285 -148.030700683594 1.731039047241
-63.152515411377 -71.186996459961 -152.024246215820 3.913450479507
-39.117538452148 -71.177879333496 -152.695159912109 1.806912541389
30.592906951904 -69.730239868164 -151.397537231445 2.290229320526
-74.594444274902 -71.012756347656 -150.226989746094 0.731963336468
10.773145675659 -74.688392639160 -156.778579711914 0.969064414501
34.023460388184 -70.895164489746 -155.865432739258 1.659539461136
28.470142364502 -73.489234924316 -150.008071899414 3.402354955673
9.398674011230 -76.275482177734 -155.713760375977 2.766732215881
-47.254611968994 -70.179252624512 -154.667755126953 1.341138958931
26.762105941772 -72.400794982910 -152.688858032227 2.874962568283
-45.651851654053 -72.989051818848 -150.267303466797 3.191698789597
7.384585857391 -74.239799499512 -152.227691650391 2.751473188400
22.169097900391 -73.648002624512 -149.365173339844 2.310050725937
-71.429557800293 -74.114883422852 -155.414352416992 1.024154663086
-44.300407409668 -71.569549560547 -155.728515625000 2.471875190735
-68.659309387207 -69.293823242188 -160.927276611328 2.214291572571
13.439912796021 -68.589576721191 -162.699066162109 3.772057533264
22.388504028320 -73.335212707520 -147.989974975586 1.843513369560
2.716804027557 -71.349975585938 -162.761398315430 0.985056459904
22.224458694458 -71.355392456055 -155.848770141602 1.908672213554
30.469631195068 -73.991004943848 -163.425247192383 1.322992563248
-45.939796447754 -74.065246582031 -163.285354614258 1.807066679001
-32.277828216553 -72.140121459961 -161.655853271484 1.633416295052
-37.064807891846 -70.984268188477 -161.722015380859 2.496828556061
30.369939804077 -73.807624816895 -162.677963256836 1.330761313438
-44.113327026367 -72.200035095215 -167.472015380859 1.246814370155
-41.301410675049 -72.105880737305 -163.411956787109 2.472590923309
21.382295608521 -74.651313781738 -164.489471435547 1.757638454437
-40.521923065186 -71.848060607910 -173.824996948242 0.811841666698
32.122539520264 -71.372932434082 -172.546875000000 3.588296175003
116.927589416504 -72.841865539551 -164.595703125000 3.305346012115
-31.299692153931 -71.450103759766 -173.602035522461 2.077959060669
107.152122497559 -72.231063842773 -170.770416259766 2.415510177612
-32.852794647217 -69.742790222168 -178.189971923828 2.477081060410
-36.769870758057 -72.884719848633 -180.734771728516 0.755265235901
18.893123626709 -74.746841430664 -175.222808837891 1.436692237854
104.549995422363 -72.191696166992 -179.573196411133 1.491848468781
-27.788240432739 -71.573844909668 -184.359207153320 1.225105524063
-30.988273620605 -67.915382385254 -174.872802734375 2.582710742950
-21.892824172974 -73.722175598145 -187.004150390625 1.549829959869
-146.082580566406 -73.751777648926 -189.585861206055 1.952808618546
15.140791893005 -74.690330505371 -183.107925415039 1.852760910988
107.712417602539 -73.080627441406 -191.518371582031 1.251780152321
-156.446166992188 -69.846878051758 -196.154022216797 1.590342760086
-24.953372955322 -72.543952941895 -191.736862182617 1.833620548248
-114.089431762695 -69.275184631348 -196.901947021484 0.827413201332
-130.875106811523 -70.959457397461 -199.107757568359 2.986983537674
-107.221313476563 -69.178039550781 -202.506362915039 3.732884407043
-109.546943664551 -68.258613586426 -201.378799438477 1.050080895424
-14.188329696655 -70.079498291016 -198.955642700195 2.207312345505
20.675859451294 -74.612350463867 -197.652755737305 1.597121119499
-18.065641403198 -66.883430480957 -201.717041015625 1.776588559151
-123.728523254395 -69.128570556641 -205.000152587891 1.369087576866
-23.193229675293 -70.637397766113 -207.576187133789 2.732175588608
-129.188827514648 -73.474822998047 -204.729675292969 2.821415662766
-10.826067924500 -70.221725463867 -202.470199584961 1.516642808914
-143.033447265625 -70.097862243652 -205.833129882813 1.269981741905
92.256240844727 -73.456291198730 -208.466979980469 1.079470992088
-163.900665283203 -69.987792968750 -205.147644042969 2.489625930786
-0.441433995962 -74.609603881836 -214.080612182617 3.192637920380
13.506547927856 -68.651031494141 -211.414093017578 1.552189469337
10.882221221924 -69.571464538574 -216.908828735352 2.430364131927
84.575859069824 -73.474044799805 -218.031829833984 1.589327335358
6.081792831421 -70.153038024902 -215.519485473633 2.787195682526
16.459440231323 -73.014968872070 -214.206832885742 2.464064598083
-13.658441543579 -76.557106018066 -214.490493774414 1.205449819565
-88.030471801758 -70.909835815430 -216.816757202148 0.535899579525
-98.577033996582 -72.211410522461 -218.590255737305 1.844156861305
-1.985072016716 -71.499244689941 -221.543731689453 1.333702206612
-166.526397705078 -70.224861145020 -230.103591918945 0.447264522314
13.731264114380 -71.088912963867 -220.808044433594 0.544193863869
-141.955642700195 -71.118110656738 -224.886215209961 0.996403515339
13.449062347412 -70.732284545898 -225.995300292969 1.384351968765
-132.663909912109 -70.973052978516 -224.360153198242 1.374433517456
-114.644401550293 -70.448898315430 -228.818618774414 1.832024812698
19.748382568359 -68.900436401367 -224.163803100586 4.478215694427
76.576751708984 -73.154457092285 -227.591308593750 1.847423195839
6.562307834625 -70.405838012695 -225.234802246094 2.353655099869
-112.503822326660 -72.369049072266 -225.882308959961 1.758450984955
76.502433776855 -73.073905944824 -227.229110717773 1.744811415672
81.335815429688 -74.977287292480 -230.565002441406 2.632792472839
-121.120315551758 -71.118118286133 -232.618743896484 2.164557218552
-116.324523925781 -72.473007202148 -233.625244140625 2.391886711121
-9.735900878906 -71.929107666016 -231.824035644531 1.134388685226
71.704376220703 -75.752853393555 -228.330718994141 2.268274307251
67.815322875977 -72.603179931641 -235.474609375000 2.964828014374
74.964996337891 -72.795661926270 -232.640487670898 2.077919721603
-131.986740112305 -71.869514465332 -238.500167846680 4.343543529510
71.468841552734 -77.061408996582 -234.356582641602 2.213126420975
66.937133789063 -75.715942382813 -235.526687622070 2.442595958710
-165.761093139648 -71.995223999023 -229.927581787109 0.460993379354
1.145380020142 -74.981269836426 -241.240310668945 0.910129368305
17.464023590088 -72.318405151367 -243.819229125977 1.550980091095
-2.772521018982 -73.851364135742 -242.034591674805 1.468616724014
15.713681221008 -74.787986755371 -242.534164428711 2.557685375214
68.874641418457 -74.966812133789 -239.841857910156 1.695921897888
12.065054893494 -75.512489318848 -240.755676269531 1.795643925667
-6.758821964264 -69.264022827148 -244.067214965820 3.163288116455
-0.711215019226 -73.006393432617 -244.777648925781 1.082973718643
67.415008544922 -73.593612670898 -244.466720581055 3.358126640320
7.603332042694 -75.179725646973 -245.398941040039 1.897302985191
-8.021756172180 -72.778739929199 -241.707214355469 1.506264805794
15.993680000305 -74.483673095703 -246.531311035156 1.324473261833
-164.576339721680 -66.546112060547 -243.126953125000 2.357868194580
62.009166717529 -71.904411315918 -249.057128906250 3.722834587097
54.037124633789 -72.612808227539 -250.255813598633 2.543225049973
57.817256927490 -76.286781311035 -241.907440185547 3.347458124161
-11.861938476563 -72.066375732422 -251.585830688477 0.957806885242
56.797664642334 -76.157424926758 -246.093338012695 3.421361207962
-71.981010437012 -72.734283447266 -249.717025756836 2.553412437439
53.250900268555 -74.799598693848 -250.851379394531 3.689365386963
-87.957397460938 -73.287475585938 -255.236358642578 0.908515572548
-125.619316101074 -72.975227355957 -255.628448486328 1.345240712166
-132.668579101563 -67.215728759766 -254.513549804688 1.869731068611
50.275508880615 -72.612632751465 -255.720993041992 3.894320011139
-135.485641479492 -69.109115600586 -258.285675048828 2.574011325836
-106.083366394043 -76.051231384277 -255.514495849609 3.134273290634
-110.715538024902 -69.848976135254 -259.101715087891 2.944889783859
-82.318130493164 -72.221443176270 -253.893722534180 1.258842945099
-110.641395568848 -72.765892028809 -263.988159179688 3.164307594299
-122.850273132324 -69.279380798340 -266.188995361328 3.410582780838
-143.004760742188 -69.790245056152 -267.716033935547 2.766315460205
-11.828792572021 -73.716476440430 -261.656524658203 3.047859191895
-169.146179199219 -69.205535888672 -268.035247802734 3.161835432053
-9.347034454346 -75.251846313477 -272.134368896484 1.898542523384
-156.939529418945 -66.293090820313 -268.211975097656 4.783443927765
-152.123245239258 -67.447425842285 -275.201171875000 0.839323163033
-166.996719360352 -66.214775085449 -276.975524902344 3.597995519638
-10.692687988281 -70.388969421387 -276.568634033203 1.448386192322
-131.782821655273 -71.175575256348 -285.193115234375 2.148997068405
-156.272781372070 -67.839859008789 -289.442016601563 2.439046382904
-142.128784179688 -69.881004333496 -283.676727294922 2.363799810410
-134.090637207031 -73.125259399414 -286.319641113281 1.577626824379
-6.995275020599 -72.328933715820 -283.276702880859 1.336145877838
-122.782371520996 -74.811363220215 -284.955566406250 2.684683084488
-139.915435791016 -71.218894958496 -287.339447021484 2.798220396042
-113.092880249023 -69.683914184570 -287.158477783203 1.455251216888
-75.313072204590 -70.057090759277 -290.036193847656 1.300842165947
-60.213417053223 -71.722747802734 -285.754547119141 0.967743217945
-3.508852005005 -73.306365966797 -288.876251220703 2.117191314697
-49.030395507813 -72.809295654297 -290.858947753906 2.548619985580
-58.788291931152 -72.762542724609 -288.864990234375 2.421842098236
-67.407203674316 -69.967628479004 -292.091705322266 2.527710199356
-84.958892822266 -72.327545166016 -295.723693847656 4.646524429321
-100.518104553223 -66.459243774414 -290.852508544922 2.004278182983
-158.539398193359 -69.313034057617 -292.785644531250 2.230138540268
-156.370330810547 -69.710304260254 -291.830780029297 0.515344977379
-124.488311767578 -72.644958496094 -297.828186035156 3.694745779037
-143.223312377930 -70.661033630371 -295.992675781250 2.379921436310
-154.879623413086 -69.513420104980 -301.568908691406 0.924050033092
-145.096755981445 -70.657752990723 -317.537536621094 5.211211204529
46.365467071533 -71.586097717285 -19.671257019043 1.641893267632
19.371160507202 -77.851089477539 -26.550531387329 5.900326251984
43.706310272217 -73.556053161621 -36.247219085693 2.951725721359
-18.335504531860 -73.929367065430 -66.921150207520 2.066862583160
81.273109436035 -72.564041137695 -66.055076599121 2.852701902390
85.709678649902 -69.037879943848 -69.510368347168 3.334583520889
76.489242553711 -72.078086853027 -70.485282897949 1.195596933365
76.351089477539 -72.988426208496 -68.006774902344 2.523894071579
95.091354370117 -75.547523498535 -73.453369140625 3.233154296875
-95.200592041016 -71.688156127930 -73.626464843750 4.007831096649
69.692649841309 -75.153114318848 -77.483024597168 3.485056161880
-35.807849884033 -69.001777648926 -77.614967346191 1.235597968102
99.658454895020 -74.627227783203 -86.724891662598 2.099916458130
63.237186431885 -77.062248229980 -89.507728576660 5.823019504547
109.102027893066 -73.993530273438 -92.499595642090 5.021376609802
106.036460876465 -75.908973693848 -97.734794616699 2.545702695847
71.634109497070 -74.548171997070 -97.803482055664 2.456886291504
-77.680694580078 -72.573699951172 -100.389411926270 1.355705976486
55.729537963867 -74.743530273438 -106.317245483398 3.422536849976
107.411773681641 -74.733039855957 -105.179595947266 0.528959870338
49.385517120361 -77.538780212402 -112.892860412598 1.402056574821
83.880889892578 -73.849395751953 -102.590187072754 2.513162374496
43.419643402100 -76.186996459961 -109.253105163574 2.042925119400
107.022544860840 -72.179565429688 -100.942024230957 1.308399677277
48.749588012695 -71.790672302246 -107.830299377441 1.313782572746
111.458419799805 -76.086349487305 -111.873992919922 2.431673049927
108.771514892578 -73.535285949707 -114.944992065430 2.331638097763
-77.947013854980 -65.688148498535 -115.115783691406 1.086232900620
-77.994468688965 -70.449844360352 -117.018943786621 2.061079263687
43.868499755859 -73.509025573730 -119.356323242188 2.559695243835
116.103454589844 -71.428962707520 -117.504989624023 2.455547571182
116.085937500000 -71.692947387695 -122.285041809082 2.245495796204
-81.215583801270 -70.528472900391 -127.866134643555 1.583155393600
108.778999328613 -73.131027221680 -122.152099609375 2.041814327240
-62.427097320557 -71.761123657227 -134.900497436523 3.478356599808
-87.000289916992 -68.675430297852 -128.086898803711 1.643674254417
-74.084510803223 -69.279266357422 -129.724090576172 1.414603948593
-56.603157043457 -66.317970275879 -126.498703002930 1.445554256439
34.782711029053 -71.675895690918 -130.153854370117 1.844861984253
42.301143646240 -72.652122497559 -133.940032958984 3.013900995255
-74.476272583008 -71.372657775879 -137.012969970703 2.359925270081
29.291866302490 -70.929611206055 -131.454437255859 0.344510227442
107.792785644531 -75.196281433105 -136.756393432617 3.107249021530
-39.574165344238 -71.458282470703 -148.777648925781 1.298296213150
26.476249694824 -70.981346130371 -146.768371582031 0.997204065323
113.292953491211 -69.454704284668 -145.788879394531 1.838446259499
36.034114837646 -73.716804504395 -144.168395996094 0.999068081379
112.101066589355 -74.371971130371 -143.092575073242 1.715049982071
-53.636562347412 -71.846382141113 -149.009811401367 1.377185344696
-66.250511169434 -72.431358337402 -150.874084472656 1.057420492172
-51.732696533203 -73.164306640625 -155.726272583008 1.242028117180
-42.630847930908 -70.616241455078 -168.221984863281 1.063988804817
4.390223979950 -70.157966613770 -154.999938964844 2.303978443146
111.619308471680 -70.083969116211 -154.175674438477 0.795853912830
109.599693298340 -72.423507690430 -159.646530151367 1.356770038605
10.087133407593 -68.015464782715 -159.980468750000 2.328813791275
3.674479007721 -71.810791015625 -161.645080566406 1.151708483696
16.366294860840 -70.570129394531 -159.129379272461 1.671581387520
23.214805603027 -71.131469726563 -151.887802124023 1.213454127312
114.837272644043 -75.837707519531 -165.400939941406 1.947411179543
107.990776062012 -75.264633178711 -170.830596923828 1.931585669518
26.659132003784 -70.975997924805 -173.121902465820 0.917224526405
27.865882873535 -71.217994689941 -163.738128662109 2.473507165909
115.653411865234 -73.301017761230 -161.745864868164 0.484071016312
-28.892517089844 -70.002532958984 -174.754684448242 1.187472939491
112.537246704102 -72.198501586914 -169.700317382813 1.948488831520
20.340042114258 -69.302207946777 -176.419647216797 0.941762804985
19.350690841675 -73.572364807129 -165.690826416016 1.419114708900
110.024566650391 -72.450981140137 -175.999572753906 1.696607470512
25.310943603516 -72.111602783203 -170.809066772461 2.246383666992
111.184280395508 -71.719062805176 -181.003555297852 1.192876815796
-38.237670898438 -69.323776245117 -176.969268798828 2.078434467316
28.257663726807 -69.617218017578 -173.012664794922 1.083136200905
108.854064941406 -72.802314758301 -184.247390747070 1.868108153343
25.259586334229 -70.760986328125 -178.900207519531 1.985330343246
-151.943969726563 -66.556022644043 -184.930099487305 2.402561426163
-29.849060058594 -70.762138366699 -189.022430419922 1.407178878784
26.320844650269 -73.144477844238 -185.617828369141 1.337161183357
-110.862045288086 -69.648155212402 -194.858947753906 1.939917802811
-110.371536254883 -70.589889526367 -190.815948486328 2.443301916122
22.841753005981 -69.713157653809 -192.022888183594 2.143875598907
13.710992813110 -72.782920837402 -186.769592285156 0.980818748474
-25.339347839355 -73.014816284180 -191.877319335938 1.924423217773
-28.094776153564 -71.846672058105 -188.427749633789 1.658097624779
-24.610399246216 -72.326866149902 -186.337509155273 1.969956040382
20.895767211914 -73.888565063477 -179.481826782227 3.793229341507
-151.153533935547 -68.775787353516 -195.070846557617 2.127390623093
-144.168624877930 -70.745613098145 -199.432830810547 1.841974020004
-140.123458862305 -69.188140869141 -195.962158203125 0.319305598736
-18.386240005493 -68.735908508301 -192.271453857422 1.896370172501
15.648764610291 -71.578582763672 -199.501861572266 3.004660844803
100.330314636230 -74.267189025879 -195.495880126953 1.375757813454
-113.910118103027 -69.433135986328 -202.803222656250 0.592921316624
19.914545059204 -70.616615295410 -201.524978637695 1.565082311630
-15.699050903320 -70.307899475098 -196.574234008789 1.296914100647
-17.389991760254 -69.955131530762 -197.627563476563 1.029428839684
99.109420776367 -72.780319213867 -200.190948486328 0.602215707302
9.742383956909 -73.126686096191 -200.141708374023 1.057575464249
-23.635910034180 -70.189735412598 -195.882354736328 1.777224302292
-120.767242431641 -71.179191589355 -203.526641845703 1.940034747124
-132.904953002930 -68.070045471191 -202.627365112305 1.359275937080
-109.859992980957 -67.838745117188 -207.349868774414 5.254359245300
-143.275817871094 -69.546607971191 -205.694641113281 1.108164429665
21.331800460815 -72.702995300293 -197.863616943359 1.151408910751
96.969009399414 -74.685791015625 -206.622970581055 2.738157033920
-165.451309204102 -67.533638000488 -206.969299316406 1.097576260567
101.991020202637 -73.710578918457 -203.167648315430 1.627024888992
-15.809239387512 -71.210868835449 -210.105758666992 1.582946538925
93.690322875977 -77.466094970703 -213.593948364258 1.870085835457
91.141265869141 -71.150276184082 -216.951766967773 2.028260469437
13.668266296387 -70.749931335449 -211.600601196289 0.998768627644
17.474720001221 -72.401611328125 -210.985656738281 1.737650275230
11.933303833008 -71.718849182129 -210.908325195313 1.983059883118
-8.477244377136 -70.875511169434 -220.066055297852 2.079112052917
-96.075996398926 -69.184265136719 -219.377471923828 1.197415351868
-5.960892200470 -72.924087524414 -218.359008789063 2.788082122803
92.664772033691 -72.032882690430 -214.182266235352 2.683084249496
-90.825637817383 -71.766166687012 -222.124191284180 2.971624612808
-101.122657775879 -71.731712341309 -222.008834838867 2.264579296112
-92.495002746582 -70.018638610840 -221.197906494141 2.217375993729
89.469444274902 -75.227111816406 -221.572265625000 1.513335227966
-133.123062133789 -71.092628479004 -227.914901733398 2.286340236664
-131.987838745117 -64.081748962402 -230.765762329102 1.351303339005
-117.407836914063 -68.860900878906 -228.186981201172 2.387469053268
-111.417617797852 -67.605964660645 -227.181533813477 2.022758960724
-131.713134765625 -67.817733764648 -224.541488647461 1.428433299065
-106.438896179199 -75.131462097168 -228.369201660156 3.497052907944
-112.654014587402 -67.878707885742 -229.607635498047 2.193988561630
-8.504674911499 -69.850723266602 -225.553543090820 0.399847060442
-17.904605865479 -72.907203674316 -225.985885620117 2.090348482132
0.292820006609 -71.903984069824 -233.121887207031 1.078672766685
-7.980010986328 -69.906959533691 -229.298934936523 1.821309328079
16.766073226929 -73.130088806152 -232.746109008789 1.673413753510
-16.421648025513 -72.036247253418 -228.584793090820 1.795020222664
-161.958480834961 -68.886276245117 -226.020309448242 2.228648424149
-0.790618002415 -70.297325134277 -232.060821533203 1.235587835312
82.959228515625 -73.400810241699 -229.206939697266 0.999064683914
9.794955253601 -70.996559143066 -236.497253417969 0.520859360695
-7.460179805756 -70.589233398438 -231.106872558594 1.718415498734
-154.097091674805 -65.629714965820 -236.490844726563 2.875232696533
-137.790481567383 -70.349060058594 -235.320053100586 3.809721231461
69.375984191895 -69.601036071777 -235.973037719727 0.888301193714
-5.510878086090 -71.287124633789 -235.111694335938 1.603373289108
4.932649135590 -71.163116455078 -235.133041381836 2.017641067505
73.126632690430 -72.534278869629 -237.660629272461 1.416249275208
78.679061889648 -74.168746948242 -235.542434692383 2.981333732605
69.268943786621 -75.157562255859 -237.720306396484 1.042906880379
-0.758023977280 -69.882026672363 -237.061309814453 1.450663089752
57.001575469971 -72.631866455078 -239.291275024414 3.107735633850
-15.391135215759 -71.091339111328 -239.549087524414 2.027050733566
-14.559879302979 -70.159103393555 -241.378311157227 1.091004014015
10.484848976135 -72.074104309082 -240.348571777344 1.268812417984
67.661163330078 -72.782211303711 -243.746566772461 2.817708730698
61.971542358398 -72.850502014160 -239.547576904297 2.342232465744
54.034309387207 -69.882942199707 -247.302398681641 1.003082275391
63.162998199463 -74.839569091797 -244.157211303711 1.830344438553
-15.092649459839 -69.503486633301 -248.995315551758 0.867980659008
-82.176658630371 -68.316154479980 -249.839111328125 2.172456502914
-75.600509643555 -67.128135681152 -254.037948608398 4.046248912811
44.377853393555 -72.355590820313 -250.505630493164 1.238633275032
-142.210464477539 -66.539344787598 -251.902114868164 3.581944465637
40.742935180664 -72.867851257324 -257.652252197266 2.630545854568
-86.151100158691 -70.356750488281 -253.331420898438 2.379401683807
-152.588119506836 -69.074798583984 -257.937072753906 2.946141004562
-141.202713012695 -68.240440368652 -257.384918212891 1.665048718452
49.724086761475 -73.652923583984 -252.489639282227 3.111639022827
-124.477310180664 -67.297866821289 -255.543472290039 1.614850759506
-115.298812866211 -68.754043579102 -258.019897460938 1.661281228065
-93.370964050293 -68.877960205078 -256.784942626953 0.662327289581
-14.899003028870 -74.860870361328 -255.253112792969 1.304323554039
33.415760040283 -72.507202148438 -259.916625976563 3.020580530167
24.256910324097 -73.926856994629 -261.619628906250 1.950433611870
-154.683624267578 -68.234237670898 -258.882812500000 2.137503147125
-112.399032592773 -70.244567871094 -264.966949462891 3.041982650757
-11.649698257446 -71.842971801758 -260.750244140625 3.842540502548
-132.872100830078 -68.639114379883 -266.996337890625 3.254836082458
-11.069348335266 -69.832939147949 -272.576599121094 2.103035211563
-162.509399414063 -68.162925720215 -279.277893066406 2.048401832581
-7.873246192932 -69.115867614746 -278.949462890625 1.788304567337
-161.144927978516 -66.981689453125 -291.551116943359 2.913949728012
-157.910278320313 -67.990463256836 -279.226409912109 3.786777257919
-145.902114868164 -67.619201660156 -287.287414550781 3.213717222214
-167.087295532227 -68.186088562012 -286.045227050781 2.524057149887
18.824071884155 -68.834075927734 -288.120758056641 4.239322662354
-102.676681518555 -72.423049926758 -288.099792480469 1.477472543716
-85.972579956055 -68.770927429199 -287.506530761719 1.395345807076
-167.020889282227 -67.671752929688 -286.646942138672 2.684994220734
-88.152359008789 -70.447517395020 -290.336669921875 1.395079493523
-152.540573120117 -71.501777648926 -290.407653808594 2.627777099609
-72.823989868164 -70.990264892578 -291.965698242188 2.173733711243
-65.899353027344 -70.292373657227 -290.798858642578 2.990792036057
-79.837089538574 -68.759353637695 -291.767089843750 2.078057765961
-1.621865034103 -67.087623596191 -289.693328857422 2.231787919998
-82.853157043457 -70.720214843750 -293.108428955078 3.062541961670
-96.131965637207 -69.938041687012 -292.995574951172 2.594763994217
-114.457496643066 -69.047142028809 -294.511993408203 2.786047935486
-114.617851257324 -68.158477783203 -295.830047607422 3.944138050079
-135.376434326172 -65.119972229004 -294.905120849609 3.416790485382
-140.938323974609 -73.763656616211 -302.193969726563 3.756867408752
-142.863555908203 -72.721977233887 -312.837677001953 2.127359390259
24.570056915283 -72.061553955078 -17.734451293945 1.590678811073
30.020784378052 -69.525390625000 -21.757991790771 2.757817745209
29.226469039917 -74.005798339844 -18.390830993652 1.680083394051
45.004741668701 -73.258323669434 -25.357837677002 1.793295979500
23.382116317749 -73.271018981934 -32.266212463379 1.310637712479
-78.044769287109 -67.898605346680 -50.977977752686 2.276464223862
87.096992492676 -71.399116516113 -64.659683227539 2.775132894516
-13.497429847717 -70.821166992188 -68.843582153320 1.315802574158
101.080535888672 -73.069305419922 -71.824821472168 4.637002468109
96.290298461914 -71.315299987793 -77.673194885254 2.129065752029
71.687393188477 -76.377784729004 -80.650497436523 2.804108381271
68.088005065918 -71.384483337402 -85.762779235840 1.823196768761
-47.494659423828 -70.460807800293 -83.771896362305 1.373344540596
60.521125793457 -71.874794006348 -82.867073059082 3.283674240112
-97.869102478027 -69.639678955078 -89.714691162109 2.469077110291
-49.740749359131 -69.835441589355 -88.956909179688 3.045635938644
-55.895236968994 -74.861801147461 -88.695655822754 3.220860481262
97.045158386230 -73.900161743164 -96.556121826172 1.820557713509
57.256629943848 -73.299041748047 -99.248504638672 2.228317975998
62.603347778320 -69.910118103027 -91.722679138184 2.162091970444
-95.685142517090 -67.674682617188 -97.101760864258 1.747096061707
108.708572387695 -70.764610290527 -94.839164733887 2.055024623871
47.410758972168 -71.284797668457 -96.293960571289 0.716249227524
101.153686523438 -71.301811218262 -97.458618164063 0.733823299408
106.446083068848 -72.250061035156 -106.255401611328 0.632519900799
101.781272888184 -71.813446044922 -104.755088806152 2.880732297897
74.590591430664 -71.359748840332 -104.287467956543 2.388914823532
86.842994689941 -72.405326843262 -106.360038757324 2.611941337585
47.971229553223 -74.119087219238 -111.126136779785 1.510994434357
109.293281555176 -71.843322753906 -106.864227294922 1.871154665947
45.929908752441 -71.757873535156 -108.949317932129 2.808184623718
45.648456573486 -69.205299377441 -101.655578613281 2.304281473160
109.121315002441 -73.989372253418 -113.826942443848 1.346124053001
-78.873977661133 -67.408302307129 -110.426475524902 1.401731371880
47.694869995117 -70.403167724609 -114.363319396973 1.300558090210
36.452896118164 -71.759552001953 -112.933204650879 2.032798528671
106.251930236816 -72.730049133301 -108.528976440430 1.587531685829
43.180248260498 -70.042373657227 -113.020614624023 1.813885569572
-89.197006225586 -68.162330627441 -119.075782775879 2.613772630692
-96.720497131348 -68.258682250977 -117.640701293945 1.999517560005
108.590507507324 -70.640342712402 -120.541076660156 1.845516920090
-92.822631835938 -72.454307556152 -118.555175781250 1.878692865372
39.427288055420 -70.426910400391 -123.298370361328 1.630512714386
37.563674926758 -70.629684448242 -118.025627136230 0.348396867514
-79.084358215332 -69.802482604980 -125.192794799805 0.983097732067
30.044700622559 -68.781730651855 -132.289184570313 0.972251772881
109.576705932617 -72.945800781250 -132.715774536133 2.026350498199
-48.868785858154 -69.950813293457 -137.080245971680 1.105020642281
-88.565849304199 -69.915611267090 -132.002471923828 0.858899950981
36.504154205322 -71.846641540527 -136.761352539063 1.286994934082
-88.677322387695 -68.372611999512 -136.710342407227 1.726959228516
-89.980255126953 -70.649612426758 -137.492172241211 2.082738637924
-47.643730163574 -72.486495971680 -137.621917724609 1.133366107941
-71.291717529297 -70.019134521484 -140.763336181641 1.829033374786
-49.655982971191 -69.185340881348 -138.294677734375 1.952798724174
114.122070312500 -70.734100341797 -138.466430664063 2.266374588013
-74.567070007324 -66.512313842773 -141.935089111328 1.591836452484
36.022125244141 -71.645843505859 -131.080612182617 1.757407546043
-76.295822143555 -67.062728881836 -140.069122314453 1.229111909866
-76.633239746094 -68.103897094727 -135.399002075195 0.836819291115
-86.685935974121 -69.249938964844 -137.815261840820 1.509501576424
-54.548099517822 -69.494239807129 -151.981628417969 2.486963748932
32.010585784912 -69.472457885742 -149.289810180664 1.742219567299
31.730623245239 -70.373977661133 -152.100769042969 1.812074780464
19.684192657471 -69.428565979004 -145.330673217773 1.330518484116
113.926727294922 -74.450103759766 -148.683502197266 1.095613956451
-96.884132385254 -72.593811035156 -156.806869506836 4.019708633423
17.457000732422 -71.690841674805 -149.377761840820 1.752552390099
-69.935798645020 -70.984413146973 -149.538208007813 1.535585522652
23.738687515259 -70.289199829102 -150.318420410156 0.977080702782
-45.429431915283 -68.507926940918 -155.425964355469 0.709639251232
8.489103317261 -68.229217529297 -150.706619262695 2.059357881546
9.972644805908 -70.311859130859 -157.272293090820 1.655019283295
18.406206130981 -70.833457946777 -163.419906616211 1.670486688614
-45.599666595459 -70.761817932129 -164.428222656250 1.895741224289
-39.986564636230 -66.416603088379 -154.340591430664 2.639864683151
-45.483352661133 -68.449760437012 -158.551376342773 1.871316432953
-101.263587951660 -67.910270690918 -171.409194946289 1.274587035179
19.717262268066 -68.212722778320 -172.628143310547 0.933869719505
-36.320156097412 -70.781639099121 -174.611938476563 2.254759788513
14.654863357544 -66.288085937500 -178.900131225586 3.415728569031
-145.420089721680 -71.342094421387 -174.594970703125 0.974082231522
-33.494419097900 -66.576728820801 -175.604766845703 2.798695802689
-151.333358764648 -65.718055725098 -178.452484130859 2.177041292191
20.591835021973 -71.469566345215 -182.054382324219 3.364200353622
-31.794977188110 -72.612930297852 -172.981750488281 2.189453363419
-107.877098083496 -70.641853332520 -183.374877929688 1.553814291954
-104.690750122070 -68.842163085938 -183.884918212891 2.414918422699
-31.306612014771 -68.193840026855 -183.040985107422 1.375964641571
-18.774904251099 -70.547386169434 -186.846328735352 1.342471003532
15.630689620972 -71.042175292969 -190.074127197266 2.324123620987
20.419452667236 -70.504241943359 -196.205993652344 0.721169471741
17.495281219482 -66.520942687988 -187.812667846680 1.364212512970
-140.200515747070 -68.535491943359 -188.052673339844 1.330324769020
17.968460083008 -70.293838500977 -193.288345336914 2.472061872482
11.185990333557 -71.504394531250 -198.127792358398 0.952508985996
-139.371856689453 -66.252174377441 -198.001037597656 2.061181545258
-116.738166809082 -69.365600585938 -199.536209106445 3.378581047058
16.229362487793 -68.958175659180 -198.662170410156 0.857174336910
-111.575447082520 -70.501625061035 -195.394454956055 2.234851598740
-107.688430786133 -69.844932556152 -193.307373046875 1.381288051605
-162.056228637695 -70.090652465820 -201.613235473633 3.078270435333
-18.771202087402 -73.586372375488 -203.372268676758 2.053392887115
17.003862380981 -68.049789428711 -202.508926391602 0.985752642155
-137.817657470703 -65.768554687500 -202.520294189453 3.275613784790
-132.697204589844 -68.536491394043 -208.593368530273 3.768596172333
-17.526321411133 -68.956535339355 -207.443847656250 0.949311971664
-10.708414077759 -69.204154968262 -204.758193969727 1.209350109100
-14.253303527832 -70.953025817871 -209.358566284180 2.589948892593
-144.228637695313 -69.989463806152 -209.356826782227 2.760193586349
-17.460683822632 -72.112487792969 -207.865264892578 2.107531309128
-11.317742347717 -68.336883544922 -212.176071166992 1.190944552422
17.122322082520 -69.879020690918 -210.241607666016 1.074240684509
-10.131340980530 -70.193115234375 -209.990463256836 2.231695175171
12.026923179626 -67.466011047363 -212.712158203125 1.142137169838
-6.976572990417 -71.818168640137 -217.570770263672 2.947597742081
-14.943818092346 -72.055938720703 -212.504989624023 0.894819319248
13.068984985352 -70.514892578125 -224.388244628906 1.898230075836
-1.679970979691 -71.372680664063 -220.476165771484 1.338299036026
13.324212074280 -69.354187011719 -222.738952636719 0.902508378029
-3.637852907181 -71.691238403320 -224.715194702148 2.802713871002
-156.731979370117 -67.959869384766 -223.580596923828 1.086911559105
84.504425048828 -72.549667358398 -221.619934082031 0.809884905815
-133.262985229492 -67.778076171875 -224.516632080078 0.514146208763
-133.183273315430 -67.840393066406 -226.356628417969 1.255985975266
-7.315714836121 -70.332382202148 -227.950592041016 0.945450305939
13.888819694519 -72.315078735352 -233.963989257813 0.377306342125
-151.060241699219 -66.627342224121 -225.492965698242 2.170809268951
86.643867492676 -69.824127197266 -221.289642333984 0.389764547348
-4.696823120117 -70.426872253418 -225.074798583984 1.713442802429
3.391433954239 -71.813438415527 -227.264419555664 1.330741167068
73.794616699219 -71.385543823242 -228.038726806641 2.059897661209
4.541876792908 -71.673370361328 -233.276321411133 2.471387386322
-15.798189163208 -69.369895935059 -231.595275878906 1.600489258766
-121.173431396484 -71.583267211914 -237.738800048828 4.960378646851
-2.766603946686 -70.418884277344 -237.644073486328 1.395204424858
1.777008056641 -70.885253906250 -234.396850585938 1.496531486511
68.785324096680 -72.752189636230 -237.210342407227 2.077270507813
-159.371185302734 -67.099678039551 -240.804031372070 1.971021056175
-8.703618049622 -70.239418029785 -246.340911865234 2.999236583710
-165.199554443359 -68.799835205078 -240.839828491211 1.416115403175
9.981212615967 -71.975074768066 -244.790328979492 1.674990534782
-165.191223144531 -66.990524291992 -240.388778686523 1.418172478676
-156.877807617188 -65.645599365234 -245.131088256836 3.264067888260
56.279113769531 -73.559097290039 -250.183059692383 3.278604030609
65.230354309082 -69.992561340332 -244.141983032227 2.351249217987
56.927120208740 -70.800659179688 -243.470733642578 1.242743134499
52.285717010498 -73.488670349121 -248.791595458984 1.337866544724
-158.362182617188 -66.920867919922 -247.583999633789 2.008172273636
-152.527145385742 -68.557716369629 -252.283828735352 1.740472197533
-13.676177024841 -69.562477111816 -248.865020751953 1.391805410385
-151.982955932617 -67.024711608887 -248.372802734375 1.951125264168
22.630012512207 -73.526840209961 -254.926330566406 1.896324515343
-164.833419799805 -67.311599731445 -252.705459594727 1.804548382759
-166.360839843750 -63.808666229248 -246.061401367188 4.860042572021
-79.484069824219 -67.719909667969 -252.966079711914 1.685742020607
-168.271713256836 -68.476547241211 -266.038146972656 2.588720798492
-84.446075439453 -69.690757751465 -259.167266845703 3.632820606232
40.385086059570 -67.838783264160 -251.324066162109 1.409300804138
25.378576278687 -74.101165771484 -256.221252441406 2.843293428421
-156.945816040039 -65.716880798340 -260.957427978516 1.677501201630
-99.798652648926 -65.926551818848 -261.559417724609 3.502345323563
40.440345764160 -71.032829284668 -258.595855712891 2.410092830658
-99.808662414551 -69.311897277832 -260.793243408203 1.808386206627
-151.350433349609 -64.308517456055 -262.220275878906 1.200735926628
-105.222213745117 -66.286613464355 -260.646148681641 2.279334783554
-162.342773437500 -67.417533874512 -260.808044433594 1.421945571899
-111.628952026367 -69.635879516602 -263.621978759766 2.197133541107
-152.277145385742 -68.928115844727 -268.765258789063 3.058817625046
-155.805328369141 -69.598258972168 -265.563537597656 1.747210979462
-165.332153320313 -69.638603210449 -266.169311523438 0.793343663216
-159.111999511719 -67.346786499023 -265.720458984375 1.875017762184
-164.023544311523 -65.488487243652 -269.793853759766 4.964092254639
-161.133438110352 -64.385162353516 -268.737152099609 5.186984062195
25.769449234009 -71.847579956055 -264.857818603516 2.218943834305
-148.756210327148 -66.754829406738 -268.394775390625 3.052499055862
-146.180358886719 -66.411705017090 -287.225006103516 2.582282304764
20.453130722046 -75.810546875000 -279.586303710938 3.600904226303
-7.341293811798 -69.364700317383 -275.990264892578 2.870332002640
-124.784919738770 -71.058860778809 -285.917755126953 0.707006514072
-135.203613281250 -72.875381469727 -289.003326416016 2.966580629349
-135.258041381836 -68.073554992676 -288.305694580078 1.021088242531
-125.729209899902 -66.655662536621 -286.878356933594 0.815283417702
-114.449874877930 -67.935783386230 -289.482147216797 0.923835575581
-105.990951538086 -69.733253479004 -288.865173339844 1.667005777359
13.768946647644 -70.239593505859 -291.442657470703 2.185906887054
-86.742172241211 -68.023231506348 -287.886138916016 1.487519145012
-145.752105712891 -69.245750427246 -295.014190673828 0.771559953690
-98.142517089844 -66.948791503906 -290.611694335938 1.682422637939
-125.465965270996 -67.187286376953 -293.119323730469 1.514412045479
12.305154800415 -75.456123352051 -289.552703857422 2.117538452148
-112.888298034668 -70.042991638184 -294.761535644531 2.860411405563
2.890475988388 -70.923667907715 -290.907653808594 0.986998677254
-141.106964111328 -69.275932312012 -291.956481933594 2.029750347137
-153.575942993164 -70.009704589844 -301.697235107422 1.915037512779
-158.975509643555 -68.875976562500 -310.668090820313 3.415298938751
