-16.884681701660 -68.837951660156 -206.855499267578 0.795743644238
-156.131881713867 -68.838470458984 -200.311050415039 2.423760175705
18.048568725586 -64.604240417480 -200.016876220703 2.995727539063
-163.594467163086 -67.051818847656 -200.382217407227 0.780861318111
-120.687568664551 -70.009162902832 -204.072036743164 1.810087442398
-110.775360107422 -66.288581848145 -206.377136230469 3.715797424316
-124.781730651855 -64.050750732422 -206.684005737305 2.251404047012
-13.116145133972 -69.326538085938 -203.529418945313 1.969663023949
-16.854658126831 -64.986755371094 -204.856689453125 2.149789810181
-162.585281372070 -65.224182128906 -208.629562377930 2.178756952286
-160.042144775391 -66.147529602051 -212.670944213867 1.182868719101
-164.973251342773 -68.258247375488 -218.344314575195 2.418079614639
-146.725646972656 -69.528236389160 -210.246307373047 3.690518379211
-143.184860229492 -67.463516235352 -222.943923950195 1.331629037857
-5.838932991028 -65.665832519531 -221.254302978516 1.562511205673
-12.470866203308 -66.232849121094 -217.973007202148 1.854066729546
-99.955909729004 -67.407966613770 -221.725906372070 0.313830018044
-6.307311058044 -66.342803955078 -222.577911376953 1.196811318398
-164.167358398438 -66.600692749023 -225.516723632813 1.538641095161
-112.099266052246 -64.112953186035 -230.714218139648 1.772709012032
0.127295002341 -65.349388122559 -228.694702148438 1.968910098076
5.551096916199 -65.470817565918 -230.261947631836 1.278181791306
-111.839797973633 -67.261795043945 -232.438720703125 1.552938103676
-2.096357107162 -63.411834716797 -231.778182983398 3.702548503876
-115.384254455566 -66.422615051270 -236.057586669922 1.777748465538
-4.884817123413 -64.863578796387 -239.000793457031 2.354412794113
-3.318526983261 -68.404197692871 -233.379776000977 1.436043143272
-0.455648988485 -66.015884399414 -239.305236816406 1.243360161781
68.344749450684 -67.765525817871 -236.801849365234 1.053953886032
-13.941396713257 -69.421112060547 -236.252044677734 1.763256311417
4.444888114929 -66.169174194336 -238.053436279297 1.247898221016
11.109480857849 -67.037048339844 -241.638671875000 0.877847194672
7.622587203979 -69.948127746582 -239.454162597656 1.699038028717
1.459823012352 -70.595260620117 -241.042495727539 1.134808182716
66.879913330078 -68.875274658203 -238.642135620117 1.183023810387
70.862014770508 -66.808517456055 -240.503738403320 2.703014373779
14.098417282104 -68.721351623535 -242.618408203125 1.948060035706
59.046676635742 -66.779235839844 -240.785156250000 1.340369224548
57.244636535645 -69.790519714355 -240.261978149414 1.139155387878
47.400802612305 -63.754215240479 -245.920822143555 2.622467041016
37.917804718018 -68.417907714844 -251.557739257813 1.990294218063
40.114723205566 -68.092094421387 -253.519104003906 0.488562703133
-133.856628417969 -67.724739074707 -253.948455810547 1.055863380432
-14.314442634583 -70.396797180176 -252.146774291992 1.758081793785
26.077535629272 -68.972045898438 -258.542755126953 1.107523083687
48.116859436035 -67.409690856934 -253.328704833984 1.672159075737
24.599288940430 -64.233039855957 -255.711761474609 0.926173686981
-100.191131591797 -66.459030151367 -259.533752441406 2.032926797867
33.523052215576 -66.398674011230 -255.531936645508 1.244268417358
-150.108505249023 -67.510200500488 -259.436431884766 1.443449735641
-115.746185302734 -64.597000122070 -259.885986328125 1.736150622368
-103.730804443359 -67.799591064453 -255.211364746094 2.763523817062
-6.349779129028 -66.047332763672 -259.391937255859 0.936501502991
-152.032745361328 -71.421386718750 -255.263931274414 2.484015703201
31.885456085205 -65.091712951660 -258.622253417969 1.584228634834
-112.036125183105 -68.687019348145 -255.540237426758 2.160090684891
28.706596374512 -67.156913757324 -258.678253173828 1.847133874893
-132.868911743164 -65.715072631836 -259.963714599609 1.172057390213
-117.546501159668 -67.610862731934 -259.617584228516 2.330191612244
-105.620880126953 -64.383544921875 -260.089416503906 2.754664182663
-116.146347045898 -66.843803405762 -263.560913085938 0.488258749247
-137.466384887695 -68.666252136230 -262.501281738281 2.381729841232
28.071651458740 -65.974754333496 -263.717803955078 1.235371232033
-117.976089477539 -65.426033020020 -264.930206298828 1.613497018814
-143.276321411133 -68.519004821777 -267.035705566406 2.659704446793
-4.758997917175 -68.574836730957 -272.542327880859 1.737053275108
-153.304763793945 -67.500846862793 -279.947753906250 2.742092370987
-9.163409233093 -68.436180114746 -282.370941162109 2.272183656693
-3.493108034134 -69.341468811035 -286.821777343750 3.178498506546
-134.618362426758 -69.735351562500 -286.293548583984 0.781679689884
-122.312698364258 -65.183143615723 -288.744598388672 2.589702844620
-137.507278442383 -65.441703796387 -291.155700683594 2.980994939804
-127.358573913574 -69.074729919434 -294.547241210938 0.708843290806
-150.866912841797 -69.267082214355 -295.001190185547 1.228102922440
-151.097030639648 -70.573921203613 -300.771087646484 2.532253503799
-148.743347167969 -71.896842956543 -303.006408691406 4.357185363770
-150.354446411133 -65.049758911133 -298.040161132813 2.656416416168
-143.167251586914 -68.918441772461 -302.051391601563 2.569971323013
-145.336990356445 -68.060028076172 -303.014038085938 2.164666414261
-149.600509643555 -68.432487487793 -310.828552246094 1.939985036850
24.171468734741 -70.747673034668 -31.154571533203 2.586380481720
50.178249359131 -69.244712829590 -35.182102203369 2.186878442764
29.146017074585 -72.098785400391 -38.364341735840 1.191841244698
34.485614776611 -69.396057128906 -41.092807769775 1.077263236046
-43.981410980225 -65.146606445313 -49.603126525879 3.273612499237
-77.666206359863 -66.659683227539 -50.256317138672 2.801449298859
81.828384399414 -65.362663269043 -63.465297698975 1.651847720146
81.278915405273 -63.441631317139 -62.164436340332 2.142592906952
71.810836791992 -66.462982177734 -67.713638305664 1.158193707466
-95.782569885254 -65.451599121094 -72.151039123535 1.023835539818
101.934226989746 -67.421203613281 -74.720252990723 0.848617613316
-33.943202972412 -62.415904998779 -76.979919433594 1.664480805397
70.309173583984 -67.007919311523 -77.873008728027 4.158460617065
-42.410552978516 -63.943367004395 -80.169670104980 2.086247682571
-49.453258514404 -65.078407287598 -81.807708740234 2.439610958099
52.820610046387 -66.717002868652 -90.177375793457 1.195737481117
103.417526245117 -66.210647583008 -89.705734252930 1.003497600555
66.758132934570 -64.638259887695 -94.903465270996 1.148034453392
58.067970275879 -65.969772338867 -95.387344360352 0.303713172674
49.927288055420 -66.992439270020 -102.984657287598 1.624539732933
61.118026733398 -64.637886047363 -98.336051940918 3.576781511307
106.469894409180 -65.579696655273 -99.771286010742 1.256960034370
72.350334167480 -68.743537902832 -107.239204406738 3.286790847778
51.347473144531 -65.860244750977 -107.099159240723 2.618207693100
79.178482055664 -67.060722351074 -106.942260742188 0.939688324928
92.232093811035 -65.463127136230 -111.134407043457 2.721908092499
-78.354148864746 -67.686683654785 -109.319320678711 1.048376083374
-85.227729797363 -68.975845336914 -109.287826538086 1.140812277794
-83.936798095703 -67.786514282227 -115.106201171875 2.150896787643
-60.107460021973 -65.769859313965 -116.844253540039 1.735158801079
-54.312080383301 -70.558731079102 -123.214332580566 3.590731143951
-92.811416625977 -64.144668579102 -120.908195495605 1.953600764275
-77.312721252441 -66.544868469238 -120.021034240723 1.022225022316
-75.893173217773 -67.448051452637 -127.953887939453 1.379771828651
-60.021160125732 -68.497993469238 -126.571121215820 0.917860865593
-88.039184570313 -61.155357360840 -129.765899658203 3.173399925232
-91.567626953125 -67.076423645020 -129.691238403320 1.694605469704
-48.681098937988 -68.028785705566 -137.037338256836 2.624418497086
-54.614974975586 -63.902786254883 -136.046569824219 1.778279542923
-75.804428100586 -64.933982849121 -138.330383300781 1.879912853241
-54.756095886230 -66.065177917480 -142.676483154297 1.729226827621
-73.480522155762 -67.111915588379 -145.877838134766 2.123331546783
22.949899673462 -64.658454895020 -141.417602539063 2.477043867111
-57.601268768311 -66.545242309570 -145.603866577148 2.518588542938
-49.908088684082 -66.161911010742 -147.018722534180 2.068474054337
14.091178894043 -67.825622558594 -154.201614379883 2.100511789322
15.161739349365 -65.126472473145 -152.516586303711 1.286254048347
-142.904357910156 -64.740867614746 -175.262649536133 1.351409673691
-106.693618774414 -69.036384582520 -179.680541992188 1.659651756287
-107.451904296875 -67.311149597168 -186.496078491211 1.849650144577
-148.189178466797 -67.810256958008 -193.991378784180 3.223505020142
-110.578849792480 -66.443611145020 -184.982803344727 2.304076671600
-152.392715454102 -64.606735229492 -195.529754638672 1.497192621231
-113.935203552246 -63.236335754395 -195.700668334961 2.420628309250
-145.703399658203 -68.174438476563 -198.001937866211 2.026511669159
-150.059799194336 -71.044952392578 -202.537704467773 2.784333705902
-152.073776245117 -70.615463256836 -210.052734375000 3.179698228836
-144.631652832031 -68.459312438965 -220.690536499023 1.237877964973
-152.869842529297 -70.561279296875 -222.484863281250 2.227839231491
-103.872055053711 -66.949417114258 -222.490417480469 1.042393565178
-101.681434631348 -66.936744689941 -226.183761596680 1.527045249939
-122.416244506836 -62.603713989258 -225.636795043945 4.001451015472
-110.288780212402 -64.022422790527 -227.266403198242 1.774272084236
-154.196304321289 -68.979804992676 -231.799057006836 1.368079662323
-3.015935897827 -68.295928955078 -229.948394775391 2.264146327972
-131.096389770508 -65.227592468262 -228.919448852539 2.591383934021
-155.579696655273 -68.496131896973 -235.213821411133 2.450871944427
-134.616302490234 -66.036888122559 -233.773681640625 1.313884973526
-10.673729896545 -67.900482177734 -241.518066406250 1.018541336060
7.773046016693 -68.950561523438 -243.132827758789 1.381098270416
63.395557403564 -63.232845306396 -241.459106445313 3.370678663254
20.377264022827 -67.764083862305 -247.888671875000 0.849414587021
61.258926391602 -65.715774536133 -247.108917236328 2.364428043365
41.205570220947 -64.635742187500 -245.631317138672 4.934803962708
54.537372589111 -66.802589416504 -249.383789062500 0.855919778347
-151.497680664063 -68.118751525879 -251.310165405273 1.673597455025
-152.670516967773 -66.923263549805 -251.365386962891 2.050667047501
42.347057342529 -70.365089416504 -254.031723022461 1.407400488853
31.163808822632 -64.687614440918 -259.627349853516 1.384765267372
48.299766540527 -64.185745239258 -250.433380126953 0.780487120152
-142.967956542969 -69.169609069824 -255.952056884766 1.137587547302
-134.719787597656 -65.796005249023 -254.482849121094 1.924749493599
-125.410522460938 -66.666130065918 -257.032470703125 1.040482759476
-133.101303100586 -63.784313201904 -257.029968261719 1.999610900879
-140.163574218750 -64.004623413086 -258.095031738281 2.508929967880
-123.157012939453 -66.525794982910 -256.619598388672 1.423854947090
-141.926223754883 -66.821205139160 -259.735015869141 0.950332403183
-125.355255126953 -67.988105773926 -260.502746582031 1.851155638695
-125.197654724121 -62.933002471924 -261.275177001953 2.329976558685
-125.561172485352 -70.303855895996 -262.795928955078 1.495764970779
-117.853393554688 -67.212104797363 -260.701171875000 1.948178887367
-3.526211977005 -67.487411499023 -265.030609130859 1.351283073425
28.541122436523 -68.878967285156 -263.201171875000 1.351464271545
-145.745758056641 -69.685943603516 -264.183471679688 1.298008203506
29.859041213989 -63.591663360596 -267.309020996094 3.903428316116
-5.336388111115 -66.098747253418 -269.723388671875 1.436171770096
16.611066818237 -70.600982666016 -283.998992919922 0.731024026871
-142.165145874023 -67.816490173340 -289.043304443359 0.491678744555
-123.822883605957 -65.750213623047 -287.583465576172 1.371858716011
-133.570175170898 -67.476181030273 -285.276062011719 1.646125912666
-157.110870361328 -65.294471740723 -288.616607666016 1.022190928459
-123.959197998047 -66.805358886719 -288.011352539063 0.891520500183
-117.031753540039 -63.751937866211 -288.356201171875 1.821444272995
-126.768760681152 -65.511085510254 -290.012329101563 0.791200518608
-151.899551391602 -68.598388671875 -295.635711669922 0.513505220413
30.291259765625 -69.067108154297 -14.085919380188 2.552561998367
30.674203872681 -71.178886413574 -19.318489074707 1.281994104385
40.727352142334 -70.954147338867 -18.482034683228 0.675202608109
48.029335021973 -62.639404296875 -25.685792922974 2.415467262268
26.402257919312 -69.509262084961 -27.862878799438 1.328626632690
26.592733383179 -69.768913269043 -33.166137695313 1.825779318810
-34.642620086670 -67.502441406250 -45.077033996582 3.714119672775
-79.755226135254 -67.201606750488 -50.784484863281 0.813670337200
-12.542835235596 -65.907356262207 -56.672134399414 2.227350473404
71.607139587402 -64.949874877930 -66.543304443359 1.611404299736
98.338729858398 -65.541305541992 -67.722221374512 0.864140212536
65.411888122559 -64.967224121094 -81.001579284668 1.477123141289
63.624870300293 -60.841117858887 -82.325164794922 1.021106243134
101.203392028809 -61.952095031738 -83.793807983398 3.607966423035
-61.168060302734 -63.408592224121 -87.497352600098 0.544550120831
-62.600757598877 -62.946483612061 -92.521446228027 2.879916906357
49.999500274658 -63.088405609131 -94.814910888672 0.931649565697
-61.544357299805 -63.079246520996 -96.947395324707 3.404341220856
-68.563385009766 -62.113399505615 -99.368850708008 1.730732321739
-99.627388000488 -63.222030639648 -96.698333740234 1.329065918922
-71.971580505371 -64.228103637695 -100.266326904297 2.277576684952
49.392066955566 -65.388702392578 -104.619606018066 0.954053103924
-69.551498413086 -66.944000244141 -103.244239807129 1.030344963074
52.079524993896 -65.661537170410 -99.982208251953 1.567788958549
98.809623718262 -67.049125671387 -102.671775817871 0.926125288010
91.799232482910 -66.222930908203 -108.217994689941 1.533506274223
-73.636108398438 -65.905311584473 -111.667030334473 0.727724492550
-81.148956298828 -65.965110778809 -110.422744750977 1.701726198196
-62.115081787109 -62.942077636719 -118.513366699219 0.964883208275
-94.271865844727 -64.140983581543 -117.068046569824 3.152560949326
-76.353477478027 -68.877342224121 -128.134368896484 1.135126471519
-89.318756103516 -61.136947631836 -126.106849670410 4.294209480286
-62.869911193848 -64.145301818848 -120.605323791504 1.621153235435
-58.757183074951 -64.822349548340 -117.875740051270 0.538658916950
-87.444648742676 -62.861316680908 -130.101348876953 1.560355424881
-60.509864807129 -66.042861938477 -129.080780029297 2.166079998016
-81.367591857910 -64.086021423340 -126.935264587402 1.908679246902
-70.771026611328 -65.621673583984 -131.815277099609 2.844179630280
-66.210922241211 -66.639625549316 -130.987777709961 2.989306926727
-59.650691986084 -62.582889556885 -136.308074951172 0.753169536591
-53.042003631592 -64.945518493652 -137.698684692383 1.240944027901
-90.497756958008 -65.196769714355 -135.877517700195 1.862808227539
-96.335487365723 -65.161911010742 -140.550613403320 1.733137607574
-86.585472106934 -67.164382934570 -136.790908813477 0.832610785961
25.079544067383 -66.569114685059 -147.718093872070 2.307362318039
-49.315803527832 -66.291450500488 -143.497467041016 1.953655958176
15.650775909424 -62.907569885254 -148.854629516602 1.603023171425
-97.303871154785 -63.332992553711 -161.090118408203 1.195883274078
-97.287544250488 -63.137687683105 -170.379623413086 4.737042903900
-97.799186706543 -60.709651947021 -171.230957031250 5.590167522430
-108.343589782715 -67.162994384766 -168.241867065430 1.908990859985
-105.262229919434 -67.458892822266 -182.029464721680 1.080668926239
-108.186691284180 -61.993495941162 -180.464721679688 2.294440984726
-144.249267578125 -65.665649414063 -186.757476806641 1.966788053513
-109.657112121582 -65.533576965332 -186.756774902344 2.329483985901
-132.856613159180 -61.349861145020 -191.341049194336 5.443030357361
-143.938186645508 -68.779266357422 -197.201660156250 3.660955190659
-123.698791503906 -66.375503540039 -197.151306152344 1.176454782486
-155.400527954102 -68.036750793457 -197.655654907227 2.085401773453
-142.655014038086 -64.699745178223 -199.758850097656 2.490354299545
-121.152778625488 -61.010929107666 -198.786651611328 3.291550636292
-134.000686645508 -65.467178344727 -202.674438476563 1.224822640419
-145.493927001953 -64.307395935059 -209.272842407227 1.792035102844
-131.490020751953 -65.423461914063 -222.514099121094 2.708052873611
-112.002349853516 -64.223510742188 -227.536773681641 1.384225964546
-150.060531616211 -67.902526855469 -227.263122558594 1.730407357216
-117.405403137207 -63.067840576172 -230.833679199219 2.548336744308
-108.558052062988 -64.662567138672 -232.222854614258 3.331675767899
-124.124557495117 -67.296218872070 -234.171035766602 0.389808624983
-129.509567260742 -67.772705078125 -234.580810546875 1.982766985893
-117.620086669922 -62.367206573486 -235.570419311523 3.284733057022
2.798437118530 -66.980651855469 -235.571182250977 1.435260415077
-149.338745117188 -66.374580383301 -235.210357666016 1.266053557396
7.672762870789 -68.628723144531 -232.816604614258 1.165571928024
8.524868965149 -63.628479003906 -241.158874511719 1.531726121902
1.681619048119 -67.374572753906 -240.164535522461 1.786117196083
14.437520980835 -64.890640258789 -240.720474243164 1.715670585632
-143.655303955078 -66.647041320801 -236.334930419922 2.226526021957
-3.690423011780 -65.748771667480 -244.857330322266 1.261571288109
19.345199584961 -62.438400268555 -242.455322265625 1.967335700989
47.786678314209 -63.730350494385 -249.082366943359 2.267037153244
51.131587982178 -64.820617675781 -245.606277465820 1.677821278572
-147.233169555664 -67.540122985840 -250.824676513672 1.644513487816
-6.122876167297 -68.208374023438 -254.096343994141 2.960367918015
29.555341720581 -65.283218383789 -256.942962646484 1.462059497833
-132.955429077148 -60.913784027100 -259.303710937500 4.030011653900
-127.876060485840 -63.916019439697 -260.656616210938 1.234299063683
-127.560401916504 -66.048721313477 -258.048248291016 1.673949241638
25.464221954346 -65.005004882813 -261.273620605469 1.270802736282
-137.210449218750 -65.748062133789 -262.716430664063 2.419027805328
29.972248077393 -66.951316833496 -259.086456298828 1.371433377266
30.614370346069 -65.257019042969 -265.828979492188 2.512232303619
-153.131561279297 -65.463996887207 -264.038696289063 1.573740839958
-147.850128173828 -69.623367309570 -288.077117919922 0.448629945517
-153.757400512695 -66.826255798340 -290.264343261719 2.551398515701
-142.788360595703 -65.477882385254 -289.672027587891 0.930518448353
7.954928874969 -67.565185546875 -294.447052001953 2.483452081680
-154.508621215820 -66.511993408203 -294.903259277344 2.013763904572
46.342277526855 -70.116584777832 -26.847414016724 1.662471532822
37.451229095459 -70.552146911621 -40.679660797119 0.901499271393
-64.873687744141 -65.174255371094 -46.847446441650 2.377306222916
-74.704048156738 -62.915714263916 -46.034397125244 1.546363830566
-26.710334777832 -65.498474121094 -50.913787841797 1.878368973732
-21.172515869141 -65.919486999512 -58.842159271240 3.932980060577
-12.542648315430 -64.914009094238 -67.322334289551 1.041906595230
-26.190156936646 -62.011447906494 -71.132545471191 2.980166435242
67.958877563477 -65.237846374512 -72.986465454102 2.536927223206
-96.847045898438 -63.528602600098 -80.444816589355 3.954781770706
-48.328166961670 -64.150405883789 -83.509727478027 1.417562961578
55.134784698486 -63.061119079590 -84.764160156250 2.639587640762
57.745529174805 -65.012207031250 -88.474014282227 2.768949508667
70.063156127930 -64.330497741699 -87.238616943359 5.017003059387
104.863891601563 -64.642738342285 -94.069602966309 1.389308452606
55.092548370361 -63.271728515625 -92.292762756348 1.932778716087
99.478218078613 -65.160697937012 -102.245628356934 1.883948206902
-78.374374389648 -65.992111206055 -103.248191833496 2.039474248886
-97.211776733398 -66.070495605469 -103.744468688965 1.062283873558
77.999603271484 -64.443428039551 -110.600608825684 2.436540126801
-75.717910766602 -63.468116760254 -101.754882812500 1.473111152649
-79.413024902344 -66.009468078613 -117.779144287109 2.022313356400
-83.065612792969 -63.324020385742 -119.524688720703 2.069447278976
-53.922996520996 -65.894622802734 -125.732902526855 0.593730449677
-79.254745483398 -63.105876922607 -125.620941162109 1.385288596153
-60.766056060791 -66.785125732422 -130.480072021484 1.260525584221
-78.777427673340 -67.918457031250 -134.909759521484 1.659402370453
-73.542549133301 -61.340553283691 -132.533126831055 3.532767057419
-80.885437011719 -61.950397491455 -125.855278015137 1.661317706108
-86.570236206055 -63.444087982178 -128.356613159180 1.000394344330
-60.827796936035 -65.024543762207 -131.340240478516 1.717945694923
-89.295692443848 -65.162277221680 -133.363525390625 1.876582026482
-50.881160736084 -66.334663391113 -132.733383178711 2.117336273193
-53.319988250732 -65.620613098145 -141.160888671875 1.279733181000
27.208543777466 -65.137374877930 -138.428771972656 0.739629983902
-58.578128814697 -60.611541748047 -135.603775024414 2.051317691803
13.191244125366 -66.015846252441 -146.893081665039 1.045230388641
20.368057250977 -63.073131561279 -148.040847778320 1.235504746437
18.691017150879 -64.397804260254 -152.235351562500 0.646852970123
-96.466217041016 -66.398902893066 -144.782394409180 2.306192874908
-94.223899841309 -64.744132995605 -154.781356811523 1.686390042305
-97.598731994629 -59.966182708740 -153.243789672852 3.032272338867
-96.935073852539 -64.925659179688 -156.340637207031 1.795371651649
-93.013549804688 -62.470123291016 -159.234573364258 4.207753181458
-151.080337524414 -69.944702148438 -176.122772216797 1.115123510361
-152.881561279297 -66.669891357422 -176.480300903320 1.200085163116
-104.928382873535 -66.158279418945 -184.817260742188 1.202178359032
-142.418273925781 -61.010925292969 -178.018463134766 2.145066022873
-110.552764892578 -65.624343872070 -178.952590942383 1.568315029144
-149.901138305664 -64.618820190430 -187.629760742188 0.792459607124
-112.990257263184 -65.099304199219 -192.201751708984 0.760873854160
-105.496345520020 -64.596168518066 -186.887985229492 1.611486554146
-143.589447021484 -65.757461547852 -195.499511718750 1.330205798149
-133.685180664063 -65.024482727051 -198.725997924805 1.074546575546
-107.324142456055 -64.341567993164 -198.801589965820 2.534528255463
-114.893768310547 -65.179512023926 -200.716598510742 1.646174430847
-113.892807006836 -62.998394012451 -201.887374877930 1.199704647064
-112.861312866211 -63.336685180664 -204.087722778320 2.624992609024
-133.237136840820 -63.840568542480 -198.913055419922 0.666170120239
-134.713439941406 -64.700973510742 -199.269195556641 1.192337632179
-131.421737670898 -66.527664184570 -201.014312744141 3.165669441223
-123.479736328125 -62.095462799072 -202.870910644531 1.824113488197
-123.220474243164 -62.700740814209 -207.654891967773 3.874761343002
-116.396446228027 -62.294471740723 -205.237808227539 1.975504279137
-145.998352050781 -65.410087585449 -217.530609130859 1.188247799873
-150.868392944336 -64.900039672852 -225.738937377930 3.071569681168
-155.428497314453 -62.149677276611 -223.097091674805 3.156874895096
-140.827941894531 -66.888267517090 -224.565002441406 2.080052375793
-135.659240722656 -63.938674926758 -228.045715332031 1.677458167076
-124.870285034180 -65.846763610840 -223.469497680664 1.717512488365
-141.452407836914 -62.744834899902 -231.054962158203 1.394255161285
-148.089370727539 -67.093498229980 -230.118423461914 0.866421103477
-139.155227661133 -64.314094543457 -225.908554077148 2.949462413788
-131.506362915039 -62.171318054199 -228.287734985352 2.328443050385
-148.880722045898 -65.488616943359 -231.534362792969 1.803008437157
-135.123779296875 -64.554412841797 -233.377761840820 1.926591873169
-125.075485229492 -61.887569427490 -230.353286743164 1.382467865944
-6.623428821564 -66.957489013672 -237.722488403320 0.872978866100
3.927486896515 -64.710624694824 -237.505264282227 1.492213964462
10.687856674194 -63.943599700928 -242.741455078125 2.056473493576
12.115771293640 -64.714187622070 -241.864059448242 1.067845463753
-9.098496437073 -66.225387573242 -245.084320068359 1.735322237015
-11.534302711487 -61.947441101074 -248.570236206055 3.269370317459
44.000640869141 -60.372673034668 -253.029388427734 3.596828222275
50.332889556885 -66.019042968750 -250.507675170898 1.415352940559
-145.974792480469 -63.566455841064 -256.541625976563 1.266585946083
42.494647979736 -63.305561065674 -258.170623779297 3.082667589188
33.167236328125 -63.495071411133 -252.607925415039 3.505575656891
-157.817276000977 -62.420604705811 -256.742919921875 3.019290685654
-151.072830200195 -63.139972686768 -260.331848144531 1.120164036751
-147.087127685547 -66.008697509766 -261.346191406250 2.770084857941
2.339992046356 -65.490486145020 -264.849212646484 1.827957749367
-154.326660156250 -64.126251220703 -265.837310791016 1.960848569870
1.620679974556 -64.051116943359 -276.495361328125 3.805384874344
-145.037033081055 -66.711997985840 -273.121612548828 2.858369350433
-145.696945190430 -63.964153289795 -285.102844238281 1.073768973351
-152.343429565430 -65.038345336914 -282.800018310547 1.062726378441
-150.402694702148 -63.184734344482 -283.068115234375 0.617602705956
-145.985366821289 -63.569149017334 -283.774322509766 1.020399451256
-155.559463500977 -61.044483184814 -288.414367675781 3.309609174728
-150.614913940430 -61.632354736328 -284.851928710938 1.951080560684
-150.946441650391 -64.767761230469 -284.740234375000 1.170244097710
-145.086898803711 -67.344886779785 -287.563415527344 2.452846288681
-142.215225219727 -63.750972747803 -288.173706054688 1.505510926247
14.305301666260 -66.164421081543 -293.224517822266 4.200543880463
-148.924835205078 -60.773853302002 -289.080780029297 3.909700155258
-157.656280517578 -64.020393371582 -290.585235595703 1.949335098267
-151.457839965820 -63.282028198242 -289.378021240234 1.440773725510
-149.676895141602 -63.310562133789 -294.487579345703 1.134109258652
-152.710296630859 -63.776847839355 -288.716003417969 0.542254865170
-149.976852416992 -67.062423706055 -291.765045166016 2.070390939713
2.634915113449 -61.339805603027 -294.392944335938 2.899186134338
-144.944213867188 -64.358612060547 -293.601257324219 0.685329139233
-145.540618896484 -64.882202148438 -293.703552246094 1.052993297577
31.591440200806 -59.492183685303 -20.324405670166 2.447736024857
40.644565582275 -64.798538208008 -16.375341415405 2.931640386581
43.340282440186 -61.446376800537 -24.894262313843 0.460137158632
20.617277145386 -69.652946472168 -32.126598358154 1.652038693428
31.398401260376 -60.191608428955 -36.711009979248 2.104213953018
42.579494476318 -72.079315185547 -36.963451385498 2.373925685883
-56.840538024902 -62.930706024170 -43.518218994141 1.335735678673
-53.646358489990 -64.737396240234 -46.517562866211 3.648202180862
91.923233032227 -63.856857299805 -60.370239257813 1.884319543839
-95.409103393555 -62.194637298584 -65.160469055176 1.762760877609
95.100791931152 -66.375656127930 -68.316772460938 2.072644710541
64.789588928223 -61.263317108154 -68.016601562500 2.819016933441
104.699333190918 -65.229934692383 -78.153381347656 1.633598566055
66.428001403809 -63.365108489990 -73.617187500000 1.845161914825
-39.670082092285 -66.837753295898 -78.775863647461 1.572317004204
60.072765350342 -61.668914794922 -84.013038635254 2.695807456970
-58.524463653564 -61.931488037109 -77.127342224121 3.100050210953
63.348575592041 -60.885723114014 -85.861434936523 2.078144788742
65.179588317871 -62.838726043701 -82.090187072754 0.610013246536
-98.503402709961 -63.982845306396 -80.508216857910 3.615265369415
52.248649597168 -64.382843017578 -91.189254760742 1.678303003311
51.729038238525 -65.541511535645 -95.132629394531 1.423976302147
66.269927978516 -63.830959320068 -92.956451416016 0.412666350603
53.546695709229 -60.822357177734 -95.523063659668 1.344268321991
-80.868621826172 -65.023635864258 -109.222564697266 2.314193725586
85.878326416016 -67.696250915527 -105.920646667480 1.474198818207
-75.410484313965 -61.876491546631 -114.203689575195 2.182898521423
-73.796020507813 -62.427967071533 -108.525672912598 1.708739876747
-82.536041259766 -64.861793518066 -121.229759216309 1.767854452133
-86.067504882813 -63.353446960449 -110.405693054199 1.945259571075
-88.714424133301 -66.176841735840 -119.710357666016 2.409555673599
-77.408416748047 -63.717758178711 -124.274658203125 1.465844392776
-53.344394683838 -60.112285614014 -127.376457214355 3.024863004684
-73.478340148926 -66.259498596191 -134.486480712891 1.240484595299
-53.674758911133 -60.637157440186 -136.490020751953 1.152324914932
-88.783752441406 -63.203639984131 -135.322357177734 2.119938135147
28.642265319824 -62.007354736328 -138.927307128906 2.056558609009
20.442020416260 -63.449333190918 -139.799255371094 1.107344627380
-91.499191284180 -64.267425537109 -138.954742431641 1.782080888748
19.354797363281 -62.984409332275 -153.560684204102 1.831867098808
-87.936782836914 -65.489074707031 -145.059204101563 2.394105672836
-93.738830566406 -62.682495117188 -146.148468017578 0.725898146629
20.022151947021 -63.004753112793 -154.578536987305 2.748198747635
-95.340156555176 -60.974433898926 -146.139480590820 2.721737861633
-94.799125671387 -61.266464233398 -146.421203613281 2.225808620453
-99.405036926270 -62.114986419678 -157.241424560547 0.809602141380
-98.145553588867 -64.713584899902 -158.267562866211 2.126896381378
-105.368591308594 -62.409591674805 -173.813400268555 0.847225725651
-104.412925720215 -61.842746734619 -167.712493896484 1.261798977852
-100.709022521973 -65.676879882813 -163.788024902344 2.825499057770
-105.112770080566 -61.686328887939 -172.313934326172 2.270113229752
-135.287338256836 -69.258239746094 -177.167404174805 6.107665538788
-107.002677917480 -63.189308166504 -177.093444824219 0.936433017254
-142.149017333984 -62.566219329834 -187.675277709961 1.437685728073
-148.323211669922 -66.528739929199 -186.233901977539 3.143865823746
-148.398239135742 -63.201171875000 -194.141769409180 2.164177656174
-124.763931274414 -62.845649719238 -195.516128540039 1.441980242729
-130.148345947266 -60.784034729004 -199.545928955078 2.955300569534
-119.130035400391 -63.200866699219 -197.107620239258 3.995527029037
-140.468383789063 -66.025718688965 -203.527450561523 1.019196510315
-123.742073059082 -63.388309478760 -203.416931152344 1.056959390640
-145.735733032227 -65.519027709961 -205.577316284180 0.585077881813
-150.212646484375 -67.807441711426 -205.458953857422 1.401787281036
-157.847885131836 -62.368144989014 -229.776077270508 2.788885831833
-141.143157958984 -65.052536010742 -234.136138916016 2.657076358795
-127.189392089844 -63.189567565918 -234.205932617188 1.765393972397
-152.432739257813 -61.755828857422 -231.787658691406 0.579667389393
-2.415838956833 -66.280944824219 -236.291259765625 1.096842169762
13.850391387939 -66.903411865234 -240.826095581055 2.021992444992
-1.459067940712 -62.004268646240 -241.423492431641 2.100044488907
-149.683868408203 -64.965606689453 -244.436035156250 2.097029447556
-5.463623046875 -63.845798492432 -248.240524291992 1.281165957451
-148.560424804688 -62.040287017822 -252.586776733398 0.554610788822
-6.434598922729 -63.240268707275 -250.586776733398 2.169309854507
-150.235260009766 -65.197807312012 -251.552627563477 2.059537410736
25.892520904541 -65.648521423340 -254.870483398438 2.267397403717
-154.086013793945 -63.408050537109 -255.464981079102 0.885277390480
-146.868988037109 -65.197685241699 -252.228851318359 1.777520060539
-151.428833007813 -60.607532501221 -253.358581542969 2.214974641800
-150.725112915039 -62.937000274658 -258.071838378906 0.726306200027
34.693885803223 -64.127792358398 -254.532653808594 1.704493761063
29.588867187500 -64.558296203613 -261.613098144531 1.934749603271
-145.689849853516 -63.359710693359 -256.664764404297 0.894936800003
-150.023101806641 -60.287494659424 -259.495880126953 3.025919198990
-156.096786499023 -62.001338958740 -258.350891113281 1.228467106819
-147.612106323242 -64.100898742676 -262.722351074219 0.879409134388
26.971597671509 -62.927913665771 -262.654296875000 0.683184802532
28.080137252808 -62.249492645264 -264.696075439453 1.995596051216
-151.811141967773 -60.958011627197 -262.407958984375 2.152707338333
-142.040847778320 -63.510700225830 -262.198699951172 0.982424914837
-151.533126831055 -64.033622741699 -265.481414794922 0.449328482151
-145.604431152344 -62.481494903564 -260.189544677734 1.391565680504
-148.003982543945 -66.079673767090 -264.145751953125 2.394676208496
-151.494110107422 -61.625244140625 -267.171813964844 2.184241056442
-149.980789184570 -64.030929565430 -267.758941650391 2.360783815384
-151.455291748047 -64.020881652832 -281.946044921875 0.769943475723
-148.611648559570 -66.717086791992 -283.075836181641 2.194898366928
-148.937820434570 -64.839942932129 -278.888671875000 2.070786714554
15.704913139343 -64.628829956055 -284.813903808594 1.571946024895
-154.667022705078 -61.856929779053 -283.861602783203 2.283748388290
-145.201705932617 -61.168601989746 -282.341796875000 3.232189655304
-4.034821987152 -67.327064514160 -289.874145507813 1.534331321716
8.281158447266 -65.208778381348 -295.542327880859 3.703206539154
-151.408874511719 -65.140274047852 -295.404235839844 0.700661420822
26.940034866333 -69.876235961914 -21.074394226074 1.388908267021
43.363292694092 -62.408760070801 -27.756637573242 1.299078583717
52.391532897949 -68.713897705078 -30.793603897095 2.720051765442
43.062736511230 -62.271087646484 -33.058639526367 1.882026791573
26.441131591797 -70.052749633789 -38.340106964111 1.202628731728
42.517154693604 -71.157501220703 -37.821220397949 2.146240711212
81.910720825195 -63.761642456055 -61.992504119873 1.607855200768
78.305107116699 -61.675209045410 -59.535884857178 1.882767438889
-13.368578910828 -66.568649291992 -68.997840881348 1.407149195671
66.637641906738 -61.134429931641 -67.495635986328 1.677903532982
-26.600385665894 -68.896575927734 -75.593338012695 1.582066416740
-27.361791610718 -64.227783203125 -79.191040039063 4.555032730103
-53.156642913818 -62.857238769531 -78.521675109863 1.150529623032
-49.549377441406 -64.657936096191 -79.952552795410 3.265721559525
65.704917907715 -66.645164489746 -82.628433227539 1.116837739944
103.786987304688 -65.633682250977 -91.183341979980 1.328145503998
-60.947025299072 -59.122196197510 -86.844459533691 1.441224932671
54.392375946045 -64.412544250488 -96.684806823730 1.226153135300
63.805442810059 -59.330364227295 -93.879394531250 2.435944795609
105.517730712891 -61.890525817871 -95.918647766113 2.299429416656
-63.836986541748 -60.190135955811 -97.297500610352 2.342922925949
58.518558502197 -58.505195617676 -97.105041503906 4.457951068878
-69.774070739746 -65.678283691406 -103.052368164063 1.125784516335
67.586380004883 -63.838001251221 -98.010368347168 2.443536520004
70.653892517090 -62.452869415283 -102.791458129883 1.068100094795
-69.784858703613 -65.390052795410 -108.770744323730 2.604942798615
-96.028305053711 -61.028560638428 -111.314125061035 2.620530366898
-67.300544738770 -59.711662292480 -109.565971374512 0.986122190952
-80.176834106445 -60.036857604980 -109.323699951172 2.079462289810
-64.088897705078 -61.219676971436 -110.927833557129 1.255855441093
-81.700241088867 -60.761951446533 -114.188865661621 1.742028117180
-78.850639343262 -61.167587280273 -118.217262268066 1.965811491013
-74.210014343262 -63.675487518311 -119.319664001465 2.566313266754
-67.469161987305 -66.015563964844 -123.287902832031 3.378621816635
-79.828025817871 -65.211784362793 -127.698646545410 1.718976259232
32.168472290039 -63.600227355957 -125.438201904297 2.468473911285
-51.591892242432 -61.572803497314 -127.865661621094 2.492303609848
29.330799102783 -62.674240112305 -132.150421142578 2.090671062469
29.502141952515 -65.203605651855 -133.955718994141 1.368898749352
33.670021057129 -61.260509490967 -135.108840942383 2.684100151062
-50.782566070557 -63.885620117188 -137.283615112305 1.798579096794
22.469821929932 -62.271167755127 -147.762207031250 2.382029294968
25.958803176880 -60.370788574219 -139.250259399414 2.724045276642
-143.690567016602 -58.808261871338 -176.576278686523 3.440066099167
-148.384780883789 -62.636402130127 -175.242416381836 1.392451167107
-148.715148925781 -63.719741821289 -177.786392211914 2.386876583099
-146.513076782227 -61.330390930176 -187.076889038086 1.130647778511
-145.520156860352 -61.800865173340 -187.881301879883 0.817845821381
-146.060150146484 -64.774414062500 -191.953582763672 1.153394460678
-140.921127319336 -63.410343170166 -193.218048095703 3.602562189102
-145.721511840820 -62.315368652344 -194.978469848633 2.278030872345
-122.462196350098 -57.465377807617 -197.926864624023 5.715792655945
-133.374069213867 -63.028533935547 -200.471343994141 1.128591418266
-146.843704223633 -61.939258575439 -209.601409912109 1.370166540146
-146.630676269531 -63.474567413330 -222.734756469727 0.788672089577
-150.617980957031 -63.157421112061 -222.879791259766 0.612762153149
-144.551422119141 -59.092002868652 -228.607345581055 2.837405204773
-154.987396240234 -61.611019134521 -226.173645019531 1.218654751778
-148.121124267578 -61.376132965088 -233.354003906250 0.590925395489
-149.719070434570 -61.765399932861 -228.954391479492 1.115064382553
-146.644363403320 -60.202842712402 -229.120468139648 2.097866058350
-139.843795776367 -59.452171325684 -229.701614379883 3.176331758499
-144.942703247070 -61.368988037109 -233.523254394531 0.641879498959
-156.789871215820 -61.099887847900 -233.273986816406 3.130043506622
8.306057929993 -62.019290924072 -241.292602539063 1.897908568382
-11.711077690125 -64.928657531738 -242.493972778320 2.896529674530
-146.839782714844 -64.897712707520 -235.469390869141 1.340249657631
-151.304351806641 -63.086547851563 -235.988784790039 0.880731105804
-146.601577758789 -64.190689086914 -234.508834838867 1.518532752991
11.816670417786 -62.083972930908 -247.374542236328 3.562236785889
-149.324005126953 -59.525550842285 -240.564575195313 4.090777397156
-146.619155883789 -59.472496032715 -252.831787109375 3.106899261475
-0.722715973854 -60.280719757080 -250.605163574219 2.098903417587
-148.476226806641 -63.471637725830 -255.178237915039 0.609455943108
-148.231872558594 -62.979335784912 -253.594436645508 0.799464106560
-145.159561157227 -62.323863983154 -256.663513183594 0.576841235161
-141.757858276367 -62.531307220459 -257.671600341797 0.770915210247
25.928050994873 -60.805644989014 -260.986968994141 2.120850801468
-150.121597290039 -60.223014831543 -266.302368164063 2.335666656494
24.902587890625 -65.354438781738 -269.681060791016 2.130000829697
15.856687545776 -65.762351989746 -290.146972656250 2.846645355225
0.818036973476 -60.525939941406 -290.607849121094 1.994902968407
11.571688652039 -59.993385314941 -290.833770751953 0.730959653854
30.754905700684 -62.844379425049 -17.702571868896 1.982686996460
45.468387603760 -70.154090881348 -39.416805267334 1.529521703720
35.411315917969 -70.850906372070 -41.053001403809 0.517930030823
-41.872161865234 -62.870780944824 -48.233047485352 2.710941791534
-89.206466674805 -60.401283264160 -51.638347625732 0.464920550585
-92.288017272949 -60.357593536377 -58.703586578369 2.472994327545
-18.289134979248 -59.067695617676 -63.340702056885 1.238791227341
100.620368957520 -61.337703704834 -72.917030334473 2.820372343063
104.585937500000 -56.801815032959 -77.324897766113 2.362691164017
102.515090942383 -65.751396179199 -79.738586425781 1.228262782097
-50.154914855957 -62.748882293701 -85.036811828613 2.778006076813
-60.794422149658 -57.855361938477 -83.879234313965 1.398061633110
60.800781250000 -60.154678344727 -89.334136962891 1.059435248375
53.412395477295 -58.914257049561 -88.317100524902 2.382632255554
-63.511180877686 -60.248867034912 -95.487136840820 2.653464317322
-98.418380737305 -61.695644378662 -105.706481933594 1.364449381828
84.073699951172 -62.906593322754 -108.437942504883 1.622065782547
-77.485168457031 -64.639755249023 -109.634155273438 1.384708762169
-66.818695068359 -60.856712341309 -111.079704284668 1.370143175125
-81.335411071777 -62.676979064941 -117.066787719727 1.251465797424
-85.301071166992 -61.689846038818 -114.281715393066 0.406815350056
-78.476577758789 -62.603134155273 -117.163322448730 1.392847418785
-68.633804321289 -63.076126098633 -114.748252868652 1.153367042542
-66.230247497559 -63.465774536133 -116.758628845215 1.376719117165
-80.740013122559 -60.833656311035 -119.094535827637 1.485464692116
-77.081100463867 -58.422401428223 -112.283897399902 2.462115049362
-63.574546813965 -63.809104919434 -119.482864379883 1.153375387192
-83.382797241211 -61.917991638184 -115.994499206543 1.611241221428
-72.522727966309 -61.344192504883 -121.400947570801 4.269536018372
-75.697830200195 -62.482437133789 -129.341430664063 2.360145092010
-77.090255737305 -59.793479919434 -129.547409057617 2.633949518204
28.974557876587 -59.003379821777 -128.031738281250 1.230075836182
-55.536586761475 -64.419013977051 -128.896041870117 1.431733131409
26.453193664551 -61.123634338379 -132.727615356445 1.013810396194
25.213647842407 -59.749588012695 -134.514297485352 0.722481489182
-140.332565307617 -61.791595458984 -194.276184082031 2.342980146408
-138.283432006836 -64.388565063477 -198.455734252930 1.932894468307
-155.787094116211 -61.318714141846 -202.055038452148 2.468370914459
-149.415405273438 -60.895275115967 -200.722885131836 1.086131572723
-154.163604736328 -64.682678222656 -200.211364746094 2.995815992355
-149.502410888672 -59.197048187256 -203.423919677734 1.902021527290
-139.926879882813 -63.756736755371 -204.987945556641 3.425154924393
-148.597808837891 -62.077369689941 -204.903488159180 1.042004108429
-148.298980712891 -59.933311462402 -223.811187744141 0.936494052410
-147.395355224609 -59.961925506592 -224.345733642578 0.905589818954
-147.712081909180 -62.038600921631 -223.503616333008 1.030457973480
-144.247268676758 -63.576175689697 -222.472579956055 1.840774536133
-150.393768310547 -60.518619537354 -226.381164550781 1.789935588837
-141.572006225586 -60.410984039307 -224.730361938477 2.471585512161
-143.245040893555 -60.455665588379 -226.463272094727 0.656131684780
-141.837997436523 -57.786239624023 -222.821182250977 4.911989688873
-143.848190307617 -63.345718383789 -229.260635375977 2.363647222519
-144.097015380859 -61.920101165771 -230.154525756836 0.852624714375
-147.351715087891 -64.743492126465 -234.975936889648 1.708062052727
-148.420135498047 -60.464862823486 -232.669097900391 1.207339763641
3.873119115829 -61.274612426758 -241.229217529297 1.374324083328
19.503210067749 -62.845306396484 -242.980041503906 1.669078588486
25.047794342041 -63.666770935059 -252.767272949219 2.815845966339
26.125112533569 -63.003906250000 -262.377014160156 0.429505050182
9.502947807312 -58.281364440918 -266.633819580078 2.515293359756
21.941183090210 -66.250679016113 -279.141540527344 1.503413200378
2.558924913406 -61.296909332275 -277.398254394531 3.559191226959
5.295750141144 -59.824989318848 -288.190673828125 1.312884330750
11.081469535828 -62.940422058105 -290.472930908203 1.204588890076
51.183670043945 -69.970588684082 -20.118219375610 2.070463657379
32.581703186035 -58.314941406250 -35.883132934570 1.019260525703
-27.496524810791 -61.535106658936 -49.635696411133 1.989556193352
-18.902048110962 -62.219352722168 -50.420829772949 1.111763477325
-8.665446281433 -62.802925109863 -57.595973968506 2.586658954620
91.945022583008 -61.856483459473 -62.276557922363 1.473040461540
-100.746459960938 -59.802192687988 -68.596900939941 2.622513771057
107.062408447266 -60.491653442383 -75.639083862305 3.036818504333
57.965114593506 -59.168167114258 -82.483741760254 2.985413312912
62.229858398438 -65.487274169922 -89.380668640137 2.517530202866
-66.218635559082 -62.729454040527 -88.408485412598 2.533279895782
54.865535736084 -62.902622222900 -95.049415588379 1.449995040894
63.352882385254 -58.930938720703 -91.497871398926 1.651095509529
105.001678466797 -59.669570922852 -97.560859680176 2.427061557770
-63.161949157715 -58.672485351563 -98.075378417969 3.493502855301
-67.665512084961 -60.034168243408 -97.611335754395 1.530904531479
74.949111938477 -59.403194427490 -110.167839050293 3.148981571198
-75.043968200684 -61.950355529785 -107.051788330078 1.086378812790
-58.366931915283 -64.274574279785 -112.803688049316 2.915577173233
41.106651306152 -58.713569641113 -118.251907348633 1.757162928581
-82.130104064941 -59.256542205811 -121.633186340332 1.654451131821
43.000946044922 -58.728076934814 -117.911628723145 2.718659400940
-89.867279052734 -62.793277740479 -117.923828125000 1.353300094604
-97.816093444824 -61.232875823975 -123.496971130371 2.929372549057
-66.250755310059 -61.874023437500 -124.328819274902 1.503017067909
39.151885986328 -58.112079620361 -125.537452697754 1.418579220772
-61.672542572021 -58.476966857910 -131.158477783203 1.418029546738
-60.381618499756 -61.003108978271 -134.020523071289 2.051309585571
-55.832817077637 -60.543498992920 -137.781021118164 2.215938806534
-144.048721313477 -58.468185424805 -197.430572509766 1.950211167336
-145.179748535156 -57.346931457520 -192.287994384766 2.990540027618
-148.479904174805 -60.866466522217 -195.777908325195 0.932799279690
-152.060012817383 -59.251274108887 -198.368865966797 1.518020987511
-148.052368164063 -58.855804443359 -199.452377319336 2.822933197021
-141.865600585938 -58.370117187500 -196.275741577148 1.896651148796
-144.212753295898 -57.984783172607 -197.658950805664 2.272953271866
-144.475753784180 -60.762054443359 -198.961120605469 1.238759875298
-145.442321777344 -59.195716857910 -202.577453613281 1.811536908150
-153.324203491211 -58.565204620361 -203.733459472656 2.077862024307
-143.870391845703 -61.086101531982 -206.171401977539 1.908527731895
-146.382934570313 -63.396648406982 -207.168487548828 1.912599444389
-144.455047607422 -58.645671844482 -202.630569458008 2.282502174377
-148.411727905273 -59.763469696045 -205.812179565430 0.929357945919
-147.153533935547 -59.976276397705 -225.121139526367 1.300868749619
-7.260933876038 -63.205120086670 -241.047683715820 1.556773066521
4.115492820740 -61.371170043945 -241.309112548828 1.362906932831
10.274865150452 -59.390235900879 -244.002777099609 1.406461358070
7.832196235657 -59.417934417725 -242.257766723633 1.001219511032
21.533250808716 -61.701984405518 -248.940246582031 1.232496380806
-0.467860013247 -63.630504608154 -255.270080566406 1.894315242767
11.245792388916 -61.448688507080 -271.810455322266 3.642168760300
27.991325378418 -60.026229858398 -267.184234619141 1.854535698891
19.398284912109 -64.181838989258 -281.888854980469 1.970341444016
34.444816589355 -63.446567535400 -13.397103309631 2.168632268906
-69.920555114746 -58.731399536133 -41.730148315430 2.452424526215
-36.350879669189 -61.243232727051 -48.704509735107 2.343988656998
70.908576965332 -61.001285552979 -67.030830383301 3.841030359268
-26.602363586426 -62.393672943115 -71.431961059570 2.800075531006
-35.347835540771 -57.855224609375 -77.171005249023 1.791446566582
-41.814598083496 -60.029796600342 -77.116432189941 3.076413154602
62.222690582275 -58.089843750000 -92.765998840332 1.870035052299
105.931266784668 -58.690391540527 -88.519348144531 1.377503514290
67.857810974121 -65.127929687500 -93.060218811035 2.034780502319
-71.263954162598 -59.384429931641 -99.822608947754 0.842631280422
103.147552490234 -60.109424591064 -103.605789184570 2.821962118149
98.556922912598 -61.414981842041 -106.237716674805 1.338360309601
-65.017753601074 -58.306564331055 -105.454544067383 1.423376321793
80.871795654297 -60.777271270752 -107.590301513672 0.834785282612
92.679519653320 -58.097278594971 -109.661048889160 1.241673231125
-60.468662261963 -61.552074432373 -108.950675964355 2.719549894333
