-147.722290039063 -84.909576416016 -234.303787231445 1.928888440132
-2.521040916443 -79.943626403809 -222.640396118164 0.741459965706
17.667228698730 -79.634010314941 -235.806274414063 2.076959371567
-32.144546508789 -83.641616821289 -241.995162963867 3.740086317062
-144.492019653320 -79.916198730469 -239.397918701172 1.513969540596
-40.945205688477 -80.362640380859 -239.978744506836 1.974765539169
-45.810272216797 -82.240531921387 -243.592559814453 2.042591571808
-27.821680068970 -82.496665954590 -244.338256835938 3.759589672089
16.975484848022 -81.181327819824 -243.993301391602 3.200420379639
-47.262351989746 -82.748832702637 -244.285766601563 2.834517717361
16.460659027100 -83.004119873047 -244.133636474609 2.670195102692
10.061251640320 -78.710594177246 -237.264328002930 2.007715225220
10.249030113220 -83.498214721680 -245.104904174805 2.428334712982
-43.611587524414 -79.891822814941 -247.757583618164 2.724148988724
20.026054382324 -82.572212219238 -246.621963500977 0.828713655472
-142.241531372070 -83.159477233887 -249.450302124023 3.330433130264
22.009195327759 -81.106239318848 -247.890655517578 0.808556079865
2.903775930405 -84.312164306641 -246.950286865234 3.790607690811
10.044863700867 -80.731689453125 -251.107772827148 2.049371957779
-150.666229248047 -80.813934326172 -256.830261230469 2.778143882751
-148.912719726563 -82.728164672852 -260.952148437500 0.992776274681
-143.214492797852 -84.956550598145 -263.322845458984 2.043109416962
-154.369781494141 -80.299194335938 -262.097625732422 1.252901077271
16.704942703247 -81.293983459473 -268.480865478516 2.086302280426
-152.685119628906 -79.113502502441 -274.274139404297 2.854471683502
-5.338273048401 -81.371917724609 -277.712463378906 2.587916851044
-152.129058837891 -77.106666564941 -274.602416992188 2.216700077057
-144.930007934570 -81.674995422363 -275.229339599609 2.157735109329
-151.557876586914 -81.333534240723 -277.575744628906 1.615988850594
-153.952178955078 -80.412506103516 -286.142822265625 1.317742347717
-134.889358520508 -79.309860229492 -288.343627929688 1.048356771469
-149.786743164063 -84.416641235352 -290.336303710938 1.345423221588
-149.993850708008 -89.486198425293 -290.658020019531 3.787355661392
-148.221313476563 -82.786254882813 -297.733978271484 2.776104211807
-152.748611450195 -80.873023986816 -294.998107910156 0.705800056458
-147.341796875000 -77.419647216797 -295.287933349609 1.392730951309
-150.365646362305 -81.662887573242 -301.596008300781 1.472305297852
-147.225662231445 -81.608299255371 -301.665405273438 1.527097702026
-147.730926513672 -80.165153503418 -301.855804443359 1.708844661713
-55.469917297363 -80.195953369141 -56.996360778809 3.909072399139
-60.307476043701 -81.371246337891 -59.593643188477 3.634400129318
-48.303009033203 -79.958656311035 -62.759956359863 2.347054004669
-29.925933837891 -83.111068725586 -73.245864868164 3.485151767731
-55.123611450195 -80.682739257813 -89.654190063477 3.425430536270
-86.919616699219 -84.979743957520 -101.763442993164 3.029441356659
49.450164794922 -83.068862915039 -106.640625000000 4.177805423737
-80.686798095703 -83.486106872559 -104.502548217773 2.220487594604
38.560970306396 -80.473655700684 -111.455635070801 1.736357569695
38.032833099365 -80.591323852539 -120.955055236816 2.383180141449
36.090065002441 -79.342369079590 -122.964286804199 1.131303906441
37.267337799072 -78.367164611816 -135.532989501953 1.414122462273
30.999238967896 -79.212875366211 -137.401840209961 1.816675901413
33.909610748291 -80.610351562500 -133.711334228516 1.718933343887
28.860048294067 -79.716835021973 -149.132141113281 1.319851994514
-43.419494628906 -81.226562500000 -146.993850708008 3.009575366974
27.664453506470 -78.883972167969 -141.884796142578 1.232159614563
-63.997848510742 -79.947242736816 -153.703628540039 3.802724599838
-39.834407806396 -83.194580078125 -153.278656005859 3.994631290436
-60.186481475830 -81.918830871582 -166.147979736328 2.570323705673
-42.995597839355 -81.027648925781 -160.101623535156 2.455147743225
30.091976165771 -81.585433959961 -154.831481933594 1.748503446579
-35.832702636719 -83.505455017090 -164.852325439453 3.438639402390
-3.585263967514 -78.893096923828 -166.700729370117 0.776073276997
30.899063110352 -80.283134460449 -158.520080566406 1.271264553070
-12.274685859680 -82.219276428223 -167.086166381836 4.897635936737
-63.258872985840 -78.574195861816 -164.692825317383 1.903479337692
-37.360214233398 -81.295951843262 -167.996109008789 1.788045883179
-28.384883880615 -77.516502380371 -175.197280883789 2.412814617157
27.813440322876 -81.053642272949 -173.865295410156 3.230697393417
-55.855178833008 -81.139007568359 -179.006698608398 2.080097436905
-30.524192810059 -77.740905761719 -177.101333618164 2.003948926926
23.529720306396 -81.619384765625 -180.404602050781 2.667573451996
-51.716468811035 -79.981323242188 -185.241958618164 1.909137010574
-25.647798538208 -78.365394592285 -188.208282470703 2.212471008301
-54.531684875488 -79.521606445313 -181.390319824219 1.370324611664
-38.241924285889 -82.258110046387 -196.983444213867 0.429833441973
-30.117956161499 -83.449897766113 -189.243209838867 1.839885354042
-41.209362030029 -81.441268920898 -194.625305175781 1.474792718887
-24.863174438477 -78.947090148926 -192.594711303711 2.193604230881
-134.354064941406 -80.756019592285 -199.513900756836 0.879792034626
17.004432678223 -80.166358947754 -201.219543457031 3.066976308823
-137.156814575195 -76.445320129395 -198.456832885742 1.786577701569
-24.369321823120 -78.678573608398 -198.900451660156 2.265428066254
-18.138416290283 -76.812515258789 -197.598419189453 1.283209204674
-41.004001617432 -77.637550354004 -194.895553588867 1.686578035355
14.856842994690 -81.302154541016 -190.658737182617 4.346204757690
-16.632947921753 -80.192039489746 -199.679656982422 2.689314365387
-61.254890441895 -79.567253112793 -207.840576171875 2.286061525345
-37.128124237061 -77.715415954590 -203.361099243164 1.089195013046
-65.485076904297 -78.704849243164 -207.528839111328 1.693677902222
-70.537353515625 -78.797485351563 -208.910797119141 2.093343496323
20.090431213379 -80.123954772949 -211.881546020508 4.444200038910
-86.183738708496 -82.496803283691 -213.074737548828 4.274835586548
-29.723579406738 -80.872833251953 -218.166290283203 3.192733764648
-82.120765686035 -82.374092102051 -214.244476318359 3.149038076401
-146.333541870117 -83.416633605957 -219.125305175781 2.169301748276
-9.061753273010 -79.784599304199 -214.107635498047 2.008817672729
-11.417373657227 -78.371009826660 -220.272460937500 1.862567424774
13.977819442749 -79.567092895508 -211.605209350586 2.295933008194
13.753497123718 -82.112617492676 -221.264038085938 1.263909816742
-3.634603977203 -79.665519714355 -231.686157226563 1.115107059479
-133.118850708008 -80.524421691895 -226.711532592773 1.959573268890
-147.051376342773 -83.437911987305 -229.523269653320 1.655077457428
-147.321350097656 -76.401359558105 -232.444503784180 2.724616765976
10.342245101929 -80.546707153320 -232.110946655273 1.665171980858
1.524006962776 -80.098266601563 -235.312408447266 1.162989616394
-25.246410369873 -78.496276855469 -235.127792358398 3.416851758957
-149.219955444336 -80.999855041504 -237.331680297852 2.807149410248
9.994235992432 -77.828765869141 -245.151748657227 1.496097922325
-25.083728790283 -80.445625305176 -244.378402709961 3.113751411438
18.762016296387 -77.426551818848 -236.527191162109 1.690480947495
-55.695095062256 -80.748825073242 -245.790222167969 2.448687314987
-51.255901336670 -77.203231811523 -247.930862426758 1.641125202179
-144.983840942383 -82.495010375977 -245.731048583984 1.682416319847
-62.233272552490 -80.092201232910 -247.131011962891 2.504901409149
-4.622776985168 -74.891952514648 -250.717712402344 3.981156826019
-9.613628387451 -81.264854431152 -255.884567260742 2.462826490402
-148.387893676758 -83.037361145020 -257.858795166016 1.259164214134
-134.430480957031 -79.951560974121 -258.805572509766 0.703682363033
-135.758163452148 -79.003028869629 -262.191375732422 1.615226268768
18.492574691772 -76.949653625488 -261.824768066406 2.535266160965
-145.352722167969 -83.801681518555 -271.893157958984 1.904853343964
18.477924346924 -83.851142883301 -269.572601318359 4.372931480408
-149.432296752930 -78.388153076172 -269.528991699219 1.318887710571
4.845170021057 -86.472816467285 -276.963928222656 3.819747447968
-147.101104736328 -80.170593261719 -283.494934082031 1.296911358833
3.133996963501 -77.783851623535 -284.166442871094 1.555609464645
-154.392852783203 -83.575630187988 -283.648376464844 1.893932461739
-141.078674316406 -80.028167724609 -290.464721679688 1.944834589958
-136.746994018555 -80.692306518555 -284.301696777344 3.116024494171
-148.785919189453 -84.948333740234 -292.205017089844 1.597072720528
-17.637142181396 -80.463462829590 -289.958312988281 2.864580154419
-154.153625488281 -80.505157470703 -292.575164794922 0.688939332962
-149.851165771484 -81.178977966309 -294.416137695313 2.503033399582
-148.848098754883 -78.053573608398 -311.530151367188 0.820561766624
-57.178230285645 -78.005256652832 -59.081943511963 0.743870437145
-39.356426239014 -80.674812316895 -62.340736389160 2.979543924332
-72.286064147949 -80.784194946289 -61.427822113037 4.301129341125
-29.524253845215 -78.586410522461 -70.261337280273 0.979187726974
-28.494306564331 -82.636970520020 -73.891090393066 3.651699781418
-86.664009094238 -79.354530334473 -85.183815002441 0.782652199268
86.452842712402 -76.444869995117 -83.060546875000 0.824057638645
-38.414516448975 -78.040573120117 -81.692008972168 2.562714099884
81.007530212402 -81.289176940918 -82.417182922363 4.205904960632
75.387596130371 -77.885528564453 -87.342102050781 1.729288458824
85.844276428223 -75.091773986816 -91.855560302734 2.792526960373
81.109619140625 -76.990325927734 -91.150482177734 1.697106599808
92.820823669434 -77.757659912109 -90.686042785645 1.457924723625
-89.371963500977 -75.957344055176 -95.458602905273 3.475365161896
52.999813079834 -76.891937255859 -105.093551635742 2.055903911591
-92.625221252441 -77.249908447266 -117.233207702637 3.428456306458
37.204200744629 -79.498924255371 -111.896461486816 2.384682178497
49.897953033447 -78.738533020020 -112.692214965820 2.446506500244
39.937034606934 -79.620208740234 -116.788444519043 1.274055719376
30.505252838135 -79.613990783691 -130.724258422852 0.687353849411
26.082632064819 -81.024795532227 -140.908432006836 2.028457403183
26.856544494629 -77.599380493164 -144.500274658203 1.839382648468
32.237266540527 -78.179901123047 -148.564956665039 1.342112898827
-50.182968139648 -80.853073120117 -152.678390502930 2.803179025650
-45.469604492188 -80.828353881836 -151.959228515625 0.933561921120
-41.574668884277 -81.574974060059 -154.884063720703 1.674192190170
26.897813796997 -81.873657226563 -148.476730346680 2.591205596924
22.792594909668 -78.077537536621 -168.880355834961 0.726568698883
-36.696796417236 -79.698677062988 -162.446487426758 1.343650817871
-34.519947052002 -78.424850463867 -157.281585693359 3.093861818314
-47.661743164063 -77.261703491211 -154.997863769531 1.256510019302
1.222905993462 -79.533638000488 -166.512634277344 3.003934860229
25.377365112305 -78.797431945801 -157.301025390625 1.603363752365
30.208219528198 -74.217849731445 -159.543701171875 1.878294110298
26.658435821533 -79.117950439453 -167.994140625000 2.071472406387
-9.257811546326 -78.518409729004 -169.190811157227 0.638876974583
-1.047580003738 -78.885879516602 -169.906875610352 1.623802423477
-55.244350433350 -77.950210571289 -173.476547241211 0.977540969849
-61.271282196045 -79.616935729980 -167.734146118164 1.140920519829
-38.013595581055 -80.705802917480 -174.418701171875 2.696728944778
-38.429752349854 -78.081512451172 -166.650466918945 1.017896413803
22.897460937500 -79.099769592285 -172.975494384766 1.198604583740
-21.471658706665 -82.259307861328 -178.444976806641 0.694301486015
-36.082592010498 -83.664291381836 -181.010787963867 5.456082820892
-60.362415313721 -81.964477539063 -179.293334960938 3.646327018738
104.589981079102 -79.792594909668 -178.931106567383 3.570511341095
19.650377273560 -78.797637939453 -170.056030273438 2.141990900040
-25.377979278564 -78.139801025391 -178.912979125977 1.872472643852
-49.980415344238 -77.286399841309 -180.998916625977 0.807223558426
-16.108983993530 -76.980293273926 -178.407577514648 2.156774044037
107.935874938965 -79.345848083496 -178.298507690430 3.012472867966
-47.892654418945 -79.812858581543 -183.392501831055 2.259574413300
16.168430328369 -79.705596923828 -184.281982421875 1.793515205383
25.753114700317 -78.405540466309 -181.130447387695 1.146264791489
-54.342056274414 -79.382385253906 -181.368621826172 1.183200359344
-23.175432205200 -77.292022705078 -181.953552246094 0.973094880581
-56.667877197266 -81.606552124023 -175.301635742188 2.220217943192
-31.874608993530 -73.320526123047 -181.161483764648 1.694017767906
-27.059732437134 -79.458389282227 -184.780166625977 1.930514812469
21.950473785400 -81.395919799805 -186.478652954102 3.223619699478
-50.120689392090 -80.740425109863 -187.455795288086 2.020946741104
104.025169372559 -79.140136718750 -189.294158935547 1.738195300102
-51.153373718262 -75.930809020996 -190.706497192383 1.132330417633
13.413617134094 -81.027580261230 -200.597274780273 3.213797569275
16.536931991577 -78.617950439453 -201.258392333984 2.185862064362
-45.647357940674 -79.569976806641 -189.463623046875 1.221686482430
-19.185817718506 -77.804000854492 -189.975372314453 1.345056295395
103.363693237305 -79.566177368164 -196.220703125000 2.368925809860
104.258163452148 -80.456443786621 -196.011108398438 3.359726905823
-46.177715301514 -75.256561279297 -190.410324096680 1.990378379822
-149.218322753906 -81.932579040527 -194.473785400391 0.663569629192
-49.643226623535 -77.115623474121 -199.705429077148 3.146538734436
-145.951782226563 -79.340400695801 -200.025573730469 1.047330260277
-135.745132446289 -78.001586914063 -202.242645263672 1.424618482590
-42.458957672119 -76.423805236816 -198.064544677734 1.885651350021
12.247534751892 -79.380867004395 -208.213577270508 1.037118554115
-17.954513549805 -78.154098510742 -201.252288818359 2.555471897125
15.653782844543 -81.409431457520 -204.417449951172 2.550560235977
89.671661376953 -80.708312988281 -209.653137207031 4.358738899231
-39.084548950195 -77.586891174316 -199.078353881836 1.074347853661
-11.380983352661 -80.614349365234 -205.763854980469 3.500813484192
-10.459320068359 -79.885543823242 -210.034133911133 1.335094094276
-37.875812530518 -79.209320068359 -209.561599731445 1.326893925667
9.173793792725 -82.597465515137 -206.892074584961 3.782734632492
-75.256240844727 -77.494606018066 -210.832946777344 2.187218666077
13.859277725220 -80.776824951172 -213.616195678711 1.982423543930
-36.661357879639 -78.184661865234 -210.217315673828 1.209243774414
-143.090927124023 -78.915550231934 -207.681625366211 2.675495624542
-145.546752929688 -79.194282531738 -213.048431396484 1.694084405899
-85.653709411621 -79.205207824707 -213.340866088867 1.437898635864
-34.166618347168 -78.523765563965 -210.324905395508 1.886023163795
-24.416994094849 -79.160522460938 -214.400039672852 0.502516388893
-28.297370910645 -79.976860046387 -212.754165649414 1.186321496964
-90.942611694336 -80.172859191895 -219.170654296875 3.918366432190
-86.617462158203 -78.975753784180 -214.813354492188 1.461734414101
10.191880226135 -78.303367614746 -219.348648071289 2.388734102249
-147.976943969727 -78.108428955078 -217.545898437500 2.195655822754
-12.206551551819 -78.049797058105 -212.200332641602 1.361581563950
8.066966056824 -82.252670288086 -217.991546630859 2.546798229218
-142.259750366211 -80.218185424805 -217.444442749023 3.309114456177
-20.780702590942 -80.934700012207 -221.754196166992 2.829802989960
-3.617846012115 -78.660705566406 -223.010833740234 0.586984515190
-1.757442951202 -79.771713256836 -218.092819213867 2.535072088242
-152.310836791992 -78.774749755859 -223.851745605469 0.800059080124
-135.064178466797 -76.852134704590 -226.315322875977 1.706725597382
-5.277688980103 -78.251724243164 -226.121154785156 0.848472654819
-148.871276855469 -83.611511230469 -228.512252807617 1.453465580940
0.366019994020 -78.125488281250 -230.477447509766 1.740205049515
17.458684921265 -75.777961730957 -232.077606201172 0.531439900398
-2.683415889740 -76.224411010742 -236.067794799805 1.897626876831
1.649283051491 -78.893325805664 -233.701828002930 1.771632075310
8.495864868164 -83.459365844727 -233.789962768555 3.550246477127
-150.191421508789 -79.761848449707 -234.338485717773 1.922287106514
-18.062278747559 -78.492912292480 -237.941665649414 1.821274161339
-31.768901824951 -83.199340820313 -240.616760253906 3.429661035538
7.573831081390 -75.491096496582 -230.395309448242 1.431758880615
-0.260019987822 -76.916336059570 -237.708618164063 1.443454861641
5.132946968079 -79.714782714844 -235.148513793945 2.183283805847
-53.119487762451 -78.687835693359 -240.708969116211 2.441200971603
-151.446960449219 -77.781585693359 -246.510070800781 1.480169415474
-151.847152709961 -79.231071472168 -249.381454467773 2.047757625580
11.168232917786 -80.263557434082 -247.554229736328 1.433790922165
21.119951248169 -79.866661071777 -247.412734985352 0.864444971085
-58.907451629639 -78.507217407227 -248.710678100586 0.604440093040
-147.073043823242 -77.370399475098 -254.273254394531 2.490089178085
-153.034561157227 -82.968406677246 -255.573944091797 0.664533436298
-148.723983764648 -81.661247253418 -257.421142578125 1.862424135208
-144.188095092773 -81.572441101074 -258.958312988281 2.705667734146
-136.412597656250 -79.939338684082 -257.494598388672 1.421412467957
-12.492753982544 -78.190559387207 -257.517028808594 0.768979966640
-145.335021972656 -78.613296508789 -266.433685302734 1.919397711754
-11.539986610413 -81.498619079590 -260.840789794922 2.818776369095
-150.434799194336 -79.614204406738 -276.400878906250 0.675958931446
-150.633361816406 -81.097396850586 -283.495178222656 2.103290319443
-152.590316772461 -82.136756896973 -282.326110839844 2.473577499390
-4.990855216980 -75.088493347168 -288.091156005859 1.211618781090
-144.396331787109 -77.028297424316 -286.246368408203 2.428087949753
-34.502521514893 -78.341949462891 -283.225036621094 4.569390773773
-31.829637527466 -75.505775451660 -289.530517578125 2.562037706375
-20.135850906372 -78.341217041016 -286.358337402344 2.619081020355
-9.393500328064 -78.727806091309 -290.158325195313 2.038863182068
16.162691116333 -78.668975830078 -292.365234375000 1.712733149529
-125.476341247559 -78.149230957031 -288.824768066406 0.795831620693
-56.131065368652 -80.409988403320 -287.458038330078 3.674057245255
-39.049396514893 -77.691520690918 -292.265502929688 1.858913540840
-34.055313110352 -79.420448303223 -290.342346191406 1.869991064072
-9.647470474243 -78.995101928711 -289.232055664063 2.200813531876
6.404293060303 -77.403366088867 -287.847808837891 1.076806902885
-140.805206298828 -81.253189086914 -292.791320800781 2.862821578979
7.889952182770 -80.092178344727 -292.882904052734 3.029509305954
-154.024612426758 -81.107391357422 -304.212890625000 4.279234886169
-148.846649169922 -78.731941223145 -301.470825195313 0.479003489017
-151.706787109375 -78.009216308594 -311.779785156250 1.160827755928
-146.839340209961 -78.756629943848 -311.974304199219 1.289927601814
-51.955955505371 -77.088409423828 -53.327152252197 3.091703414917
-53.662002563477 -77.995155334473 -56.817459106445 1.339619040489
-67.650085449219 -77.790397644043 -55.663764953613 3.503130912781
-44.326660156250 -78.570495605469 -58.157260894775 1.776139259338
-39.915378570557 -75.103080749512 -59.193042755127 2.221109151840
-23.710178375244 -75.296005249023 -62.812141418457 1.101997733116
-82.500923156738 -78.716659545898 -67.146553039551 2.133131265640
81.793678283691 -77.179588317871 -79.593925476074 1.201457977295
-90.617263793945 -79.001869201660 -82.815635681152 3.036747932434
84.672485351563 -80.254760742188 -81.152618408203 2.925376653671
86.183738708496 -78.610771179199 -82.784805297852 1.792892456055
93.755897521973 -77.294059753418 -83.899978637695 1.995291352272
-59.540710449219 -83.209281921387 -93.831314086914 1.792026281357
85.250236511230 -79.599708557129 -93.297088623047 3.259787321091
80.326904296875 -76.781867980957 -92.666458129883 1.533555269241
91.319572448730 -80.028610229492 -91.153213500977 2.968998193741
-61.702766418457 -81.567726135254 -97.540161132813 1.915086507797
55.140857696533 -77.138420104980 -96.913459777832 1.458678603172
45.990211486816 -78.771812438965 -105.265930175781 0.474772095680
39.651702880859 -78.790748596191 -106.752944946289 2.959486484528
37.931133270264 -77.816513061523 -109.219360351563 1.081919193268
-92.182655334473 -77.560989379883 -113.724502563477 1.907358527184
35.582019805908 -79.737922668457 -117.850738525391 1.381716370583
-83.757759094238 -78.797912597656 -112.430671691895 1.901387929916
42.310428619385 -79.105987548828 -125.178924560547 0.830077946186
33.203311920166 -78.550674438477 -121.925292968750 1.876295924187
32.913700103760 -79.854278564453 -123.044136047363 1.667360424995
42.356113433838 -77.141853332520 -121.347610473633 2.170521974564
40.015239715576 -80.925254821777 -126.763763427734 1.422325611115
-55.145992279053 -73.144195556641 -139.196426391602 0.962378680706
36.590480804443 -79.873703002930 -134.246154785156 0.379836618900
36.642623901367 -78.378410339355 -141.064743041992 1.936326503754
-49.272228240967 -74.113693237305 -139.647430419922 1.939438939095
-48.420402526855 -80.443984985352 -141.131011962891 3.552216291428
34.606597900391 -78.954505920410 -143.561965942383 1.259089469910
109.732795715332 -76.698715209961 -141.611434936523 2.170159816742
111.701377868652 -77.124076843262 -142.908554077148 2.004866361618
27.317090988159 -80.076629638672 -144.614364624023 2.203338623047
-42.428646087646 -77.941955566406 -147.517593383789 1.411801934242
112.593154907227 -80.125205993652 -157.661666870117 3.178868532181
-42.370685577393 -77.543426513672 -155.535385131836 1.301738619804
-64.811309814453 -80.198982238770 -160.476806640625 1.951988220215
111.061897277832 -78.436195373535 -162.286209106445 1.170875906944
24.737411499023 -79.429954528809 -165.880020141602 1.100127220154
-0.225752994418 -78.989097595215 -164.823944091797 1.253664135933
112.823303222656 -79.420204162598 -154.293167114258 2.644968032837
-62.896961212158 -79.547615051270 -162.060226440430 1.456269264221
-35.739536285400 -80.989822387695 -161.159561157227 1.609854578972
111.656166076660 -76.871322631836 -164.349624633789 1.984205603600
27.317020416260 -75.332366943359 -158.509948730469 3.149065494537
-65.480415344238 -77.883560180664 -168.828399658203 1.470949172974
108.821563720703 -76.498649597168 -170.111618041992 2.472206592560
-64.427909851074 -80.344558715820 -169.206939697266 2.173227071762
-52.497028350830 -80.496681213379 -178.201187133789 2.777663707733
105.992919921875 -77.104804992676 -175.830490112305 3.309037208557
-62.138210296631 -77.853759765625 -169.243942260742 1.628792881966
112.416549682617 -77.357315063477 -173.419967651367 1.506612300873
-58.768825531006 -80.358787536621 -172.840972900391 1.272273421288
-13.544347763062 -77.858383178711 -176.417373657227 1.619912028313
-11.145212173462 -79.031829833984 -179.027969360352 1.096364855766
106.740371704102 -78.496185302734 -171.264068603516 2.723427057266
21.512369155884 -77.748878479004 -169.487472534180 0.988067150116
28.955299377441 -79.375381469727 -169.232070922852 3.444785118103
-55.013542175293 -80.306716918945 -177.564285278320 0.941752851009
18.580581665039 -77.779113769531 -184.376358032227 1.505307555199
-57.124389648438 -79.098167419434 -179.275436401367 1.911665558815
-51.471931457520 -76.017433166504 -190.003051757813 1.133756637573
13.789060592651 -78.433868408203 -181.170532226563 2.823859214783
-60.460666656494 -77.007820129395 -183.893234252930 3.335581302643
109.787605285645 -75.667320251465 -184.936553955078 0.870638370514
21.755651473999 -78.704910278320 -180.101318359375 1.835800290108
-31.636070251465 -78.795654296875 -188.170333862305 1.113826036453
-43.884082794189 -75.947776794434 -194.342956542969 2.123715400696
10.873391151428 -76.987808227539 -195.934112548828 1.231893420219
-22.981039047241 -79.036361694336 -188.938018798828 1.953674554825
-52.167301177979 -78.707260131836 -195.240921020508 3.533074378967
101.754310607910 -79.932800292969 -186.713272094727 3.860772609711
14.987313270569 -76.459976196289 -190.874877929688 0.798909842968
-135.375152587891 -78.893440246582 -195.886047363281 2.383344650269
-41.754245758057 -77.606880187988 -191.816894531250 1.020539045334
100.987663269043 -79.488227844238 -197.237655639648 1.886505723000
-148.094558715820 -80.303421020508 -201.543258666992 1.304791092873
18.165298461914 -77.779922485352 -193.283096313477 2.787843465805
-43.947364807129 -82.984870910645 -204.464187622070 3.317172050476
-32.931983947754 -79.232414245605 -204.231155395508 1.208130478859
-39.003467559814 -75.797348022461 -205.344467163086 1.126194596291
-42.762035369873 -78.482124328613 -193.941909790039 1.745182275772
101.194877624512 -79.959854125977 -200.660797119141 2.799165010452
-18.494384765625 -77.382293701172 -202.417556762695 1.071609854698
-151.106185913086 -76.051223754883 -202.645980834961 1.817049384117
13.846483230591 -76.826866149902 -207.918258666992 1.710047125816
-73.250045776367 -80.689216613770 -205.435562133789 2.841752052307
-146.785934448242 -77.575576782227 -210.529052734375 1.788875341415
97.183181762695 -76.400527954102 -209.124221801758 0.883134067059
-33.910850524902 -78.183967590332 -206.923843383789 1.159703016281
-26.598226547241 -77.344017028809 -216.048080444336 1.518774151802
6.755622863770 -79.394355773926 -211.137924194336 2.247135639191
-71.487197875977 -77.755310058594 -212.625625610352 1.043926239014
-27.834060668945 -77.623497009277 -209.284378051758 1.891789317131
-6.530354022980 -80.340698242188 -216.424697875977 1.614647746086
-78.045242309570 -81.230865478516 -216.318405151367 2.075615882874
-13.709181785583 -80.350921630859 -218.564636230469 2.545265197754
9.252563476563 -77.192436218262 -215.056335449219 1.276955842972
17.700454711914 -82.842277526855 -220.674575805664 4.199220180511
-146.501998901367 -78.450386047363 -217.199630737305 1.702652692795
-5.094509124756 -76.272544860840 -215.769821166992 1.395758032799
-92.494873046875 -74.928581237793 -221.831008911133 2.103536128998
-22.238258361816 -75.162651062012 -219.248992919922 1.432926297188
93.706016540527 -78.837066650391 -211.942947387695 1.936260938644
6.456118106842 -79.495712280273 -228.505844116211 1.081747055054
15.429470062256 -80.261245727539 -215.845062255859 1.147478342056
80.328910827637 -73.373947143555 -221.807052612305 1.228985309601
2.328042984009 -77.026580810547 -226.369506835938 1.479868412018
86.128799438477 -76.565429687500 -219.957641601563 1.913288593292
-16.122314453125 -77.583076477051 -222.766387939453 1.007410168648
13.825419425964 -79.739845275879 -222.305465698242 1.397771358490
-147.640869140625 -80.021202087402 -224.772125244141 2.175625324249
-18.272060394287 -83.461647033691 -226.053039550781 5.890062332153
1.674437046051 -81.596954345703 -226.865524291992 3.289893388748
-152.425521850586 -80.744926452637 -228.514007568359 1.629515767097
-134.493957519531 -78.258911132813 -227.503311157227 0.539840281010
10.133146286011 -77.140548706055 -227.137054443359 1.884999155998
-5.125940799713 -77.912651062012 -237.894866943359 3.951886653900
-137.070739746094 -78.571456909180 -231.798522949219 0.781201541424
-147.252883911133 -81.351318359375 -235.063522338867 2.543126821518
-145.382904052734 -76.556434631348 -237.871124267578 2.094542503357
-28.219665527344 -78.515579223633 -236.234848022461 2.840808629990
-145.093521118164 -77.111183166504 -243.886688232422 2.716467618942
19.854570388794 -77.244697570801 -240.635711669922 1.168612718582
6.328772068024 -78.711364746094 -243.834228515625 1.682148694992
-151.530105590820 -76.438499450684 -236.267028808594 2.201818466187
-150.848144531250 -78.484558105469 -242.671234130859 2.386777162552
-46.169364929199 -78.466835021973 -240.456909179688 2.775039672852
-32.302455902100 -81.025978088379 -244.656097412109 2.067398309708
6.282349109650 -80.379730224609 -248.585754394531 1.400338292122
-36.525856018066 -76.931777954102 -246.635665893555 1.820095777512
23.973505020142 -79.698379516602 -250.034103393555 3.164499998093
-3.064410924911 -79.726676940918 -246.479339599609 3.080201864243
-152.754577636719 -77.103485107422 -252.660507202148 2.363387346268
-5.848728179932 -74.539688110352 -248.876205444336 2.861230850220
-143.001235961914 -79.681701660156 -252.487792968750 1.946159720421
-66.797470092773 -78.853454589844 -250.272567749023 2.309539318085
-152.298812866211 -84.935012817383 -258.914001464844 1.337823033333
-125.871627807617 -79.987541198730 -261.408691406250 3.869620323181
-149.562240600586 -74.738639831543 -260.374572753906 1.135443806648
-12.341626167297 -76.397430419922 -266.612426757813 1.543467521667
-145.535507202148 -80.283103942871 -264.714721679688 0.896747708321
-149.496276855469 -78.728172302246 -264.363708496094 1.576515674591
-10.253071784973 -80.391609191895 -268.740722656250 2.032979965210
-147.964584350586 -79.405403137207 -269.015991210938 2.578180074692
-4.307679176331 -80.562561035156 -282.197662353516 3.789271593094
-44.819751739502 -79.578407287598 -283.086975097656 5.058908462524
-136.653381347656 -79.803482055664 -286.467987060547 1.353501558304
-132.962997436523 -75.955589294434 -282.940338134766 2.893036365509
-125.829696655273 -77.784057617188 -284.786743164063 1.993142962456
-54.363986968994 -77.213813781738 -282.227172851563 4.582127571106
-114.471427917480 -77.005790710449 -289.716522216797 2.697761058807
15.586380004883 -82.083999633789 -289.633209228516 3.906623840332
-61.626430511475 -77.824241638184 -287.371093750000 1.369721770287
-141.496429443359 -76.197738647461 -288.250000000000 0.785941720009
-62.285312652588 -75.632995605469 -287.988922119141 1.377403497696
-143.135864257813 -82.652488708496 -290.663269042969 1.104241728783
-118.678466796875 -77.298866271973 -286.781738281250 2.478907585144
-47.184291839600 -77.478279113770 -291.355590820313 1.306478977203
-38.313491821289 -78.563575744629 -290.769836425781 1.683366775513
-134.071624755859 -78.353286743164 -290.483245849609 1.348709106445
-11.397109031677 -75.265869140625 -292.217407226563 0.883312523365
-0.601993024349 -80.493080139160 -291.979705810547 3.532093763351
7.589914798737 -78.164657592773 -291.483123779297 0.930426299572
13.917848587036 -77.998764038086 -293.622772216797 0.651527583599
-148.600646972656 -81.328628540039 -295.683563232422 1.890232682228
-146.420333862305 -77.025100708008 -298.927398681641 1.412285804749
-70.031623840332 -76.120315551758 -61.855354309082 2.682217359543
87.687431335449 -77.245239257813 -77.023765563965 1.215640664101
79.743087768555 -77.969573974609 -76.128578186035 2.315806865692
-26.391986846924 -80.610023498535 -75.364532470703 2.524642467499
85.690162658691 -76.141807556152 -74.872573852539 2.142523527145
-37.301139831543 -76.004463195801 -80.855964660645 0.936918556690
89.945671081543 -80.430114746094 -78.060386657715 4.098011493683
91.126907348633 -80.016494750977 -80.811614990234 4.193118572235
-68.208229064941 -73.431251525879 -93.355751037598 3.693368673325
78.113533020020 -77.175270080566 -91.447036743164 0.651801586151
80.794052124023 -75.614837646484 -97.457115173340 1.741181135178
92.530075073242 -76.661666870117 -91.341621398926 0.856943905354
54.665687561035 -77.510093688965 -94.287231445313 2.383023977280
-77.786132812500 -82.032005310059 -101.349327087402 3.063570976257
-80.132102966309 -73.327552795410 -100.304946899414 1.024787783623
50.003498077393 -77.269561767578 -108.247917175293 1.290596127510
-91.612419128418 -80.389839172363 -107.981636047363 3.700610160828
44.494064331055 -77.623588562012 -115.913932800293 2.229003190994
111.340721130371 -76.416351318359 -116.367790222168 2.114504337311
109.826484680176 -75.527366638184 -131.677139282227 1.746980786324
26.106302261353 -74.637573242188 -138.259109497070 1.646672844887
112.377151489258 -80.272819519043 -128.873275756836 5.117834091187
27.779485702515 -76.281814575195 -134.217178344727 1.469621896744
111.877128601074 -77.970359802246 -130.911422729492 2.230607032776
35.209518432617 -80.326240539551 -136.707489013672 1.550373077393
-51.731555938721 -80.230812072754 -148.347122192383 2.378518104553
35.241001129150 -76.906661987305 -140.996810913086 1.771245002747
111.510070800781 -75.915809631348 -137.562637329102 0.755652010441
-50.374229431152 -78.163772583008 -147.757278442383 1.349921464920
30.490242004395 -80.491401672363 -146.685867309570 1.800916194916
-55.290004730225 -77.401893615723 -136.321502685547 2.818205356598
-54.586086273193 -81.993049621582 -148.177291870117 5.044155120850
-51.678016662598 -75.484550476074 -150.579650878906 1.977241277695
-65.884742736816 -79.569587707520 -155.964477539063 1.789081692696
113.269477844238 -76.459594726563 -148.258804321289 1.123144149780
-50.831001281738 -77.048973083496 -153.267745971680 1.080573320389
20.221237182617 -79.203437805176 -157.591857910156 2.485051393509
109.746261596680 -80.324035644531 -157.133285522461 3.991803884506
-67.558731079102 -79.297332763672 -156.049819946289 2.031281471252
-48.321159362793 -76.878547668457 -156.670654296875 2.359959840775
7.479321002960 -76.184532165527 -156.658477783203 1.080347418785
-64.825836181641 -74.917526245117 -158.449203491211 1.266868591309
-59.838050842285 -78.337341308594 -162.240875244141 1.472452402115
-1.058153033257 -82.660812377930 -161.424652099609 4.686514377594
-43.477798461914 -79.845733642578 -170.059661865234 3.219072341919
28.526193618774 -75.223281860352 -164.469085693359 1.246280074120
-64.976364135742 -77.404502868652 -163.800476074219 1.662713170052
-52.891162872314 -74.587875366211 -168.540130615234 4.589311122894
21.759346008301 -77.075141906738 -162.110443115234 1.685643196106
-30.713285446167 -81.054817199707 -173.229141235352 2.211333990097
-31.927892684937 -74.569450378418 -167.657546997070 1.927714705467
15.401513099670 -75.990814208984 -175.658187866211 1.654313921928
-39.043159484863 -80.684974670410 -175.050567626953 3.298922538757
-9.323062896729 -76.952316284180 -174.108383178711 1.551648736000
-62.505119323730 -76.894973754883 -171.461166381836 1.830562472343
-5.641189098358 -77.401985168457 -170.977615356445 2.264549493790
-23.228422164917 -81.297592163086 -178.684906005859 2.029629945755
20.812374114990 -78.873443603516 -182.193954467773 0.891296386719
-37.424167633057 -76.433158874512 -174.802688598633 1.896238446236
17.671247482300 -77.813865661621 -178.528472900391 2.932730674744
-19.527978897095 -76.837158203125 -184.929183959961 1.081766486168
-32.864379882813 -78.001350402832 -181.056259155273 1.353525876999
-146.187759399414 -73.467933654785 -186.531570434570 1.587370038033
-23.825819015503 -77.687324523926 -186.176956176758 0.949260771275
-145.302459716797 -76.051139831543 -190.964828491211 2.070261955261
-151.385925292969 -77.297424316406 -187.951065063477 2.190054178238
-46.373867034912 -79.393859863281 -188.073654174805 1.362007498741
100.681678771973 -79.168655395508 -193.978683471680 1.990234971046
-145.334457397461 -76.689308166504 -192.358901977539 1.329375982285
-152.276321411133 -78.428657531738 -197.526382446289 1.375493407249
20.365940093994 -77.684844970703 -196.788116455078 2.258863687515
-135.164657592773 -74.715042114258 -196.000686645508 1.861142516136
21.241033554077 -73.519477844238 -197.747848510742 1.453350543976
-140.367919921875 -74.525741577148 -200.653274536133 0.693190634251
11.481418609619 -77.673423767090 -195.843368530273 1.703068614006
-136.593139648438 -75.885078430176 -201.887130737305 1.207551360130
7.637228965759 -76.313713073730 -206.157470703125 1.015813350677
-149.354431152344 -76.776062011719 -203.058395385742 1.753191590309
92.019554138184 -74.805511474609 -203.794647216797 1.864146471024
-14.246014595032 -76.334785461426 -205.187454223633 1.726692914963
-27.906707763672 -76.051597595215 -206.339447021484 2.094359636307
-9.968935966492 -80.577178955078 -204.081634521484 3.628721714020
-149.521942138672 -79.362205505371 -210.518432617188 1.651647329330
-38.836204528809 -79.133728027344 -206.902023315430 1.342894315720
-82.469200134277 -76.995445251465 -210.019485473633 0.803984642029
-28.849472045898 -78.132728576660 -211.834564208984 0.923652052879
18.193737030029 -74.061912536621 -208.976409912109 1.229986429214
-146.801895141602 -78.213279724121 -209.499252319336 2.438214778900
-88.432144165039 -76.694763183594 -213.764205932617 1.636912226677
-26.748165130615 -76.974143981934 -214.202545166016 0.415665984154
-25.500911712646 -73.978553771973 -220.073822021484 1.785822987556
-14.729735374451 -75.943099975586 -215.988662719727 1.832534909248
-25.899702072144 -76.610649108887 -214.647354125977 1.037043690681
-79.902641296387 -77.788627624512 -218.335342407227 3.098403215408
-84.675178527832 -78.511444091797 -221.017211914063 4.522672653198
-22.546543121338 -78.157455444336 -221.800582885742 2.645869970322
-4.445195198059 -76.135971069336 -221.735565185547 2.363082885742
-148.261306762695 -75.088027954102 -216.459060668945 1.085026621819
-2.294929981232 -75.803398132324 -217.978240966797 1.524730682373
83.250793457031 -75.989601135254 -224.656692504883 1.722023844719
-143.602828979492 -80.538566589355 -227.247497558594 1.911654829979
-7.413544178009 -76.782447814941 -223.647476196289 0.832499802113
-142.783706665039 -77.787597656250 -229.445419311523 2.292098283768
-148.930221557617 -84.470764160156 -226.209930419922 0.799519479275
-6.335874080658 -76.531524658203 -229.361572265625 1.048783540726
19.413892745972 -77.223403930664 -221.522598266602 1.915021657944
-140.889099121094 -77.085403442383 -228.582656860352 1.280738353729
-14.618782997131 -76.902099609375 -231.013519287109 1.962309718132
76.988716125488 -77.772796630859 -227.403564453125 2.446331977844
80.020027160645 -77.585556030273 -234.308746337891 4.666807174683
8.477625846863 -75.367851257324 -231.532562255859 0.860735714436
-25.517221450806 -76.311485290527 -241.277816772461 2.370826721191
-19.672252655029 -77.860649108887 -236.269073486328 2.022377729416
7.547805786133 -76.191047668457 -243.872161865234 0.816660225391
-47.112300872803 -74.330528259277 -242.471160888672 1.468142509460
-25.121540069580 -78.142601013184 -246.282501220703 4.188188552856
8.203041076660 -77.928398132324 -244.340347290039 1.652719140053
-64.116027832031 -77.248268127441 -248.483367919922 1.014854550362
-30.436422348022 -75.452651977539 -246.925765991211 3.911661148071
-43.392532348633 -75.828216552734 -244.141906738281 1.599771499634
-150.380462646484 -76.569145202637 -244.523925781250 1.752681493759
-48.589859008789 -78.337554931641 -248.505859375000 2.339927434921
-54.030502319336 -77.328193664551 -247.170257568359 1.067193508148
-65.464729309082 -81.035514831543 -250.664352416992 3.970744371414
-7.805129051208 -74.909019470215 -250.380401611328 2.229536533356
-83.001403808594 -75.120223999023 -252.771118164063 0.962041318417
-150.703186035156 -81.904060363770 -257.952941894531 1.601425051689
-139.334243774414 -82.811447143555 -258.250091552734 2.637805938721
-125.106933593750 -74.404235839844 -261.869323730469 1.246655464172
-153.777862548828 -74.740623474121 -262.912933349609 1.295837521553
20.265623092651 -76.697257995605 -261.820800781250 1.685347080231
-10.831825256348 -77.149055480957 -268.700775146484 1.617588520050
-151.439086914063 -78.140609741211 -267.840637207031 2.739835023880
-151.201492309570 -77.533370971680 -275.695678710938 1.860954046249
-142.409194946289 -80.290214538574 -282.142913818359 3.061923980713
-56.683731079102 -78.893470764160 -285.453857421875 3.995938301086
-36.616615295410 -76.187156677246 -287.429656982422 1.916794896126
-24.518201828003 -76.340667724609 -290.617645263672 1.011500358582
-13.125027656555 -77.166481018066 -286.970245361328 1.832814216614
-65.967979431152 -77.135284423828 -285.691284179688 2.693546295166
-77.471260070801 -75.827499389648 -286.569854736328 0.668812453747
-4.760387897491 -78.850868225098 -288.640533447266 1.505398988724
10.602552413940 -78.328514099121 -289.944335937500 0.757838726044
-134.119018554688 -78.723930358887 -289.876678466797 1.853321433067
-77.009063720703 -75.354782104492 -289.256195068359 0.960428059101
-147.302291870117 -77.315612792969 -291.007049560547 2.076948165894
-93.137672424316 -75.820915222168 -289.420959472656 1.668646931648
-72.138259887695 -75.233535766602 -289.838531494141 1.827724099159
-83.509834289551 -78.195343017578 -290.462829589844 3.168826580048
-62.117549896240 -78.791625976563 -290.122406005859 2.418280839920
-22.690490722656 -76.700897216797 -293.693450927734 3.291874885559
-2.289577960968 -75.785812377930 -291.480834960938 0.996940493584
-154.512252807617 -77.377182006836 -294.577819824219 2.658382892609
-147.246643066406 -78.495811462402 -298.364929199219 2.621572017670
-144.877044677734 -77.525230407715 -302.392547607422 1.310285329819
-154.010848999023 -76.797447204590 -307.988037109375 1.142110347748
-58.675628662109 -76.006607055664 -55.729446411133 0.640437602997
-46.861938476563 -74.299316406250 -53.277042388916 2.456852912903
-41.505641937256 -74.240928649902 -54.521953582764 1.621488690376
-76.190422058105 -79.734214782715 -58.693386077881 4.262093067169
-30.144369125366 -76.376213073730 -60.033668518066 2.145242691040
-29.167591094971 -76.567901611328 -78.655738830566 0.539805769920
75.389686584473 -80.170379638672 -83.776123046875 3.710543870926
78.698249816895 -78.329116821289 -84.674201965332 2.746023416519
77.939338684082 -76.093879699707 -85.677627563477 1.644395470619
96.522659301758 -79.060157775879 -90.312919616699 3.645011425018
73.134414672852 -77.601951599121 -91.058448791504 2.091689586639
55.720520019531 -77.544647216797 -93.675041198730 2.941610813141
45.749931335449 -77.495132446289 -100.809814453125 0.733902931213
-66.281341552734 -79.261833190918 -101.717826843262 3.015591621399
-72.775840759277 -73.172561645508 -99.825302124023 2.894182205200
44.582237243652 -75.386474609375 -103.087097167969 0.908880412579
-83.445121765137 -78.694953918457 -108.470848083496 1.294416546822
-92.597404479980 -73.520553588867 -111.719146728516 1.362020969391
49.632709503174 -74.973999023438 -103.788818359375 1.577126502991
105.959739685059 -75.139503479004 -111.853446960449 1.729387879372
33.336700439453 -78.075286865234 -120.747108459473 1.782303333282
45.350986480713 -79.331222534180 -117.346397399902 2.212407588959
43.444873809814 -78.258163452148 -124.115509033203 1.088847994804
29.166515350342 -77.169258117676 -126.216552734375 1.552672147751
109.370651245117 -75.857719421387 -117.493202209473 1.403618931770
35.352031707764 -78.575477600098 -126.239486694336 2.556756019592
30.809850692749 -75.759315490723 -130.039672851563 1.395379543304
-43.821308135986 -74.438163757324 -143.234832763672 0.924075067043
-70.575073242188 -77.522628784180 -147.551147460938 1.840725421906
-53.188556671143 -75.324409484863 -147.749984741211 1.099179506302
-70.824310302734 -76.177413940430 -143.398345947266 1.725692510605
-41.421066284180 -76.739860534668 -148.330001831055 0.831211805344
109.512550354004 -74.216156005859 -150.680541992188 0.697849154472
-71.585296630859 -76.696502685547 -153.576339721680 1.777332901955
22.951658248901 -80.445472717285 -151.276901245117 3.019501209259
32.982574462891 -73.977943420410 -151.739303588867 0.799959838390
114.763839721680 -74.903106689453 -155.445831298828 2.184164285660
8.163129806519 -74.202407836914 -157.375534057617 1.824656963348
32.822532653809 -75.072860717773 -156.279968261719 1.553539872169
-60.897331237793 -76.567390441895 -159.571929931641 1.884214878082
-45.953567504883 -79.046073913574 -169.944854736328 4.451600551605
19.010717391968 -75.879859924316 -164.114379882813 2.311650514603
-65.959220886230 -74.912117004395 -166.264099121094 2.068351507187
-65.670974731445 -74.081245422363 -161.700378417969 1.654784560204
109.940902709961 -78.605903625488 -165.326843261719 1.715203285217
-9.815296173096 -73.108177185059 -168.171676635742 3.225416183472
-58.090576171875 -79.035629272461 -176.691894531250 1.772715806961
-29.632020950317 -75.364486694336 -172.584991455078 1.276182532310
-55.098999023438 -75.919746398926 -172.906997680664 1.622536778450
29.686477661133 -80.302398681641 -169.095962524414 4.172467231750
110.293724060059 -72.367614746094 -169.486938476563 1.149141311646
106.893737792969 -79.200561523438 -181.896392822266 1.718601346016
112.168182373047 -78.556335449219 -190.643753051758 5.551039218903
107.861312866211 -77.154098510742 -175.145263671875 2.236055135727
-56.775466918945 -77.394058227539 -189.852676391602 4.574334621429
-52.166755676270 -75.198249816895 -181.568481445313 1.257367849350
24.280002593994 -77.298446655273 -183.651336669922 2.068951606750
-51.258178710938 -71.804130554199 -187.005340576172 3.072936296463
-21.680973052979 -75.209197998047 -186.106079101563 0.733908116817
-50.392509460449 -75.090629577637 -191.644134521484 0.431417018175
-146.233459472656 -78.072036743164 -195.625625610352 2.230211496353
100.707534790039 -74.659622192383 -192.427032470703 1.727080345154
-45.528316497803 -75.905273437500 -191.348770141602 1.916255831718
-15.185469627380 -78.288276672363 -195.898803710938 1.594043731689
-138.663162231445 -77.428649902344 -200.467605590820 2.257862806320
-44.733139038086 -77.520217895508 -195.459350585938 0.536087393761
105.387016296387 -81.340469360352 -195.037368774414 4.680488586426
107.487365722656 -77.117546081543 -188.124130249023 0.947853386402
-46.942985534668 -78.245536804199 -197.689346313477 1.487432241440
-23.389095306396 -76.529273986816 -195.411376953125 1.352964520454
-149.464157104492 -82.338668823242 -200.310394287109 1.239506959915
-26.284687042236 -75.897224426270 -200.339477539063 1.747672796249
-152.805969238281 -79.182731628418 -198.576248168945 0.899722814560
-152.570358276367 -78.110343933105 -202.632354736328 0.591258406639
-141.178497314453 -77.445060729980 -201.456939697266 0.675900638103
-37.615325927734 -76.163078308105 -197.249816894531 1.827440857887
102.161186218262 -77.947151184082 -200.015457153320 1.382903218269
-38.510379791260 -75.405601501465 -200.619903564453 1.233522653580
-144.088973999023 -79.592544555664 -202.915725708008 0.889579892159
-37.871326446533 -76.414695739746 -208.125061035156 1.610551118851
-18.439517974854 -78.434555053711 -210.123779296875 1.359402537346
94.787147521973 -77.139274597168 -203.847457885742 1.502086758614
94.296539306641 -76.806327819824 -208.242446899414 0.796408593655
-28.038463592529 -77.715911865234 -216.570648193359 1.601094126701
-87.046417236328 -78.868560791016 -212.251953125000 1.677160978317
-72.220199584961 -77.405364990234 -211.947738647461 1.928571939468
-17.845062255859 -77.400894165039 -218.451568603516 2.469428777695
-149.853744506836 -73.944572448730 -213.262252807617 2.160342454910
86.861549377441 -78.582092285156 -215.177246093750 2.779673099518
88.434661865234 -74.983680725098 -220.516891479492 1.402789592743
89.292701721191 -78.089561462402 -218.524444580078 1.959720611572
-100.796630859375 -71.857475280762 -223.293609619141 1.129253864288
-147.895141601563 -78.604560852051 -224.357269287109 2.597966670990
-18.512361526489 -80.517684936523 -219.739303588867 2.657261133194
80.382652282715 -75.467529296875 -223.847045898438 1.417313575745
-146.258804321289 -82.343223571777 -226.360610961914 1.045749425888
-30.358304977417 -76.435836791992 -221.623855590820 3.968232154846
-132.459716796875 -72.342620849609 -231.768692016602 1.767223834991
-11.949094772339 -78.276069641113 -227.258926391602 2.257630825043
19.288236618042 -76.185745239258 -220.418670654297 1.242190599442
16.970514297485 -76.279464721680 -233.914825439453 1.642130374908
-155.305297851563 -80.355850219727 -234.201324462891 3.235632658005
