-145.005081176758 -70.082870483398 -231.194412231445 3.642261505127
-151.340011596680 -67.519538879395 -232.476394653320 2.433143615723
-163.749435424805 -67.333854675293 -236.855010986328 2.156281471252
-133.881805419922 -69.364410400391 -237.207260131836 2.827923536301
-132.493896484375 -69.899963378906 -235.582366943359 1.333401679993
-153.097457885742 -69.546951293945 -232.867446899414 1.663754582405
-143.020645141602 -68.558746337891 -235.897094726563 1.569556713104
-149.914733886719 -67.511955261230 -236.732528686523 1.776953816414
74.737167358398 -73.125129699707 -224.993637084961 2.846863985062
70.334098815918 -71.036071777344 -239.081741333008 0.998443305492
-158.151290893555 -68.629745483398 -240.514266967773 1.093453288078
71.859802246094 -73.512313842773 -234.221328735352 0.920822441578
-17.457246780396 -71.806495666504 -237.927978515625 1.668204784393
11.702703475952 -72.619636535645 -238.667053222656 2.177423477173
14.001022338867 -75.471458435059 -236.649200439453 3.046068906784
-144.187332153320 -69.475379943848 -246.708877563477 2.488144636154
17.076240539551 -72.428024291992 -243.371566772461 1.820248365402
67.493637084961 -74.540603637695 -237.591415405273 1.258761048317
14.134402275085 -71.783462524414 -237.456604003906 1.604379534721
8.035524368286 -74.984382629395 -244.600341796875 1.461550235748
-4.697824001312 -69.650177001953 -242.013336181641 3.007057189941
-16.594652175903 -74.483078002930 -246.684280395508 4.580961227417
2.821244001389 -74.605087280273 -244.163955688477 0.808510899544
5.124341964722 -71.709846496582 -243.296447753906 0.922156631947
59.386173248291 -74.549972534180 -242.233901977539 1.210519313812
-55.523029327393 -72.066200256348 -247.156250000000 2.181698560715
20.997009277344 -73.047096252441 -249.410461425781 2.426172971725
-57.119289398193 -71.040977478027 -246.883636474609 1.371203303337
-5.341781139374 -71.812332153320 -250.112991333008 3.992378711700
-61.768318176270 -69.115119934082 -253.820602416992 5.852719783783
-82.834045410156 -75.138870239258 -253.572250366211 0.442416638136
-79.473548889160 -73.423637390137 -253.185531616211 2.097136020660
-12.528321266174 -71.322807312012 -253.333084106445 2.185454607010
-121.823715209961 -72.593643188477 -261.324310302734 2.332682847977
-12.285191535950 -69.857810974121 -257.104003906250 1.670189857483
-117.818649291992 -70.112609863281 -258.880432128906 3.156899929047
-114.006561279297 -67.941596984863 -260.869567871094 1.583461999893
-101.062965393066 -73.194389343262 -260.537719726563 1.476325988770
-140.815261840820 -69.065536499023 -264.476959228516 2.034486532211
-143.334426879883 -68.143920898438 -269.007019042969 4.010369300842
-164.729812622070 -67.398300170898 -267.725341796875 2.112290620804
17.727176666260 -74.304153442383 -281.961029052734 1.713309764862
-55.257198333740 -72.941833496094 -286.378784179688 1.497192502022
-62.663364410400 -71.529815673828 -286.615875244141 1.426674246788
-40.800975799561 -73.166465759277 -286.960815429688 1.873264789581
-25.179141998291 -73.428466796875 -285.043975830078 1.915889024734
-91.410552978516 -70.544075012207 -293.574493408203 2.319949388504
-27.146478652954 -70.076599121094 -289.594970703125 1.980173587799
0.025203999132 -69.228271484375 -287.324890136719 4.365831375122
-163.027832031250 -70.159957885742 -292.387756347656 1.257592916489
-11.070064544678 -73.543861389160 -290.304504394531 2.372064590454
10.660498619080 -69.899856567383 -290.417541503906 1.631312370300
17.715503692627 -69.381385803223 -291.444305419922 4.484668731689
-53.064441680908 -71.945228576660 -293.569915771484 3.447691440582
-26.164085388184 -73.599143981934 -289.696533203125 1.968733191490
18.011621475220 -70.314407348633 -291.701324462891 3.874362230301
-65.697982788086 -72.007186889648 -294.959014892578 4.520099163055
-34.581787109375 -70.931961059570 -292.252960205078 2.908751487732
-13.951247215271 -70.678268432617 -292.835205078125 2.357765913010
15.344068527222 -72.490959167480 -292.200378417969 1.246021151543
-9.746509552002 -73.786499023438 -291.618072509766 1.434578657150
8.034944534302 -70.403091430664 -293.615539550781 2.978781223297
15.724494934082 -72.426345825195 -293.955688476563 1.381274104118
-131.424179077148 -71.227767944336 -294.717163085938 3.061897277832
-139.204269409180 -71.234901428223 -304.474395751953 4.770008087158
-145.668228149414 -72.854133605957 -314.260192871094 2.206351280212
39.439334869385 -68.802864074707 -13.178121566772 2.203625679016
30.488786697388 -73.519325256348 -10.994523048401 2.807848691940
39.334323883057 -73.939964294434 -16.176738739014 2.715750455856
20.913421630859 -73.538398742676 -21.813564300537 1.858882546425
42.986789703369 -73.950660705566 -24.684988021851 3.734302282333
22.561458587646 -72.178024291992 -21.639686584473 1.048075079918
24.138952255249 -76.421302795410 -30.830633163452 4.277837276459
22.387842178345 -75.448654174805 -36.381732940674 3.448973894119
42.855472564697 -71.712135314941 -33.359336853027 1.086855769157
27.191637039185 -73.297424316406 -37.804187774658 2.473657608032
40.775070190430 -74.031227111816 -33.792758941650 2.970503091812
33.158489227295 -71.782928466797 -38.024723052979 1.483098149300
33.199417114258 -74.019126892090 -39.997299194336 1.707294702530
32.421566009521 -72.572822570801 -41.792724609375 1.504170417786
43.168655395508 -73.656059265137 -43.135295867920 4.332927703857
35.091117858887 -70.828338623047 -44.373867034912 3.279456615448
-37.931617736816 -68.398643493652 -55.238185882568 5.132712841034
-29.708589553833 -68.446044921875 -48.796768188477 2.040070056915
-88.065162658691 -68.823226928711 -58.370269775391 2.260231494904
-86.498321533203 -73.398330688477 -66.311531066895 1.680220723152
80.873184204102 -74.751655578613 -68.213592529297 2.281093120575
83.549057006836 -75.277267456055 -71.580337524414 1.422026753426
-15.403514862061 -73.730087280273 -75.252082824707 4.584996223450
-85.800361633301 -73.828895568848 -73.413375854492 3.241851568222
-23.856969833374 -72.550643920898 -79.996749877930 3.451841592789
-48.883079528809 -75.243370056152 -90.016235351563 2.580114126205
64.905609130859 -72.397613525391 -85.971107482910 2.622117280960
55.698467254639 -71.446792602539 -92.094924926758 1.567503929138
98.561660766602 -74.774833679199 -89.103431701660 1.570270061493
73.976814270020 -75.498214721680 -95.929656982422 1.437568664551
-63.520988464355 -75.393180847168 -94.754699707031 1.664763212204
-64.346900939941 -71.056930541992 -98.010826110840 2.366670370102
45.635513305664 -74.589332580566 -97.533485412598 1.494905591011
74.895416259766 -77.687522888184 -101.796562194824 4.896054267883
52.525669097900 -77.339935302734 -103.123947143555 1.965247631073
102.193717956543 -76.673187255859 -97.751785278320 3.524064064026
-90.771789550781 -71.589172363281 -109.143722534180 4.674544334412
39.756389617920 -78.075706481934 -111.709648132324 0.993470191956
108.086601257324 -73.067939758301 -107.753097534180 1.420610070229
47.655193328857 -71.205734252930 -111.132087707520 2.255625247955
104.501457214355 -72.663909912109 -107.186103820801 1.017653465271
-83.700233459473 -71.075454711914 -115.967071533203 2.765510797501
37.138553619385 -72.900169372559 -114.913871765137 1.096874594688
109.903213500977 -76.168655395508 -118.082786560059 1.204710125923
103.920043945313 -73.820648193359 -115.993667602539 2.698493719101
108.583930969238 -76.675056457520 -114.824867248535 2.873218297958
110.823562622070 -77.786193847656 -115.523635864258 3.584934473038
35.975307464600 -73.785827636719 -114.979736328125 1.233971476555
33.686836242676 -76.830009460449 -119.700294494629 1.795206427574
45.004352569580 -73.186149597168 -114.824234008789 1.463196039200
110.864067077637 -74.742301940918 -123.549095153809 2.214054822922
41.205146789551 -72.161499023438 -125.399528503418 1.572096228600
111.074394226074 -75.936241149902 -131.793167114258 1.492335915565
115.183364868164 -73.185768127441 -129.208053588867 2.117545366287
34.043804168701 -72.528396606445 -122.480895996094 1.188837528229
-75.998268127441 -72.879089355469 -128.730697631836 2.063477039337
118.003936767578 -77.600921630859 -135.364669799805 3.516285896301
-57.347049713135 -75.665855407715 -141.464385986328 1.957544565201
36.176582336426 -74.720863342285 -136.776840209961 1.360965251923
-72.184066772461 -71.724914550781 -140.939834594727 1.316041350365
30.589509963989 -72.035255432129 -135.471939086914 1.127968430519
-73.251647949219 -72.893035888672 -143.576492309570 0.763498663902
-42.503395080566 -74.599502563477 -147.528396606445 1.566403031349
-71.165534973145 -73.429336547852 -138.150650024414 1.507578492165
112.128593444824 -70.754814147949 -138.005020141602 1.206582903862
116.902824401855 -75.181068420410 -140.791717529297 2.413302898407
122.468612670898 -75.280838012695 -145.269790649414 6.172966480255
-70.765686035156 -71.955650329590 -146.661651611328 0.732000887394
10.644286155701 -71.378852844238 -151.499618530273 0.265317410231
-55.084434509277 -70.726638793945 -154.836288452148 3.356095075607
-46.092220306396 -74.000640869141 -156.014984130859 2.623579502106
110.297424316406 -72.808578491211 -159.153198242188 1.802338004112
-39.195438385010 -73.995285034180 -152.816726684570 1.409008502960
13.104660987854 -71.436050415039 -160.343536376953 1.504037976265
23.948110580444 -72.125045776367 -160.010040283203 1.776685237885
115.516845703125 -75.564002990723 -163.701705932617 1.498696088791
32.622310638428 -70.489685058594 -161.981658935547 2.161477327347
-0.557797014713 -75.655738830566 -161.819885253906 1.257141113281
33.006992340088 -72.850868225098 -163.492202758789 2.276963710785
-67.064765930176 -66.803878784180 -160.818618774414 4.287655830383
-61.435058593750 -70.010139465332 -160.701919555664 3.674981594086
-65.337837219238 -70.746116638184 -165.115692138672 1.630246639252
114.906723022461 -73.200225830078 -161.082138061523 1.159364223480
-43.825286865234 -69.838142395020 -164.995895385742 3.187314271927
19.869970321655 -76.157646179199 -170.264221191406 1.909564137459
-61.651206970215 -73.570953369141 -174.185516357422 1.539930105209
-58.452415466309 -73.393157958984 -174.757705688477 2.261044502258
-39.800479888916 -73.100746154785 -162.875564575195 3.409708023071
-33.269691467285 -67.448997497559 -169.684310913086 2.517792701721
115.282890319824 -71.587677001953 -172.950927734375 2.393334865570
-33.743751525879 -72.434761047363 -176.607452392578 1.658129453659
17.806222915649 -72.674575805664 -172.785659790039 1.483368635178
110.091964721680 -77.859840393066 -186.794860839844 3.447389125824
-149.246032714844 -72.096458435059 -179.350982666016 2.540382385254
-142.098724365234 -71.220008850098 -177.664978027344 1.778535366058
-149.899093627930 -68.979286193848 -180.173965454102 3.074456214905
-141.825637817383 -67.289916992188 -183.276901245117 1.783064246178
-26.438016891479 -70.618064880371 -184.623703002930 0.526550471783
-22.293275833130 -71.197334289551 -186.524520874023 1.056098818779
24.791126251221 -70.335746765137 -190.940628051758 1.504001736641
-140.073410034180 -69.727638244629 -189.704559326172 2.581724882126
-143.091339111328 -68.789039611816 -188.026748657227 1.597926378250
-19.642093658447 -65.985054016113 -188.748016357422 3.313552379608
15.854789733887 -75.816894531250 -183.303787231445 1.313103556633
-141.501693725586 -70.634742736816 -195.125762939453 1.486451625824
-32.325618743896 -75.228309631348 -184.678588867188 1.152549386024
103.152664184570 -75.967338562012 -189.015213012695 1.241045117378
109.359657287598 -73.130210876465 -192.456207275391 2.370642662048
23.437841415405 -72.015319824219 -191.855010986328 0.926302433014
-17.928398132324 -75.564590454102 -190.801040649414 1.544248938560
-23.588869094849 -74.790931701660 -198.110229492188 1.480934023857
-147.915435791016 -67.222244262695 -199.189895629883 1.399238109589
-131.544631958008 -69.375205993652 -200.576492309570 3.393667936325
-121.494506835938 -69.191215515137 -197.376953125000 1.436170816422
-121.374671936035 -71.296981811523 -200.156753540039 1.082154631615
-18.122753143311 -70.455711364746 -197.474090576172 1.014574885368
13.086459159851 -74.242759704590 -193.997650146484 2.192072153091
96.237762451172 -70.802970886230 -200.345367431641 1.842157721519
-145.012939453125 -69.794982910156 -198.931198120117 2.056910037994
-144.267517089844 -67.612503051758 -203.643829345703 1.995530962944
-145.570205688477 -65.450302124023 -201.191314697266 1.288993835449
-153.332702636719 -66.300773620605 -203.045745849609 1.571159005165
-25.905082702637 -71.460884094238 -201.738845825195 2.977113246918
-12.120070457458 -76.577583312988 -196.031890869141 2.586310148239
-143.947326660156 -65.260528564453 -200.468963623047 2.291181564331
-15.866210937500 -73.725822448730 -198.384124755859 1.300133347511
-160.990539550781 -69.818695068359 -202.065048217773 3.530256986618
-130.233413696289 -70.059310913086 -201.911361694336 2.909795761108
15.780724525452 -69.993034362793 -209.688537597656 1.716620445251
-160.852294921875 -68.296958923340 -205.994262695313 2.732837677002
-142.397857666016 -70.806884765625 -206.653839111328 1.899117231369
12.831439971924 -73.545043945313 -201.773315429688 2.862152338028
-152.922271728516 -71.112442016602 -207.941818237305 1.815439462662
-21.251512527466 -72.950485229492 -202.326461791992 1.393346667290
104.721206665039 -73.804275512695 -199.881988525391 2.586772441864
-152.323730468750 -69.213394165039 -217.588684082031 2.963148117065
-161.495986938477 -69.785606384277 -214.887771606445 3.007583856583
-77.069404602051 -69.097267150879 -214.693893432617 4.223673343658
92.776733398438 -73.268165588379 -210.276077270508 1.075180292130
-1.680968999863 -71.464996337891 -215.294662475586 1.660963177681
-150.522506713867 -69.264045715332 -214.369033813477 1.417993187904
-86.784431457520 -66.599197387695 -217.517211914063 4.939378738403
-4.835207939148 -72.160064697266 -211.535232543945 2.345633029938
17.354671478271 -70.773529052734 -223.320983886719 2.455704450607
-142.553329467773 -70.636505126953 -221.203796386719 1.743049383163
-0.677308022976 -73.371238708496 -221.313369750977 1.552728652954
-15.933431625366 -67.826416015625 -221.601181030273 3.165947914124
-15.306810379028 -68.498069763184 -220.081512451172 3.033931970596
89.630538940430 -74.177040100098 -215.481658935547 1.214578270912
-19.943458557129 -68.625366210938 -217.428131103516 3.759226083755
-26.547195434570 -71.623176574707 -218.707534790039 0.840688824654
-102.606216430664 -69.834022521973 -224.261520385742 2.102953910828
-12.911282539368 -71.009544372559 -225.508529663086 1.706082940102
91.897003173828 -72.235641479492 -219.100280761719 0.953174412251
83.540672302246 -72.488739013672 -218.768493652344 1.716222643852
8.551777839661 -75.061767578125 -224.066329956055 3.076336145401
-9.575884819031 -71.478523254395 -227.160644531250 1.760390520096
80.714645385742 -78.439605712891 -222.722946166992 2.743243932724
-124.308609008789 -69.524688720703 -226.108062744141 1.250180482864
-21.437862396240 -72.548439025879 -223.316024780273 1.842229604721
-99.066963195801 -68.407958984375 -227.128341674805 3.105062246323
-104.190673828125 -71.586311340332 -230.166778564453 2.781264305115
-132.158920288086 -68.914291381836 -230.380813598633 3.755753278732
81.948143005371 -73.454933166504 -224.258865356445 1.389174580574
-123.420875549316 -70.866073608398 -230.245407104492 1.716005086899
5.278904914856 -71.704864501953 -230.477493286133 1.188572287560
78.546005249023 -72.972114562988 -224.078094482422 1.167704343796
-12.533887863159 -72.536384582520 -229.655731201172 1.263951778412
-7.992324829102 -72.783630371094 -231.716918945313 1.571183204651
-2.987937927246 -71.096031188965 -232.739593505859 2.116162538528
10.027475357056 -72.628524780273 -229.866394042969 2.563305616379
86.309791564941 -73.648559570313 -225.386169433594 1.847818851471
15.953319549561 -72.354438781738 -233.208389282227 1.782411932945
5.136518001556 -73.243965148926 -231.837921142578 1.699260115623
-4.616932868958 -73.281944274902 -228.618865966797 1.235189080238
-3.926275014877 -70.246086120605 -234.983535766602 1.013603568077
18.420925140381 -70.757537841797 -233.018798828125 1.771205306053
-8.190681457520 -69.925994873047 -236.007644653320 1.219909191132
75.239959716797 -72.826843261719 -237.300704956055 3.093491554260
-5.962075233459 -69.598739624023 -236.813308715820 1.265162825584
22.874631881714 -72.862823486328 -232.681121826172 4.742924690247
-161.071258544922 -66.864807128906 -245.497940063477 2.536351203918
-2.667960882187 -71.405517578125 -242.405242919922 2.494876861572
-7.510601997375 -70.634460449219 -242.703887939453 1.553111076355
-164.844299316406 -67.390869140625 -258.513458251953 1.903783917427
-7.542911052704 -72.364410400391 -245.678054809570 1.575856208801
20.487543106079 -73.430580139160 -245.593719482422 1.929879069328
-144.669815063477 -71.658203125000 -254.509231567383 2.011473894119
-65.349456787109 -69.709243774414 -250.124465942383 2.419225931168
-56.539936065674 -69.164672851563 -249.727951049805 4.107492923737
56.657310485840 -71.873001098633 -247.882949829102 0.913452982903
-74.698211669922 -70.631828308105 -248.922073364258 1.300056695938
18.559417724609 -72.494628906250 -247.823410034180 0.575841248035
-73.137344360352 -70.334999084473 -253.412033081055 1.888950943947
-14.580246925354 -71.938598632813 -250.277984619141 1.456690430641
-145.502151489258 -70.171539306641 -256.977142333984 2.857266426086
50.902015686035 -71.114128112793 -249.317977905273 1.097979068756
-78.809356689453 -67.552375793457 -252.870452880859 1.850095629692
-95.817276000977 -69.994735717773 -257.535095214844 1.860800027847
-94.102455139160 -74.321739196777 -255.851882934570 1.005181312561
-118.490234375000 -70.374389648438 -260.265686035156 2.915819168091
-104.810600280762 -68.598098754883 -259.380371093750 1.765351176262
-104.726951599121 -68.641662597656 -262.081787109375 1.510995984077
22.054380416870 -72.395149230957 -260.314514160156 2.282186031342
-125.718917846680 -66.878318786621 -268.360748291016 3.780904769897
-6.938049793243 -73.513565063477 -278.134368896484 2.259475469589
-143.453857421875 -70.868598937988 -284.957000732422 1.517220497131
-166.137145996094 -67.896995544434 -285.969024658203 2.545696496964
-123.856376647949 -69.746154785156 -289.732482910156 2.038352489471
-112.563407897949 -70.078346252441 -285.394805908203 2.432951927185
-74.954116821289 -66.429229736328 -289.585540771484 3.284008741379
-53.589416503906 -66.597595214844 -290.339660644531 3.239466667175
-41.191349029541 -69.775238037109 -288.173645019531 1.726728200912
-11.095797538757 -70.092620849609 -290.169891357422 2.316989898682
-9.304863929749 -69.649971008301 -289.571929931641 3.502262830734
-33.325374603271 -70.754638671875 -290.968627929688 2.955091238022
-31.637294769287 -69.748092651367 -289.598022460938 2.079705953598
-16.664159774780 -68.470108032227 -292.596069335938 3.576740980148
-68.812896728516 -71.109031677246 -293.807739257813 2.931035041809
-51.285087585449 -68.149528503418 -294.792297363281 5.032148361206
-11.272059440613 -67.645095825195 -292.360321044922 4.935992717743
-11.507093429565 -70.905754089355 -292.443939208984 2.654102087021
-1.644410967827 -70.075317382813 -292.561706542969 2.054325342178
5.904081821442 -68.193382263184 -294.861419677734 2.866624355316
-85.595779418945 -69.087486267090 -290.087890625000 1.436837434769
-142.112472534180 -66.925354003906 -292.698242187500 2.209991216660
-114.784751892090 -69.937789916992 -297.050567626953 4.837274551392
-150.904525756836 -71.500160217285 -303.054626464844 4.595472335815
-152.080581665039 -69.067123413086 -302.074829101563 2.337935924530
-141.582061767578 -69.011886596680 -304.624755859375 3.909155845642
46.049064636230 -75.126365661621 -23.270959854126 3.809844255447
18.598655700684 -73.020957946777 -24.922620773315 3.027770280838
49.583175659180 -74.876029968262 -26.812667846680 3.632486343384
48.232555389404 -75.927711486816 -34.006923675537 4.898714542389
86.906494140625 -71.120803833008 -67.530731201172 0.538335382938
96.980201721191 -72.927619934082 -74.461936950684 1.819590806961
99.076988220215 -72.605293273926 -80.534774780273 1.571006655693
97.370178222656 -73.442977905273 -85.829154968262 0.926425635815
54.087890625000 -73.536422729492 -88.298835754395 1.773228287697
50.314567565918 -73.922286987305 -93.313583374023 2.275863647461
62.382595062256 -71.462905883789 -92.156738281250 1.334527969360
-64.096366882324 -67.384872436523 -94.048835754395 2.071843624115
71.570640563965 -74.703186035156 -90.016906738281 2.418174505234
103.290451049805 -72.702339172363 -94.444305419922 2.880622386932
74.825210571289 -76.263671875000 -99.982994079590 3.243306875229
95.462463378906 -71.481369018555 -98.322044372559 2.042630434036
-80.298484802246 -72.053253173828 -103.178100585938 2.503722906113
45.909408569336 -73.312469482422 -103.819511413574 2.317180633545
-85.581825256348 -72.910873413086 -109.999626159668 2.157058000565
51.187419891357 -74.482948303223 -112.790451049805 1.821158051491
42.051620483398 -70.343452453613 -106.205230712891 0.481381088495
104.879180908203 -75.313903808594 -104.792373657227 2.503691673279
40.312343597412 -70.538063049316 -109.177909851074 2.087695837021
41.228870391846 -73.920829772949 -115.594207763672 3.611588239670
42.946842193604 -70.268981933594 -115.627822875977 0.571290493011
106.276557922363 -70.391166687012 -116.036933898926 1.169560790062
-80.704650878906 -69.812545776367 -122.154731750488 1.336450219154
113.489112854004 -74.907913208008 -123.481262207031 0.396344274282
39.400260925293 -69.034797668457 -120.882545471191 1.659448981285
43.835002899170 -72.670906066895 -118.982765197754 1.917786121368
35.173164367676 -72.977035522461 -121.901062011719 1.412356257439
-54.833995819092 -70.707763671875 -132.534774780273 1.224799394608
31.112358093262 -71.497817993164 -123.634933471680 0.865292668343
-76.223175048828 -72.234931945801 -138.692642211914 1.451730489731
-57.355510711670 -70.410278320313 -135.501434326172 1.600758671761
-76.473731994629 -69.007713317871 -134.630859375000 1.427325367928
34.916713714600 -71.780807495117 -128.282501220703 2.386212110519
-56.167427062988 -69.339805603027 -134.657623291016 2.918836355209
38.533943176270 -72.182350158691 -133.761444091797 2.064562797546
-73.929512023926 -70.479278564453 -140.983703613281 1.443292498589
-56.952598571777 -73.116386413574 -141.383789062500 0.979282736778
30.118425369263 -71.436630249023 -139.753692626953 0.953749418259
111.844894409180 -76.464767456055 -144.971817016602 1.922638893127
118.841537475586 -73.506629943848 -137.141952514648 3.305258035660
33.827541351318 -71.385215759277 -140.726974487305 1.190612554550
-45.573246002197 -68.967094421387 -144.600555419922 1.638487696648
110.733383178711 -72.973289489746 -155.325546264648 1.816315054893
-72.345756530762 -70.090423583984 -148.795364379883 1.603130102158
-52.369937896729 -72.001144409180 -141.989715576172 3.494327545166
34.612277984619 -74.981697082520 -151.780929565430 1.435046553612
-71.215812683105 -71.348617553711 -146.664932250977 1.442047119141
-69.292533874512 -72.074851989746 -149.868804931641 2.017945766449
118.156806945801 -71.184814453125 -148.213348388672 1.739756941795
-62.674495697021 -70.000488281250 -152.610778808594 4.574584007263
-38.638031005859 -69.989280700684 -153.226425170898 1.407030701637
31.069511413574 -68.567260742188 -151.754821777344 2.406222105026
-74.120498657227 -69.841651916504 -150.838180541992 1.987366557121
11.261344909668 -73.469070434570 -157.229385375977 1.215613245964
34.510128021240 -69.689224243164 -156.225967407227 2.850321292877
28.942951202393 -72.339225769043 -150.406921386719 2.407790422440
9.884173393250 -75.066200256348 -156.183242797852 1.580057859421
-46.770393371582 -68.969970703125 -155.207870483398 1.462717652321
27.241250991821 -71.224388122559 -153.080886840820 1.555418252945
-45.178199768066 -71.822814941406 -150.831344604492 2.374002933502
7.862417221069 -73.064216613770 -152.682128906250 1.911087989807
22.640419006348 -72.503074645996 -149.780059814453 1.586009621620
-70.944213867188 -72.893661499023 -156.048248291016 1.336029052734
-43.813987731934 -70.350410461426 -156.275344848633 2.571680545807
-68.160530090332 -68.019622802734 -161.507553100586 3.376559019089
13.942692756653 -67.313339233398 -163.084030151367 4.812567234039
22.856718063354 -72.203750610352 -148.401382446289 0.612924695015
3.219301939011 -70.071014404297 -163.197860717773 1.822202920914
22.711040496826 -70.147399902344 -156.240875244141 1.776085257530
30.973161697388 -72.710586547852 -163.823730468750 1.692701578140
-45.436424255371 -72.772041320801 -163.859893798828 1.964142799377
-31.777917861938 -70.865417480469 -162.180358886719 1.967047214508
-36.564548492432 -69.708084106445 -162.246231079102 1.432241201401
30.871784210205 -72.534477233887 -163.074920654297 1.301009416580
-43.600044250488 -70.866455078125 -168.023971557617 0.789125800133
-40.797443389893 -70.812400817871 -163.956741333008 2.855146408081
21.888181686401 -73.358810424805 -164.915191650391 1.811198711395
-39.994007110596 -70.453254699707 -174.364974975586 1.557882666588
32.647434234619 -70.004051208496 -172.915603637695 4.400246620178
117.433799743652 -71.566101074219 -164.784561157227 3.455302953720
-30.772241592407 -70.059196472168 -174.116989135742 2.156728267670
107.672630310059 -70.893341064453 -170.975433349609 2.047386407852
-32.314529418945 -68.306968688965 -178.691604614258 3.458079576492
-36.226264953613 -71.423225402832 -181.275894165039 0.931083083153
19.423643112183 -73.349273681641 -175.654632568359 0.982153892517
105.090728759766 -70.767715454102 -179.783370971680 0.596376001835
-27.236120223999 -70.078758239746 -184.866760253906 1.088510870934
-30.457330703735 -66.512321472168 -175.352523803711 3.736339807510
-21.334993362427 -72.202301025391 -187.518997192383 0.548685133457
-145.518539428711 -72.183753967285 -190.385787963867 2.359061717987
15.689435005188 -73.215232849121 -183.547424316406 1.164388418198
108.280426025391 -71.540779113770 -191.729370117188 2.135965347290
-155.866394042969 -68.213111877441 -196.939361572266 2.639847755432
-24.384477615356 -70.977439880371 -192.246994018555 2.040668725967
-113.507942199707 -67.641998291016 -197.584487915039 1.110276937485
-130.288787841797 -69.301589965820 -199.845123291016 4.491168498993
-106.626953125000 -67.491516113281 -203.171920776367 4.195129871368
-108.955017089844 -66.582695007324 -202.040786743164 1.889261722565
-13.602480888367 -68.444755554199 -199.416702270508 1.720373988152
21.257900238037 -72.996536254883 -198.078063964844 1.353225231171
-17.472923278809 -65.221214294434 -202.155715942383 1.770371317863
-123.128395080566 -67.414688110352 -205.702987670898 1.352110385895
-22.587657928467 -68.916946411133 -208.062911987305 2.295534610748
-128.590011596680 -71.762359619141 -205.487411499023 2.527335643768
-10.232179641724 -68.553344726563 -202.924758911133 1.952682733536
-142.431518554688 -68.372245788574 -206.589660644531 1.800106048584
92.863143920898 -71.748405456543 -208.716247558594 1.032877564430
-163.300247192383 -68.264999389648 -205.951004028320 2.723991632462
0.178375005722 -72.829795837402 -214.553527832031 3.663383722305
14.121171951294 -66.900070190430 -211.797073364258 2.821931600571
11.509317398071 -67.766426086426 -217.306533813477 2.764797210693
85.204734802246 -71.671516418457 -218.298416137695 1.558572292328
6.705615997314 -68.360626220703 -215.933929443359 3.036363601685
17.079759597778 -71.237136840820 -214.625411987305 1.261720895767
-13.037980079651 -74.770767211914 -215.012680053711 1.755284070969
-87.403579711914 -69.087318420410 -217.454452514648 2.489619016647
-97.946258544922 -70.369606018066 -219.264739990234 1.812966227531
-1.347617030144 -69.646568298340 -221.989501953125 1.937600731850
-165.868713378906 -68.258369445801 -230.914047241211 1.485268592834
14.367060661316 -69.246337890625 -221.213806152344 1.503039836884
-141.310134887695 -69.206970214844 -225.649261474609 1.108297944069
14.096828460693 -68.839126586914 -226.397964477539 2.459313869476
-132.019607543945 -69.068763732910 -225.100479125977 0.938060164452
-113.989814758301 -68.504524230957 -229.512283325195 3.177584648132
20.392225265503 -67.026374816895 -224.534255981445 6.298478126526
77.227645874023 -71.257308959961 -227.872650146484 0.706292569637
7.208395957947 -68.518821716309 -225.650115966797 2.454150676727
-111.856300354004 -70.453598022461 -226.589920043945 0.901157677174
77.152503967285 -71.180274963379 -227.509872436523 1.012460350990
81.993225097656 -73.051956176758 -230.853042602539 1.937620639801
-120.457099914551 -69.135482788086 -233.333587646484 2.951635599136
-115.659233093262 -70.481384277344 -234.342254638672 2.063432455063
-9.074893951416 -69.974792480469 -232.291275024414 1.945274949074
72.356552124023 -73.847473144531 -228.648544311523 0.814097821712
68.484428405762 -70.627609252930 -235.770309448242 1.152184009552
75.627548217773 -70.849029541016 -232.921798706055 1.703609347343
-131.310119628906 -69.827514648438 -239.246994018555 4.557423114777
72.134643554688 -75.097198486328 -234.687393188477 1.678178071976
67.605857849121 -73.739562988281 -235.854721069336 2.301000356674
-165.104110717773 -70.030509948730 -230.753540039063 1.962227821350
1.827486038208 -72.937065124512 -241.711853027344 1.683358550072
18.152446746826 -70.252212524414 -244.227249145508 2.629306077957
-2.088397979736 -71.798744201660 -242.504074096680 1.834108710289
16.398756027222 -72.733879089355 -242.970336914063 2.508959770203
69.553390502930 -72.948776245117 -240.157928466797 1.932072997093
12.745936393738 -73.474998474121 -241.207366943359 0.950176835060
-6.069276809692 -67.191070556641 -244.501037597656 2.910090684891
-0.020661000162 -70.927467346191 -245.234039306641 2.345368862152
68.104598999023 -71.530296325684 -244.772537231445 3.674977540970
8.294939041138 -73.096183776855 -245.857391357422 2.154628753662
-7.338199138641 -70.728393554688 -242.178298950195 1.433180212975
16.687980651855 -72.390678405762 -246.963668823242 0.439080089331
-163.888153076172 -64.453239440918 -243.896438598633 4.001389026642
62.709583282471 -69.795440673828 -249.358657836914 3.801864862442
54.740200042725 -70.490646362305 -250.582473754883 2.012774944305
58.500553131104 -74.246498107910 -242.261642456055 1.477521419525
-11.155573844910 -69.919082641602 -252.058303833008 2.908034324646
57.490596771240 -74.076171875000 -246.448410034180 2.099022865295
-71.278915405273 -70.594039916992 -250.334030151367 0.440615653992
53.954986572266 -72.671386718750 -251.201126098633 2.813547849655
-87.242675781250 -71.090461730957 -255.895141601563 1.561826467514
-124.903556823730 -70.767433166504 -256.370574951172 0.904008924961
-131.954421997070 -65.017768859863 -255.215774536133 2.498944759369
50.991134643555 -70.436515808105 -256.055999755859 4.286463260651
-134.763137817383 -66.873786926270 -259.012634277344 0.880871415138
-105.368415832520 -73.848022460938 -256.241790771484 1.116370916367
-109.991333007813 -67.610252380371 -259.779022216797 1.165340542793
-81.606330871582 -70.038604736328 -254.529235839844 2.075037240982
-109.906440734863 -70.479415893555 -264.693450927734 2.589487314224
-122.109672546387 -66.969367980957 -266.888214111328 4.333124160767
-142.260696411133 -67.461593627930 -268.466430664063 4.620215415955
-11.099574089050 -71.470970153809 -262.144470214844 2.983940839767
-168.401229858398 -66.868957519531 -268.839904785156 4.221303462982
-8.594012260437 -72.904624938965 -272.631072998047 3.823712825775
-156.193725585938 -63.957195281982 -268.960205078125 5.557309150696
-151.361587524414 -65.044250488281 -275.949279785156 2.093641042709
-166.230743408203 -63.791618347168 -277.745666503906 5.928094387054
-9.928690910339 -67.998512268066 -277.020812988281 0.665248751640
-130.998886108398 -68.678619384766 -285.930389404297 1.548728108406
-155.478485107422 -65.297119140625 -290.202758789063 1.654133319855
-141.348083496094 -67.396972656250 -284.425170898438 3.179861783981
-133.304412841797 -70.616806030273 -287.081115722656 2.541262149811
-6.216199874878 -69.873703002930 -283.738983154297 2.727553129196
-121.999580383301 -72.318214416504 -285.707611083984 2.870874166489
-139.126541137695 -68.699516296387 -288.095672607422 3.545283079147
-112.304214477539 -67.171333312988 -287.838226318359 2.218718767166
-74.517951965332 -67.523445129395 -290.632720947266 2.887202024460
-59.428436279297 -69.233543395996 -286.332885742188 2.385955333710
-2.717086076736 -70.797164916992 -289.339782714844 1.707651376724
-48.233894348145 -70.272369384766 -291.421997070313 3.771159648895
-57.996337890625 -70.243247985840 -289.450042724609 0.773284792900
-66.607368469238 -67.415420532227 -292.669128417969 4.557524204254
-84.151062011719 -69.736579895020 -296.364227294922 6.067176818848
-99.720466613770 -63.913150787354 -291.471801757813 4.718327522278
-157.737655639648 -66.737228393555 -293.565765380859 2.624943256378
-155.570846557617 -67.144187927246 -292.609832763672 1.800593376160
-123.675605773926 -70.026153564453 -298.562377929688 4.982291698456
-142.414459228516 -68.056747436523 -296.750610351563 4.367731094360
-154.057754516602 -66.852684020996 -302.342132568359 1.861068725586
-144.238433837891 -67.843162536621 -318.298675537109 6.825067043304
46.539279937744 -71.709625244141 -20.017000198364 1.676220655441
19.559810638428 -77.902290344238 -27.018922805786 5.842400074005
43.917869567871 -73.517463684082 -36.617439270020 2.894182920456
-18.053436279297 -73.580360412598 -67.435829162598 1.505221962929
81.553184509277 -72.241966247559 -66.327949523926 2.695194244385
85.998252868652 -68.683128356934 -69.738517761230 3.594593524933
76.779579162598 -71.711982727051 -70.764175415039 1.575379371643
76.635589599609 -72.646408081055 -68.294975280762 2.297781705856
95.387893676758 -75.155776977539 -73.723243713379 3.277642488480
-94.902587890625 -71.259674072266 -74.295318603516 4.063840389252
69.998573303223 -74.717414855957 -77.807128906250 3.059913396835
-35.500389099121 -68.545555114746 -78.121177673340 1.218380451202
99.985610961914 -74.107032775879 -86.974655151367 1.853008747101
63.570423126221 -76.508079528809 -89.864646911621 5.444135665894
109.442527770996 -73.418838500977 -92.721229553223 4.844940185547
106.388671875000 -75.282608032227 -97.981872558594 2.120400190353
71.986778259277 -73.914840698242 -98.116218566895 2.121115922928
-77.321426391602 -71.887619018555 -101.025367736816 1.987421393394
56.101760864258 -74.024269104004 -106.667953491211 3.646844625473
107.781272888184 -74.034439086914 -105.411682128906 0.381415367126
49.772396087646 -76.754135131836 -113.285041809082 1.232228875160
84.244636535645 -73.171714782715 -102.867782592773 2.456642866135
43.798400878906 -75.436775207520 -109.645980834961 2.707647085190
107.382728576660 -71.522300720215 -101.150329589844 1.432743668556
49.125785827637 -71.055519104004 -108.168167114258 0.990377187729
111.843055725098 -75.323196411133 -112.109649658203 2.377745866776
109.163627624512 -72.741821289063 -115.161796569824 1.963709831238
-77.552810668945 -64.858840942383 -115.684516906738 0.579868853092
-77.596664428711 -69.601753234863 -117.634094238281 2.010905742645
44.270889282227 -72.660560607910 -119.721572875977 1.970637917519
116.501770019531 -70.612014770508 -117.684318542480 2.867856502533
116.495185852051 -70.829406738281 -122.466743469238 2.607409238815
-80.792884826660 -69.574073791504 -128.488906860352 0.723284184933
109.187721252441 -72.267356872559 -122.364593505859 1.862110972404
-61.988491058350 -70.741584777832 -135.491821289063 2.520093679428
-86.576766967773 -67.717887878418 -128.704864501953 2.442914247513
-73.657356262207 -68.308135986328 -130.318237304688 0.579852998257
-56.182968139648 -65.381645202637 -127.024032592773 1.734566092491
35.210212707520 -70.720619201660 -130.521530151367 1.794519543648
42.737163543701 -71.661293029785 -134.299789428711 3.617950201035
-74.032722473145 -70.330329895020 -137.628036499023 2.156745195389
29.722490310669 -69.960678100586 -131.827392578125 0.897550284863
108.234710693359 -74.190010070801 -136.990539550781 2.415660858154
-39.103694915771 -70.307762145996 -149.312896728516 2.129455804825
26.942031860352 -69.862648010254 -147.147521972656 1.305166482925
113.756538391113 -68.361701965332 -145.954010009766 1.801453113556
36.493461608887 -72.625091552734 -144.552398681641 0.926133394241
112.557662963867 -73.304786682129 -143.308502197266 0.814844369888
-53.165592193604 -70.690979003906 -149.581100463867 1.706708788872
-65.775321960449 -71.255416870117 -151.479919433594 1.475805997849
-51.246524810791 -71.943740844727 -156.305694580078 2.415270090103
-42.115589141846 -69.275711059570 -168.755065917969 2.586462736130
4.875091075897 -68.955009460449 -155.421340942383 2.161950826645
112.102050781250 -68.908897399902 -154.350357055664 0.611585915089
110.094619750977 -71.194633483887 -159.848388671875 1.886174082756
10.583771705627 -66.765121459961 -160.367660522461 3.325426578522
4.174336910248 -70.542861938477 -162.083892822266 1.689729094505
16.860548019409 -69.329124450684 -159.527099609375 2.761268615723
23.692325592041 -69.962272644043 -152.275634765625 1.380400300026
115.344841003418 -74.553565979004 -165.623748779297 2.677333593369
108.510925292969 -73.926338195801 -171.063262939453 1.155574202538
27.185426712036 -69.600517272949 -173.499267578125 1.180587291718
28.370588302612 -69.934173583984 -164.115554809570 3.005386352539
116.152999877930 -72.052764892578 -161.942276000977 0.822451293468
-28.362190246582 -68.600906372070 -175.249938964844 2.038916826248
113.055290222168 -70.872207641602 -169.892730712891 2.479877710342
20.874195098877 -67.893501281738 -176.795043945313 1.141921877861
19.859516143799 -72.267829895020 -166.110626220703 1.039402842522
110.557037353516 -71.062828063965 -176.199890136719 1.550079584122
25.831745147705 -70.758361816406 -171.200714111328 0.860399007797
111.728363037109 -70.282394409180 -181.193832397461 2.042341232300
-37.702129364014 -67.898880004883 -177.479248046875 2.421648979187
28.783924102783 -68.243164062500 -173.373123168945 2.042007923126
109.405418395996 -71.333549499512 -184.453399658203 1.243266224861
25.799186706543 -69.328948974609 -179.278411865234 1.923926472664
-151.389450073242 -65.032630920410 -185.673599243164 1.585508346558
-29.286094665527 -69.221260070801 -189.526565551758 1.708529591560
26.875478744507 -71.647064208984 -186.016479492188 1.682487368584
-110.285308837891 -68.035453796387 -195.537826538086 2.707690477371
-109.804244995117 -69.016639709473 -191.503067016602 2.645301580429
23.411659240723 -68.152839660645 -192.395767211914 3.371429681778
14.268358230591 -71.271965026855 -187.193603515625 0.777624130249
-24.770204544067 -71.446846008301 -192.392929077148 1.655317306519
-27.533355712891 -70.311866760254 -188.938461303711 0.816050231457
-24.053865432739 -70.813049316406 -186.845016479492 0.934761583805
21.436203002930 -72.449905395508 -179.900482177734 3.208804368973
-150.576080322266 -67.153602600098 -195.833648681641 2.458791017532
-143.581497192383 -69.082122802734 -200.198593139648 3.581748485565
-139.544052124023 -67.559295654297 -196.703643798828 1.594681024551
-17.815509796143 -67.165588378906 -192.729385375977 2.239959001541
16.235555648804 -69.943962097168 -199.909042358398 1.430675983429
100.907279968262 -72.687156677246 -195.735168457031 1.822495937347
-113.315101623535 -67.742462158203 -203.486587524414 1.371635556221
20.506128311157 -68.963119506836 -201.912902832031 1.616905212402
-15.118704795837 -68.696067810059 -197.041107177734 0.718176245689
-16.807165145874 -68.332740783691 -198.094818115234 2.082977056503
99.697410583496 -71.154380798340 -200.418319702148 1.748320579529
10.330406188965 -71.484664916992 -200.577499389648 1.971848726273
-23.057115554810 -68.583183288574 -196.366317749023 1.797858834267
-120.170837402344 -69.480117797852 -204.242736816406 2.273162841797
-132.310089111328 -66.377639770508 -203.341049194336 1.786642551422
-109.254287719727 -66.104598999023 -208.008193969727 5.948906898499
-142.674118041992 -67.822319030762 -206.446365356445 1.429308176041
21.914634704590 -71.085342407227 -198.268798828125 0.255766987801
97.571456909180 -72.996688842773 -206.873504638672 2.666799545288
-164.846298217773 -65.792922973633 -207.752212524414 0.925790011883
102.585685729980 -72.056121826172 -203.397323608398 2.441696882248
-15.197969436646 -69.467109680176 -210.581008911133 1.006748318672
94.308334350586 -75.708312988281 -213.878753662109 1.190868139267
91.768020629883 -69.359603881836 -217.180694580078 2.130480051041
14.282976150513 -68.997085571289 -212.003646850586 1.172786712646
18.087741851807 -70.655380249023 -211.396102905273 2.345390319824
12.546271324158 -69.972381591797 -211.324844360352 0.925708889961
-7.843067169189 -69.036056518555 -220.520721435547 0.634849548340
-95.442924499512 -67.335395812988 -220.016662597656 2.148817300797
-5.330973148346 -71.101646423340 -218.827957153320 1.128475189209
93.285026550293 -70.269439697266 -214.416442871094 2.181530475616
-90.186691284180 -69.891372680664 -222.776367187500 4.010726451874
-100.483947753906 -69.856140136719 -222.684310913086 1.880252242088
-91.857894897461 -68.152648925781 -221.836944580078 3.361578702927
90.106155395508 -73.390914916992 -221.844543457031 2.204774618149
-132.470611572266 -69.153610229492 -228.657272338867 3.410644054413
-131.327713012695 -62.115493774414 -231.437072753906 2.651918172836
-116.754432678223 -66.922241210938 -228.871536254883 2.317372560501
-110.766334533691 -65.678276062012 -227.840164184570 1.760552763939
-131.067901611328 -65.912002563477 -225.248886108398 1.297547101974
-105.786125183105 -73.192764282227 -229.089691162109 2.338611841202
-111.997207641602 -65.927131652832 -230.271652221680 1.357034087181
-7.857730865479 -67.957839965820 -225.998001098633 2.009912490845
-17.257144927979 -71.008224487305 -226.481689453125 1.043209195137
0.956788003445 -69.938880920410 -233.565795898438 1.164988636971
-7.324477195740 -67.977676391602 -229.742553710938 2.342261075974
17.428941726685 -71.171638488770 -233.164199829102 1.045633792877
-15.768080711365 -70.112258911133 -229.068572998047 0.665311217308
-161.309951782227 -66.960487365723 -226.807449340820 1.021150588989
-0.128822997212 -68.342437744141 -232.491622924805 1.706698894501
83.613777160645 -71.489089965820 -229.475967407227 1.858330488205
10.466798782349 -69.000366210938 -236.910354614258 1.679282307625
-6.800607204437 -68.642387390137 -231.555862426758 2.367469787598
-153.424011230469 -63.603500366211 -237.227676391602 3.204808712006
-137.120895385742 -68.337043762207 -236.065521240234 3.843972921371
70.046722412109 -67.621047973633 -236.235870361328 2.471304416656
-4.842227935791 -69.301589965820 -235.562820434570 1.591262459755
5.601345062256 -69.179306030273 -235.558990478516 1.618494272232
73.800750732422 -70.538398742676 -237.943359375000 2.403218507767
79.348045349121 -72.194458007813 -235.828445434570 2.998341083527
69.942787170410 -73.160263061523 -238.037429809570 1.918568491936
-0.084679998457 -67.878433227539 -237.487731933594 2.145375967026
57.679462432861 -70.617103576660 -239.611862182617 1.944331884384
-14.712242126465 -69.060737609863 -240.020751953125 2.349659442902
-13.876637458801 -68.110877990723 -241.838897705078 1.975503683090
11.165358543396 -70.040458679199 -240.770385742188 0.574096620083
68.349227905273 -70.726005554199 -244.043945312500 3.030465602875
62.649971008301 -70.834152221680 -239.858886718750 1.472793459892
54.731044769287 -67.789688110352 -247.602600097656 1.443235993385
63.851684570313 -72.778427124023 -244.484924316406 1.132389426231
-14.391807556152 -67.380958557129 -249.450347900391 1.596886277199
-81.473533630371 -66.173042297363 -250.436447143555 3.638839960098
-74.887565612793 -64.945388793945 -254.608413696289 6.147797107697
45.081562042236 -70.229217529297 -250.851928710938 1.564150691032
-141.502182006836 -64.365104675293 -252.619766235352 3.576879024506
41.462978363037 -70.671142578125 -258.011535644531 1.695515632629
-85.440277099609 -68.178771972656 -253.957595825195 1.839585423470
-151.866363525391 -66.839706420898 -258.702941894531 1.841094136238
-140.482116699219 -66.012878417969 -258.116546630859 1.712066650391
50.432128906250 -71.508148193359 -252.836227416992 2.324780464172
-123.760826110840 -65.091384887695 -256.227661132813 1.867735147476
-114.576904296875 -66.525062561035 -258.697082519531 1.593425512314
-92.651962280273 -66.665069580078 -257.413116455078 1.915855884552
-14.184666633606 -72.677146911621 -255.759597778320 1.420776486397
34.141078948975 -70.287086486816 -260.289093017578 2.766013383865
24.985929489136 -71.688385009766 -262.026855468750 1.046627402306
-153.959548950195 -65.989578247070 -259.645263671875 2.502655744553
-111.661422729492 -67.948356628418 -265.651672363281 4.337033271790
-10.922256469727 -69.606422424316 -261.219573974609 2.165105581284
-132.129516601563 -66.319412231445 -267.712280273438 4.059135913849
-10.314426422119 -67.481346130371 -273.024444580078 2.915490627289
-161.738464355469 -65.718070983887 -280.056579589844 3.877633810043
-7.103580951691 -66.702796936035 -279.382659912109 1.120460510254
-160.345626831055 -64.417541503906 -292.314544677734 4.404916763306
-157.139450073242 -65.546974182129 -279.992889404297 5.101933956146
-145.112747192383 -65.099395751953 -288.022308349609 2.075054645538
-166.300827026367 -65.674438476563 -286.834320068359 4.406694412231
19.614780426025 -66.336578369141 -288.489501953125 4.087938308716
-101.886329650879 -69.903099060059 -288.782287597656 2.186186552048
-85.183029174805 -66.260025024414 -288.115142822266 3.112801074982
-166.232955932617 -65.154273986816 -287.430816650391 4.893880367279
-87.356582641602 -67.908546447754 -290.966461181641 1.496526002884
-151.744659423828 -68.950149536133 -291.195465087891 1.892682909966
-72.024597167969 -68.438232421875 -292.565551757813 3.896923780441
-65.102546691895 -67.753028869629 -291.376068115234 4.018662929535
-79.037773132324 -66.208068847656 -292.361267089844 4.801395893097
-0.827215015888 -64.571105957031 -290.091888427734 1.365125894547
-82.051078796387 -68.155204772949 -293.728607177734 3.726542472839
-95.329978942871 -67.371704101563 -293.638580322266 3.611232042313
-113.651847839355 -66.462677001953 -295.188293457031 4.006065845490
-113.809036254883 -65.561187744141 -296.497985839844 5.590310096741
-134.569198608398 -62.527992248535 -295.591125488281 5.629132747650
-140.115737915039 -71.099212646484 -302.976593017578 4.023586273193
-142.016357421875 -69.953498840332 -313.614044189453 3.625852584839
24.739395141602 -72.199905395508 -18.134931564331 1.807833909988
30.199760437012 -69.625656127930 -22.121051788330 3.000384330750
29.396986007690 -74.138519287109 -18.799543380737 1.982996582985
45.191341400146 -73.326103210449 -25.722717285156 1.843196153641
23.584627151489 -73.267478942871 -32.680484771729 1.666574954987
-77.798194885254 -67.694190979004 -51.571674346924 2.326713800430
87.374038696289 -71.091781616211 -64.907905578613 2.360888481140
-13.210453033447 -70.454467773438 -69.316772460938 1.800147056580
101.373733520508 -72.694656372070 -72.056884765625 4.282826900482
96.597221374512 -70.882850646973 -77.898864746094 2.200262546539
72.000381469727 -75.911529541016 -80.981803894043 2.378198146820
68.413551330566 -70.867980957031 -86.053421020508 2.075442075729
-47.173267364502 -69.942352294922 -84.318832397461 1.123937129974
60.839962005615 -71.385086059570 -83.180007934570 2.723981857300
-97.533821105957 -69.054031372070 -90.368911743164 1.553576827049
-49.407348632813 -69.266075134277 -89.502647399902 3.453988313675
-55.563240051270 -74.293594360352 -89.304512023926 2.818521022797
97.395019531250 -73.283714294434 -96.804306030273 1.117947220802
57.612857818604 -72.649024963379 -99.581985473633 1.995517253876
62.942832946777 -69.334587097168 -92.011238098145 2.021226167679
