-107.481109619141 -76.360809326172 -253.276107788086 5.151155471802
-112.283493041992 -70.259155273438 -256.811645507813 1.358999729156
-83.781730651855 -72.041007995605 -251.949615478516 2.500252008438
-112.209030151367 -73.179313659668 -261.696136474609 1.091300964355
-124.513092041016 -69.947204589844 -263.750335693359 1.135129451752
-144.669952392578 -70.874382019043 -265.030120849609 1.355151891708
-13.376665115356 -72.093765258789 -260.573394775391 2.719408988953
-170.819824218750 -70.828086853027 -265.029815673828 3.842797994614
-10.992049217224 -73.589302062988 -271.079528808594 2.741692304611
-158.678802490234 -67.665267944336 -265.358428955078 1.720848560333
-153.925537109375 -68.727958679199 -272.405090332031 3.053117752075
-168.841812133789 -67.803596496582 -273.998291015625 2.652554988861
-12.491633415222 -68.760040283203 -275.501129150391 1.746215105057
-133.636291503906 -72.047782897949 -282.642089843750 1.520162105560
-158.239837646484 -69.221412658691 -286.593719482422 2.705130100250
-143.987396240234 -70.964714050293 -281.000274658203 1.795652508736
-135.917068481445 -74.045783996582 -283.738586425781 1.389629244804
-8.837312698364 -70.630912780762 -282.252288818359 1.109873175621
-124.560646057129 -75.497322082520 -282.511627197266 2.410934448242
-141.791900634766 -72.260810852051 -284.688659667969 0.644486546516
-115.006423950195 -70.174003601074 -284.837341308594 1.647236466408
-77.264923095703 -69.772850036621 -288.176940917969 1.569767832756
-62.082977294922 -71.122703552246 -284.079040527344 2.878947257996
-5.400193214417 -71.542564392090 -287.893280029297 0.478064417839
-50.943164825439 -71.984535217285 -289.319061279297 1.310925722122
-60.674858093262 -72.136390686035 -287.205810546875 1.070193886757
-69.388282775879 -69.522987365723 -290.329162597656 0.851237237453
-86.930732727051 -72.247581481934 -293.744049072266 2.388845443726
-102.546791076660 -66.695335388184 -288.687774658203 3.068724632263
-160.516342163086 -70.744606018066 -289.908111572266 1.336926460266
-158.328033447266 -71.096107482910 -288.979522705078 1.162701368332
-126.468009948730 -73.380691528320 -295.364227294922 1.422469735146
-145.216064453125 -71.780693054199 -293.301208496094 1.975214362144
-156.960815429688 -70.879333496094 -298.735321044922 2.950083255768
-147.352325439453 -71.839736938477 -314.821533203125 2.252802848816
47.714260101318 -68.499282836914 -19.320463180542 1.627334594727
20.772611618042 -75.326026916504 -25.863454818726 3.608227729797
44.893859863281 -70.541831970215 -35.860954284668 1.720549941063
-17.497352600098 -72.225616455078 -65.772827148438 0.822354257107
82.065200805664 -68.809875488281 -66.127258300781 1.646037697792
86.385673522949 -65.196983337402 -69.639602661133 5.346374034882
77.218559265137 -68.427360534668 -70.498992919922 3.967776060104
77.129478454590 -69.337608337402 -68.018196105957 1.883366227150
95.850502014160 -71.516540527344 -73.691604614258 1.168419480324
-94.468513488770 -71.573997497559 -71.538658142090 2.363295316696
70.401718139648 -71.649314880371 -77.410392761230 1.321409702301
-35.196838378906 -67.670417785645 -76.256164550781 1.475224137306
100.235160827637 -70.517105102539 -87.018814086914 0.949484169483
63.840457916260 -73.704154968262 -89.353546142578 3.677448272705
109.592414855957 -69.695587158203 -92.909225463867 3.956441640854
106.503189086914 -71.679481506348 -98.104873657227 1.701215028763
72.081825256348 -71.026977539063 -97.753601074219 1.029082536697
-77.262458801270 -72.128372192383 -98.513305664063 0.777107298374
56.081794738770 -71.558967590332 -106.071876525879 3.167817115784
107.762916564941 -70.483718872070 -105.566947937012 0.601362824440
49.716785430908 -74.491432189941 -112.566963195801 0.842418313026
84.252220153809 -70.081611633301 -102.690452575684 0.893052339554
43.769271850586 -73.258674621582 -108.855598449707 3.819885492325
107.373008728027 -67.934112548828 -101.327110290527 1.751865506172
49.024559020996 -68.752044677734 -107.501892089844 1.226660490036
111.754455566406 -71.760856628418 -112.309226989746 1.177056074142
108.978271484375 -69.269004821777 -115.349273681641 1.342257022858
-77.850440979004 -65.266014099121 -113.241172790527 1.205092549324
-77.823097229004 -70.029777526855 -115.139556884766 0.715175807476
44.039390563965 -70.583190917969 -118.965843200684 1.776146292686
116.233451843262 -67.015075683594 -118.000625610352 4.133073806763
116.162963867188 -67.284645080566 -122.779876708984 3.563169002533
-81.174232482910 -70.186637878418 -125.946434020996 1.695163488388
108.889350891113 -68.872634887695 -122.556282043457 1.868869304657
-62.451709747314 -71.040153503418 -133.209213256836 1.990001082420
-86.998130798340 -68.453269958496 -126.097946166992 2.217373371124
-74.093627929688 -68.792999267578 -127.892608642578 1.579574942589
-56.638835906982 -65.469047546387 -124.883964538574 0.523889601231
34.786510467529 -68.949333190918 -129.652893066406 1.478882670403
42.276618957520 -69.774818420410 -133.529998779297 3.744736433029
-74.531242370605 -70.902053833008 -135.174346923828 1.195778489113
29.265977859497 -68.317634582520 -130.886810302734 2.351175308228
107.767471313477 -70.973854064941 -137.145645141602 1.806901454926
-39.781143188477 -70.282432556152 -147.365310668945 2.477509021759
26.265087127686 -68.444190979004 -146.165084838867 2.788261651993
113.037460327148 -65.130287170410 -146.249679565430 4.178614616394
35.908309936523 -70.979522705078 -143.679962158203 1.358602166176
111.980110168457 -70.068054199219 -143.534790039063 1.091181516647
-53.834358215332 -70.960075378418 -147.424987792969 1.963157892227
-66.455429077148 -71.806556701660 -149.134216308594 0.821729004383
-51.985980987549 -72.245956420898 -154.163116455078 1.734212636948
-43.091911315918 -69.524925231934 -166.771484375000 2.300476074219
4.067840099335 -68.084564208984 -154.126403808594 3.605428218842
111.274757385254 -65.803115844727 -154.614807128906 3.571368932724
109.237037658691 -68.189750671387 -160.058547973633 2.710882902145
9.658138275146 -65.830772399902 -159.178100585938 3.237315654755
3.305124998093 -69.759094238281 -160.760864257813 1.563044071198
15.998502731323 -68.254745483398 -158.401763916016 2.046643972397
22.945106506348 -68.667045593262 -151.244079589844 1.191853642464
114.473091125488 -71.501792907715 -165.873718261719 1.125378727913
107.550407409668 -71.075729370117 -171.219650268555 1.846741199493
26.125753402710 -68.464164733887 -172.518875122070 1.596965670586
27.451816558838 -68.670921325684 -163.150390625000 1.577157020569
115.281433105469 -68.944816589355 -162.231079101563 2.616153001785
-29.449981689453 -68.635848999023 -173.472381591797 1.361662149429
112.046257019043 -67.915435791016 -170.147720336914 2.075454473495
19.733709335327 -66.924400329590 -175.740463256836 2.595285654068
18.963676452637 -71.202171325684 -164.996688842773 0.541687905788
109.462509155273 -68.226524353027 -176.415527343750 1.867428898811
24.829597473145 -69.624725341797 -170.188751220703 1.286577701569
110.545677185059 -67.476417541504 -181.433959960938 3.819968461990
-38.833499908447 -68.151985168457 -175.572982788086 3.313699960709
27.697183609009 -67.072654724121 -172.430374145508 2.327104091644
108.198783874512 -68.610969543457 -184.648101806641 2.411457777023
24.651567459106 -68.284370422363 -178.279815673828 1.599317908287
-152.661514282227 -67.733451843262 -182.143737792969 2.302710056305
-30.564971923828 -69.430717468262 -187.726699829102 1.583880066872
25.679504394531 -70.652938842773 -185.007888793945 2.611893415451
-111.649009704590 -69.990493774414 -192.572082519531 0.820100545883
-111.089851379395 -70.917472839355 -188.534576416016 1.688055276871
22.052482604980 -67.301002502441 -191.372802734375 2.782959699631
13.051744461060 -70.552207946777 -186.005523681641 0.650866746902
-26.045057296753 -71.593269348145 -190.634658813477 1.354253649712
-28.781591415405 -70.478271484375 -187.152618408203 2.100496530533
-25.262783050537 -70.884353637695 -185.104782104492 1.088291883469
20.346286773682 -71.501731872559 -178.805297851563 2.685646295547
-151.949508666992 -69.947662353516 -192.291503906250 1.438826441765
-144.979354858398 -71.778152465820 -196.736984252930 2.034471511841
-140.925003051758 -70.133934020996 -193.317413330078 1.723153114319
-19.186859130859 -67.172622680664 -191.117523193359 2.014909267426
14.808567047119 -69.322303771973 -198.761581420898 2.151080131531
99.570175170898 -70.263343811035 -195.790161132813 1.851841926575
-114.797721862793 -69.847007751465 -200.478622436523 2.186702489853
19.028594970703 -68.274993896484 -200.837570190430 1.932352900505
-16.520656585693 -68.693733215332 -195.451522827148 1.513577342033
-18.231246948242 -68.376998901367 -196.484375000000 1.719546318054
98.261642456055 -68.807098388672 -200.471206665039 2.916373252869
8.927934646606 -70.992324829102 -199.327758789063 1.568078875542
-24.449218750000 -68.738151550293 -194.662643432617 1.320742845535
-121.625778198242 -71.734596252441 -201.116577148438 0.919416427612
-133.813049316406 -68.874893188477 -200.071426391602 3.410526990891
-110.837150573730 -68.174636840820 -205.075866699219 3.312050580978
-144.188003540039 -70.567939758301 -203.010284423828 2.206766605377
20.533147811890 -70.327728271484 -197.192047119141 1.173513174057
96.082473754883 -70.763305664063 -206.874923706055 1.748692631721
-166.414169311523 -69.013130187988 -204.015106201172 0.626047134399
101.125190734863 -69.681144714355 -203.482162475586 2.832769632339
-16.777582168579 -69.613708496094 -208.979919433594 2.287123918533
92.776779174805 -73.618179321289 -213.802871704102 2.637543916702
90.057380676270 -67.359863281250 -217.134613037109 2.212738275528
12.663721084595 -68.547935485840 -210.835861206055 1.947494029999
16.510608673096 -70.120254516602 -210.266159057617 1.432047009468
10.957665443420 -69.551582336426 -210.121582031250 1.927781939507
-9.576313972473 -69.138534545898 -219.029510498047 1.927641868591
-97.176383972168 -69.249496459961 -217.270141601563 0.831205368042
-6.997641086578 -71.133010864258 -217.351654052734 2.390757560730
91.632469177246 -68.207870483398 -214.383224487305 2.508241891861
-91.907928466797 -71.725830078125 -220.078720092773 1.553840279579
-102.201301574707 -71.903152465820 -219.837371826172 1.440572261810
-93.601486206055 -70.012008666992 -219.133575439453 1.897974729538
88.413513183594 -71.475334167480 -221.730834960938 0.558232128620
-134.277862548828 -71.929229736328 -225.351821899414 0.883401572704
-133.322174072266 -64.899627685547 -228.222335815430 1.256106138229
-118.616424560547 -69.374885559082 -225.818145751953 2.034311771393
-112.641479492188 -67.995841979980 -224.887161254883 1.117551445961
-132.894546508789 -68.622291564941 -221.998718261719 2.417162656784
-107.523742675781 -75.418594360352 -226.129287719727 2.886875629425
-113.901550292969 -68.296638488770 -227.297729492188 1.428327322006
-9.691896438599 -68.120582580566 -224.517105102539 2.055639743805
-19.031484603882 -71.370330810547 -224.831756591797 2.115783691406
-0.947134971619 -70.000732421875 -232.190826416016 1.418658852577
-9.211996078491 -68.170150756836 -228.268600463867 1.245603322983
15.551239013672 -70.887168884277 -232.015686035156 0.676458477974
-17.598646163940 -70.471908569336 -227.449356079102 0.549218356609
-163.127304077148 -70.314628601074 -223.106292724609 2.885467290878
-2.050376892090 -68.415534973145 -231.117950439453 1.717458963394
81.774253845215 -69.791816711426 -229.286788940430 1.498137712479
8.492345809937 -68.901687622070 -235.683029174805 2.371871709824
-8.700359344482 -68.843574523926 -230.082183837891 1.391644954681
-155.463180541992 -66.908538818359 -233.675033569336 2.140143394470
-139.049758911133 -71.290031433105 -232.699920654297 1.891216993332
68.033988952637 -66.279830932617 -235.889358520508 1.514433026314
-6.786188125610 -69.505630493164 -234.109970092773 0.292470425367
3.651534080505 -69.166755676270 -234.259262084961 1.392032504082
71.823326110840 -69.137130737305 -237.620239257813 0.527292907238
77.433708190918 -70.654655456543 -235.568771362305 1.479316592216
68.020034790039 -71.839309692383 -237.630447387695 1.345610857010
-2.087451934814 -68.005172729492 -236.118820190430 0.785197138786
55.684970855713 -69.568313598633 -239.053283691406 1.939162135124
-16.721874237061 -69.518096923828 -238.426254272461 1.230754137039
-15.932405471802 -68.570968627930 -240.266311645508 2.205253839493
9.157163619995 -69.969055175781 -239.541580200195 1.285352587700
66.290153503418 -69.504196166992 -243.638610839844 1.364384889603
60.654884338379 -69.684913635254 -239.370223999023 2.352653741837
52.564052581787 -66.889877319336 -247.029830932617 1.714344501495
61.830619812012 -71.654129028320 -243.992401123047 1.484714031219
-16.571603775024 -67.934860229492 -247.876785278320 2.684850692749
-83.671157836914 -68.129158020020 -247.900375366211 3.694869041443
-77.172668457031 -66.810707092285 -252.180404663086 3.254211664200
42.922130584717 -69.564239501953 -250.112518310547 1.245236515999
-143.749572753906 -67.590377807617 -249.229873657227 3.229748725891
39.211463928223 -70.159080505371 -257.213684082031 2.210426330566
-87.645118713379 -70.254959106445 -251.342041015625 0.812092661858
-154.145797729492 -70.345504760742 -255.135177612305 0.791225373745
-142.774078369141 -69.276428222656 -254.723144531250 0.765632569790
48.269302368164 -70.753479003906 -252.160720825195 0.762190580368
-126.050376892090 -67.987846374512 -253.087387084961 1.677125573158
-116.874786376953 -69.257575988770 -255.674728393555 1.415586709976
-94.935577392578 -68.928871154785 -254.708190917969 1.813063979149
-16.344181060791 -73.294029235840 -254.131912231445 2.738672971725
31.851291656494 -69.951782226563 -259.388488769531 0.752140998840
22.703483581543 -71.561492919922 -260.978057861328 1.800906300545
-156.269561767578 -69.549285888672 -256.055938720703 0.920183002949
-114.030044555664 -70.695777893066 -262.655487060547 1.059534668922
-13.225123405457 -70.215972900391 -259.670959472656 2.615111827850
-134.555099487305 -69.514198303223 -264.435485839844 1.088845849037
-12.830850601196 -68.207473754883 -271.505279541016 1.682396650314
-164.343795776367 -69.661529541016 -276.353759765625 1.701815009117
-9.728307723999 -67.431816101074 -277.917358398438 0.992713093758
-163.154022216797 -68.466018676758 -288.643737792969 1.386458277702
-159.748916625977 -69.394416809082 -276.358703613281 1.897887945175
-147.850357055664 -68.785018920898 -284.566436767578 2.261987209320
-169.002609252930 -69.786369323730 -283.064514160156 2.326131343842
16.843482971191 -66.610832214355 -287.415039062500 1.609044432640
-104.548316955566 -72.699256896973 -285.903747558594 2.707379579544
-87.916946411133 -68.703521728516 -285.518127441406 2.496208667755
-168.954177856445 -69.271438598633 -283.667419433594 2.217313766479
-90.096168518066 -70.427726745605 -288.319915771484 1.564188480377
-154.445098876953 -72.806816101074 -287.601867675781 2.519648790359
-74.780921936035 -70.656730651855 -290.136016845703 1.990587592125
-67.858383178711 -69.815208435059 -289.054595947266 0.650104701519
-81.835517883301 -68.570388793945 -289.853454589844 1.600150704384
-3.651774883270 -65.287216186523 -288.738677978516 1.340660810471
-84.826744079590 -70.594383239746 -291.156127929688 2.241323471069
-98.116470336914 -70.085494995117 -290.881408691406 1.224158167839
-116.473625183105 -69.573562622070 -292.174133300781 0.802314579487
-116.668342590332 -68.689842224121 -293.490875244141 1.225817084312
-137.472229003906 -66.078132629395 -292.314514160156 2.707090854645
-142.943634033203 -74.842475891113 -299.527374267578 1.822355270386
-145.019836425781 -73.852378845215 -310.147613525391 1.868495106697
25.958551406860 -69.421012878418 -17.116605758667 2.515085458755
31.306327819824 -66.777664184570 -21.208726882935 2.963696718216
30.645639419556 -71.269744873047 -17.828277587891 0.743869423866
46.318859100342 -70.205436706543 -24.988536834717 1.619495511055
24.618267059326 -70.670700073242 -31.631706237793 2.301770687103
-77.118858337402 -67.407234191895 -49.105106353760 1.477828145027
87.880485534668 -67.523818969727 -64.804252624512 1.390342473984
-12.748155593872 -69.020637512207 -67.756988525391 1.736402988434
101.806846618652 -68.913810729980 -72.138603210449 2.482375144958
96.910400390625 -67.265197753906 -77.929389953613 3.714282512665
72.382385253906 -72.836174011230 -80.600997924805 1.545097231865
68.618743896484 -67.923645019531 -85.673088073730 2.254187583923
-46.925498962402 -69.376419067383 -82.268333435059 3.062812089920
61.099517822266 -68.566368103027 -82.684562683105 1.510746955872
-97.375045776367 -69.598632812500 -87.594764709473 2.282849788666
-49.247184753418 -68.803131103516 -87.425994873047 2.037035465240
-55.293228149414 -73.954772949219 -87.085151672363 3.750515699387
97.487503051758 -69.854812622070 -96.817939758301 2.344253063202
57.665092468262 -70.075561523438 -99.023590087891 0.964251577854
63.032470703125 -66.569030761719 -91.566658020020 0.884051561356
-95.322441101074 -67.597259521484 -95.009681701660 2.870901346207
109.103996276855 -66.478027343750 -95.246543884277 3.026768922806
47.816677093506 -68.261093139648 -95.950462341309 1.547219753265
101.530326843262 -67.173469543457 -97.772872924805 0.397541463375
106.733230590820 -68.022323608398 -106.632965087891 2.827169656754
102.079101562500 -67.680137634277 -105.076042175293 1.630919933319
74.892578125000 -67.785545349121 -104.276008605957 1.212685227394
87.137672424316 -68.581062316895 -106.497512817383 2.413722515106
48.254085540771 -71.099617004395 -110.785972595215 1.814141154289
109.563796997070 -67.557754516602 -107.276947021484 1.572940111160
46.191333770752 -68.778511047363 -108.586341857910 1.677500128746
45.946540832520 -66.224220275879 -101.291877746582 1.629368424416
109.350982666016 -69.714569091797 -114.235206604004 1.488415122032
-78.684410095215 -66.999702453613 -108.539405822754 1.019672513008
47.861736297607 -67.393745422363 -114.022697448730 2.690859079361
36.668384552002 -68.979598999023 -112.453918457031 2.212317943573
106.521232604980 -68.508712768555 -108.903579711914 1.494282484055
43.357383728027 -67.124450683594 -112.625137329102 0.981367111206
-89.094657897949 -67.975540161133 -117.061065673828 1.025132179260
-96.596473693848 -68.225105285645 -115.533912658691 1.785868406296
108.669319152832 -66.384582519531 -120.945182800293 2.071729183197
-92.624519348145 -72.340637207031 -116.492454528809 1.608851194382
39.487815856934 -67.597473144531 -122.855857849121 1.730481624603
37.693347930908 -67.832740783691 -117.560523986816 1.048652768135
-79.025894165039 -69.413993835449 -123.300003051758 1.250402092934
29.964170455933 -66.155639648438 -131.732543945313 2.847955703735
109.553916931152 -68.682685852051 -133.129089355469 2.351436853409
-48.961193084717 -68.953636169434 -135.556289672852 1.741750001907
-88.585556030273 -69.729721069336 -129.993011474609 1.410040259361
36.430229187012 -69.091903686523 -136.280838012695 2.402436017990
-88.786300659180 -68.194541931152 -134.700469970703 1.933745622635
-90.051528930664 -70.498733520508 -135.464370727539 1.036076068878
-47.690895080566 -71.464172363281 -136.110763549805 0.979093611240
-71.421302795410 -69.487419128418 -138.964569091797 0.632147908211
-49.778766632080 -68.205863952637 -136.761642456055 1.778315901756
113.982170104980 -66.384269714355 -138.936828613281 2.263646125793
-74.782241821289 -66.050041198730 -140.099136352539 0.762301743031
36.013622283936 -68.894805908203 -130.594787597656 0.879257142544
-76.476364135742 -66.633857727051 -138.211669921875 1.644903302193
-76.735176086426 -67.676589965820 -133.536895751953 1.156674623489
-86.790924072266 -69.031921386719 -135.828948974609 1.215386986732
-54.830379486084 -68.630470275879 -150.387435913086 1.670151710510
31.735958099365 -66.824523925781 -148.755371093750 2.061432600021
31.440286636353 -67.734710693359 -151.561920166016 2.420654058456
19.460573196411 -67.029930114746 -144.645675659180 2.148770332336
113.738533020020 -70.114776611328 -149.147583007813 1.161501884460
-97.149436950684 -72.605895996094 -154.691452026367 4.166952133179
17.231142044067 -69.342018127441 -148.663269042969 1.311260581017
-70.153129577637 -70.434280395508 -147.754577636719 1.096996426582
23.470674514771 -67.812446594238 -149.681945800781 2.145717859268
-45.776725769043 -67.460525512695 -153.943969726563 1.369379281998
8.178299903870 -66.067138671875 -149.885223388672 3.865788459778
9.624061584473 -68.126052856445 -156.466781616211 1.277925610542
17.990819931030 -68.480781555176 -162.716720581055 3.292427062988
-46.010517120361 -69.727371215820 -162.941543579102 1.628389716148
-40.365215301514 -65.256446838379 -152.927078247070 4.099736690521
-45.870025634766 -67.406929016113 -157.068542480469 1.902252912521
-101.802520751953 -68.029586791992 -169.243057250977 0.982295572758
19.135009765625 -65.843780517578 -171.942550659180 1.987866640091
-36.857707977295 -69.567481994629 -173.238067626953 1.550860166550
13.957785606384 -64.030654907227 -178.153732299805 5.146568775177
-145.914642333984 -72.372840881348 -171.885162353516 3.742821693420
-34.131492614746 -65.306411743164 -174.268981933594 3.303060770035
-151.989166259766 -66.875946044922 -175.674789428711 1.704483032227
19.961196899414 -69.092338562012 -181.376007080078 2.214484930038
-32.276195526123 -71.303459167480 -171.661819458008 0.555074155331
-108.504119873047 -70.909881591797 -181.124557495117 2.162630081177
-105.361976623535 -69.045578002930 -181.675094604492 0.942691564560
-32.001888275146 -66.886367797852 -181.730056762695 1.992398142815
-19.471817016602 -68.985733032227 -185.686492919922 1.950851440430
14.894665718079 -68.775978088379 -189.334777832031 1.519561648369
19.596044540405 -68.146377563477 -195.525253295898 1.615591287613
16.693267822266 -64.214843750000 -187.100173950195 3.345223903656
-140.918807983398 -69.474288940430 -185.408142089844 1.940202474594
17.177078247070 -67.983238220215 -192.578018188477 1.888714075089
10.362336158752 -69.338447570801 -197.333038330078 2.002906560898
-140.258987426758 -67.185379028320 -195.367843627930 0.859172821045
-117.586433410645 -69.834083557129 -197.177307128906 1.996894836426
15.345306396484 -66.689575195313 -197.931289672852 1.247007131577
-112.351188659668 -70.859054565430 -193.098083496094 1.220953226089
-108.453300476074 -70.120208740234 -191.059295654297 2.195629596710
-162.901962280273 -71.493827819824 -198.698822021484 0.954123973846
-19.607500076294 -72.042228698730 -202.208663940430 2.678794384003
16.053871154785 -65.769691467285 -201.787994384766 1.909939527512
-138.770416259766 -66.674865722656 -199.906188964844 2.874686717987
-133.668640136719 -69.343544006348 -206.039123535156 1.740779876709
-18.508058547974 -67.392257690430 -206.299118041992 0.980072736740
-11.654186248779 -67.496559143066 -203.696899414063 1.696421742439
-15.218270301819 -69.323074340820 -208.252044677734 1.937239408493
-145.176193237305 -71.034347534180 -206.660140991211 1.292137980461
-18.382610321045 -70.546653747559 -206.718612670898 0.619435906410
-12.371848106384 -66.650192260742 -211.107513427734 1.810478687286
16.115463256836 -67.604637145996 -209.520004272461 1.647899627686
-11.120857238770 -68.479202270508 -208.934997558594 2.312122106552
10.941647529602 -65.299713134766 -211.930053710938 2.989866495132
-8.026167869568 -70.047363281250 -216.551971435547 1.281907916069
-15.924329757690 -70.443435668945 -211.388854980469 0.575391650200
11.903499603271 -68.339393615723 -223.615417480469 0.457249701023
-2.775762081146 -69.496177673340 -219.522369384766 1.989658832550
12.154911041260 -67.171859741211 -221.970367431641 1.988075733185
-4.778326988220 -69.859634399414 -223.736831665039 1.570278167725
-157.891571044922 -69.278175354004 -220.731521606445 1.444609165192
83.394203186035 -68.900680541992 -221.720001220703 2.134847402573
-134.444473266602 -68.614509582520 -221.954925537109 3.005526304245
-134.386001586914 -68.677200317383 -223.795700073242 1.201035141945
-8.522653579712 -68.580322265625 -226.928131103516 1.745888590813
12.643143653870 -70.132888793945 -233.198944091797 1.592639088631
-152.272262573242 -67.831329345703 -222.714309692383 1.204256653786
85.480957031250 -66.131332397461 -221.418243408203 3.173004865646
-5.867422103882 -68.617729187012 -224.084533691406 0.494503736496
2.220309019089 -69.839973449707 -226.371810913086 1.415050387383
72.585052490234 -67.964271545410 -228.008209228516 2.386079072952
3.294070005417 -69.682899475098 -232.397460937500 2.101779460907
-17.067054748535 -67.796615600586 -230.469528198242 2.969187021255
-122.441619873047 -72.184700012207 -235.320831298828 2.399853944778
-4.091525077820 -68.583892822266 -236.676498413086 1.352374434471
0.500072002411 -68.953086853027 -233.484741210938 1.029755473137
67.493255615234 -69.443832397461 -237.116653442383 1.389819383621
-160.758209228516 -68.491477966309 -237.922088623047 1.547844052315
-10.136813163757 -68.536231994629 -245.300155639648 2.313606977463
-166.550338745117 -70.311248779297 -237.885101318359 1.275224208832
8.597351074219 -69.885307312012 -243.976928710938 1.505308389664
-166.573745727539 -68.501647949219 -237.435714721680 1.066734433174
-158.348373413086 -66.991180419922 -242.280593872070 1.517521500587
54.848705291748 -70.522232055664 -249.934631347656 2.273355245590
63.797771453857 -66.765594482422 -244.006607055664 2.279682159424
55.521759033203 -67.743637084961 -243.233078002930 2.129829168320
50.872005462646 -70.532463073730 -248.494445800781 0.958380997181
-159.836029052734 -68.299423217773 -244.714050292969 1.350930929184
-154.026397705078 -69.821044921875 -249.483551025391 2.754870653152
-15.152732849121 -67.964546203613 -247.763793945313 1.598316431046
-153.466125488281 -68.272850036621 -245.580795288086 2.350530624390
21.150611877441 -71.187644958496 -254.265670776367 2.213492631912
-166.359954833984 -68.828895568848 -249.755584716797 1.495337128639
-167.877868652344 -65.350799560547 -243.096313476563 3.657324790955
-81.029830932617 -67.481086730957 -251.060577392578 2.891274213791
-169.936218261719 -70.079055786133 -263.044189453125 2.594743967056
-86.025619506836 -69.560462951660 -257.198883056641 2.027344226837
38.827503204346 -65.131462097168 -250.885864257813 1.146243095398
23.894390106201 -71.706718444824 -255.593658447266 1.529895067215
-158.608291625977 -67.081306457520 -258.104827880859 2.469879865646
-101.480537414551 -66.115623474121 -259.406127929688 1.523269176483
38.859645843506 -68.331710815430 -258.155059814453 0.984714090824
-101.411476135254 -69.499610900879 -258.636993408203 1.320830821991
-153.058944702148 -65.559494018555 -259.437286376953 2.363317489624
-106.883972167969 -66.586212158203 -258.426239013672 0.743058621883
-163.966857910156 -68.892494201660 -257.887969970703 1.735216140747
-113.256278991699 -70.069885253906 -261.320556640625 1.240242123604
-153.970260620117 -70.204406738281 -265.966522216797 1.670877218246
-157.444503784180 -70.943473815918 -262.721252441406 1.783983111382
-166.975173950195 -71.180519104004 -263.210357666016 1.453568577766
-160.798492431641 -68.760696411133 -262.839630126953 1.575037002563
-165.796691894531 -67.008354187012 -266.854156494141 2.084913492203
-162.917205810547 -65.844627380371 -265.833862304688 3.699906826019
24.133203506470 -69.455101013184 -264.236267089844 1.418995261192
-150.490554809570 -67.958717346191 -265.640991210938 1.128992080688
-148.152618408203 -67.583435058594 -284.501647949219 2.492655515671
18.720014572144 -73.542877197266 -278.895202636719 2.153194904327
-9.155221939087 -67.666381835938 -274.964721679688 2.624048709869
-126.651649475098 -71.787895202637 -283.452423095703 1.416552662849
-137.067672729492 -73.821823120117 -286.408660888672 1.818312406540
-137.212417602539 -69.021362304688 -285.714538574219 2.028352975845
-127.698066711426 -67.406120300293 -284.405120849609 1.086666703224
-116.427421569824 -68.456733703613 -287.145721435547 0.501221358776
-107.926368713379 -70.079078674316 -286.630798339844 1.279137134552
11.778149604797 -68.123741149902 -290.673583984375 2.468123197556
-88.706352233887 -67.972236633301 -285.888916015625 3.110243797302
-147.761322021484 -70.416664123535 -292.293060302734 2.203699588776
-100.158859252930 -67.135627746582 -288.475616455078 1.737959146500
-127.500221252441 -67.939102172852 -290.648406982422 2.527890205383
10.445281028748 -73.367195129395 -288.761413574219 1.821532487869
-114.887428283691 -70.537185668945 -292.442016601563 0.924126863480
0.923417985439 -69.030937194824 -290.004882812500 2.402613401413
-143.079528808594 -70.347877502441 -289.292419433594 2.864001035690
-155.648864746094 -71.348823547363 -298.879180908203 1.822487592697
-161.179840087891 -70.336349487305 -307.784240722656 5.388236999512
-153.732055664063 -70.554695129395 -310.740478515625 2.160093784332
50.603416442871 -71.345832824707 -24.858802795410 1.681774973869
21.320821762085 -69.382972717285 -32.049758911133 1.855761051178
35.480545043945 -69.937423706055 -37.440631866455 1.115590810776
-48.754180908203 -67.943969726563 -49.614807128906 3.069858551025
-13.214889526367 -66.969825744629 -61.160427093506 2.241577863693
94.637245178223 -71.948684692383 -72.830497741699 0.853917956352
68.452850341797 -66.438133239746 -68.927597045898 1.186245799065
-20.236894607544 -69.903892517090 -74.141983032227 1.281017303467
-93.020652770996 -69.049560546875 -81.425483703613 2.656499862671
-39.142147064209 -69.215827941895 -78.907783508301 2.417101860046
65.615402221680 -68.162223815918 -81.729881286621 0.652404487133
57.802913665771 -71.994148254395 -85.298446655273 2.057405233383
57.551929473877 -68.917938232422 -87.206817626953 1.255917072296
-56.213062286377 -69.597518920898 -86.157936096191 3.126845598221
67.984893798828 -66.711761474609 -88.517944335938 2.658922910690
45.616817474365 -71.435592651367 -96.354225158691 0.809872746468
67.698097229004 -69.993766784668 -91.886611938477 1.773599147797
-63.089050292969 -67.081466674805 -95.687034606934 2.029406547546
52.510410308838 -66.241096496582 -96.313812255859 1.481334686279
46.345546722412 -69.121025085449 -98.169891357422 1.260097384453
104.329879760742 -69.942756652832 -96.059143066406 1.868261218071
-68.764015197754 -72.521141052246 -98.794776916504 3.002426862717
110.613174438477 -68.774879455566 -101.821807861328 1.542860031128
-79.109886169434 -67.061630249023 -96.058502197266 4.279848575592
56.726917266846 -69.767822265625 -105.093093872070 2.697182655334
49.724540710449 -66.461143493652 -101.002479553223 1.673480033875
95.398483276367 -68.767265319824 -100.933502197266 2.620929956436
87.876960754395 -61.264579772949 -111.490501403809 2.360466957092
55.218837738037 -69.314735412598 -103.929252624512 1.919339895248
-71.455322265625 -69.455711364746 -106.183647155762 2.883951425552
-77.071899414063 -68.661468505859 -109.727462768555 1.409076571465
-81.606094360352 -70.977561950684 -118.917076110840 1.935265302658
-92.832283020020 -74.445411682129 -116.705230712891 1.049227118492
105.013557434082 -68.290771484375 -114.866714477539 1.452877879143
-85.266334533691 -66.859870910645 -119.075088500977 0.674414277077
-78.768547058105 -66.381134033203 -119.264945983887 1.448523998260
111.439529418945 -65.868118286133 -116.073577880859 2.039597511292
-63.062721252441 -63.716831207275 -117.579162597656 1.795012950897
113.699821472168 -69.729202270508 -131.508972167969 1.544443964958
109.416206359863 -67.410118103027 -129.960723876953 1.656813263893
112.138648986816 -67.018562316895 -119.796119689941 1.459505200386
-93.016242980957 -67.142471313477 -135.149642944336 0.984031856060
-51.004123687744 -65.516502380371 -139.400039672852 1.506912708282
-75.542495727539 -70.149162292480 -145.414535522461 1.233963727951
-68.490745544434 -66.774734497070 -149.633316040039 2.776555299759
-72.770256042480 -66.711715698242 -143.731918334961 1.418669462204
-53.786373138428 -65.465370178223 -145.072631835938 1.271732449532
-47.600406646729 -66.964347839355 -150.062759399414 1.127737402916
20.673906326294 -69.196594238281 -144.555191040039 1.012338995934
-94.294120788574 -65.303855895996 -150.268798828125 1.468220710754
-43.362689971924 -70.064529418945 -147.644409179688 1.559270858765
-54.019611358643 -67.378181457520 -150.335708618164 1.850751996040
-42.840881347656 -65.146102905273 -155.357650756836 2.926536321640
28.723440170288 -70.637046813965 -161.180862426758 0.631128847599
-47.914482116699 -67.168945312500 -152.632354736328 2.529982566833
-96.189697265625 -68.869491577148 -148.656951904297 1.211261272430
-41.676025390625 -67.227912902832 -159.368499755859 0.910958290100
26.131248474121 -65.891418457031 -154.993988037109 3.499734640121
-100.903343200684 -68.888107299805 -162.232406616211 1.799168825150
22.515165328979 -67.011596679688 -157.764892578125 1.869138240814
-105.085639953613 -64.859977722168 -170.527404785156 2.349986076355
-99.952865600586 -65.624252319336 -162.802703857422 1.829777121544
22.882211685181 -63.728191375732 -166.066436767578 3.950677871704
25.921255111694 -65.725326538086 -167.810882568359 2.220741987228
-105.743370056152 -69.666221618652 -173.326858520508 1.493831992149
-142.663024902344 -68.536293029785 -174.802200317383 1.484948635101
-23.525608062744 -66.707145690918 -186.526824951172 2.532012939453
-23.753734588623 -65.769912719727 -183.171096801758 3.344185829163
-112.717605590820 -66.952377319336 -187.610488891602 0.734661757946
-142.000885009766 -66.370635986328 -187.821166992188 0.747800707817
-105.238731384277 -70.043449401855 -180.307601928711 2.234732389450
-152.067993164063 -70.915534973145 -195.015487670898 1.622859120369
-129.587081909180 -70.560073852539 -192.607910156250 2.627807855606
-135.410842895508 -67.700950622559 -194.597259521484 2.466256380081
-20.844696044922 -64.160888671875 -192.576446533203 3.610312938690
-120.720428466797 -68.607231140137 -192.495666503906 3.478250026703
-113.745063781738 -66.024322509766 -194.545532226563 2.227767467499
-20.198614120483 -69.555328369141 -194.873016357422 1.684993863106
-154.111648559570 -65.476547241211 -196.168136596680 1.589595913887
-133.796813964844 -70.670219421387 -207.424987792969 3.581504583359
-123.919708251953 -65.985397338867 -203.806976318359 1.348959922791
16.114871978760 -65.630317687988 -203.467773437500 1.982084512711
-160.815582275391 -67.602455139160 -204.343200683594 1.121821165085
10.299711227417 -70.178764343262 -211.291229248047 1.573188781738
13.914033889771 -71.099929809570 -213.659973144531 1.158195137978
-18.743211746216 -67.125946044922 -207.534515380859 0.883416295052
-5.343471050262 -68.397911071777 -213.856353759766 2.563987970352
-166.446289062500 -68.525993347168 -210.529525756836 1.349180102348
-158.678924560547 -66.806335449219 -215.085281372070 1.714934587479
-98.936752319336 -68.916847229004 -216.983291625977 1.703667402267
-100.750602722168 -66.875610351563 -225.429626464844 1.970554232597
-159.200012207031 -66.036590576172 -219.767349243164 1.986087203026
-104.783233642578 -68.095733642578 -220.352401733398 1.808773875237
-15.043089866638 -68.680046081543 -217.798812866211 1.579759836197
-124.992614746094 -67.885009765625 -226.089324951172 1.749333977699
-142.957015991211 -70.295661926270 -223.439178466797 0.899400591850
-5.744784832001 -69.439498901367 -224.782577514648 0.993652403355
-133.012222290039 -66.553611755371 -225.238082885742 1.250013709068
-124.915596008301 -65.500869750977 -225.256683349609 0.711176812649
-112.226745605469 -68.960556030273 -228.292861938477 2.553188562393
1.206652998924 -67.566673278809 -228.409866333008 2.078705310822
-107.633682250977 -66.864265441895 -226.934097290039 2.190659523010
-157.987213134766 -70.957778930664 -221.244522094727 2.541304826736
-147.066406250000 -70.688446044922 -225.467987060547 2.917912960052
-165.281692504883 -68.427062988281 -225.071014404297 1.278502702713
-6.987197875977 -67.987655639648 -228.464080810547 1.633427143097
-9.224783897400 -61.541534423828 -230.238418579102 6.375936031342
77.580741882324 -61.808208465576 -226.921707153320 6.746659278870
2.712781906128 -65.855316162109 -232.285903930664 0.878406047821
-143.050125122070 -67.087173461914 -232.291503906250 1.238718390465
-12.875194549561 -69.114807128906 -229.285629272461 1.675493717194
76.241790771484 -70.212455749512 -225.493423461914 0.697113275528
71.905448913574 -67.605827331543 -232.370590209961 1.461042046547
-131.729705810547 -67.957870483398 -230.956069946289 3.668643236160
-160.077789306641 -67.338699340820 -226.573715209961 1.433499455452
-112.477188110352 -65.990562438965 -231.318740844727 1.090504765511
-121.009483337402 -66.974441528320 -232.963043212891 2.810076236725
-167.619796752930 -65.153236389160 -232.806503295898 3.940148353577
-158.458419799805 -66.705619812012 -236.521820068359 1.390914797783
-138.878936767578 -67.672019958496 -238.086196899414 5.359072208405
-9.594905853271 -71.932197570801 -234.245361328125 2.239699840546
-3.252517938614 -67.129241943359 -241.038528442383 2.413523674011
-160.719009399414 -65.995475769043 -239.166702270508 1.588453531265
7.366773128510 -70.036819458008 -240.267761230469 1.254480004311
7.879865169525 -66.417846679688 -237.167709350586 1.589356303215
-163.026718139648 -67.575241088867 -240.741592407227 1.170125126839
13.643185615540 -67.959922790527 -243.236923217773 1.173340797424
51.153999328613 -67.276863098145 -246.386199951172 1.931752443314
52.742786407471 -65.164550781250 -249.718688964844 1.442358016968
-9.839685440063 -68.642669677734 -245.310317993164 2.549689054489
50.220870971680 -65.545730590820 -246.909622192383 2.037536621094
-163.162384033203 -68.434547424316 -253.137908935547 1.240383863449
-164.000640869141 -66.403549194336 -247.923416137695 2.329517841339
-161.695907592773 -69.324752807617 -246.992126464844 1.512736916542
54.255950927734 -66.513381958008 -253.090789794922 2.770794153214
-90.190818786621 -70.010498046875 -252.238525390625 0.766094386578
-124.844017028809 -67.620086669922 -252.047378540039 2.964321374893
-106.709838867188 -69.481224060059 -253.793350219727 1.823372244835
30.537817001343 -68.015518188477 -256.586151123047 0.984773159027
40.511417388916 -67.951370239258 -252.488052368164 0.903309166431
-98.726760864258 -67.441497802734 -253.101760864258 1.663932561874
-93.199516296387 -66.526634216309 -255.624069213867 1.353832244873
45.098892211914 -66.437217712402 -254.947784423828 1.133453845978
41.996524810791 -65.886718750000 -254.934646606445 1.280559659004
-156.743133544922 -69.428916931152 -258.623840332031 1.140773177147
33.317718505859 -65.346389770508 -255.476379394531 2.117705106735
-140.042373657227 -70.240165710449 -263.782928466797 1.955968022346
-116.644180297852 -65.396064758301 -259.509002685547 1.485181570053
-133.370437622070 -67.070289611816 -264.078643798828 0.363266497850
33.104503631592 -70.503967285156 -263.531311035156 2.729741811752
-127.214126586914 -69.433891296387 -263.403137207031 2.432581424713
-10.373962402344 -65.596366882324 -258.110626220703 3.907945394516
22.126319885254 -69.740631103516 -273.245941162109 2.705791950226
-11.514301300049 -66.607177734375 -267.326721191406 3.406834602356
22.808702468872 -65.756767272949 -282.061004638672 3.337455987930
-150.676589965820 -69.106559753418 -281.768615722656 1.467052578926
-11.083838462830 -70.201072692871 -277.314941406250 1.565811276436
-154.270401000977 -70.745223999023 -286.029907226563 1.780293464661
-126.845336914063 -66.959518432617 -283.996917724609 1.176607489586
-158.796020507813 -70.232872009277 -287.309600830078 1.960758447647
-119.555381774902 -67.932723999023 -285.609130859375 3.593377351761
-106.412803649902 -70.186431884766 -288.999877929688 2.080904722214
-8.224052429199 -67.607322692871 -287.960968017578 1.999006509781
-110.790863037109 -68.333549499512 -291.766784667969 2.259174346924
-117.664848327637 -70.919204711914 -288.546539306641 2.764118671417
-119.990257263184 -69.528861999512 -290.493774414063 1.894724130630
-137.040023803711 -65.948219299316 -288.906066894531 1.857326030731
-125.026260375977 -71.286392211914 -292.256378173828 0.878537416458
-158.584320068359 -69.588226318359 -288.666107177734 1.974349856377
-146.009521484375 -72.638992309570 -295.151794433594 1.195878148079
-152.804199218750 -67.844306945801 -297.361511230469 2.420838117599
-154.387863159180 -66.196502685547 -307.458801269531 1.528642535210
-157.970764160156 -67.531791687012 -300.297180175781 3.520136833191
-147.112197875977 -69.792213439941 -310.913085937500 2.128903150558
-150.642333984375 -68.341041564941 -311.946228027344 1.242684721947
36.020553588867 -68.040153503418 -14.931273460388 2.287656068802
45.880775451660 -69.404930114746 -17.388336181641 1.387416005135
29.788019180298 -63.340538024902 -29.134622573853 3.800349950790
52.367568969727 -66.652488708496 -30.137319564819 3.890472412109
32.226863861084 -67.025726318359 -36.356021881104 0.841674745083
40.239082336426 -71.280502319336 -35.909458160400 0.723052442074
-54.631847381592 -67.058670043945 -44.537113189697 2.438100337982
86.069252014160 -66.407325744629 -61.194133758545 1.791437029839
83.316734313965 -66.682182312012 -66.029731750488 2.906445026398
-91.543823242188 -64.875778198242 -61.862655639648 1.656870841980
-11.830944061279 -65.519210815430 -62.018836975098 1.343451380730
-87.630470275879 -70.710128784180 -66.261383056641 3.019042968750
98.156044006348 -65.866760253906 -70.225379943848 2.007439136505
-15.040039062500 -64.562500000000 -67.382019042969 1.007166147232
69.743659973145 -68.523239135742 -76.638343811035 2.480986833572
-37.726989746094 -70.059211730957 -76.084037780762 1.482677817345
-27.871526718140 -71.643402099609 -79.104431152344 1.735382556915
57.567176818848 -65.019309997559 -86.336372375488 2.234889745712
-45.195854187012 -77.135627746582 -86.538360595703 1.642210721970
64.284957885742 -63.370235443115 -82.609550476074 0.674768626690
54.958644866943 -66.746917724609 -85.781707763672 1.320029735565
51.284629821777 -70.222251892090 -92.162887573242 1.305878877640
65.449043273926 -65.921859741211 -91.917442321777 1.239709496498
59.465110778809 -66.859855651855 -97.868217468262 2.152551412582
103.904884338379 -63.970954895020 -96.051582336426 1.661318898201
105.204277038574 -68.674728393555 -96.244941711426 1.032303571701
59.386306762695 -70.233856201172 -98.182647705078 1.325532197952
108.880081176758 -64.833137512207 -99.410423278809 2.634840011597
-71.888191223145 -71.926750183105 -99.277763366699 2.965381860733
-70.340812683105 -68.665603637695 -101.229469299316 1.650278925896
104.381652832031 -68.965927124023 -97.753929138184 0.447435021400
55.091716766357 -65.867042541504 -101.251747131348 1.970153927803
72.389381408691 -68.401733398438 -101.591102600098 1.653600215912
-69.498107910156 -62.486995697021 -101.347633361816 1.467508792877
-80.560203552246 -65.520256042480 -105.331588745117 2.110228776932
95.246444702148 -65.834617614746 -109.328643798828 3.208604574203
43.939968109131 -66.649093627930 -104.508781433105 2.266603946686
103.192359924316 -66.139999389648 -102.604598999023 1.755811452866
44.891391754150 -65.882766723633 -111.460456848145 2.282048702240
112.950309753418 -64.062057495117 -108.011596679688 4.926166534424
-82.425827026367 -63.682502746582 -107.344131469727 0.642097413540
106.816169738770 -62.855648040771 -109.816490173340 3.932167768478
-85.281295776367 -64.610496520996 -116.596160888672 2.360277891159
-57.798992156982 -68.778526306152 -125.345718383789 1.244078040123
-56.300846099854 -65.763175964355 -127.124687194824 1.833293080330
-72.556777954102 -68.476745605469 -128.995208740234 1.736060738564
-49.644435882568 -68.473854064941 -130.129669189453 1.601615190506
-85.055915832520 -67.842628479004 -131.515747070313 1.626150250435
-77.033210754395 -69.347549438477 -134.039138793945 1.914405465126
-83.845405578613 -67.005249023438 -127.344306945801 1.678889274597
-55.180465698242 -70.279350280762 -137.917160034180 3.160977602005
-71.698661804199 -65.952583312988 -138.406127929688 1.234775066376
-58.925514221191 -66.674377441406 -135.430511474609 2.131894588470
-61.658912658691 -68.926155090332 -137.903915405273 1.442017316818
23.503850936890 -68.209533691406 -140.192276000977 1.677908539772
-87.039543151855 -68.734786987305 -143.632965087891 3.424073457718
-45.382450103760 -69.433097839355 -145.184005737305 2.251052856445
-98.008605957031 -65.132926940918 -148.888732910156 0.977847397327
-100.921409606934 -66.326057434082 -151.362319946289 1.264819145203
18.370178222656 -70.366668701172 -152.781677246094 2.587203741074
14.676539421082 -69.762672424316 -158.534194946289 0.479258567095
-98.685897827148 -67.563789367676 -158.130020141602 1.769652962685
-100.120918273926 -65.623550415039 -157.079284667969 2.127964258194
-96.932594299316 -66.612342834473 -167.707595825195 4.481268882751
20.604104995728 -64.663970947266 -169.702987670898 2.999727487564
-111.228019714355 -69.365020751953 -167.697952270508 5.144874572754
19.750764846802 -68.626983642578 -168.667953491211 0.447945684195
-145.474563598633 -69.469337463379 -176.340774536133 1.659758687019
17.568965911865 -67.110328674316 -176.278594970703 1.834918975830
22.872268676758 -68.114204406738 -186.341674804688 0.902789175510
-152.941177368164 -65.893936157227 -186.536041259766 1.462603569031
20.477064132690 -68.569084167480 -179.378234863281 1.293823957443
16.605283737183 -65.726615905762 -177.979095458984 2.131203174591
-138.310989379883 -72.742042541504 -189.485809326172 4.616330623627
-151.086578369141 -69.271751403809 -188.298461914063 0.204820141196
18.320892333984 -65.955497741699 -189.342407226563 0.743106663227
20.216672897339 -64.975975036621 -186.939117431641 2.190692663193
-145.013595581055 -67.499092102051 -191.480514526367 2.544462680817
-108.182052612305 -70.639709472656 -194.498703002930 1.174106001854
21.864845275879 -66.642875671387 -196.348693847656 2.361853361130
-125.124221801758 -64.613098144531 -191.924072265625 3.287258386612
11.992684364319 -68.086982727051 -197.781631469727 2.253388404846
-132.125305175781 -64.991874694824 -194.285522460938 1.966146826744
-151.689544677734 -67.255004882813 -192.180145263672 1.432607769966
-162.233428955078 -70.138748168945 -198.962020874023 1.722649931908
-162.463165283203 -66.096351623535 -199.407531738281 1.723424911499
-18.671958923340 -64.685684204102 -202.328536987305 2.352958917618
-165.924377441406 -67.845359802246 -200.320129394531 0.674840688705
-21.917198181152 -66.187835693359 -193.180831909180 1.325639367104
-15.340640068054 -66.511665344238 -197.949172973633 2.867374658585
13.410232543945 -66.488418579102 -195.072525024414 1.710507988930
-158.769256591797 -65.128738403320 -196.925308227539 2.431711435318
-110.462005615234 -66.222930908203 -200.992843627930 1.351199865341
-17.301866531372 -68.542419433594 -206.496185302734 0.503983020782
-156.545700073242 -68.950767517090 -199.893112182617 2.694134950638
17.622186660767 -64.224372863770 -199.663314819336 2.916931629181
-164.013351440430 -67.185089111328 -199.957351684570 1.287828683853
-121.099830627441 -70.013206481934 -203.671493530273 1.291941404343
-111.199165344238 -66.259727478027 -205.972869873047 3.136103868484
-125.211944580078 -64.060882568359 -206.269104003906 1.771682143211
-13.530543327332 -69.027381896973 -203.172729492188 1.939283251762
-17.281883239746 -64.695388793945 -204.489227294922 2.074482917786
-163.012863159180 -65.337142944336 -208.201217651367 2.178376436234
-160.468841552734 -66.244743347168 -212.245620727539 1.264166474342
-165.396377563477 -68.357383728027 -217.921371459961 2.240397214890
-147.141799926758 -69.592880249023 -209.833755493164 3.872168779373
-143.612289428711 -67.491271972656 -222.528457641602 1.197766780853
-6.271286010742 -65.308578491211 -220.892883300781 2.182523488998
-12.900186538696 -65.901298522949 -217.610000610352 2.449681282043
-100.383148193359 -67.315986633301 -221.328536987305 0.901268899441
-6.738311767578 -65.984069824219 -222.217712402344 1.687259554863
