# This PCD file was generated using the MATLAB® pcwrite function
# from Computer Vision Toolbox®.
# .PCD v.7 - Point Cloud Data file format
VERSION .7
FIELDS x y z
SIZE 4 4 4
TYPE F F F
COUNT 1 1 1
WIDTH 1642
HEIGHT 1
VIEWPOINT 0 0 0 1 0 0 0
POINTS 1642
DATA ascii
-0.142717 -0.046964 -0.601826
-0.092960 -0.046964 -0.602212
0.111045 -0.044489 -0.601680
-0.680095 -0.046234 -0.603768
0.190657 -0.045756 -0.603768
0.000546 -0.046964 -0.605856
0.081191 -0.046964 -0.606550
-0.326820 -0.044813 -0.607944
0.096118 -0.046964 -0.608001
-0.376577 -0.043635 -0.610032
-0.650244 -0.046434 -0.612120
-0.511171 -0.046964 -0.612120
-0.466140 -0.045003 -0.612120
-0.456190 -0.042313 -0.612120
-0.377999 -0.046964 -0.614209
-0.446239 -0.044684 -0.616297
-0.387770 -0.046964 -0.618385
-0.650244 -0.045810 -0.620473
-0.640294 -0.046112 -0.622561
-0.356674 -0.046964 -0.624341
0.223691 -0.046964 -0.622561
-0.481070 -0.046964 -0.628445
-0.469794 -0.046964 -0.626738
-0.446239 -0.044301 -0.626738
-0.237257 -0.046964 -0.628398
-0.177548 -0.046964 -0.628309
-0.391503 -0.045321 -0.628826
-0.326820 -0.046101 -0.628826
-0.679724 -0.046964 -0.633002
0.006555 -0.046964 -0.633389
0.056312 -0.046964 -0.634542
-0.610438 -0.045688 -0.635090
-0.570632 -0.045119 -0.635090
-0.515896 -0.044170 -0.635090
-0.695025 -0.046300 -0.637178
-0.615413 -0.042173 -0.639267
-0.665169 -0.046964 -0.647311
-0.675120 -0.045611 -0.649708
-0.626079 -0.046964 -0.649708
-0.662324 -0.046964 -0.660149
-0.626992 -0.046964 -0.672678
-0.616745 -0.046964 -0.681030
-0.616640 -0.046964 -0.704000
-0.616828 -0.046964 -0.729058
-0.625364 -0.046964 -0.741264
-0.177548 -0.038732 0.621994
-0.137742 -0.038601 0.621994
-0.212378 -0.039840 0.617817
-0.227305 -0.041396 0.611553
-0.063106 -0.039236 0.609465
-0.031128 -0.041988 0.590671
-0.306917 -0.040426 0.559348
0.031434 -0.039779 0.557260
0.608620 -0.039690 0.519673
0.533983 -0.039026 0.515497
0.533983 -0.040788 0.509232
0.024426 -0.041988 0.502967
0.534048 -0.041988 0.498791
0.633498 -0.040127 0.494615
0.514080 -0.040655 0.488350
-0.058130 -0.041988 0.485290
0.638474 -0.040500 0.486262
-0.073057 -0.037117 0.479997
0.628427 -0.041988 0.475821
0.648425 -0.039572 0.467468
0.504129 -0.040195 0.461204
0.648425 -0.039745 0.457028
-0.348758 -0.041988 0.438234
0.439444 -0.038557 0.421528
0.444420 -0.039554 0.415264
0.509105 -0.038862 0.408999
0.449396 -0.038022 0.404823
-0.192475 -0.041988 0.402173
0.429493 -0.037198 0.402735
-0.202426 -0.041988 0.400647
0.389719 -0.041988 0.396470
0.429493 -0.038840 0.392294
0.643450 -0.037987 0.388118
0.519056 -0.039881 0.386029
0.533983 -0.041988 0.377967
0.683257 -0.039735 0.379765
0.553886 -0.041988 0.376111
0.365820 -0.041988 0.371412
0.533983 -0.039932 0.369324
0.543935 -0.039990 0.367236
0.375036 -0.041988 0.365148
0.428752 -0.041988 0.360971
0.593692 -0.040467 0.360971
0.698182 -0.038589 0.360971
0.603644 -0.038483 0.356795
0.678282 -0.039965 0.356795
-0.354684 -0.041988 0.338001
-0.296965 -0.041988 0.338001
0.342537 -0.041988 0.338001
0.708132 -0.039386 0.335913
0.393589 -0.041988 0.319208
-0.318662 -0.041988 0.294149
0.323799 -0.041988 0.281620
0.307902 -0.041988 0.273268
0.377367 -0.041988 0.269091
0.718088 -0.037644 0.250298
0.700077 -0.041988 0.246121
0.735112 -0.041988 0.237769
0.292416 -0.041988 0.235680
0.304577 -0.041988 0.233592
0.718088 -0.038711 0.225240
0.723063 -0.038714 0.225240
0.357094 -0.041988 0.223151
0.704212 -0.041988 0.212710
0.340089 -0.041988 0.210622
0.289799 -0.041988 0.196005
-0.162620 -0.038822 0.193917
0.275731 -0.041988 0.185564
0.723063 -0.040930 0.185564
-0.142717 -0.037555 0.179300
0.728038 -0.041226 0.179300
-0.132766 -0.037826 0.177211
-0.247208 -0.039145 0.173035
-0.262135 -0.038207 0.166771
0.325172 -0.041988 0.166771
0.267142 -0.041988 0.162594
-0.237257 -0.040200 0.158418
-0.112261 -0.041988 0.154242
0.746095 -0.041988 0.152153
0.317674 -0.041988 0.147977
0.708132 -0.037155 0.145889
-0.149955 -0.041988 0.141712
-0.102011 -0.041988 0.139624
-0.159424 -0.041988 0.133360
0.257611 -0.041988 0.131271
0.723423 -0.041988 0.129183
-0.253344 -0.041988 0.122919
0.321037 -0.041988 0.120831
-0.227305 -0.037281 0.116654
0.265293 -0.041988 0.116654
0.730596 -0.041988 0.116654
-0.232280 -0.039717 0.110390
-0.227305 -0.041988 0.108072
-0.249057 -0.041988 0.102037
-0.134387 -0.041988 0.102037
-0.206020 -0.041988 0.099949
-0.078033 -0.037101 0.093684
-0.063459 -0.041988 0.091596
0.195633 -0.040057 0.089508
0.185681 -0.039935 0.087420
0.721397 -0.041988 0.087420
0.745464 -0.041988 0.087420
0.705230 -0.041988 0.081155
-0.068251 -0.041988 0.079067
0.257146 -0.041988 0.079067
0.200609 -0.039681 0.076979
0.194965 -0.041988 0.074891
0.299306 -0.041988 0.074891
-0.212378 -0.039276 0.068626
0.156940 -0.041988 0.068626
0.307774 -0.041988 0.066538
-0.217354 -0.041988 0.063818
-0.040045 -0.041988 0.054009
0.138647 -0.041988 0.051921
0.180706 -0.041988 0.051467
0.238431 -0.041988 0.051921
0.291218 -0.041988 0.041480
0.302463 -0.041988 0.041480
-0.091281 -0.041988 0.033127
0.125973 -0.040238 0.033127
0.159131 -0.041988 0.031039
0.711249 -0.041988 0.022686
-0.177548 -0.038146 0.020598
0.120997 -0.039810 0.020598
0.735404 -0.041988 0.016422
0.125973 -0.041988 0.013274
-0.205130 -0.041988 0.012245
-0.028476 -0.041988 0.012245
0.239771 -0.041988 0.005981
0.717680 -0.041988 0.001804
-0.187499 -0.038909 -0.008636
0.225568 -0.041988 -0.008636
-0.013863 -0.041988 -0.012813
-0.162620 -0.039193 -0.016989
0.687203 -0.041988 -0.016989
-0.061194 -0.041988 -0.019077
0.276240 -0.041988 -0.019077
0.700568 -0.041988 -0.023254
-0.630339 -0.040185 -0.029518
0.009583 -0.041988 -0.031607
0.281848 -0.041988 -0.035783
-0.620388 -0.040021 -0.037871
-0.050435 -0.041988 -0.037871
-0.060076 -0.041988 -0.042047
-0.635314 -0.041534 -0.046224
-0.152669 -0.040035 -0.046224
0.676324 -0.041988 -0.050400
0.703590 -0.041988 -0.050400
0.717962 -0.041988 -0.050400
-0.640294 -0.039974 -0.056665
-0.620388 -0.040177 -0.058753
0.689052 -0.041988 -0.060841
0.029255 -0.041988 -0.062929
0.696532 -0.041988 -0.071282
0.711301 -0.041988 -0.073370
0.022948 -0.041988 -0.077546
-0.650244 -0.037825 -0.079635
0.214575 -0.041988 -0.085899
0.664040 -0.041988 -0.087987
-0.018491 -0.041988 -0.092164
0.688232 -0.041228 -0.094252
0.209098 -0.041988 -0.104693
0.656053 -0.041988 -0.104693
0.671088 -0.041988 -0.106781
0.038083 -0.041988 -0.108869
-0.013951 -0.041988 -0.117222
0.193160 -0.041988 -0.117222
0.648425 -0.041988 -0.123131
0.002057 -0.041988 -0.125575
0.063836 -0.041988 -0.133927
-0.002494 -0.041988 -0.138104
-0.550727 -0.040198 -0.142280
0.636367 -0.041988 -0.144368
-0.515896 -0.041310 -0.146456
0.057252 -0.041988 -0.148545
0.183521 -0.041988 -0.150633
0.648878 -0.041988 -0.150633
0.676580 -0.041988 -0.152721
-0.550727 -0.041471 -0.156897
-0.510921 -0.041416 -0.156897
0.237527 -0.041988 -0.156897
0.658376 -0.041988 -0.158698
-0.515896 -0.040079 -0.165250
0.064950 -0.041988 -0.165250
0.190657 -0.041988 -0.169035
0.027312 -0.041988 -0.171515
-0.058130 -0.040598 -0.175691
0.618571 -0.041988 -0.177461
0.089036 -0.041988 -0.184044
0.629783 -0.041988 -0.184044
-0.033251 -0.039424 -0.194485
0.172963 -0.041988 -0.196573
0.650130 -0.041988 -0.198661
-0.262135 -0.041988 -0.201026
0.226875 -0.041988 -0.204925
0.628522 -0.037411 -0.204925
-0.013348 -0.039360 -0.209102
0.627224 -0.041988 -0.209102
0.040688 -0.041988 -0.217454
-0.301941 -0.039577 -0.219543
-0.284973 -0.041988 -0.219543
0.234645 -0.041988 -0.219543
-0.028275 -0.038011 -0.221631
0.180346 -0.041988 -0.221631
0.055382 -0.041988 -0.223719
0.006555 -0.038936 -0.225807
0.167597 -0.041988 -0.227895
0.628522 -0.041988 -0.229707
0.119072 -0.041988 -0.232072
-0.291990 -0.040153 -0.234160
0.051016 -0.041988 -0.236248
-0.645269 -0.037197 -0.238336
0.110921 -0.041988 -0.242513
0.070609 -0.041988 -0.248777
-0.625238 -0.041988 -0.250865
-0.331796 -0.041988 -0.254728
0.042896 -0.041988 -0.252953
0.611384 -0.041988 -0.252953
-0.391503 -0.037124 -0.255042
0.177620 -0.041988 -0.255042
0.561518 -0.041988 -0.255042
-0.005868 -0.041988 -0.257130
0.031434 -0.041988 -0.260857
0.021482 -0.041988 -0.262700
-0.625364 -0.041988 -0.270677
0.076215 -0.037274 -0.275924
0.215536 -0.037013 -0.275924
0.564139 -0.041988 -0.275924
0.152395 -0.041988 -0.280100
-0.406434 -0.038177 -0.282188
-0.709951 -0.039003 -0.284276
0.536001 -0.041988 -0.284276
-0.555702 -0.038456 -0.288453
-0.530826 -0.040009 -0.288453
0.024157 -0.041988 -0.288453
0.064522 -0.041988 -0.288453
0.086167 -0.041988 -0.289189
-0.700000 -0.039387 -0.290541
-0.515896 -0.040720 -0.290541
0.180706 -0.037264 -0.292629
-0.565657 -0.039383 -0.298893
-0.512101 -0.041988 -0.298893
-0.645269 -0.037261 -0.303070
-0.595508 -0.041363 -0.303070
0.510502 -0.041988 -0.311423
-0.600963 -0.041988 -0.313511
-0.565657 -0.040753 -0.313511
-0.719906 -0.037629 -0.315599
0.524032 -0.037320 -0.315599
0.549646 -0.041988 -0.317687
-0.668197 -0.041988 -0.321863
0.529008 -0.037067 -0.321863
-0.555702 -0.040438 -0.326040
-0.520871 -0.040179 -0.328128
0.185661 -0.041988 -0.332304
0.086167 -0.040007 -0.334393
-0.700000 -0.037250 -0.336481
-0.651288 -0.041988 -0.336481
0.167112 -0.041988 -0.336481
-0.624596 -0.041988 -0.338569
-0.700000 -0.039120 -0.340657
-0.650244 -0.039394 -0.340657
0.220999 -0.041988 -0.340657
-0.719906 -0.039797 -0.342745
0.111045 -0.041787 -0.342745
0.125973 -0.041471 -0.344833
0.061288 -0.041988 -0.348305
-0.690050 -0.037738 -0.349010
0.111045 -0.039948 -0.349010
-0.626350 -0.041988 -0.351098
0.006555 -0.038852 -0.357362
0.454371 -0.037468 -0.359451
0.499153 -0.039380 -0.359451
-0.729856 -0.037756 -0.361539
-0.007474 -0.041988 -0.361539
0.195481 -0.041988 -0.363627
0.224003 -0.041988 -0.363627
0.489202 -0.040788 -0.363627
-0.655219 -0.037053 -0.365715
-0.700000 -0.039272 -0.367803
0.116021 -0.039242 -0.367803
-0.724881 -0.040338 -0.369892
-0.626710 -0.041988 -0.371980
0.205585 -0.038807 -0.371980
0.106070 -0.040412 -0.374068
0.240087 -0.041988 -0.374068
0.036409 -0.041988 -0.376694
0.439444 -0.039546 -0.380332
-0.172572 -0.041988 -0.385302
-0.152669 -0.039145 -0.384509
-0.117839 -0.039708 -0.384509
0.116021 -0.038897 -0.384509
0.185992 -0.041988 -0.384509
0.454371 -0.038825 -0.384509
-0.714926 -0.040852 -0.386597
-0.152669 -0.037039 -0.388685
-0.114091 -0.041988 -0.390773
0.123656 -0.041988 -0.390773
-0.650051 -0.041988 -0.392862
-0.217354 -0.041988 -0.393384
0.225487 -0.041307 -0.392862
-0.655219 -0.038988 -0.394950
-0.709951 -0.040467 -0.397038
-0.142717 -0.037816 -0.397038
0.217050 -0.041988 -0.397038
0.101313 -0.041988 -0.399126
-0.252184 -0.041988 -0.401961
-0.695025 -0.040601 -0.405391
-0.162620 -0.040244 -0.407479
-0.724881 -0.041669 -0.415832
-0.306917 -0.037013 -0.415832
-0.195861 -0.041988 -0.417920
-0.690050 -0.040652 -0.420008
-0.660194 -0.040014 -0.422096
-0.217209 -0.041988 -0.422096
-0.626387 -0.041988 -0.426272
-0.729856 -0.041268 -0.428361
-0.655219 -0.041027 -0.428361
-0.331796 -0.041988 -0.429713
-0.247208 -0.041988 -0.430130
-0.709951 -0.041272 -0.430449
-0.351698 -0.039014 -0.430449
-0.670145 -0.040942 -0.432537
-0.660774 -0.041988 -0.432537
-0.520871 -0.038522 -0.438802
-0.560682 -0.039856 -0.440890
0.063588 -0.041988 -0.440890
-0.675120 -0.040488 -0.442978
-0.311892 -0.040028 -0.442978
-0.474785 -0.041988 -0.445066
-0.381553 -0.040889 -0.445066
-0.356674 -0.041678 -0.445066
-0.570632 -0.037052 -0.447154
-0.729856 -0.041790 -0.451331
-0.505946 -0.041988 -0.453246
-0.411409 -0.039213 -0.451331
-0.371602 -0.040944 -0.451331
-0.346723 -0.039752 -0.451331
-0.645269 -0.041988 -0.454139
-0.476090 -0.041294 -0.453419
-0.635314 -0.040583 -0.455507
-0.386528 -0.040094 -0.457595
-0.416384 -0.038430 -0.459683
-0.700000 -0.041770 -0.461772
-0.461165 -0.040690 -0.461772
-0.431309 -0.038878 -0.461772
-0.647389 -0.041988 -0.463860
-0.734831 -0.039344 -0.465948
-0.680095 -0.041514 -0.465948
-0.645269 -0.041988 -0.467984
-0.635314 -0.040488 -0.465948
-0.466140 -0.041386 -0.470124
0.058153 -0.041988 -0.470124
-0.510921 -0.040763 -0.472212
-0.674170 -0.041988 -0.478477
-0.605463 -0.040611 -0.478477
-0.566211 -0.041988 -0.482653
0.059968 -0.041988 -0.486830
-0.665169 -0.041634 -0.493094
-0.624586 -0.041988 -0.493094
-0.734831 -0.041134 -0.499359
0.078089 -0.041988 -0.549475
-0.737723 -0.041988 -0.562004
0.088894 -0.041988 -0.568269
-0.626006 -0.041988 -0.572445
-0.738867 -0.041988 -0.582886
-0.623437 -0.041988 -0.589150
-0.615413 -0.041988 -0.596376
-0.605463 -0.038008 -0.599591
-0.575607 -0.041988 -0.602123
-0.202426 -0.041988 -0.602369
-0.515943 -0.041988 -0.603768
-0.247208 -0.041988 -0.604561
-0.073057 -0.041988 -0.603940
-0.038227 -0.041988 -0.605762
-0.003397 -0.041988 -0.605182
-0.510921 -0.041988 -0.607558
-0.311892 -0.041988 -0.606174
-0.028275 -0.038267 -0.605856
0.071240 -0.041988 -0.607156
-0.466140 -0.040650 -0.607944
0.111045 -0.040431 -0.607944
0.182979 -0.041988 -0.612120
0.182261 -0.041988 -0.614209
0.205585 -0.041988 -0.617565
-0.727757 -0.041988 -0.620473
-0.102911 -0.041988 -0.628627
-0.426334 -0.041988 -0.629108
-0.321844 -0.041988 -0.630517
-0.262135 -0.041988 -0.630392
-0.212378 -0.041988 -0.629327
-0.376577 -0.041311 -0.630914
-0.033634 -0.041988 -0.630914
-0.466140 -0.040812 -0.633002
-0.456190 -0.037128 -0.633002
-0.416384 -0.038161 -0.633002
0.036409 -0.041988 -0.633002
0.056312 -0.037973 -0.633002
0.066263 -0.041988 -0.634271
0.096118 -0.037081 -0.633002
-0.495996 -0.039037 -0.635090
0.142709 -0.041988 -0.637178
0.170754 -0.041988 -0.639110
0.218971 -0.041988 -0.639267
0.190657 -0.040275 -0.641355
0.210560 -0.037673 -0.641355
-0.687247 -0.041988 -0.647619
-0.618138 -0.041988 -0.737411
0.270269 -0.034761 0.801577
0.295148 -0.035332 0.801577
0.275245 -0.034169 0.782784
0.270269 -0.035632 0.774431
0.265293 -0.035727 0.768166
0.250366 -0.035426 0.761902
0.265293 -0.034880 0.749373
0.250366 -0.035532 0.734755
0.250366 -0.034169 0.722226
0.270269 -0.035677 0.720138
0.290172 -0.033792 0.703433
0.354857 -0.032882 0.703433
0.270269 -0.034671 0.697168
0.305099 -0.034650 0.692992
0.329978 -0.033786 0.692992
0.290172 -0.034241 0.682551
0.339929 -0.033685 0.682551
0.305099 -0.033705 0.680463
0.329978 -0.033162 0.676286
-0.157645 -0.033868 0.628258
-0.092960 -0.035794 0.619906
-0.048178 -0.034981 0.609465
-0.277063 -0.035049 0.596936
-0.018324 -0.034670 0.596936
-0.291990 -0.035105 0.584406
0.016506 -0.034118 0.578142
-0.326820 -0.033788 0.546819
0.051337 -0.035190 0.544731
0.563838 -0.034363 0.532202
0.598668 -0.032889 0.530114
0.553886 -0.036533 0.528026
0.049128 -0.037013 0.525937
0.583740 -0.035827 0.521761
-0.341747 -0.034112 0.513408
0.618571 -0.036449 0.513408
0.519056 -0.035740 0.507144
0.633498 -0.034501 0.507144
-0.346723 -0.035207 0.488350
0.004648 -0.037013 0.488350
-0.013348 -0.037013 0.482584
0.648425 -0.035354 0.475821
0.507281 -0.037013 0.471645
-0.093257 -0.037013 0.457028
-0.117839 -0.037013 0.444841
0.645553 -0.037013 0.444498
0.650670 -0.037013 0.434058
-0.354273 -0.037013 0.429881
0.649732 -0.037013 0.417352
0.653401 -0.033359 0.398558
0.448054 -0.037013 0.394382
0.395374 -0.037013 0.390206
0.426976 -0.037013 0.375588
-0.267111 -0.037013 0.371607
0.633498 -0.035272 0.369324
-0.225747 -0.037013 0.365148
-0.259426 -0.037013 0.363059
-0.247208 -0.037013 0.359739
0.548911 -0.033927 0.356795
0.613595 -0.034977 0.354707
-0.291990 -0.037013 0.351209
0.363892 -0.037013 0.352619
0.413463 -0.037013 0.350530
0.351175 -0.037013 0.331737
0.405195 -0.037013 0.319208
0.708132 -0.032802 0.302502
0.318809 -0.037013 0.294149
-0.355834 -0.037013 0.292061
0.703157 -0.033130 0.292061
0.384711 -0.032210 0.289973
0.329978 -0.032446 0.287885
-0.326594 -0.037013 0.285797
0.691918 -0.037013 0.277444
0.364940 -0.037013 0.273268
-0.346723 -0.035186 0.271180
0.731274 -0.037013 0.267003
0.713107 -0.037013 0.262827
0.364808 -0.032436 0.254474
0.736396 -0.037013 0.244033
0.347826 -0.037013 0.239857
0.345023 -0.037013 0.231504
0.701372 -0.037013 0.218975
0.298748 -0.037013 0.214799
0.717247 -0.037013 0.212710
-0.152669 -0.033590 0.210622
-0.137742 -0.032690 0.204358
0.703857 -0.037013 0.204358
0.728884 -0.037013 0.198093
-0.267111 -0.034607 0.187652
-0.257160 -0.036491 0.185564
0.744942 -0.037013 0.185564
-0.172572 -0.034972 0.181388
-0.114574 -0.037013 0.179300
0.720646 -0.037013 0.179300
0.333387 -0.037013 0.164682
0.706650 -0.037013 0.164682
-0.170557 -0.037013 0.160506
-0.230083 -0.037013 0.152153
0.731823 -0.037013 0.147977
-0.091664 -0.037013 0.143801
-0.242232 -0.033924 0.139624
0.732360 -0.037013 0.133360
-0.218872 -0.037013 0.129183
0.269409 -0.037013 0.129183
-0.148810 -0.037013 0.127095
-0.242232 -0.033062 0.122919
-0.092960 -0.037013 0.121723
0.723063 -0.033745 0.122919
0.305099 -0.033793 0.116654
0.252351 -0.037013 0.110390
0.707146 -0.037013 0.110390
0.728038 -0.033403 0.110390
-0.221140 -0.037013 0.102037
-0.227305 -0.032737 0.095772
0.185681 -0.032634 0.093684
0.205585 -0.036077 0.087420
0.720724 -0.037013 0.087420
-0.226151 -0.037013 0.085332
-0.201055 -0.037013 0.085332
0.723063 -0.034180 0.085332
-0.134543 -0.037013 0.083243
-0.056547 -0.037013 0.079067
0.245712 -0.037013 0.079067
-0.118710 -0.037013 0.076979
0.242744 -0.037013 0.070714
0.205585 -0.034525 0.068626
-0.194314 -0.037013 0.066538
0.215536 -0.034844 0.066538
0.728116 -0.037013 0.066538
0.723063 -0.034245 0.064450
0.195097 -0.037013 0.062362
0.215536 -0.034525 0.060273
-0.230057 -0.037013 0.058185
-0.057422 -0.037013 0.056097
-0.103642 -0.037013 0.054009
0.251529 -0.037013 0.054009
0.700479 -0.037013 0.049833
-0.111531 -0.037013 0.047744
0.741172 -0.037013 0.047744
0.140900 -0.033357 0.043568
0.715290 -0.037013 0.041480
-0.218190 -0.037013 0.039392
-0.032703 -0.037013 0.039392
-0.187499 -0.034562 0.037303
0.723063 -0.036513 0.037303
-0.087984 -0.034001 0.031039
0.135924 -0.034694 0.028951
0.140900 -0.037013 0.025495
-0.207402 -0.035426 0.024774
-0.197451 -0.032268 0.024774
-0.037591 -0.037013 0.022686
0.283852 -0.037013 0.018510
0.695029 -0.037013 0.018510
0.713107 -0.035296 0.014333
-0.182523 -0.034221 0.012245
-0.017050 -0.037013 0.012245
0.718276 -0.037013 0.012245
-0.187499 -0.034236 0.005981
-0.086780 -0.037013 0.003893
-0.073327 -0.037013 0.003893
0.708132 -0.036181 -0.000284
-0.177548 -0.036460 -0.004460
-0.006071 -0.037013 -0.006548
0.730058 -0.037013 -0.008636
0.708451 -0.037013 -0.023254
-0.640294 -0.033131 -0.025342
-0.615413 -0.034086 -0.027430
0.680782 -0.037013 -0.037871
0.697874 -0.037013 -0.037871
0.013433 -0.037013 -0.039959
0.225487 -0.037013 -0.045968
0.212912 -0.037013 -0.046224
0.698208 -0.037013 -0.052488
-0.050068 -0.037013 -0.058753
-0.037887 -0.037013 -0.058753
0.265563 -0.037013 -0.058753
0.698182 -0.037013 -0.060773
-0.610438 -0.035948 -0.060841
0.272784 -0.037013 -0.075458
0.261187 -0.037013 -0.081723
0.036928 -0.037013 -0.083811
-0.018324 -0.034430 -0.085899
-0.635314 -0.037013 -0.089413
0.202175 -0.037013 -0.087987
0.705538 -0.037013 -0.087987
-0.625364 -0.035060 -0.094252
0.678193 -0.037013 -0.094252
-0.009259 -0.037013 -0.104693
0.678282 -0.036680 -0.106781
-0.640294 -0.034329 -0.113045
-0.625364 -0.037013 -0.115395
0.251514 -0.037013 -0.115134
0.653401 -0.032389 -0.117222
0.691150 -0.037013 -0.121398
0.005404 -0.037013 -0.131839
-0.550727 -0.033540 -0.133927
-0.525851 -0.035171 -0.133927
-0.510921 -0.034021 -0.133927
0.253864 -0.037013 -0.138104
-0.630339 -0.037013 -0.140474
0.186743 -0.037013 -0.140192
-0.595508 -0.035799 -0.144368
0.053801 -0.037013 -0.144368
-0.560682 -0.034334 -0.146456
0.658376 -0.036572 -0.146456
-0.596484 -0.037013 -0.156897
0.648425 -0.036660 -0.156897
-0.560682 -0.034722 -0.158985
0.076215 -0.037013 -0.162979
0.010215 -0.037013 -0.165250
-0.550727 -0.035905 -0.169426
-0.510921 -0.035293 -0.171515
0.643755 -0.037013 -0.177779
0.242723 -0.037013 -0.179867
-0.645269 -0.034219 -0.186132
-0.622122 -0.037013 -0.186132
0.081191 -0.037013 -0.192156
0.228695 -0.037013 -0.190308
-0.719906 -0.032996 -0.194485
0.184781 -0.037013 -0.196573
0.029086 -0.037013 -0.198661
-0.719906 -0.034336 -0.204925
0.236629 -0.037013 -0.204925
0.618571 -0.035473 -0.207014
-0.267111 -0.037013 -0.210981
0.596306 -0.037013 -0.209102
-0.276266 -0.037013 -0.211190
0.107364 -0.037013 -0.213278
0.618571 -0.035390 -0.213278
-0.690050 -0.032789 -0.217454
0.618839 -0.037013 -0.219543
-0.018324 -0.035061 -0.221631
-0.306917 -0.034559 -0.225807
-0.003397 -0.034218 -0.227895
0.580828 -0.037013 -0.229984
-0.353198 -0.037013 -0.232072
0.232938 -0.037013 -0.232072
-0.704975 -0.034419 -0.234160
0.062347 -0.037013 -0.236248
-0.623610 -0.037013 -0.238336
-0.660194 -0.032116 -0.240424
0.589329 -0.037013 -0.240424
-0.650244 -0.034129 -0.242513
-0.724881 -0.033855 -0.246689
0.026458 -0.033803 -0.246689
-0.321844 -0.034792 -0.248777
0.179176 -0.037013 -0.248777
-0.675120 -0.034228 -0.250865
0.583740 -0.032241 -0.252953
0.001579 -0.033262 -0.255042
0.120997 -0.037013 -0.258973
0.228488 -0.037013 -0.261306
0.588186 -0.037013 -0.261306
0.571063 -0.037013 -0.263394
0.550652 -0.037013 -0.265483
-0.719906 -0.036056 -0.267571
-0.411409 -0.033881 -0.267571
-0.362760 -0.037013 -0.267571
-0.647911 -0.037013 -0.269659
0.596562 -0.037013 -0.271747
-0.709951 -0.035773 -0.273835
-0.655219 -0.034276 -0.273835
-0.658670 -0.037013 -0.278012
0.051337 -0.037013 -0.279771
0.137032 -0.037013 -0.278012
0.537416 -0.037013 -0.280100
0.553886 -0.037013 -0.281676
-0.670145 -0.035057 -0.282188
-0.421359 -0.035885 -0.282188
-0.391503 -0.034593 -0.282188
-0.729856 -0.032268 -0.286364
-0.560682 -0.032842 -0.286364
0.062274 -0.037013 -0.286364
0.097754 -0.037013 -0.286364
-0.510921 -0.035572 -0.288453
-0.471115 -0.032274 -0.288453
-0.431309 -0.034479 -0.288453
0.051337 -0.035224 -0.288453
0.563838 -0.037013 -0.289883
0.579522 -0.037013 -0.290541
-0.670145 -0.036559 -0.292629
-0.600483 -0.036225 -0.292629
-0.719906 -0.036902 -0.294717
-0.635314 -0.037013 -0.296560
-0.416384 -0.034052 -0.294717
0.051248 -0.037013 -0.294717
0.228065 -0.037013 -0.294717
-0.675120 -0.035337 -0.296805
-0.640294 -0.037013 -0.296988
0.152050 -0.037013 -0.296805
0.168673 -0.037013 -0.296805
-0.505946 -0.033674 -0.298893
-0.724881 -0.036476 -0.300982
0.533983 -0.032242 -0.300982
-0.700000 -0.036217 -0.303070
-0.461165 -0.034868 -0.305158
0.084605 -0.037013 -0.305158
0.215536 -0.035883 -0.305158
-0.446239 -0.033734 -0.307246
0.065629 -0.037013 -0.307246
0.111579 -0.037013 -0.307246
-0.630339 -0.036183 -0.309334
-0.505946 -0.036324 -0.309334
-0.640294 -0.035344 -0.313511
-0.635314 -0.037013 -0.314988
0.184382 -0.037013 -0.313511
-0.505946 -0.035018 -0.315599
0.091142 -0.036777 -0.315599
0.555163 -0.037013 -0.315599
0.101094 -0.032723 -0.319775
-0.600483 -0.035849 -0.321863
-0.510628 -0.037013 -0.321863
0.062752 -0.037013 -0.321863
-0.565657 -0.032596 -0.323952
-0.729856 -0.035804 -0.328128
-0.670145 -0.035939 -0.330216
-0.660194 -0.037013 -0.333234
-0.612579 -0.037013 -0.332304
0.482420 -0.037013 -0.334393
0.504129 -0.034819 -0.334393
0.138301 -0.037013 -0.336481
0.200609 -0.034053 -0.338569
0.232237 -0.037013 -0.338569
-0.660194 -0.036509 -0.340657
0.526609 -0.037013 -0.340657
0.195339 -0.037013 -0.346922
0.031434 -0.037013 -0.350623
0.215536 -0.036767 -0.351098
0.479250 -0.032095 -0.353186
0.489202 -0.032108 -0.355274
0.091142 -0.034753 -0.357362
0.116021 -0.033592 -0.359451
0.012099 -0.037013 -0.361539
0.130311 -0.037013 -0.363627
0.212042 -0.037013 -0.363627
0.011531 -0.037013 -0.365997
0.125973 -0.035606 -0.367803
0.145876 -0.037013 -0.373760
0.180706 -0.034344 -0.371980
0.036409 -0.032396 -0.374068
0.056312 -0.037013 -0.374929
0.434468 -0.035065 -0.374068
0.190657 -0.034540 -0.376156
-0.731448 -0.037013 -0.380332
-0.622785 -0.037013 -0.382421
0.136175 -0.037013 -0.382421
0.101094 -0.035177 -0.384509
0.464323 -0.032857 -0.386597
0.081191 -0.034961 -0.392862
0.106070 -0.037013 -0.394271
0.419541 -0.036650 -0.392862
-0.197451 -0.032633 -0.394950
-0.162620 -0.033685 -0.397038
0.089849 -0.037013 -0.399126
0.399638 -0.034464 -0.399126
-0.262135 -0.037013 -0.404561
0.414566 -0.035245 -0.403302
-0.177548 -0.034027 -0.407479
0.081191 -0.033296 -0.409567
0.394663 -0.034114 -0.409567
-0.288258 -0.037013 -0.411655
0.066263 -0.034065 -0.411655
-0.202426 -0.034266 -0.415832
0.247821 -0.037013 -0.422096
-0.623004 -0.037013 -0.424184
0.061288 -0.034600 -0.426272
0.073083 -0.037013 -0.426272
0.248681 -0.037013 -0.430449
-0.361650 -0.033912 -0.432537
-0.616797 -0.037013 -0.434625
-0.510921 -0.037013 -0.441386
-0.386528 -0.034754 -0.440890
-0.296965 -0.037013 -0.442304
-0.608914 -0.037013 -0.442978
-0.401459 -0.034151 -0.442978
-0.406434 -0.035105 -0.447154
-0.321844 -0.037013 -0.447796
-0.466140 -0.035537 -0.451331
-0.431309 -0.034431 -0.451331
-0.391503 -0.033556 -0.463860
-0.421359 -0.036564 -0.465948
-0.426334 -0.034718 -0.470124
-0.431309 -0.033346 -0.474301
-0.610438 -0.037013 -0.480497
-0.476090 -0.035805 -0.478477
-0.570632 -0.036281 -0.480565
0.259044 -0.037013 -0.480565
-0.738115 -0.037013 -0.482653
-0.517895 -0.037013 -0.488918
-0.622712 -0.037013 -0.499359
0.257262 -0.037013 -0.499359
0.063151 -0.037013 -0.524417
-0.623437 -0.037013 -0.528593
-0.739044 -0.037013 -0.539034
0.235267 -0.037013 -0.564092
0.091142 -0.037013 -0.574329
0.226077 -0.037013 -0.576621
-0.623714 -0.037013 -0.580798
0.093602 -0.037013 -0.587062
-0.550727 -0.037013 -0.592930
-0.611540 -0.037013 -0.595415
-0.516622 -0.037013 -0.595415
0.208655 -0.037013 -0.597503
-0.575607 -0.037013 -0.600385
-0.187499 -0.037013 -0.602123
-0.132766 -0.037013 -0.602614
-0.510921 -0.035817 -0.603768
-0.232280 -0.037013 -0.603815
-0.381553 -0.037013 -0.607187
-0.341747 -0.037013 -0.606180
-0.087984 -0.034774 -0.605856
-0.018324 -0.034117 -0.605856
-0.003397 -0.037013 -0.607944
-0.738564 -0.037013 -0.607944
-0.461165 -0.037013 -0.608169
-0.441259 -0.037013 -0.609359
-0.043203 -0.033836 -0.610032
-0.003397 -0.034342 -0.610032
0.056312 -0.035099 -0.610032
0.195633 -0.035967 -0.620473
0.185681 -0.032664 -0.624649
-0.152669 -0.037013 -0.628299
-0.132766 -0.032584 -0.626738
-0.063106 -0.037013 -0.628502
-0.053154 -0.033316 -0.626738
0.016506 -0.032910 -0.626738
0.016506 -0.035039 -0.628826
0.046361 -0.033399 -0.628826
0.066263 -0.032907 -0.628826
0.215536 -0.036178 -0.628826
-0.326820 -0.037013 -0.632407
-0.715427 -0.037013 -0.633002
-0.356674 -0.037013 -0.633655
0.135924 -0.033036 -0.633002
0.160803 -0.033346 -0.635090
-0.606450 -0.037013 -0.637178
0.210560 -0.034638 -0.637178
-0.560682 -0.037013 -0.646920
-0.622591 -0.037013 -0.653884
-0.667915 -0.037013 -0.662237
-0.669294 -0.037013 -0.674766
-0.677103 -0.037013 -0.681030
-0.678048 -0.037013 -0.708177
-0.678967 -0.037013 -0.733235
-0.650244 -0.037013 -0.739290
-0.655219 -0.037013 -0.742464
0.310075 -0.031128 0.824547
0.334954 -0.030918 0.822459
0.285197 -0.031842 0.816194
0.364808 -0.029378 0.809930
0.310075 -0.031831 0.805754
0.334954 -0.031613 0.805754
0.265293 -0.031423 0.803665
0.369784 -0.030775 0.799489
0.349881 -0.030192 0.795313
0.384711 -0.027400 0.791136
0.369784 -0.030966 0.778607
0.364808 -0.027298 0.774431
0.374760 -0.031035 0.766078
0.389687 -0.030296 0.766078
0.244117 -0.032037 0.761902
0.374760 -0.031278 0.736844
0.389687 -0.030203 0.728491
0.245391 -0.027208 0.726403
0.364808 -0.031661 0.713874
0.354857 -0.030857 0.709697
0.379735 -0.031086 0.709697
0.259206 -0.032037 0.703433
0.369784 -0.030582 0.695080
0.354857 -0.029945 0.682551
0.325002 -0.031920 0.676286
-0.187499 -0.028877 0.632435
-0.157645 -0.029433 0.632435
-0.117839 -0.030125 0.630346
-0.222329 -0.030181 0.628258
-0.242232 -0.029356 0.624082
-0.078033 -0.030343 0.624082
0.593692 -0.030869 0.536378
0.603644 -0.030832 0.534290
0.578765 -0.029779 0.532202
0.628522 -0.027996 0.517585
0.042416 -0.032037 0.515497
-0.047606 -0.032037 0.490438
0.003551 -0.032037 0.488350
-0.018324 -0.032037 0.483336
-0.078033 -0.027406 0.482086
0.656872 -0.032037 0.467468
-0.128919 -0.032037 0.434058
0.459347 -0.027910 0.434058
0.439444 -0.031047 0.431969
0.424517 -0.029772 0.429881
0.495329 -0.032037 0.427793
-0.167483 -0.032037 0.415264
0.414566 -0.032037 0.408733
-0.202426 -0.032037 0.405041
-0.359706 -0.032037 0.398558
0.377480 -0.032037 0.390206
0.688232 -0.032037 0.386759
-0.204914 -0.032037 0.386029
0.694914 -0.032037 0.383941
0.668326 -0.032037 0.380417
0.379735 -0.032037 0.375950
0.665695 -0.032037 0.375588
0.425874 -0.032037 0.369324
0.519056 -0.030799 0.369324
0.705204 -0.032037 0.358883
0.352247 -0.032037 0.354707
0.538959 -0.029160 0.354707
0.628522 -0.028710 0.354707
0.673307 -0.032037 0.348604
0.415987 -0.032037 0.335913
0.354857 -0.027241 0.333825
0.399935 -0.032037 0.329649
0.715905 -0.032037 0.329649
0.696992 -0.032037 0.323384
0.332508 -0.032037 0.319208
0.390981 -0.032037 0.319208
0.680453 -0.032037 0.317119
0.708132 -0.027131 0.308767
0.725923 -0.032037 0.296238
0.370785 -0.032037 0.289973
0.313650 -0.032037 0.279532
-0.335261 -0.032037 0.275356
0.373342 -0.032037 0.271180
0.716454 -0.032037 0.271180
0.354976 -0.032037 0.262827
0.709761 -0.032037 0.256562
0.720113 -0.032037 0.252386
0.297744 -0.032037 0.241945
0.339929 -0.030736 0.239857
0.310075 -0.032037 0.233885
0.357704 -0.032037 0.235680
0.714146 -0.032037 0.229416
0.718088 -0.027217 0.223151
0.740979 -0.032037 0.223151
-0.167596 -0.028834 0.218975
0.333219 -0.032037 0.210622
-0.257160 -0.030301 0.204358
0.727599 -0.032037 0.204358
0.723063 -0.029067 0.204358
-0.157645 -0.028016 0.200181
0.342982 -0.032037 0.200181
0.294835 -0.032037 0.196005
-0.162620 -0.028470 0.193917
0.278809 -0.032037 0.187652
-0.132766 -0.032037 0.184765
0.320026 -0.027192 0.183476
0.729066 -0.032037 0.177211
-0.240114 -0.032037 0.175123
0.721726 -0.032037 0.173035
-0.106569 -0.032037 0.170947
-0.270011 -0.032037 0.166771
-0.162620 -0.030979 0.166771
0.284848 -0.032037 0.166771
-0.247208 -0.027459 0.164682
0.268407 -0.032037 0.158418
0.315051 -0.031627 0.154242
-0.097936 -0.027287 0.152153
0.728038 -0.031387 0.152153
0.746706 -0.032037 0.152153
-0.107446 -0.032037 0.150065
0.325825 -0.032037 0.145889
-0.265290 -0.032037 0.141712
-0.235654 -0.032037 0.137536
-0.102911 -0.029788 0.137536
-0.083009 -0.032037 0.123477
0.318013 -0.032037 0.122919
0.746706 -0.032037 0.122919
-0.232280 -0.028205 0.118742
-0.213998 -0.032037 0.118742
-0.237257 -0.032037 0.108343
-0.253791 -0.032037 0.108302
-0.138178 -0.032037 0.108302
0.215536 -0.029281 0.108302
0.205585 -0.030188 0.106213
0.264247 -0.032037 0.104125
0.265293 -0.027217 0.097861
0.215536 -0.030571 0.095772
-0.245208 -0.032037 0.089508
-0.077658 -0.032037 0.087420
0.259209 -0.032037 0.085332
0.744367 -0.032037 0.081155
0.165779 -0.032037 0.077527
-0.202022 -0.032037 0.076979
-0.129565 -0.032037 0.076979
0.208864 -0.032037 0.076979
0.306416 -0.032037 0.076979
0.150851 -0.032037 0.058916
0.290362 -0.032037 0.056097
0.285197 -0.027281 0.054009
-0.197451 -0.029961 0.051921
-0.063106 -0.028941 0.051921
0.702813 -0.032037 0.051921
0.179056 -0.032037 0.049833
0.165779 -0.027974 0.045656
-0.212378 -0.029509 0.043568
-0.197451 -0.029503 0.039392
0.150851 -0.029572 0.039392
-0.105011 -0.032037 0.037303
-0.046819 -0.032037 0.031039
0.736427 -0.032037 0.026862
0.282485 -0.032037 0.020598
0.239704 -0.032037 0.005981
-0.069561 -0.032037 0.003893
0.289148 -0.032037 0.001804
-0.026688 -0.032037 -0.000284
0.729708 -0.032037 -0.004460
0.235439 -0.032037 -0.012380
0.688603 -0.032037 -0.019077
-0.070165 -0.032037 -0.021166
0.220876 -0.032037 -0.023254
0.724926 -0.032037 -0.023254
-0.013348 -0.030947 -0.025342
-0.048399 -0.032037 -0.035783
-0.653387 -0.032037 -0.039959
-0.608950 -0.032037 -0.044136
-0.001975 -0.032037 -0.044136
0.680062 -0.032037 -0.046224
0.266111 -0.032037 -0.050400
0.716339 -0.032037 -0.050400
-0.609065 -0.032037 -0.058753
-0.606298 -0.032037 -0.060841
-0.045199 -0.032037 -0.062929
0.012116 -0.032037 -0.065017
0.220242 -0.032037 -0.065017
-0.028302 -0.032037 -0.067106
-0.018324 -0.027188 -0.071282
0.260991 -0.032037 -0.077546
0.669282 -0.032037 -0.079635
-0.605609 -0.032037 -0.083811
-0.028275 -0.027348 -0.085899
0.266861 -0.032037 -0.094252
0.027927 -0.032037 -0.096340
0.696235 -0.032037 -0.104693
0.001579 -0.027061 -0.115134
0.250870 -0.032037 -0.115134
-0.619047 -0.032037 -0.117222
0.192874 -0.032037 -0.117222
0.204816 -0.032037 -0.117222
-0.008589 -0.032037 -0.125575
0.256979 -0.032037 -0.127663
-0.670145 -0.029500 -0.131839
-0.663781 -0.032037 -0.131839
-0.510921 -0.031355 -0.131839
-0.471115 -0.027123 -0.131839
-0.600483 -0.032037 -0.134961
-0.595508 -0.028109 -0.136015
0.644004 -0.032037 -0.136015
-0.695025 -0.030579 -0.138104
-0.491021 -0.029773 -0.138104
-0.466140 -0.028859 -0.138104
-0.635314 -0.032037 -0.140897
-0.500971 -0.028121 -0.140192
0.680453 -0.032037 -0.140192
-0.709951 -0.029725 -0.144368
-0.668960 -0.032037 -0.144368
0.240630 -0.032037 -0.144368
-0.625364 -0.031619 -0.146456
-0.640294 -0.027813 -0.148545
0.183608 -0.032037 -0.150633
-0.625364 -0.031096 -0.152721
-0.500971 -0.031102 -0.152721
-0.451215 -0.029676 -0.152721
-0.719906 -0.028815 -0.154809
-0.670145 -0.030715 -0.154809
0.632024 -0.032037 -0.156897
-0.630339 -0.031106 -0.158985
-0.456190 -0.029753 -0.158985
0.061708 -0.032037 -0.161074
-0.670145 -0.029899 -0.163162
-0.595508 -0.030694 -0.165250
0.025120 -0.032037 -0.167338
0.666322 -0.032037 -0.167338
-0.724881 -0.030597 -0.169426
-0.719906 -0.031842 -0.169426
-0.507387 -0.032037 -0.171515
-0.660194 -0.031056 -0.175691
0.190372 -0.032037 -0.175691
-0.704975 -0.031694 -0.177779
-0.650970 -0.032037 -0.179867
0.655765 -0.032037 -0.186132
-0.650244 -0.030960 -0.188220
0.035679 -0.032037 -0.190308
0.610930 -0.032037 -0.190308
-0.695025 -0.031854 -0.198661
0.226340 -0.032037 -0.198661
-0.277063 -0.028109 -0.209102
-0.272086 -0.032037 -0.214912
0.172341 -0.032037 -0.213278
-0.655219 -0.031626 -0.217454
-0.277373 -0.032037 -0.217454
0.636125 -0.032037 -0.217454
0.184502 -0.032037 -0.219543
0.221241 -0.032037 -0.219543
-0.650004 -0.032037 -0.221631
0.586887 -0.032037 -0.223719
-0.341747 -0.032037 -0.230359
0.047128 -0.032037 -0.229984
0.101256 -0.032037 -0.229984
0.217744 -0.032037 -0.229984
-0.326820 -0.028507 -0.232072
0.626136 -0.032037 -0.232072
0.576612 -0.032037 -0.236248
-0.366390 -0.032037 -0.238336
-0.321844 -0.028685 -0.240424
0.006555 -0.032037 -0.243833
-0.384137 -0.032037 -0.246689
0.070850 -0.032037 -0.248777
0.185681 -0.028838 -0.248777
0.558862 -0.032037 -0.257574
0.607464 -0.032037 -0.257130
0.168674 -0.032037 -0.259218
0.583777 -0.032037 -0.259218
0.016506 -0.028510 -0.261306
0.135924 -0.032037 -0.262872
0.031434 -0.027130 -0.265483
0.182281 -0.032037 -0.267571
0.205585 -0.027146 -0.267571
0.126568 -0.032037 -0.269659
0.563838 -0.032037 -0.272071
-0.376577 -0.032037 -0.275464
-0.619365 -0.032037 -0.275924
0.021482 -0.029446 -0.275924
0.061288 -0.029198 -0.275924
-0.610438 -0.029034 -0.282188
-0.510921 -0.032037 -0.283441
0.079923 -0.032037 -0.286364
0.083813 -0.032037 -0.286364
-0.605463 -0.029549 -0.288453
0.028233 -0.032037 -0.288453
-0.406434 -0.029794 -0.292629
0.162116 -0.032037 -0.292629
0.205585 -0.029535 -0.292629
-0.451215 -0.029296 -0.294717
0.185370 -0.032037 -0.294717
-0.471115 -0.030722 -0.296805
-0.446239 -0.031440 -0.298893
0.165779 -0.032037 -0.299546
0.543935 -0.028384 -0.298893
-0.421359 -0.028954 -0.300982
0.548911 -0.031153 -0.303070
0.086167 -0.032037 -0.306380
0.071240 -0.029624 -0.307246
0.190657 -0.030926 -0.307246
0.504129 -0.032037 -0.312091
0.175730 -0.029120 -0.313511
0.054056 -0.032037 -0.315599
-0.456190 -0.031333 -0.317687
0.513739 -0.032037 -0.319775
-0.505946 -0.030301 -0.321863
-0.606079 -0.032037 -0.323952
0.091142 -0.032037 -0.325168
-0.600483 -0.027400 -0.326040
0.130929 -0.032037 -0.326040
0.200609 -0.031622 -0.326040
0.069184 -0.032037 -0.328128
0.482720 -0.032037 -0.330216
-0.514486 -0.032037 -0.332304
0.225487 -0.029709 -0.332304
-0.555702 -0.027614 -0.334393
-0.620388 -0.032037 -0.338428
0.475568 -0.032037 -0.336481
0.514789 -0.032037 -0.336481
-0.733897 -0.032037 -0.340657
0.066263 -0.032037 -0.346504
0.091142 -0.030218 -0.351098
0.125973 -0.027303 -0.351098
0.101094 -0.029041 -0.353186
0.177198 -0.032037 -0.355274
0.453597 -0.032037 -0.355274
-0.734466 -0.032037 -0.359451
0.140900 -0.029756 -0.359451
0.502202 -0.032037 -0.361539
0.225487 -0.029805 -0.363627
0.469299 -0.030388 -0.363627
0.091142 -0.031717 -0.367803
0.036409 -0.027922 -0.369892
0.051337 -0.032037 -0.373974
0.160803 -0.032037 -0.375493
0.200609 -0.028936 -0.374068
0.150851 -0.032037 -0.376751
0.091142 -0.030558 -0.378244
0.175730 -0.032037 -0.379267
0.200609 -0.027404 -0.386597
0.205585 -0.029680 -0.386597
0.225487 -0.030825 -0.388685
0.227415 -0.032037 -0.399126
-0.212378 -0.028028 -0.401214
0.071240 -0.028750 -0.401214
-0.237257 -0.027935 -0.403302
-0.183787 -0.032037 -0.403302
-0.620388 -0.027408 -0.405391
0.232354 -0.032037 -0.405391
0.379735 -0.028365 -0.405391
-0.296965 -0.032037 -0.412715
0.414566 -0.029623 -0.411655
-0.212378 -0.029266 -0.415832
-0.737739 -0.032037 -0.420008
0.399638 -0.028602 -0.420008
-0.332773 -0.032037 -0.422096
-0.232280 -0.028441 -0.422096
0.389687 -0.030683 -0.422096
-0.343556 -0.032037 -0.426272
-0.242232 -0.028677 -0.426272
-0.252184 -0.032037 -0.430940
0.349881 -0.029005 -0.432537
-0.271241 -0.032037 -0.434625
-0.568283 -0.032037 -0.440890
-0.600483 -0.032037 -0.443996
-0.481070 -0.032037 -0.443495
-0.471115 -0.027149 -0.447154
0.258714 -0.032037 -0.449242
-0.451215 -0.031176 -0.453419
-0.361650 -0.032037 -0.457444
-0.510921 -0.032037 -0.479975
-0.739577 -0.032037 -0.482653
-0.560682 -0.032037 -0.490703
-0.535802 -0.032037 -0.491972
-0.740370 -0.032037 -0.509800
-0.739806 -0.032037 -0.517557
-0.622304 -0.032037 -0.534858
-0.741806 -0.032037 -0.543210
0.244062 -0.032037 -0.551563
0.083949 -0.032037 -0.570357
-0.622701 -0.032037 -0.580798
-0.525851 -0.032037 -0.591254
-0.742161 -0.032037 -0.595415
-0.700000 -0.027847 -0.601680
-0.291990 -0.032037 -0.605527
-0.222329 -0.032037 -0.604274
-0.381553 -0.032037 -0.606545
-0.227305 -0.028323 -0.605856
-0.177548 -0.028523 -0.605856
-0.695025 -0.027982 -0.607944
-0.097936 -0.030277 -0.610032
-0.087984 -0.032037 -0.610690
-0.734831 -0.027150 -0.612120
0.106789 -0.032037 -0.612120
-0.008372 -0.032037 -0.614814
0.056312 -0.030047 -0.614209
-0.068081 -0.029534 -0.616297
-0.732947 -0.032037 -0.618385
0.011531 -0.030476 -0.618385
0.056312 -0.028614 -0.618385
0.106070 -0.029132 -0.618385
-0.142717 -0.027076 -0.620473
-0.112863 -0.028305 -0.620473
-0.038227 -0.030655 -0.620473
0.011531 -0.030595 -0.620473
0.184328 -0.032037 -0.620473
-0.083009 -0.032037 -0.623198
0.011983 -0.032037 -0.622561
0.051337 -0.029355 -0.622561
0.071240 -0.029469 -0.622561
-0.162620 -0.028264 -0.624649
-0.222329 -0.032037 -0.628789
0.101094 -0.029642 -0.626738
0.116021 -0.032037 -0.628262
-0.257160 -0.032037 -0.630006
-0.257160 -0.027356 -0.628826
0.056312 -0.028894 -0.628826
0.150851 -0.032037 -0.630293
-0.341747 -0.027744 -0.630914
-0.321844 -0.032037 -0.631065
-0.416384 -0.032037 -0.634861
-0.356674 -0.032037 -0.634307
-0.600483 -0.032037 -0.637173
-0.510921 -0.032037 -0.636839
-0.605463 -0.032037 -0.638515
-0.471115 -0.032037 -0.637539
-0.569453 -0.032037 -0.645531
-0.517347 -0.032037 -0.645531
-0.525851 -0.032037 -0.648664
-0.614348 -0.032037 -0.683119
-0.616066 -0.032037 -0.729058
-0.630093 -0.032037 -0.743676
0.351540 -0.027061 0.820371
0.281705 -0.027061 0.818283
0.271826 -0.027061 0.812018
0.261795 -0.027061 0.803665
0.320026 -0.027061 0.802236
0.300123 -0.027061 0.797463
0.256618 -0.027061 0.797401
0.339929 -0.022204 0.797401
0.290172 -0.027061 0.791182
0.252082 -0.027061 0.791136
0.250366 -0.027061 0.786309
0.247466 -0.027061 0.782784
0.245391 -0.027061 0.775164
0.275245 -0.027061 0.770299
0.393134 -0.027061 0.772343
0.242135 -0.027061 0.768166
0.272418 -0.027061 0.757725
0.370570 -0.027061 0.753549
0.240825 -0.027061 0.749373
0.271461 -0.027061 0.749373
0.395708 -0.027061 0.743108
0.241976 -0.027061 0.734755
0.275245 -0.027061 0.729032
0.280220 -0.027061 0.720598
0.390645 -0.027061 0.720138
0.250366 -0.027061 0.714560
0.290172 -0.027061 0.709963
0.252025 -0.027061 0.709697
0.255342 -0.027061 0.706487
0.256693 -0.027061 0.703433
0.302441 -0.027061 0.703433
0.311919 -0.027061 0.697168
0.272067 -0.027061 0.688815
0.285197 -0.027061 0.681119
0.312306 -0.027061 0.680463
0.325002 -0.027061 0.674443
-0.147693 -0.025706 0.636611
-0.053154 -0.023792 0.624082
-0.018324 -0.025209 0.609465
-0.287014 -0.023395 0.605288
-0.291990 -0.025535 0.599024
0.031434 -0.024332 0.582318
-0.315973 -0.027061 0.571877
0.046361 -0.023744 0.571877
0.061288 -0.025268 0.550996
0.563838 -0.023626 0.546819
-0.341747 -0.024110 0.540555
0.533983 -0.024815 0.538467
0.519056 -0.023744 0.530114
0.628522 -0.025461 0.525937
0.034908 -0.027061 0.509232
0.499153 -0.023778 0.500879
0.653401 -0.023027 0.498791
0.006555 -0.022245 0.496703
0.653401 -0.022131 0.494615
-0.063106 -0.027061 0.490618
-0.058130 -0.022339 0.490438
0.654905 -0.027061 0.484174
0.494977 -0.027061 0.482086
0.661357 -0.027061 0.459116
-0.359810 -0.027061 0.448675
-0.122814 -0.024929 0.444498
0.469299 -0.024816 0.427793
0.410245 -0.027061 0.423617
-0.157645 -0.026022 0.421528
0.454371 -0.022563 0.421528
0.429907 -0.027061 0.419440
0.663351 -0.025992 0.413176
0.404152 -0.027061 0.404823
0.499153 -0.027061 0.400773
0.458024 -0.027061 0.400647
0.655616 -0.027061 0.388118
0.681899 -0.027061 0.383941
0.507250 -0.027061 0.375588
0.678282 -0.027061 0.375588
-0.215121 -0.027061 0.373500
0.363122 -0.027061 0.371412
0.435044 -0.027061 0.365148
0.368332 -0.027061 0.358883
0.573789 -0.025335 0.354707
0.409590 -0.022347 0.348442
0.583740 -0.024997 0.348442
0.711228 -0.027061 0.348442
-0.363656 -0.027061 0.344266
0.702557 -0.027061 0.327560
0.693807 -0.027061 0.319208
0.703157 -0.022137 0.319208
0.720191 -0.027061 0.319208
0.397705 -0.027061 0.312943
0.328254 -0.027061 0.306679
0.698182 -0.027061 0.302638
0.375014 -0.027061 0.302502
-0.277063 -0.025901 0.298326
0.349881 -0.023209 0.294149
0.354857 -0.023074 0.294149
-0.287014 -0.024417 0.292061
-0.272086 -0.026362 0.292061
0.685914 -0.027061 0.292061
0.334954 -0.027061 0.286194
0.708132 -0.023862 0.283709
0.354857 -0.026535 0.277444
0.713107 -0.025784 0.277444
-0.359991 -0.027061 0.273268
-0.351698 -0.027061 0.265046
-0.301941 -0.024392 0.267003
-0.296965 -0.026609 0.267003
-0.346723 -0.026313 0.264915
0.708132 -0.027061 0.263124
-0.287014 -0.026786 0.262827
0.308255 -0.027061 0.260739
0.339929 -0.025872 0.260739
-0.287014 -0.025066 0.252386
0.713107 -0.025973 0.252386
0.696438 -0.027061 0.246121
0.719142 -0.027061 0.239857
-0.296965 -0.025662 0.237769
0.319701 -0.027061 0.235680
-0.311892 -0.025634 0.233592
-0.272086 -0.025086 0.223151
-0.142717 -0.024305 0.216887
0.310075 -0.026473 0.214799
0.325002 -0.026228 0.214799
-0.311892 -0.024136 0.212710
0.289926 -0.027061 0.208534
0.315051 -0.024925 0.208534
0.704687 -0.027061 0.198093
0.742446 -0.027061 0.198093
-0.178812 -0.027061 0.196005
-0.244256 -0.027061 0.191829
-0.122229 -0.027061 0.177211
0.329978 -0.024234 0.177211
-0.178934 -0.027061 0.173035
0.744848 -0.027061 0.170947
0.273312 -0.027061 0.164682
0.295148 -0.025232 0.162594
0.305099 -0.025142 0.162594
-0.254412 -0.027061 0.160506
-0.174367 -0.027061 0.154242
0.308361 -0.027061 0.154242
0.285197 -0.026137 0.150065
-0.251753 -0.027061 0.145889
-0.168623 -0.027061 0.141712
0.709286 -0.027061 0.141712
-0.264868 -0.027061 0.135448
0.290172 -0.022835 0.129183
0.316576 -0.027061 0.127095
0.275245 -0.026658 0.125007
0.745234 -0.027061 0.120831
-0.097364 -0.027061 0.118742
0.257579 -0.027061 0.118742
0.298226 -0.027061 0.116654
0.280220 -0.022477 0.110390
0.290172 -0.024320 0.110390
0.305099 -0.022525 0.099949
-0.212378 -0.025361 0.095772
-0.087984 -0.026637 0.095772
0.709547 -0.027061 0.093684
0.270269 -0.022214 0.091596
-0.068317 -0.027061 0.089508
-0.118476 -0.027061 0.087420
-0.232280 -0.024878 0.076979
-0.222329 -0.022242 0.076979
-0.212378 -0.023819 0.074891
-0.087984 -0.022684 0.070714
-0.222329 -0.025287 0.064450
0.195633 -0.027061 0.063374
0.208989 -0.027061 0.062362
0.739836 -0.027061 0.060273
-0.097936 -0.026436 0.058185
0.254925 -0.027061 0.058185
-0.073057 -0.025359 0.056097
0.160803 -0.024116 0.051921
-0.042105 -0.027061 0.045656
0.296728 -0.027061 0.043568
0.703497 -0.027061 0.037303
0.733013 -0.023502 0.035215
0.281553 -0.027061 0.033127
-0.053154 -0.026464 0.026862
-0.030896 -0.027061 0.026862
-0.076374 -0.027061 0.024774
0.292025 -0.027061 0.020598
-0.058130 -0.025019 0.018510
0.232005 -0.027061 0.018510
-0.084340 -0.027061 0.008069
-0.063106 -0.026207 0.005981
0.285197 -0.022367 0.005981
0.698182 -0.024670 -0.000284
-0.012125 -0.027061 -0.006548
0.725469 -0.027061 -0.008636
-0.038227 -0.024124 -0.010725
0.270721 -0.027061 -0.023254
0.281528 -0.027061 -0.023254
0.718088 -0.024132 -0.023254
-0.013348 -0.026816 -0.035783
-0.038227 -0.026066 -0.039959
-0.028275 -0.024065 -0.039959
0.688232 -0.024843 -0.039959
0.011531 -0.027061 -0.046072
0.277437 -0.027061 -0.044136
0.708132 -0.022932 -0.044136
0.213866 -0.027061 -0.046224
-0.013348 -0.024618 -0.054576
0.688232 -0.023002 -0.054576
-0.045721 -0.027061 -0.058753
0.703157 -0.022367 -0.060841
0.710106 -0.027061 -0.060841
-0.658378 -0.027061 -0.065017
0.005984 -0.027061 -0.065017
0.024122 -0.027061 -0.065017
0.272240 -0.027061 -0.069194
0.220512 -0.022190 -0.077546
0.203594 -0.027061 -0.083811
0.678282 -0.022531 -0.083811
-0.658482 -0.027061 -0.085899
0.011531 -0.023650 -0.087987
0.034393 -0.027061 -0.087987
0.693207 -0.023411 -0.092164
-0.648448 -0.027061 -0.094252
-0.614698 -0.027061 -0.094252
-0.006573 -0.027061 -0.094252
0.668326 -0.024268 -0.098428
-0.012013 -0.027061 -0.115134
0.050035 -0.027061 -0.115134
-0.649519 -0.027061 -0.117222
-0.655219 -0.023744 -0.119310
-0.675120 -0.025791 -0.121398
-0.611529 -0.027061 -0.121398
-0.685075 -0.022170 -0.125575
0.678282 -0.023744 -0.127663
0.043484 -0.027061 -0.129751
0.653401 -0.024750 -0.129751
-0.436284 -0.024525 -0.131839
0.188758 -0.027061 -0.136015
-0.704975 -0.026130 -0.138104
-0.446239 -0.026374 -0.138104
-0.461165 -0.025668 -0.142280
-0.446239 -0.026160 -0.142280
-0.466140 -0.027061 -0.146712
0.067396 -0.027061 -0.148545
0.004671 -0.027061 -0.150633
0.643450 -0.023427 -0.152721
0.200609 -0.022553 -0.156897
0.195515 -0.027061 -0.163162
-0.500971 -0.026700 -0.165250
-0.600483 -0.026416 -0.167338
-0.728206 -0.027061 -0.169426
0.014280 -0.027061 -0.171515
0.658376 -0.025645 -0.171515
-0.607765 -0.027061 -0.175691
0.628522 -0.023350 -0.177779
0.071240 -0.027061 -0.181694
0.228063 -0.027061 -0.179867
0.178998 -0.027061 -0.181955
-0.616870 -0.027061 -0.188220
0.618571 -0.025018 -0.188220
0.024864 -0.027061 -0.190308
0.220512 -0.022085 -0.192396
0.643450 -0.023546 -0.192396
0.093126 -0.027061 -0.194485
0.643450 -0.026462 -0.198661
0.086690 -0.027061 -0.207014
0.233109 -0.027061 -0.207014
-0.616718 -0.027061 -0.219543
0.108394 -0.027061 -0.219543
0.593692 -0.025003 -0.221631
0.172988 -0.027061 -0.227895
0.624968 -0.027061 -0.227895
0.200609 -0.023955 -0.229984
0.228125 -0.027061 -0.234160
0.210560 -0.026520 -0.236248
-0.351698 -0.023200 -0.238336
-0.336771 -0.024080 -0.238336
0.106070 -0.027061 -0.242257
-0.379535 -0.027061 -0.244601
0.057051 -0.027061 -0.244601
-0.336771 -0.023570 -0.246689
-0.341747 -0.024060 -0.252953
0.128180 -0.027061 -0.252953
-0.732999 -0.027061 -0.255042
0.062837 -0.027061 -0.255042
-0.405181 -0.027061 -0.259218
0.558862 -0.027061 -0.259912
-0.617319 -0.027061 -0.261306
-0.349832 -0.027061 -0.261306
0.175730 -0.022801 -0.261306
0.190657 -0.025862 -0.261306
0.598668 -0.025806 -0.263394
0.085124 -0.027061 -0.267571
0.221706 -0.027061 -0.269659
0.200609 -0.026350 -0.273835
-0.425864 -0.027061 -0.275924
0.542746 -0.027061 -0.275924
-0.520871 -0.027061 -0.280658
-0.510921 -0.027061 -0.282104
0.036409 -0.023834 -0.280100
0.586120 -0.027061 -0.280100
0.172870 -0.027061 -0.282188
-0.472222 -0.027061 -0.284276
0.061288 -0.022713 -0.284276
0.101094 -0.022085 -0.284276
-0.565657 -0.027061 -0.288881
0.081191 -0.024076 -0.292629
0.220561 -0.027061 -0.292629
-0.462251 -0.027061 -0.294717
-0.733834 -0.027061 -0.296805
0.046361 -0.022930 -0.296805
0.096118 -0.025327 -0.300982
0.519056 -0.022209 -0.300982
0.529008 -0.027061 -0.309136
0.560624 -0.027061 -0.309334
0.054433 -0.027061 -0.313511
0.091142 -0.027061 -0.313975
-0.471115 -0.027061 -0.321837
0.086167 -0.027061 -0.324959
