-15.331674575806 -67.982208251953 -241.200866699219 2.339293718338
9.030153274536 -69.311561584473 -240.254272460938 0.922175645828
65.818679809570 -71.643669128418 -238.818405151367 0.666865170002
64.673843383789 -68.534812927246 -240.258056640625 1.912129282951
50.777095794678 -69.372253417969 -246.568923950195 1.440049409866
61.791187286377 -71.680770874023 -242.978546142578 1.154525876045
-15.112639427185 -71.995857238770 -250.556198120117 1.345927953720
-82.831977844238 -67.378021240234 -253.282394409180 2.097198247910
-76.228515625000 -67.515289306641 -253.129089355469 3.037496566772
44.974029541016 -71.315681457520 -248.523529052734 1.700171470642
-146.806304931641 -69.332336425781 -252.153686523438 2.139924049377
37.060462951660 -69.566009521484 -255.941604614258 1.425050258636
-91.271720886230 -70.988395690918 -252.655563354492 2.250248193741
-155.050430297852 -66.236312866211 -256.089691162109 1.624500155449
-140.062133789063 -65.046180725098 -255.014266967773 1.963384032249
46.954956054688 -69.544509887695 -253.349182128906 1.342383861542
-124.027267456055 -65.585105895996 -258.288818359375 2.106813430786
-115.765830993652 -68.437011718750 -256.643371582031 0.922702312469
-92.242523193359 -65.944068908691 -258.079864501953 2.233924388885
-13.522533416748 -67.321594238281 -252.389282226563 1.837617516518
32.331707000732 -69.131080627441 -258.043304443359 1.582835793495
25.528902053833 -67.399177551270 -260.072143554688 1.183412551880
-157.612670898438 -65.938911437988 -260.860015869141 3.240890502930
-114.258071899414 -71.017356872559 -263.509735107422 1.570856213570
-13.602839469910 -68.634628295898 -262.248046875000 1.739861607552
-132.728012084961 -68.691490173340 -266.025878906250 3.083749532700
-13.228611946106 -67.949043273926 -270.772155761719 2.058902025223
-165.065582275391 -67.707481384277 -274.372039794922 2.799828767776
-7.464540004730 -69.736625671387 -280.603057861328 2.352912664413
-160.774734497070 -68.233505249023 -288.953552246094 1.734994411469
-162.581237792969 -69.072525024414 -278.765563964844 2.030704975128
-142.154434204102 -68.371223449707 -286.257720947266 1.388583540916
-168.542633056641 -69.643928527832 -285.828430175781 0.719228267670
14.415781974792 -70.144050598145 -287.824676513672 2.723135471344
-102.538192749023 -69.203468322754 -287.461120605469 2.594458103180
-86.232528686523 -66.098457336426 -287.082244873047 2.638830900192
-166.566253662109 -66.346878051758 -285.964294433594 3.327807664871
-90.921699523926 -70.378105163574 -286.245452880859 3.115658521652
-151.724380493164 -68.467788696289 -289.111968994141 1.162523984909
-73.773109436035 -68.761695861816 -292.293762207031 3.394834995270
-69.027992248535 -68.072860717773 -289.373657226563 1.910624861717
-81.366683959961 -68.826042175293 -291.684600830078 1.073943614960
-3.209022045135 -65.977165222168 -289.935058593750 1.816283464432
-85.952850341797 -68.517135620117 -290.315429687500 1.331344604492
-98.220611572266 -69.139999389648 -292.086242675781 2.068793773651
-114.839141845703 -68.808593750000 -293.398895263672 1.306323289871
-115.869224548340 -66.778984069824 -293.556762695313 2.783941507339
-133.546905517578 -67.097015380859 -293.767059326172 2.715824127197
-142.466613769531 -68.910804748535 -301.875946044922 2.166203260422
-143.352615356445 -69.595962524414 -312.556915283203 2.367940425873
23.450454711914 -70.549949645996 -15.917366981506 2.222327947617
31.471698760986 -70.751426696777 -17.038051605225 0.783807098866
28.836429595947 -72.797210693359 -18.780546188354 1.505894184113
43.535263061523 -70.482383728027 -21.428941726685 1.116326689720
25.395494461060 -71.446533203125 -31.912776947021 2.037113189697
-75.137825012207 -68.662750244141 -48.036903381348 2.428836345673
89.716278076172 -67.664855957031 -64.828079223633 1.447530269623
-16.709541320801 -69.899841308594 -68.358467102051 1.499647021294
101.601387023926 -69.324867248535 -72.332603454590 1.197838544846
95.875709533691 -73.882667541504 -75.542388916016 1.659278988838
68.655921936035 -72.257446289063 -78.298301696777 1.112286806107
69.149803161621 -72.930038452148 -83.016464233398 1.863429903984
-44.887168884277 -72.997894287109 -83.348739624023 0.761116623878
61.456298828125 -72.397140502930 -83.240638732910 3.270823240280
-95.014312744141 -70.399887084961 -88.674102783203 2.309530258179
-50.206577301025 -68.376617431641 -86.351928710938 1.547753095627
-55.606735229492 -76.490211486816 -89.756904602051 1.486748218536
100.094802856445 -74.527244567871 -96.875198364258 1.401959300041
58.687419891357 -73.029090881348 -93.452148437500 1.477404832840
64.999046325684 -69.828926086426 -91.175598144531 1.949435710907
-96.400146484375 -65.932373046875 -97.457901000977 2.381627798080
107.753105163574 -71.488693237305 -94.150726318359 3.087096929550
45.121261596680 -69.393623352051 -98.895057678223 2.172753095627
100.922058105469 -70.344459533691 -97.866325378418 1.109328508377
106.510932922363 -69.147583007813 -105.557823181152 1.977523446083
102.020614624023 -70.712936401367 -104.969619750977 2.195971012115
73.683311462402 -71.540199279785 -101.724288940430 1.703388094902
87.573303222656 -72.066184997559 -105.667190551758 2.235790967941
49.845947265625 -70.789123535156 -111.351081848145 2.244657039642
110.718482971191 -69.696220397949 -104.226188659668 0.356977641582
45.412502288818 -71.602149963379 -106.264556884766 2.823011875153
41.827613830566 -68.462997436523 -101.426155090332 2.043038129807
112.399032592773 -70.450241088867 -110.081542968750 1.299915909767
-78.675544738770 -68.133224487305 -110.821189880371 1.051841020584
46.480873107910 -69.753791809082 -113.070167541504 1.501208543777
35.773445129395 -71.178062438965 -114.646377563477 1.146173596382
105.201736450195 -68.519706726074 -109.607780456543 1.947334527969
40.659999847412 -67.624618530273 -111.594825744629 1.992052555084
-88.519546508789 -69.062271118164 -114.642295837402 0.832313597202
-95.745071411133 -67.653808593750 -115.845436096191 2.765601873398
105.332473754883 -71.847694396973 -118.512931823730 1.829946756363
-94.621963500977 -71.113723754883 -119.278572082520 1.311410307884
38.766597747803 -70.829185485840 -121.659072875977 1.712198019028
37.305225372314 -69.404769897461 -119.815505981445 0.725520312786
-82.358993530273 -68.891273498535 -125.120994567871 2.089566946030
32.031497955322 -68.325370788574 -135.273757934570 1.291332006454
110.212722778320 -71.367164611816 -130.975021362305 0.649872124195
-52.102722167969 -69.002365112305 -135.155593872070 2.207050800323
-88.287086486816 -68.561210632324 -131.452194213867 1.065815091133
37.883762359619 -71.951126098633 -132.577377319336 1.154871106148
-90.260765075684 -65.865219116211 -136.157150268555 1.420762658119
-89.182708740234 -70.350357055664 -139.603515625000 3.072693824768
-49.167022705078 -71.033767700195 -137.667953491211 1.992131233215
-70.504882812500 -68.062072753906 -140.511978149414 1.538800954819
-50.518238067627 -68.328865051270 -134.584350585938 0.924954891205
114.569976806641 -68.100799560547 -137.869262695313 1.480535030365
-73.821327209473 -70.045463562012 -138.775070190430 1.203711032867
36.078758239746 -69.603584289551 -131.888900756836 1.206474661827
-78.574958801270 -68.825714111328 -140.220886230469 0.681825935841
-73.740600585938 -68.591247558594 -136.662338256836 0.708413124084
-89.654022216797 -67.453445434570 -139.673431396484 1.140505433083
-52.817871093750 -68.255294799805 -148.432693481445 0.656154215336
31.637775421143 -66.912643432617 -145.817550659180 2.098774671555
27.920171737671 -67.838279724121 -150.028396606445 1.052588582039
18.727619171143 -66.293998718262 -144.466430664063 1.249761700630
113.284858703613 -69.406250000000 -146.181793212891 0.976085722446
-94.602500915527 -67.705902099609 -153.714828491211 1.915931105614
14.455620765686 -70.824813842773 -152.677413940430 1.579067468643
-71.807380676270 -68.531028747559 -152.975479125977 0.633473992348
23.577569961548 -69.050857543945 -150.356811523438 1.316118240356
-48.734664916992 -68.299575805664 -155.942306518555 2.439720392227
9.695983886719 -68.236282348633 -153.127365112305 0.786948859692
14.413928985596 -70.964149475098 -158.232131958008 1.515480756760
18.574323654175 -72.252182006836 -164.173339843750 1.355489015579
-47.422958374023 -70.294570922852 -162.510986328125 0.730725049973
-39.255317687988 -68.601654052734 -154.962326049805 1.378687024117
-45.421657562256 -68.812713623047 -160.819885253906 0.787830173969
-103.568069458008 -68.754447937012 -172.034713745117 0.808674931526
22.058732986450 -69.583686828613 -173.751693725586 2.528241395950
-34.991638183594 -68.346359252930 -175.148345947266 1.394948363304
15.807059288025 -71.455429077148 -178.544998168945 1.843543410301
-143.956726074219 -68.807472229004 -176.364303588867 1.574960827827
-32.262435913086 -66.735420227051 -173.429504394531 1.380531311035
-153.834793090820 -70.891197204590 -178.448303222656 1.507716655731
23.075567245483 -66.371093750000 -182.100524902344 3.631578207016
-31.857725143433 -69.194389343262 -172.558425903320 1.567870974541
-107.764198303223 -67.636222839355 -179.453170776367 2.572694540024
-106.819206237793 -70.949798583984 -183.800827026367 2.514452934265
-29.205099105835 -65.787979125977 -185.260147094727 2.570852994919
-22.840530395508 -71.472663879395 -182.276077270508 1.093313455582
15.311580657959 -68.137939453125 -189.654968261719 1.373316645622
18.013128280640 -67.260879516602 -196.458068847656 1.876794576645
14.660072326660 -68.349121093750 -186.904403686523 2.106956720352
-142.613403320313 -68.025321960449 -188.672897338867 1.151607632637
20.553487777710 -66.570480346680 -190.265335083008 2.851898670197
9.081431388855 -69.038391113281 -196.985885620117 1.662977933884
-137.834823608398 -67.138916015625 -195.832992553711 3.594309568405
-114.817016601563 -68.143218994141 -196.198501586914 0.414078623056
15.338001251221 -67.669181823730 -199.905899047852 1.937311768532
-114.584136962891 -67.787666320801 -197.435607910156 0.932265162468
-107.414337158203 -65.522789001465 -192.646224975586 3.117001771927
-164.018829345703 -69.125274658203 -200.066375732422 1.526310324669
-23.775390625000 -68.133621215820 -200.462905883789 1.979063868523
14.628853797913 -67.747810363770 -200.816619873047 1.344903230667
-141.310195922852 -68.034553527832 -204.620452880859 0.285614341497
-134.151336669922 -68.775276184082 -206.612304687500 2.991840839386
-18.620067596436 -67.412971496582 -207.285552978516 1.286128759384
-11.106333732605 -69.692352294922 -204.402862548828 1.516646146774
-14.845898628235 -68.624267578125 -206.350769042969 1.751137256622
-141.550689697266 -70.018913269043 -206.246765136719 2.823686122894
-15.519452095032 -69.159736633301 -213.281539916992 0.944054365158
-10.737234115601 -70.501289367676 -214.465957641602 2.720380783081
17.792043685913 -67.008026123047 -211.082824707031 1.551155209541
-13.040227890015 -70.312477111816 -211.677368164063 2.304093837738
11.142420768738 -68.226577758789 -210.870880126953 1.017202019691
-9.378944396973 -68.855110168457 -216.188995361328 1.342442631721
-19.042715072632 -67.007431030273 -212.561126708984 4.172796726227
13.844105720520 -71.053291320801 -221.448684692383 2.032355546951
-0.460413008928 -71.937377929688 -220.498016357422 0.709376215935
11.857323646545 -66.205451965332 -221.888809204102 1.491569399834
-5.121490001678 -69.456451416016 -226.372665405273 1.745518922806
-157.192672729492 -67.900558471680 -225.376678466797 1.106943249702
81.618652343750 -70.258224487305 -220.450439453125 0.930685222149
-134.333007812500 -66.711051940918 -225.474517822266 1.235999107361
-134.237808227539 -68.788017272949 -224.777404785156 0.896385371685
-8.008181571960 -68.980857849121 -225.677917480469 2.200082540512
10.363331794739 -68.462882995605 -233.226043701172 2.381860017776
-155.427947998047 -67.391944885254 -229.407226562500 2.531923055649
87.795013427734 -67.955612182617 -219.984008789063 2.062408208847
-1.850533962250 -67.629669189453 -225.667007446289 1.200084328651
1.208312988281 -69.153312683105 -224.299133300781 1.914945483208
74.713172912598 -70.479095458984 -228.501052856445 1.613569617271
1.549759030342 -66.984802246094 -234.333145141602 0.693781554699
-14.611621856689 -70.295219421387 -228.876007080078 2.306843519211
-125.186790466309 -67.626235961914 -235.411621093750 2.240187644958
-2.947220087051 -68.187591552734 -236.610992431641 1.460273742676
3.116770982742 -66.746017456055 -233.320693969727 1.129863500595
66.699104309082 -67.664352416992 -238.528594970703 1.375284194946
-157.609497070313 -67.970420837402 -239.740585327148 2.077564716339
-11.243391990662 -68.554908752441 -244.610137939453 1.619053602219
-167.650192260742 -69.084632873535 -239.633621215820 0.492597967386
10.205374717712 -67.259963989258 -242.777175903320 1.834980487823
-164.419754028320 -67.642379760742 -240.055252075195 1.059068560600
-160.409912109375 -68.277626037598 -246.451980590820 0.793523013592
57.187229156494 -67.964500427246 -245.635162353516 1.193340539932
63.767456054688 -69.083091735840 -243.140274047852 2.049063682556
57.288722991943 -68.627700805664 -243.920806884766 1.578187346458
52.727272033691 -68.278884887695 -248.886291503906 1.020273804665
-156.042800903320 -67.681968688965 -245.610748291016 2.097153186798
-155.865783691406 -66.370925903320 -250.413909912109 3.162184715271
-13.020336151123 -69.533050537109 -249.848083496094 2.126471757889
-150.984161376953 -67.400253295898 -247.262039184570 0.953262150288
21.349328994751 -70.206352233887 -251.637527465820 2.376813650131
-168.072570800781 -70.471916198730 -251.886459350586 1.384090542793
-166.061920166016 -66.147895812988 -248.152816772461 3.263389348984
-81.318504333496 -68.592323303223 -250.583587646484 2.581016540527
-167.887969970703 -67.396797180176 -261.873901367188 1.660117864609
-84.729904174805 -67.329322814941 -256.598114013672 2.953870773315
43.086597442627 -67.776466369629 -253.249069213867 2.080957651138
23.364643096924 -71.229637145996 -256.105285644531 2.081737995148
-158.261672973633 -67.732856750488 -262.042510986328 2.166285276413
-99.768692016602 -63.900989532471 -260.127838134766 2.445232152939
39.712680816650 -68.856590270996 -256.655822753906 1.888840079308
-102.749938964844 -71.802726745605 -260.333526611328 1.445986032486
-153.576049804688 -63.083713531494 -265.261779785156 1.746192216873
-105.110877990723 -66.592033386230 -260.308258056641 2.868338584900
-166.155517578125 -68.320411682129 -260.801849365234 2.231583833694
-112.238227844238 -68.646331787109 -263.809478759766 3.401609182358
-152.256179809570 -69.022315979004 -266.429077148438 1.646573901176
-157.232330322266 -66.878707885742 -265.012359619141 2.120780706406
-165.427276611328 -66.978172302246 -264.743438720703 2.111698627472
-162.492263793945 -65.946334838867 -263.329956054688 3.362173318863
-164.824127197266 -67.298988342285 -267.468963623047 0.796018540859
-163.156295776367 -67.736106872559 -265.337219238281 1.598612546921
26.098043441772 -69.275367736816 -265.424987792969 1.182331681252
-150.028335571289 -69.300491333008 -265.264343261719 2.873137474060
-147.860443115234 -66.668029785156 -284.564270019531 2.130227565765
23.707820892334 -69.471092224121 -277.286682128906 1.818678498268
-10.386301994324 -68.669265747070 -274.861694335938 3.348695278168
-125.228752136230 -67.089660644531 -285.051818847656 1.893607497215
-135.407104492188 -68.693420410156 -286.796203613281 1.058549404144
-134.055084228516 -66.197891235352 -288.861297607422 1.374229073524
-125.204010009766 -68.148536682129 -286.849975585938 1.048855423927
-114.274452209473 -66.516632080078 -289.554046630859 1.420919537544
-105.146835327148 -65.155097961426 -287.230407714844 2.663395404816
11.101661682129 -69.852684020996 -291.415802001953 2.921546697617
-84.495758056641 -67.855209350586 -290.228210449219 2.441555500031
-148.441024780273 -67.900123596191 -290.387756347656 0.919182360172
-100.395874023438 -67.162979125977 -291.338012695313 1.812630772591
-126.471740722656 -65.202171325684 -292.413543701172 2.185788393021
10.226863861084 -70.453506469727 -289.007995605469 3.187830448151
-111.753669738770 -64.145744323730 -291.031005859375 3.925489187241
2.939142942429 -68.071388244629 -293.173034667969 1.420369029045
-142.285064697266 -66.820419311523 -291.015136718750 1.867805957794
-152.401046752930 -67.969825744629 -297.420166015625 1.556772947311
-156.223724365234 -67.217247009277 -313.663787841797 3.629296302795
-153.840179443359 -67.152725219727 -313.247955322266 1.342412710190
48.488487243652 -72.106521606445 -24.644784927368 1.677534341812
22.281984329224 -71.168418884277 -34.774410247803 1.283222436905
31.786931991577 -71.693458557129 -36.904056549072 2.232953310013
-46.519767761230 -71.320472717285 -48.136466979980 3.292742013931
-13.813769340515 -68.815231323242 -62.095748901367 1.198813080788
93.914245605469 -71.643814086914 -68.672912597656 1.582004427910
68.837753295898 -67.496528625488 -70.083511352539 1.389132499695
-23.574190139771 -70.354507446289 -74.907852172852 0.571571052074
-96.691314697266 -72.549362182617 -85.903892517090 1.298695564270
-42.363391876221 -69.981994628906 -81.387435913086 2.047608137131
63.421340942383 -69.062400817871 -82.230972290039 2.009580850601
60.714317321777 -71.476112365723 -86.754577636719 0.450721949339
54.578063964844 -68.170219421387 -87.566078186035 1.659630894661
-58.589084625244 -68.282173156738 -90.484939575195 0.883226752281
66.422691345215 -67.215850830078 -89.377258300781 1.372387886047
44.170547485352 -71.965309143066 -97.624031066895 1.593753576279
68.031684875488 -70.584289550781 -94.496871948242 2.363127708435
-63.300205230713 -67.652801513672 -96.158897399902 2.353164196014
49.494606018066 -71.338768005371 -94.169326782227 2.383834123611
45.097831726074 -70.417861938477 -98.683044433594 1.672366023064
103.417709350586 -68.000312805176 -99.229103088379 0.628986179829
-67.279235839844 -69.112625122070 -99.714080810547 1.305778026581
110.026252746582 -69.289085388184 -100.571411132813 1.227402567863
-78.986427307129 -70.006507873535 -101.311103820801 1.031980633736
55.000713348389 -71.680778503418 -104.049827575684 1.689154624939
47.932605743408 -67.932739257813 -100.440956115723 1.106021404266
92.406158447266 -69.496627807617 -103.458755493164 1.084542751312
85.280464172363 -67.092979431152 -106.898529052734 1.165753126144
53.826522827148 -68.715507507324 -104.278129577637 1.801128745079
-75.795097351074 -69.365707397461 -110.825981140137 1.881391406059
-75.814231872559 -67.978012084961 -114.185752868652 1.478940725327
-79.814598083496 -70.028182983398 -119.157814025879 1.356468677521
-92.572731018066 -72.120628356934 -119.586959838867 1.218897700310
106.141578674316 -65.974243164063 -115.658256530762 1.050082921982
-87.023750305176 -70.247108459473 -119.903800964355 2.743127584457
-77.394630432129 -66.265388488770 -121.444244384766 1.380955100060
109.998527526855 -68.182449340820 -115.396186828613 1.032928228378
-62.475673675537 -63.101337432861 -118.905593872070 1.255890369415
114.124763488770 -71.261390686035 -131.115600585938 1.277121782303
110.290733337402 -69.996414184570 -129.003860473633 1.150599718094
108.605583190918 -69.530700683594 -124.378303527832 0.917715728283
-93.013023376465 -68.698822021484 -138.827117919922 1.064018726349
-47.668357849121 -68.436531066895 -142.074569702148 1.645487070084
-77.654968261719 -67.369270324707 -145.500045776367 2.645183086395
-69.040237426758 -68.511383056641 -149.759246826172 1.055309414864
-70.919517517090 -66.990882873535 -147.401046752930 1.494234204292
-55.000293731689 -67.865447998047 -143.877243041992 1.573069691658
-47.283332824707 -70.830070495605 -147.398376464844 2.386307954788
18.304985046387 -68.696128845215 -145.848480224609 0.847697556019
-94.103691101074 -66.629852294922 -144.409164428711 1.678812503815
-45.001705169678 -67.455139160156 -148.144866943359 1.739247798920
-52.510665893555 -64.812507629395 -148.581497192383 3.800889492035
-41.552379608154 -67.217758178711 -155.552764892578 0.981358647346
28.278892517090 -69.956420898438 -162.778350830078 1.751029014587
-49.170539855957 -67.991760253906 -150.890670776367 0.445872873068
-98.979515075684 -65.824455261230 -150.669204711914 2.038358211517
-43.693515777588 -66.442543029785 -158.240859985352 1.830125212669
26.291934967041 -69.463768005371 -149.638717651367 1.500754237175
-99.714775085449 -70.927589416504 -163.160964965820 3.125717639923
22.856378555298 -69.760627746582 -157.508255004883 2.466338396072
-106.928131103516 -66.455970764160 -171.097167968750 2.571815967560
-100.377792358398 -68.177810668945 -164.017013549805 2.056473970413
22.678600311279 -67.951568603516 -164.160217285156 2.611583232880
26.369291305542 -67.043190002441 -168.148391723633 1.952804923058
-106.419555664063 -69.220130920410 -174.578399658203 2.414869070053
-141.431976318359 -66.838348388672 -176.118820190430 1.613613247871
-20.301284790039 -68.258750915527 -188.860671997070 2.908385753632
-26.819030761719 -67.457702636719 -182.758422851563 1.837529063225
-113.795089721680 -68.381820678711 -187.784759521484 1.185853123665
-143.327209472656 -63.810127258301 -188.408203125000 0.802800178528
-104.053169250488 -66.090415954590 -182.491226196289 1.898569107056
-156.491653442383 -67.654014587402 -192.467269897461 1.617459774017
-130.800476074219 -70.468574523926 -195.888412475586 0.827392816544
-132.854598999023 -68.708816528320 -196.897689819336 1.193736553192
-19.619037628174 -66.571411132813 -190.953063964844 2.473369598389
-120.659996032715 -67.941848754883 -197.955505371094 1.765729427338
-115.451156616211 -65.365226745605 -198.851165771484 1.539360761642
-25.335062026978 -68.928199768066 -195.935211181641 1.492336511612
-153.756851196289 -65.727859497070 -200.222122192383 0.951674520969
-131.336151123047 -69.468772888184 -205.581542968750 2.004787683487
-124.330360412598 -66.113388061523 -205.768920898438 1.012558341026
18.400468826294 -68.796821594238 -202.023727416992 1.726279020309
-161.067596435547 -66.198997497559 -204.936614990234 2.667861700058
10.670844078064 -67.644653320313 -214.492767333984 1.945602297783
14.259948730469 -68.316261291504 -214.430099487305 0.700002729893
-17.388891220093 -65.433425903320 -208.471252441406 3.167658567429
-4.471689224243 -68.032569885254 -216.390930175781 1.241536259651
-167.969253540039 -65.442512512207 -210.951202392578 3.891509056091
-158.299987792969 -65.193481445313 -214.285110473633 2.045695781708
-93.953468322754 -67.569839477539 -218.822738647461 2.202585220337
-99.120079040527 -68.158195495605 -224.351577758789 1.509433627129
-160.304107666016 -66.886596679688 -225.148361206055 1.187211394310
-104.350296020508 -66.426261901855 -220.283676147461 2.743713378906
-11.675674438477 -66.593620300293 -216.026565551758 0.951284527779
-126.269058227539 -68.384841918945 -223.867828369141 1.394631266594
-140.835494995117 -68.013298034668 -225.676391601563 1.622822165489
-2.449126005173 -68.287574768066 -221.613876342773 2.192044496536
-133.689651489258 -66.181373596191 -226.102416992188 1.472392678261
-123.166900634766 -70.026199340820 -224.854019165039 1.977101206779
-113.707565307617 -68.183494567871 -226.236145019531 0.243767783046
2.194210052490 -64.898674011230 -227.702713012695 3.521692514420
-106.351142883301 -66.641403198242 -230.751113891602 2.326394557953
-159.017135620117 -63.648777008057 -224.180419921875 2.584902763367
-146.566864013672 -66.184577941895 -228.120758056641 1.238620638847
-165.057296752930 -66.512046813965 -225.783462524414 2.246352434158
-7.054789066315 -68.142822265625 -227.787155151367 2.153428077698
-7.911993026733 -67.471458435059 -232.235580444336 0.763420104980
79.120262145996 -69.221366882324 -225.725463867188 1.802232623100
1.345111966133 -68.716468811035 -230.163040161133 1.877055644989
-142.070373535156 -66.819602966309 -235.974243164063 2.862648010254
-13.334021568298 -66.843307495117 -229.343093872070 2.382534027100
74.842658996582 -68.097274780273 -228.312026977539 1.606097817421
75.741729736328 -68.194404602051 -232.994567871094 2.171063661575
-133.981109619141 -66.221450805664 -233.746231079102 0.772097647190
-157.408798217773 -68.085800170898 -229.473129272461 0.737176299095
-113.719863891602 -66.580856323242 -233.839172363281 1.748340249062
-123.585212707520 -64.207283020020 -235.939941406250 1.580395817757
-163.598205566406 -65.907119750977 -235.764068603516 1.490953326225
-158.869400024414 -66.959533691406 -236.951538085938 2.290720939636
-145.217819213867 -65.149101257324 -236.010055541992 2.450954198837
-10.671233177185 -67.688613891602 -236.249191284180 2.600785017014
-4.033228874207 -67.445922851563 -239.796676635742 1.345173716545
-160.226333618164 -65.453720092773 -240.575149536133 2.046158790588
6.080978870392 -68.559768676758 -239.169113159180 1.997769594193
4.818769931793 -67.784881591797 -236.006164550781 1.225844383240
-159.916030883789 -66.639518737793 -240.808135986328 1.280812978745
16.548076629639 -70.288299560547 -243.490539550781 2.555514574051
51.440952301025 -69.481475830078 -244.925445556641 1.162991285324
52.238616943359 -68.910858154297 -244.925872802734 0.521296262741
-14.480180740356 -68.448074340820 -247.156097412109 0.912349879742
49.482215881348 -66.584037780762 -248.826919555664 1.530170679092
-161.689193725586 -64.918853759766 -251.933731079102 4.451411724091
-159.778015136719 -66.743286132813 -249.048492431641 1.085196137428
-159.379165649414 -68.731941223145 -250.831878662109 1.698769688606
54.759136199951 -67.886024475098 -249.513946533203 1.216058611870
-90.531623840332 -66.298408508301 -253.548919677734 2.315482139587
-124.558746337891 -66.715042114258 -255.100936889648 1.043059587479
-104.914840698242 -69.710693359375 -255.114776611328 2.046555519104
28.308849334717 -70.051383972168 -257.505371093750 1.232540130615
42.926822662354 -66.429695129395 -251.012695312500 2.614262342453
-100.281082153320 -65.103523254395 -255.893234252930 2.740120649338
-93.301643371582 -64.219604492188 -253.781753540039 2.873021125793
45.947368621826 -69.963684082031 -253.959136962891 2.208228111267
43.648380279541 -66.598747253418 -256.512969970703 0.554842889309
-154.651306152344 -70.053802490234 -259.353118896484 1.485522150993
32.164939880371 -67.453109741211 -258.865051269531 0.282224565744
-141.820281982422 -69.388252258301 -264.882019042969 1.755297064781
-113.307701110840 -66.233444213867 -263.028137207031 1.609452843666
-135.690963745117 -66.859970092773 -263.789215087891 1.205557465553
30.876247406006 -67.664352416992 -262.808380126953 1.384002089500
-125.529975891113 -65.742530822754 -264.843170166016 1.070255756378
-10.503864288330 -66.575462341309 -259.409179687500 3.137846469879
22.992122650146 -69.921104431152 -271.130279541016 2.036601543427
-6.138682842255 -69.538101196289 -266.330657958984 2.272850275040
20.809875488281 -68.739883422852 -279.733032226563 1.821590662003
-151.885650634766 -67.400123596191 -283.453521728516 1.906342387199
-9.861222267151 -66.711669921875 -280.789703369141 1.753504872322
-152.846023559570 -69.484588623047 -284.103271484375 1.494524955750
-124.034797668457 -67.160804748535 -285.880065917969 1.426948189735
-158.015487670898 -70.880783081055 -287.420227050781 2.554754734039
-113.906005859375 -66.753852844238 -287.977355957031 2.106666803360
-104.362968444824 -66.634574890137 -289.850860595703 2.432339668274
-6.323276996613 -66.023368835449 -286.040924072266 2.249098777771
-108.070922851563 -67.252357482910 -290.511749267578 1.699413537979
-115.563034057617 -64.808624267578 -287.183746337891 3.558981180191
-118.085334777832 -64.430274963379 -292.184295654297 3.327635765076
-136.453002929688 -65.901718139648 -290.487976074219 1.640177607536
-125.005264282227 -65.614944458008 -292.650970458984 2.531267166138
-156.513092041016 -69.619552612305 -291.216400146484 0.911010026932
-145.952590942383 -65.851509094238 -294.558258056641 1.201868295670
-153.934082031250 -64.916549682617 -301.953094482422 2.789062976837
-153.213623046875 -64.945220947266 -312.117187500000 2.291167259216
-156.316665649414 -65.833724975586 -301.910980224609 3.172818183899
-142.421554565430 -67.097557067871 -311.776824951172 3.109518051147
-149.285125732422 -66.260620117188 -314.138824462891 2.540318489075
35.484828948975 -71.317977905273 -10.024460792542 1.755125284195
45.641227722168 -73.138031005859 -15.797838211060 1.974971890450
24.471143722534 -66.477233886719 -24.389713287354 3.221103906631
50.082912445068 -70.918029785156 -28.086938858032 1.828518271446
28.536647796631 -72.284179687500 -34.439079284668 1.456917285919
33.674125671387 -71.528221130371 -35.364345550537 2.247791051865
-57.728649139404 -66.291397094727 -46.842899322510 3.435287952423
81.727149963379 -67.252395629883 -61.850433349609 1.006405949593
80.369987487793 -70.435806274414 -66.015647888184 1.921571254730
-90.584396362305 -69.071258544922 -62.212459564209 0.878245234489
-12.195995330811 -67.279052734375 -62.521102905273 2.051345109940
-92.212791442871 -70.681854248047 -69.400039672852 2.616086483002
96.521575927734 -70.927436828613 -69.224342346191 2.285385131836
-14.524382591248 -66.546913146973 -68.415016174316 1.571699619293
67.909461975098 -71.300880432129 -76.947639465332 1.983356475830
-40.349826812744 -72.658020019531 -78.310081481934 1.393220305443
-27.546373367310 -72.783721923828 -76.901123046875 0.900720477104
56.830211639404 -67.632423400879 -85.648544311523 0.543618559837
-44.398818969727 -78.314369201660 -85.086486816406 1.353805422783
65.085006713867 -64.304702758789 -86.307464599609 1.570991396904
53.564010620117 -72.129226684570 -88.543632507324 1.180583238602
52.934329986572 -69.996528625488 -92.886116027832 1.944074511528
60.787273406982 -71.726692199707 -90.666275024414 2.227012157440
57.601119995117 -67.855934143066 -95.459594726563 1.084828734398
100.598510742188 -67.451599121094 -96.817314147949 1.603059411049
105.634948730469 -66.701652526855 -97.373008728027 0.790813505650
59.547622680664 -71.181182861328 -99.077819824219 0.997048079967
106.747718811035 -66.159088134766 -98.289863586426 2.140058994293
-76.022453308105 -68.241500854492 -99.708709716797 1.425337672234
-71.873214721680 -67.447814941406 -101.433219909668 1.054026365280
100.682067871094 -66.963737487793 -98.032546997070 1.522268295288
53.548168182373 -69.240486145020 -100.391067504883 1.035181999207
70.842163085938 -69.944793701172 -99.137588500977 1.116290330887
-72.840705871582 -68.274833679199 -106.553321838379 2.621448040009
-84.414772033691 -67.119895935059 -106.815223693848 1.835147023201
90.911163330078 -70.753540039063 -104.585281372070 1.915059685707
41.339374542236 -69.163825988770 -104.901359558105 1.361622214317
104.458984375000 -66.579689025879 -104.260841369629 0.897154271603
45.918579101563 -70.017822265625 -113.083160400391 1.800213217735
109.939910888672 -68.828445434570 -103.841415405273 1.155524015427
-78.893722534180 -67.248390197754 -110.477485656738 1.594052791595
105.816032409668 -65.898056030273 -107.831390380859 2.199433565140
-84.557579040527 -66.114524841309 -121.011497497559 1.532024741173
-58.327575683594 -69.822494506836 -128.875473022461 1.351110339165
-54.835269927979 -66.751121520996 -125.452888488770 0.904105126858
-72.826255798340 -68.483001708984 -129.654342651367 1.868429303169
-50.884952545166 -69.088226318359 -130.772598266602 1.552126646042
-83.772354125977 -69.117095947266 -132.275421142578 2.364096403122
-77.079734802246 -65.862960815430 -133.884063720703 1.662106394768
-81.050376892090 -67.401527404785 -129.957031250000 1.690877437592
-59.214542388916 -71.285881042480 -141.087036132813 2.098722457886
-71.805885314941 -67.071670532227 -140.222305297852 1.967689871788
-59.351173400879 -69.210739135742 -136.374542236328 2.294790029526
-59.119709014893 -68.356910705566 -141.269989013672 1.670264005661
19.477720260620 -65.691612243652 -142.521972656250 2.092482805252
-90.443260192871 -67.601181030273 -143.286331176758 1.098317146301
-46.847278594971 -69.922912597656 -145.335769653320 1.314530849457
-97.196571350098 -65.715171813965 -149.784347534180 1.858754992485
-99.964691162109 -65.983428955078 -150.480682373047 1.604548335075
18.849117279053 -69.140838623047 -152.898254394531 2.695467710495
13.934682846069 -68.990753173828 -157.407775878906 1.573354482651
-95.892448425293 -68.170791625977 -159.369171142578 0.971136629581
-102.748703002930 -67.119003295898 -156.005950927734 1.651199936867
-100.431632995605 -66.409118652344 -169.081192016602 1.807482719421
22.739151000977 -67.031822204590 -169.252578735352 1.882658243179
-109.199836730957 -66.891624450684 -172.613464355469 1.842053771019
21.759319305420 -68.085937500000 -167.175094604492 1.120714783669
-147.022781372070 -66.904563903809 -176.862869262695 1.455950498581
18.024705886841 -67.648391723633 -176.402343750000 1.601445078850
24.043479919434 -67.938354492188 -185.534301757813 1.877216696739
-152.271057128906 -65.904899597168 -187.544387817383 1.361718654633
22.001419067383 -67.638900756836 -177.056701660156 1.544050216675
19.481563568115 -63.989105224609 -179.620040893555 2.621258497238
-142.301803588867 -69.568878173828 -186.591262817383 1.839564919472
-151.444824218750 -65.517135620117 -189.680252075195 2.245619535446
20.389575958252 -67.120796203613 -188.514968872070 3.000129461288
18.761350631714 -67.991210937500 -189.351593017578 1.098842382431
-142.109344482422 -68.136413574219 -194.046997070313 0.735400557518
-108.265319824219 -67.263336181641 -198.198348999023 1.814607143402
22.933809280396 -67.967346191406 -197.701004028320 2.518999576569
-124.056381225586 -66.166061401367 -195.398422241211 1.505898475647
11.788361549377 -68.524345397949 -199.053512573242 1.160544514656
-130.634140014648 -63.696983337402 -195.189086914063 1.823850274086
-157.313171386719 -64.958038330078 -192.735229492188 3.174326896667
-161.755081176758 -66.766235351563 -197.749984741211 1.763192772865
-159.643051147461 -66.786720275879 -197.103469848633 2.607682228088
-19.052104949951 -66.687026977539 -202.905105590820 2.744899511337
-166.395462036133 -68.297279357910 -200.749481201172 1.927896857262
-25.204757690430 -65.348197937012 -192.556304931641 3.450244426727
-14.887741088867 -68.207733154297 -197.317687988281 2.402248620987
12.104570388794 -64.424774169922 -195.255233764648 3.092819452286
-157.992599487305 -66.101699829102 -203.047180175781 3.671495914459
-108.632171630859 -66.082794189453 -202.410324096680 2.014223098755
-17.570232391357 -65.025894165039 -202.974990844727 2.569696903229
-158.998748779297 -64.389938354492 -202.900741577148 3.708100557327
16.722639083862 -67.020446777344 -200.834243774414 1.719498634338
-166.962051391602 -64.976181030273 -205.236816406250 3.273154735565
-120.951942443848 -68.716934204102 -203.695861816406 2.096401929855
-114.610099792480 -64.597976684570 -206.805526733398 3.574811458588
-122.716026306152 -65.464317321777 -205.248657226563 0.957966327667
-13.703943252563 -66.652389526367 -204.264663696289 0.771023452282
-15.817998886108 -66.896118164063 -205.129852294922 1.047718882561
-164.003570556641 -65.719116210938 -211.057373046875 0.969834506512
-159.830154418945 -65.146522521973 -213.854583740234 2.813306093216
-164.408828735352 -66.472412109375 -220.532180786133 0.905181467533
-142.105926513672 -67.738212585449 -215.247573852539 2.750705003738
-143.959274291992 -67.099777221680 -224.057144165039 1.534891963005
-3.639149904251 -65.680862426758 -220.573562622070 2.580669403076
-9.543836593628 -68.696067810059 -216.891571044922 0.789522171021
-98.902160644531 -65.814399719238 -221.662780761719 1.999073624611
-5.744911193848 -65.957015991211 -230.275344848633 3.092818021774
-165.413772583008 -64.761894226074 -228.932693481445 2.106388092041
-107.440750122070 -64.722343444824 -231.852188110352 2.908447027206
1.362877011299 -66.629241943359 -226.672119140625 2.570980548859
3.870659112930 -65.633712768555 -230.118927001953 1.671384215355
-111.198493957520 -67.351310729980 -233.211166381836 1.761388659477
-0.890311002731 -67.026351928711 -229.749160766602 1.732024192810
-116.604888916016 -64.553161621094 -235.138427734375 2.422781944275
-6.933289051056 -64.865783691406 -234.117874145508 2.047951698303
-1.959208011627 -65.904548645020 -234.823974609375 2.003555297852
-0.409639000893 -66.833618164063 -236.841506958008 1.431669831276
71.704864501953 -65.302101135254 -235.819992065430 2.610179424286
-10.972434043884 -69.044387817383 -237.624893188477 1.482268810272
6.208695888519 -67.166137695313 -237.973770141602 1.827120780945
11.650593757629 -65.899314880371 -239.868194580078 1.731163382530
6.227746963501 -66.782150268555 -238.862625122070 1.299842357635
2.113496065140 -67.585212707520 -240.723037719727 1.598023176193
65.434852600098 -64.455551147461 -237.443542480469 2.785810470581
69.651969909668 -65.556816101074 -239.480590820313 3.406890153885
10.093186378479 -66.830657958984 -245.713958740234 2.219427108765
56.112785339355 -67.106101989746 -241.593200683594 1.778483152390
56.395046234131 -69.376846313477 -240.533660888672 1.147587776184
47.673152923584 -64.885292053223 -247.914764404297 1.661884427071
41.299270629883 -65.851707458496 -250.754867553711 1.693065404892
41.342792510986 -65.888198852539 -254.619064331055 1.267604589462
-132.359680175781 -64.096649169922 -257.316223144531 1.398705720901
-10.705986022949 -66.454635620117 -251.533813476563 1.413159251213
27.690151214600 -66.259933471680 -258.160064697266 2.007852554321
46.560100555420 -66.415870666504 -249.336227416992 1.073431253433
26.724184036255 -68.214897155762 -254.417434692383 3.050134420395
-101.483375549316 -66.847236633301 -258.758697509766 0.987469434738
32.673099517822 -66.994346618652 -256.171081542969 0.868072032928
-147.783782958984 -67.565849304199 -261.150939941406 1.647093892097
-115.595718383789 -66.445838928223 -258.044403076172 1.158096790314
-106.906288146973 -65.782730102539 -258.083038330078 0.322792142630
-4.075408935547 -67.363861083984 -259.150177001953 2.690865993500
-148.810501098633 -67.133239746094 -258.345855712891 1.336912393570
34.796264648438 -65.903892517090 -260.810455322266 1.633386492729
-110.291809082031 -65.074928283691 -257.888641357422 2.253582477570
27.073722839355 -68.353912353516 -259.330810546875 1.112652301788
-134.514282226563 -66.326911926270 -262.298614501953 1.536071896553
-115.759956359863 -64.944305419922 -263.177764892578 1.823562502861
-107.965446472168 -65.279602050781 -261.117645263672 1.632826089859
-115.088172912598 -67.813568115234 -262.392730712891 1.671690225601
-138.335845947266 -66.842407226563 -260.403198242188 2.461749315262
29.157056808472 -66.755271911621 -260.761810302734 1.473619341850
-117.057426452637 -65.274826049805 -264.032775878906 1.485138297081
-143.473892211914 -67.300201416016 -264.316131591797 1.850884556770
-4.516726016998 -64.961647033691 -270.876678466797 2.438956260681
-150.700164794922 -67.720207214355 -282.707427978516 1.820273160934
-7.316956043243 -66.479682922363 -284.454254150391 2.476067781448
-4.601002216339 -64.329406738281 -283.935852050781 1.988421320915
-133.636611938477 -65.732551574707 -287.415283203125 1.248965024948
-125.725410461426 -65.977790832520 -290.054168701172 0.862174332142
-135.095825195313 -66.095237731934 -294.093872070313 3.869947910309
-125.796615600586 -65.705947875977 -293.717895507813 2.619882822037
-153.507217407227 -66.564498901367 -295.503570556641 1.839636445045
-154.328842163086 -65.674240112305 -301.328216552734 1.964644074440
-146.785125732422 -67.858100891113 -301.457946777344 2.431850910187
-149.395355224609 -65.386886596680 -303.304046630859 1.449851989746
-144.480636596680 -65.832176208496 -300.691802978516 3.290658473969
-147.958084106445 -64.669647216797 -303.939788818359 2.388506412506
-145.904891967773 -64.080482482910 -314.606109619141 4.298511028290
19.429924011230 -72.086700439453 -28.397747039795 0.911382198334
48.457904815674 -71.704162597656 -35.228740692139 1.896020889282
26.014402389526 -73.669929504395 -38.438922882080 2.869154691696
32.684215545654 -70.808357238770 -41.583683013916 2.049051284790
-43.182216644287 -64.864295959473 -47.635681152344 1.223189711571
-77.740699768066 -67.463005065918 -51.132312774658 3.396515130997
80.536575317383 -67.262863159180 -61.189331054688 1.636296153069
75.105186462402 -68.726097106934 -62.368427276611 1.495098590851
70.970199584961 -69.200782775879 -66.874519348145 1.492965817451
-98.329963684082 -67.450813293457 -73.910781860352 3.340930461884
99.834678649902 -70.488670349121 -75.553886413574 1.775522828102
-31.972684860229 -67.946403503418 -81.117469787598 3.069412231445
64.064819335938 -67.335083007813 -77.104454040527 2.567694902420
-43.816944122314 -65.578330993652 -82.145294189453 0.792257428169
-52.703746795654 -65.571075439453 -83.647247314453 2.063606739044
50.401458740234 -69.414215087891 -90.259132385254 2.004123210907
102.325569152832 -68.623519897461 -89.868835449219 1.332175731659
64.793334960938 -65.983726501465 -94.183853149414 1.733596444130
57.232902526855 -66.764785766602 -93.610557556152 1.724540352821
49.198825836182 -66.315452575684 -100.820503234863 2.279290914536
56.942657470703 -65.101737976074 -99.048431396484 0.494300872087
103.535675048828 -66.428215026855 -97.511558532715 1.494617342949
70.383987426758 -67.202178955078 -105.027496337891 2.053577661514
49.133064270020 -67.259376525879 -105.390777587891 1.556193232536
77.254089355469 -71.033050537109 -106.276367187500 2.070083379745
93.738090515137 -65.120582580566 -107.686492919922 0.886836171150
-75.916007995605 -66.205749511719 -103.617851257324 2.248178243637
-86.851860046387 -68.084693908691 -110.706764221191 0.577856540680
-82.265983581543 -68.081626892090 -113.636390686035 1.855142831802
-59.778976440430 -65.773979187012 -118.779716491699 1.545513033867
-56.938125610352 -69.877044677734 -126.050033569336 1.378790259361
-94.419036865234 -66.810043334961 -122.425483703613 1.441786408424
-75.699142456055 -67.497039794922 -120.167381286621 2.158719062805
-76.356201171875 -69.652458190918 -132.360961914063 1.378666043282
-60.949146270752 -65.703178405762 -129.005126953125 0.488881319761
-88.733489990234 -64.056694030762 -130.674728393555 1.751058459282
-89.588287353516 -66.738357543945 -130.058258056641 1.181173563004
-47.773559570313 -70.473716735840 -135.755645751953 1.227363228798
-51.735977172852 -66.828742980957 -136.376617431641 0.959292590618
-76.820785522461 -67.151741027832 -138.980468750000 2.042641878128
-53.289794921875 -67.936309814453 -141.920806884766 1.098389387131
-74.650306701660 -68.319717407227 -143.413101196289 1.202471613884
22.365543365479 -65.330390930176 -138.219161987305 2.209496498108
-56.915931701660 -69.686164855957 -145.491333007813 1.641705393791
-54.303882598877 -64.712608337402 -145.460586547852 2.467333316803
9.620703697205 -68.966911315918 -155.019943237305 1.383272409439
16.560878753662 -65.464355468750 -151.187561035156 0.756415069103
-142.471176147461 -66.199157714844 -175.398315429688 1.254344820976
-110.117073059082 -66.146102905273 -178.898788452148 1.194907665253
-108.267875671387 -63.957263946533 -189.878433227539 2.251937150955
-151.782745361328 -67.259948730469 -193.018814086914 1.685181140900
-112.472450256348 -65.571319580078 -185.993469238281 1.407501339912
-152.028961181641 -63.441913604736 -196.669525146484 2.170203208923
-113.598129272461 -64.673233032227 -198.774780273438 1.530290603638
-149.362960815430 -64.445335388184 -200.609497070313 1.687569022179
-150.571487426758 -66.395805358887 -206.778884887695 0.796070098877
-151.872573852539 -68.486480712891 -210.274993896484 3.071979045868
-146.431701660156 -65.479797363281 -224.193054199219 1.702286720276
-150.358627319336 -67.961433410645 -225.384872436523 2.485668420792
-104.289573669434 -64.689300537109 -225.127853393555 1.882900238037
-102.440933227539 -65.582511901855 -223.994552612305 2.637986421585
-122.873092651367 -62.733283996582 -230.003158569336 2.456537008286
-108.031806945801 -64.895294189453 -227.042037963867 0.737158894539
-155.361145019531 -67.120666503906 -231.376068115234 1.375543951988
-2.076220989227 -65.795303344727 -226.862731933594 2.836410999298
-133.662994384766 -66.202247619629 -231.941040039063 0.981875002384
-152.616271972656 -67.224174499512 -235.685287475586 1.575596094131
-135.116455078125 -67.033554077148 -234.434844970703 1.211256742477
-11.046026229858 -65.854858398438 -237.293350219727 2.248489618301
9.483967781067 -66.488922119141 -242.298614501953 1.735837340355
63.586734771729 -63.679309844971 -240.677459716797 2.759519815445
19.211599349976 -67.887786865234 -247.908294677734 1.391628265381
57.796146392822 -65.630470275879 -244.164550781250 1.197910904884
42.401443481445 -66.734245300293 -249.278869628906 1.917362332344
57.802242279053 -64.880157470703 -250.589492797852 3.212450981140
-151.194458007813 -65.414833068848 -251.920730590820 2.550815105438
-150.091506958008 -68.615982055664 -254.940719604492 2.946452617645
42.968212127686 -64.947067260742 -256.758270263672 1.779711008072
31.132532119751 -65.315078735352 -256.372161865234 2.388203620911
47.993694305420 -64.818199157715 -251.741226196289 2.257541656494
-143.750717163086 -67.860412597656 -258.255615234375 1.415364027023
-134.809188842773 -64.032943725586 -256.453765869141 1.593423485756
-124.698631286621 -63.662967681885 -257.686645507813 2.435259580612
-133.710876464844 -65.978576660156 -256.812438964844 1.606146454811
-140.630325317383 -65.736106872559 -258.507080078125 3.060930252075
-123.309570312500 -64.856620788574 -259.783721923828 2.192076444626
-141.767547607422 -64.228813171387 -261.070465087891 0.953022897243
-124.875671386719 -66.314018249512 -260.997589111328 1.642931580544
-123.043922424316 -64.917617797852 -264.548034667969 2.011422872543
-125.828681945801 -65.989379882813 -265.097259521484 0.630977690220
-118.547798156738 -63.192600250244 -264.505798339844 2.948837041855
-4.540183067322 -66.028251647949 -265.644470214844 0.230021834373
27.858377456665 -64.605186462402 -262.355316162109 1.332970023155
-145.799896240234 -63.483047485352 -267.282867431641 2.169238328934
26.950645446777 -65.276329040527 -267.641113281250 2.383101701736
-3.357906103134 -62.913093566895 -273.109741210938 4.543313980103
17.600582122803 -70.010658264160 -283.708404541016 1.195756673813
-141.136230468750 -65.544883728027 -289.667083740234 1.670116305351
-125.123016357422 -65.264076232910 -288.039459228516 0.583520889282
-132.344909667969 -62.507251739502 -290.715789794922 3.583742141724
-156.956497192383 -61.846546173096 -292.098754882813 3.236639022827
-124.822349548340 -61.902076721191 -289.806854248047 3.652007102966
-117.337539672852 -63.194610595703 -289.948760986328 3.442569732666
-125.408088684082 -65.827453613281 -295.107238769531 3.503781080246
-149.142303466797 -66.912345886230 -295.422485351563 2.104463577271
27.376144409180 -72.180404663086 -12.928643226624 1.179899573326
32.506462097168 -72.567657470703 -17.007375717163 1.232261776924
38.026748657227 -70.615196228027 -18.878181457520 0.948375940323
48.178852081299 -63.807350158691 -23.436145782471 2.389077186584
26.307979583740 -73.083869934082 -27.728452682495 1.441826820374
21.065309524536 -71.966674804688 -34.933841705322 1.463234424591
-34.903915405273 -67.266342163086 -46.938186645508 2.393499851227
-83.365661621094 -68.125946044922 -53.147815704346 0.724998414516
-16.116827011108 -67.165405273438 -58.098827362061 2.033214569092
71.781669616699 -66.303543090820 -64.463897705078 1.704337954521
100.321502685547 -66.926033020020 -68.007446289063 1.342627525330
64.747611999512 -66.731460571289 -82.003860473633 2.160717487335
61.431858062744 -63.669731140137 -82.026512145996 2.046725988388
101.667114257813 -66.721290588379 -83.679962158203 0.583471834660
-63.862049102783 -64.729881286621 -90.443466186523 1.711408138275
-65.002845764160 -66.349464416504 -92.428459167480 1.904786944389
48.729106903076 -65.738853454590 -93.904296875000 0.949059784412
-66.805549621582 -66.869956970215 -96.224288940430 2.286773681641
