-149.586807250977 -84.566116333008 -232.611770629883 1.541777610779
-148.740814208984 -82.444351196289 -244.622436523438 2.815895557404
13.571684837341 -83.080291748047 -244.346694946289 2.069302320480
-1.678894042969 -82.089370727539 -250.926437377930 1.518703579903
-140.991119384766 -84.842918395996 -259.066802978516 0.140203073621
-5.580114841461 -83.004661560059 -267.062408447266 2.175922632217
11.005964279175 -82.662147521973 -267.180206298828 0.951327204704
-5.832464218140 -84.072288513184 -264.804840087891 2.019129037857
-147.172882080078 -83.239456176758 -271.210906982422 0.813701689243
-140.782546997070 -83.180740356445 -286.455444335938 3.008789777756
-142.913864135742 -81.531883239746 -290.195129394531 2.194377660751
-144.468673706055 -82.744125366211 -292.273956298828 0.730630338192
-151.843032836914 -83.278892517090 -300.507141113281 0.731164813042
-66.751319885254 -82.202972412109 -73.901527404785 1.113195061684
-62.774333953857 -83.334106445313 -73.573966979980 1.554234385490
-46.844844818115 -82.717903137207 -77.261924743652 1.225092530251
-34.348823547363 -82.300056457520 -77.849922180176 1.811001181602
-73.293121337891 -83.367332458496 -76.177085876465 3.003972053528
-49.778465270996 -85.136123657227 -85.889694213867 1.151704668999
-55.239482879639 -84.945785522461 -92.915382385254 1.499674916267
-65.779525756836 -84.844680786133 -102.259185791016 2.947811365128
-12.912554740906 -83.328567504883 -176.728866577148 1.634183406830
-17.524032592773 -83.514305114746 -183.660644531250 3.150082826614
-50.416404724121 -80.798080444336 -183.376144409180 1.242845177650
-147.062225341797 -82.245605468750 -192.368286132813 2.532221794128
-42.357723236084 -81.457969665527 -194.857666015625 2.152308940887
-148.123962402344 -82.173995971680 -196.593048095703 0.793777465820
-136.071670532227 -82.366050720215 -197.915023803711 1.594624876976
-35.559642791748 -85.249801635742 -197.995803833008 2.616214036942
-143.887863159180 -80.261367797852 -198.894653320313 1.803326606750
-141.199417114258 -79.148025512695 -203.683715820313 2.205089569092
-51.271404266357 -80.498413085938 -199.210235595703 1.252851247787
-149.959320068359 -82.082710266113 -200.117874145508 1.460020661354
-59.547317504883 -81.880592346191 -202.595703125000 0.350916266441
-148.015899658203 -81.863685607910 -203.302352905273 2.037896394730
-63.444458007813 -80.807121276855 -209.655319213867 1.545293092728
18.818508148193 -82.532554626465 -236.026412963867 3.207046985626
13.067220687866 -81.983711242676 -237.370758056641 1.322681188583
-147.908142089844 -81.242477416992 -234.816238403320 2.480746269226
19.294483184814 -84.771781921387 -246.651397705078 2.695108652115
16.331487655640 -82.453552246094 -246.448623657227 1.524803042412
10.674035072327 -84.319793701172 -253.670043945313 2.431553602219
13.823193550110 -81.821395874023 -253.639236450195 2.035221099854
-152.968460083008 -83.631225585938 -256.870819091797 2.242213249207
-134.563308715820 -80.246681213379 -259.285125732422 1.247721314430
15.803908348083 -81.766792297363 -264.085754394531 0.678340077400
-147.762466430664 -84.017410278320 -272.446472167969 1.824741005898
-145.985900878906 -83.232955932617 -275.912017822266 1.725572228432
5.282981872559 -81.224716186523 -275.080078125000 1.237628936768
-144.593933105469 -81.267166137695 -277.238220214844 2.681766986847
-138.464309692383 -83.779296875000 -287.779479980469 2.105689287186
-146.647811889648 -83.025024414063 -287.790740966797 2.066726207733
-149.835174560547 -83.745933532715 -289.157287597656 1.363537073135
-154.309051513672 -79.250335693359 -292.320800781250 1.467672109604
-134.192047119141 -82.013488769531 -292.980804443359 4.512873649597
-151.058822631836 -81.115257263184 -294.334136962891 2.112446308136
-57.026153564453 -80.116539001465 -68.192741394043 2.392906427383
-56.565578460693 -83.453842163086 -72.513710021973 2.136333703995
-42.289260864258 -82.886711120605 -73.395088195801 1.808317780495
-80.285079956055 -82.542320251465 -82.727249145508 1.187013864517
-38.546062469482 -84.098098754883 -81.058891296387 2.598473310471
-44.242084503174 -81.631797790527 -85.154060363770 1.670927286148
-83.294235229492 -86.092750549316 -103.404296875000 2.021818876266
-73.966110229492 -78.954521179199 -101.699028015137 0.817576169968
32.992511749268 -82.381523132324 -125.631187438965 3.185906887054
31.326461791992 -81.101135253906 -143.061630249023 2.259188175201
-11.910520553589 -81.765701293945 -180.148696899414 2.501185417175
-18.042552947998 -81.482749938965 -182.947982788086 2.681417226791
-26.393756866455 -82.919326782227 -182.451766967773 1.778455495834
-37.805915832520 -82.743354797363 -190.389343261719 1.772947430611
-52.220676422119 -81.340293884277 -188.624114990234 2.383403062820
-31.627771377563 -81.880134582520 -193.843170166016 2.421513557434
-142.200332641602 -78.791282653809 -188.156814575195 2.601970672607
-150.379196166992 -79.969886779785 -196.312591552734 1.808259248734
-152.196746826172 -80.439697265625 -200.728317260742 1.082572937012
-149.043487548828 -79.705757141113 -203.800430297852 1.719729304314
-69.268463134766 -83.735015869141 -209.412109375000 0.699542284012
-60.450599670410 -78.952804565430 -207.811035156250 1.648069739342
-147.762176513672 -81.469985961914 -213.158966064453 2.097691774368
-73.033432006836 -82.031356811523 -211.338012695313 0.360248386860
-71.029357910156 -82.514884948730 -212.871337890625 2.231777191162
-77.348876953125 -79.362808227539 -212.778549194336 1.463154911995
-142.132705688477 -81.018547058105 -226.961120605469 0.663815915585
-143.097457885742 -81.791938781738 -232.204696655273 1.359647989273
-149.795196533203 -82.392562866211 -250.091903686523 1.960513710976
15.678276062012 -80.048507690430 -246.290908813477 1.946619868279
8.992011070251 -80.212982177734 -248.531143188477 1.944115996361
-135.197097778320 -82.183502197266 -258.813385009766 1.336538434029
14.984897613525 -83.674308776855 -255.393814086914 1.163790345192
11.632826805115 -83.241348266602 -258.499847412109 2.891662597656
-149.826538085938 -83.039108276367 -264.689361572266 2.703980922699
-151.750350952148 -80.595787048340 -277.192138671875 1.188398003578
-2.073548078537 -81.517570495605 -273.467498779297 2.109179496765
11.076720237732 -81.615974426270 -278.112823486328 1.082845330238
-152.930282592773 -84.250358581543 -286.789337158203 1.398593783379
-143.305801391602 -83.166717529297 -281.876190185547 2.790025472641
-145.968963623047 -82.441848754883 -303.678070068359 2.791205883026
-45.914497375488 -83.051231384277 -71.496246337891 2.333262205124
-69.417961120605 -80.308891296387 -69.908866882324 1.181362271309
-42.436737060547 -82.396003723145 -69.446617126465 2.132796049118
-32.841117858887 -82.943267822266 -76.501464843750 1.205541372299
-74.394599914551 -80.020965576172 -70.128746032715 1.338497042656
-32.533340454102 -82.617179870605 -77.092201232910 1.549615383148
-46.878314971924 -77.789093017578 -85.285430908203 1.443364381790
-55.630332946777 -78.559097290039 -92.561927795410 0.817764341831
-63.394828796387 -85.375556945801 -93.943054199219 1.814434170723
-64.106536865234 -81.508430480957 -100.266227722168 1.870849609375
-89.377632141113 -81.451950073242 -108.871078491211 2.969741582870
42.813110351563 -80.808662414551 -117.961158752441 2.043283939362
38.069679260254 -83.745475769043 -123.384323120117 3.604327678680
-42.100540161133 -81.869056701660 -164.402038574219 2.212809562683
-40.159744262695 -80.710784912109 -161.572769165039 2.116804361343
-6.141331195831 -81.414497375488 -170.970520019531 0.839271605015
-61.485481262207 -82.668624877930 -169.590698242188 2.117644309998
-58.488513946533 -80.855865478516 -179.154708862305 3.269059896469
-57.381916046143 -80.792190551758 -174.408447265625 1.463286638260
-31.881824493408 -80.762336730957 -172.367675781250 2.072219133377
-53.996601104736 -80.673774719238 -181.262237548828 0.985689282417
-27.503507614136 -79.800880432129 -181.468002319336 1.775626659393
-146.394332885742 -80.201934814453 -186.376174926758 2.360247612000
-50.453125000000 -80.891036987305 -182.800216674805 1.490326404572
-43.395492553711 -80.220932006836 -194.323318481445 1.763075947762
-30.904426574707 -81.167411804199 -185.066864013672 1.910633921623
-33.370330810547 -81.389823913574 -189.107833862305 2.634133338928
-31.828681945801 -79.238494873047 -191.919677734375 1.100908756256
-23.626832962036 -81.608444213867 -188.419250488281 1.179971575737
-46.181194305420 -81.010650634766 -197.566787719727 1.156915307045
-144.033096313477 -77.697036743164 -194.892669677734 0.831484377384
-39.249904632568 -77.957923889160 -195.274520874023 2.075228452682
-39.200813293457 -79.925613403320 -200.045944213867 1.787922739983
-41.279056549072 -81.868377685547 -200.997085571289 0.786024689674
-44.694225311279 -78.717201232910 -199.770187377930 1.662120580673
-132.885879516602 -79.585388183594 -198.689376831055 1.913696527481
-135.640594482422 -79.439147949219 -201.719192504883 2.559434652328
-47.591838836670 -81.042457580566 -203.403640747070 1.529867529869
-59.378566741943 -82.432365417480 -204.169479370117 0.649698376656
-38.741775512695 -80.822708129883 -204.347030639648 1.233624696732
-143.189682006836 -80.861740112305 -206.044677734375 0.746007025242
-68.562500000000 -77.512039184570 -207.545028686523 2.167200565338
-34.774356842041 -82.003280639648 -208.074157714844 2.564306974411
15.149238586426 -81.126998901367 -205.378341674805 1.955179333687
-73.061477661133 -80.915283203125 -213.921112060547 1.853093266487
-29.473564147949 -79.009353637695 -213.684448242188 1.153471589088
12.680378913879 -80.454170227051 -217.943817138672 2.254015684128
-150.945343017578 -80.105583190918 -218.682464599609 2.207331657410
10.227276802063 -80.745307922363 -227.022232055664 1.791203141212
13.968627929688 -81.356002807617 -222.842086791992 2.616451740265
16.998985290527 -79.641021728516 -226.839447021484 1.627802014351
-135.809310913086 -82.292396545410 -227.620361328125 1.749172449112
-144.969406127930 -78.700241088867 -230.111663818359 1.898282527924
11.164279937744 -81.702987670898 -236.969436645508 1.437249898911
17.290494918823 -79.144950866699 -236.875946044922 2.270205020905
14.060530662537 -80.248291015625 -236.360626220703 1.723082304001
-149.180191040039 -81.473327636719 -241.758590698242 1.472391009331
-144.868728637695 -84.657821655273 -240.438034057617 1.823832511902
14.156720161438 -81.013610839844 -237.062271118164 1.436481595039
-37.145606994629 -79.798721313477 -244.263809204102 2.310698509216
18.842538833618 -80.372589111328 -247.482589721680 0.670259594917
-41.174636840820 -80.659820556641 -243.693283081055 1.327768325806
-144.680786132813 -82.239318847656 -256.219696044922 1.876796960831
16.938589096069 -81.037574768066 -252.562622070313 1.996110439301
-143.129974365234 -81.540763854980 -257.101318359375 1.135678291321
-151.484512329102 -80.928543090820 -256.589874267578 1.336780071259
17.068094253540 -79.385032653809 -256.277923583984 2.795575618744
-8.140122413635 -77.725547790527 -252.587295532227 1.611207008362
-7.586421012878 -80.730285644531 -262.064910888672 1.858415246010
-145.031799316406 -82.747169494629 -259.883270263672 1.083849549294
-154.707412719727 -75.930305480957 -261.893585205078 1.744404196739
-144.524230957031 -81.971160888672 -264.584197998047 1.592893004417
-150.263778686523 -76.877388000488 -268.055816650391 2.836422443390
-148.963836669922 -81.455734252930 -270.621612548828 1.997259497643
-7.890748023987 -80.919181823730 -268.115447998047 2.628325223923
-3.325396060944 -80.684280395508 -272.555419921875 0.573167920113
14.059688568115 -81.602203369141 -268.146697998047 1.159379124641
7.391184806824 -80.492935180664 -279.178680419922 2.285010337830
5.404349803925 -79.131057739258 -282.920837402344 0.913218855858
-137.054290771484 -76.573532104492 -291.586212158203 1.827819108963
-143.784942626953 -79.342437744141 -292.949157714844 1.969514369965
-61.001037597656 -80.125137329102 -64.948677062988 1.857672572136
-43.364212036133 -79.364784240723 -64.468780517578 0.977036178112
-49.526599884033 -78.538299560547 -66.341911315918 1.571093559265
-46.418533325195 -78.740135192871 -65.294647216797 1.850401401520
-68.257926940918 -81.945434570313 -66.184188842773 2.763242959976
-78.440063476563 -79.295867919922 -72.832504272461 1.542397022247
-34.807052612305 -79.819114685059 -79.003364562988 1.715725064278
-41.062732696533 -81.641662597656 -85.727195739746 2.391088247299
-48.766864776611 -82.965293884277 -88.181068420410 2.688491344452
-86.274139404297 -79.048744201660 -87.937576293945 3.220137834549
-76.114036560059 -81.925781250000 -106.106750488281 3.085052490234
43.255859375000 -80.381278991699 -108.278923034668 1.946029782295
-85.306083679199 -79.830863952637 -110.244979858398 1.803523659706
41.591926574707 -81.715866088867 -118.944641113281 1.954586505890
40.703876495361 -80.190940856934 -125.029411315918 0.424001067877
34.475139617920 -80.133560180664 -120.756973266602 1.431975245476
30.909799575806 -82.034309387207 -126.022201538086 4.839387893677
33.621219635010 -80.211669921875 -135.445968627930 1.967059493065
24.905406951904 -78.436309814453 -145.142333984375 1.358351588249
-47.116989135742 -81.189971923828 -153.764190673828 1.739464521408
31.661617279053 -80.513137817383 -145.216644287109 0.783052802086
24.816078186035 -81.554290771484 -157.672286987305 3.653548240662
-44.061332702637 -80.939521789551 -153.852294921875 1.880135536194
27.766185760498 -80.741279602051 -155.539581298828 0.672257542610
-45.898239135742 -77.642448425293 -162.560638427734 2.288132190704
25.870203018188 -80.420547485352 -166.289459228516 1.901674747467
-59.699565887451 -80.289833068848 -170.114059448242 1.450461149216
-6.533820152283 -82.406333923340 -173.772033691406 2.445548057556
-34.360256195068 -79.695991516113 -173.623870849609 1.142261862755
-13.121838569641 -81.796600341797 -174.221649169922 1.562507748604
-55.609642028809 -79.685684204102 -175.479919433594 1.557747960091
22.943584442139 -81.228454589844 -172.731445312500 2.255499362946
-13.994274139404 -79.392677307129 -182.404754638672 1.587665081024
-22.776552200317 -77.773239135742 -186.575210571289 1.481038331985
-53.485080718994 -77.986473083496 -185.093414306641 1.751422762871
-28.936668395996 -80.428001403809 -185.671539306641 1.132729649544
18.885084152222 -80.719940185547 -189.584152221680 0.871490359306
-148.890106201172 -80.693725585938 -188.855880737305 1.353821516037
-27.934782028198 -80.124961853027 -189.316268920898 1.196393489838
-47.823963165283 -77.906410217285 -190.264312744141 0.572613835335
-150.089370727539 -81.962982177734 -194.243377685547 1.434060454369
-142.020217895508 -80.685371398926 -197.727340698242 2.383172750473
-22.688949584961 -79.866813659668 -197.101364135742 2.197210550308
-20.205427169800 -80.133209228516 -196.067581176758 1.076463103294
-45.684951782227 -79.062767028809 -196.755401611328 1.227411746979
-20.911043167114 -80.103439331055 -197.560043334961 2.509126424789
-48.308494567871 -79.475250244141 -200.929092407227 1.831666707993
-45.023788452148 -79.483993530273 -199.514709472656 1.745082974434
-55.095714569092 -80.162017822266 -201.998428344727 1.884678483009
-18.858335494995 -77.389251708984 -206.033340454102 2.155973672867
-147.423202514648 -80.303947448730 -213.587707519531 2.351584434509
-58.942848205566 -77.771301269531 -207.864761352539 1.312623977661
-56.673137664795 -77.930564880371 -208.018218994141 1.770715951920
-31.918231964111 -76.442306518555 -206.431350708008 1.231800675392
-14.094838142395 -78.359634399414 -205.743682861328 1.095538258553
-36.383773803711 -78.770179748535 -207.936614990234 1.375628113747
-78.946594238281 -79.232711791992 -211.046142578125 0.717864334583
-144.009094238281 -82.449333190918 -211.218109130859 1.434381127357
-32.225975036621 -80.461341857910 -207.956390380859 2.343905925751
8.786689758301 -81.004623413086 -209.617630004883 3.534273624420
-64.103065490723 -80.690010070801 -211.439041137695 1.638525962830
-67.189292907715 -79.620742797852 -213.898300170898 1.316019296646
-25.382122039795 -77.526016235352 -215.123718261719 0.321525543928
-10.384444236755 -82.585563659668 -211.826751708984 3.244508981705
-25.073690414429 -79.793182373047 -218.918441772461 1.959025621414
17.349788665771 -79.618873596191 -216.717010498047 2.009420871735
-150.095657348633 -78.077026367188 -223.091018676758 1.292537212372
-9.760329246521 -82.214790344238 -219.100219726563 2.066670179367
-154.253524780273 -80.896217346191 -228.310104370117 1.435034275055
8.904903411865 -80.735389709473 -229.878723144531 1.395125985146
13.400219917297 -77.944625854492 -227.382690429688 1.703358292580
-2.903898000717 -79.818969726563 -223.368255615234 1.379862189293
17.334533691406 -79.577041625977 -227.575241088867 1.913328409195
-136.301879882813 -81.983306884766 -233.213302612305 2.142653703690
11.136959075928 -79.521530151367 -226.069946289063 1.429739475250
-152.858627319336 -78.743339538574 -230.923904418945 1.047363281250
-144.793579101563 -80.767677307129 -234.543609619141 1.383851408958
-1.538205981255 -80.494400024414 -222.410385131836 1.713535070419
19.412248611450 -80.672714233398 -234.527389526367 3.226765632629
-31.071208953857 -78.163734436035 -239.742492675781 2.395270586014
-144.794967651367 -77.854469299316 -240.959533691406 2.422572135925
-37.852794647217 -78.921844482422 -242.782226562500 1.048472404480
-45.248695373535 -78.433303833008 -242.122283935547 2.296258926392
-31.029232025146 -78.423004150391 -241.332672119141 1.924560189247
20.454782485962 -80.264434814453 -242.668426513672 1.529206037521
-48.801185607910 -76.753036499023 -245.540679931641 2.040976524353
14.874657630920 -80.196769714355 -246.079666137695 1.817247986794
10.832066535950 -78.414474487305 -240.933547973633 1.046822547913
10.804454803467 -81.284263610840 -247.839035034180 1.927801609039
-42.014392852783 -80.326438903809 -246.536682128906 2.098379611969
23.322927474976 -81.045326232910 -247.258255004883 2.663686990738
-143.904663085938 -78.235725402832 -248.978317260742 1.107597231865
21.066953659058 -78.154006958008 -248.835754394531 1.385583400726
1.663702964783 -82.655227661133 -250.358123779297 2.414303779602
11.599935531616 -79.427200317383 -246.219100952148 0.964385509491
-150.204666137695 -75.723312377930 -254.493728637695 2.672057151794
-146.884506225586 -82.025886535645 -260.637298583984 0.959753692150
-141.749099731445 -78.921211242676 -260.709869384766 2.007963180542
-152.265579223633 -78.046516418457 -262.806854248047 2.740824937820
18.004529953003 -77.054382324219 -266.007263183594 3.068454980850
-151.832656860352 -76.136566162109 -272.003692626953 1.296774983406
-4.980745792389 -79.596069335938 -275.170318603516 0.959555447102
-149.585006713867 -78.228729248047 -273.425750732422 1.240185499191
-144.572341918945 -77.278747558594 -279.400512695313 3.219416379929
-151.642807006836 -76.414916992188 -277.496978759766 1.660790324211
-153.896865844727 -79.154586791992 -286.459991455078 1.284745097160
-132.898300170898 -79.336784362793 -289.367950439453 2.302875518799
-150.954086303711 -79.103942871094 -289.346679687500 1.337185144424
-146.277359008789 -81.875518798828 -291.273742675781 1.696537375450
-145.951187133789 -79.070846557617 -293.743225097656 1.721004366875
-151.723526000977 -78.990928649902 -296.336914062500 0.920700073242
-145.859649658203 -76.229965209961 -294.953460693359 1.246943950653
-151.585006713867 -78.053092956543 -301.369079589844 1.457673072815
-146.174148559570 -78.918930053711 -302.606903076172 1.578032135963
-148.085433959961 -76.382369995117 -304.292327880859 2.916309356689
-56.445678710938 -75.985397338867 -60.647113800049 2.417457103729
-63.163864135742 -79.005050659180 -62.936973571777 3.296691894531
-48.066387176514 -79.234405517578 -61.953109741211 1.931333065033
-27.265974044800 -80.340255737305 -73.925956726074 1.762042760849
-52.367275238037 -81.656959533691 -91.001739501953 0.853877127171
-87.559371948242 -84.118103027344 -100.688117980957 3.758396148682
45.794406890869 -80.570587158203 -106.211143493652 2.643307685852
-78.037757873535 -82.242424011230 -104.610824584961 1.366649866104
41.374851226807 -81.843612670898 -113.460594177246 2.246598958969
39.795711517334 -79.982803344727 -120.404159545898 1.006995797157
39.276569366455 -80.244285583496 -125.200607299805 1.056067347527
37.398784637451 -79.767265319824 -134.867279052734 2.013297319412
31.728557586670 -79.274948120117 -135.319900512695 2.425265073776
33.986644744873 -82.680892944336 -136.103256225586 2.965887069702
30.456121444702 -78.531875610352 -149.860992431641 1.169725060463
-44.566051483154 -77.600509643555 -149.680801391602 1.313913583755
28.410610198975 -81.368545532227 -141.108688354492 1.691267848015
-66.501724243164 -76.390182495117 -154.325912475586 1.161311745644
-38.411609649658 -80.801551818848 -155.108673095703 1.676372170448
-62.170047760010 -80.031486511230 -164.834732055664 0.903959333897
-40.507934570313 -79.515663146973 -159.165161132813 2.471359014511
30.375791549683 -79.514152526855 -156.451461791992 1.479710578918
-35.312805175781 -82.212165832520 -161.990219116211 2.672685861588
-2.955828905106 -80.575515747070 -171.082229614258 1.975827693939
31.929033279419 -77.506843566895 -162.218994140625 1.460619688034
-8.921784400940 -79.775527954102 -169.976516723633 1.118370175362
-59.806747436523 -78.961975097656 -164.538177490234 1.484669685364
-35.505554199219 -77.395584106445 -169.695693969727 1.216506719589
-29.904331207275 -77.740074157715 -173.052581787109 2.513353824615
25.179567337036 -80.358047485352 -175.304519653320 2.524743318558
-54.228847503662 -79.121315002441 -177.797973632813 2.293297052383
-29.953845977783 -77.098022460938 -175.980575561523 2.326922893524
22.933927536011 -79.486770629883 -181.837753295898 2.332879304886
-50.169223785400 -79.111595153809 -185.561538696289 1.406590580940
-25.368970870972 -76.440063476563 -184.334762573242 2.700843095779
-53.342590332031 -77.434814453125 -184.160415649414 1.269440054893
-40.503696441650 -79.030029296875 -194.939849853516 1.578137397766
-29.326896667480 -78.105445861816 -188.959060668945 0.822771549225
-42.505439758301 -79.384971618652 -196.638885498047 0.986946105957
-23.228532791138 -78.618705749512 -191.595214843750 0.958383381367
-135.854629516602 -80.049781799316 -198.022659301758 1.881697773933
18.969236373901 -79.276016235352 -199.454437255859 2.088946819305
-133.199142456055 -76.053543090820 -199.818038940430 2.158637762070
-21.551191329956 -77.129814147949 -196.417404174805 1.502716898918
-19.243459701538 -77.194786071777 -197.269683837891 0.864183187485
-40.905227661133 -78.955223083496 -196.587371826172 2.352985382080
15.418306350708 -78.167984008789 -194.355773925781 1.869407415390
-15.412775993347 -80.059082031250 -198.487457275391 1.874395132065
-58.920764923096 -79.419502258301 -205.310287475586 1.747771620750
-34.698017120361 -78.563331604004 -205.031372070313 0.777784228325
-64.238548278809 -76.588714599609 -207.821472167969 1.187127113342
-68.595436096191 -76.422569274902 -210.790206909180 2.044164180756
17.468536376953 -78.199653625488 -209.137252807617 2.486602544785
-84.572944641113 -77.860260009766 -214.032958984375 1.813017606735
-28.902475357056 -78.623718261719 -215.997970581055 1.648343205452
-79.354782104492 -79.125076293945 -213.765502929688 1.571506738663
-146.121307373047 -80.551567077637 -217.076141357422 1.692477941513
-7.183196067810 -78.345405578613 -215.951248168945 1.785925388336
-9.476200103760 -78.160324096680 -218.069732666016 1.810379981995
13.039526939392 -79.052322387695 -216.164321899414 1.570344805717
13.566954612732 -76.534545898438 -222.847137451172 2.776172399521
-1.750475049019 -79.488334655762 -230.228210449219 2.096886157990
-136.757232666016 -76.546989440918 -225.731674194336 1.690744757652
-148.269058227539 -81.707077026367 -233.194900512695 2.235797882080
-149.219390869141 -76.787750244141 -232.732482910156 1.878518223763
7.017533779144 -79.501228332520 -234.976440429688 1.795936703682
2.074727058411 -78.197311401367 -236.238296508789 1.402964591980
-23.102539062500 -80.438179016113 -241.100311279297 1.948794603348
-149.875915527344 -76.235870361328 -240.738632202148 1.561682701111
11.374146461487 -79.056678771973 -244.679306030273 1.502466797829
-23.025310516357 -76.073280334473 -242.351470947266 1.173290014267
19.319084167480 -77.823410034180 -238.180374145508 1.522560238838
-53.664916992188 -77.548477172852 -244.580215454102 0.730315923691
-50.155555725098 -78.189788818359 -248.407363891602 2.616930484772
-145.675369262695 -82.433540344238 -247.066421508789 0.506843924522
-62.605236053467 -77.759407043457 -248.002670288086 1.473621845245
-3.035785913467 -77.002540588379 -246.926071166992 1.848211884499
-9.522398948669 -77.770149230957 -257.034820556641 2.198365926743
-147.006057739258 -81.856925964355 -258.522430419922 1.385298252106
-133.060424804688 -77.004470825195 -258.270019531250 1.725467205048
-135.379165649414 -76.041259765625 -260.822998046875 0.914280772209
19.366050720215 -78.278289794922 -260.596557617188 1.505979299545
-145.047424316406 -78.668792724609 -272.364227294922 2.310614585876
18.376302719116 -79.575759887695 -268.756683349609 0.373224347830
-146.903091430664 -76.406333923340 -273.967132568359 2.613973617554
3.046324014664 -80.840332031250 -277.893493652344 1.726381301880
-143.812194824219 -78.483680725098 -283.372619628906 0.781471371651
3.216119050980 -79.139122009277 -283.740966796875 0.961502492428
-151.266250610352 -76.996902465820 -283.935943603516 1.916483163834
-142.245346069336 -76.055610656738 -286.085510253906 0.850335597992
-136.725677490234 -78.614997863770 -287.416107177734 2.090291976929
-148.159896850586 -82.275779724121 -292.944702148438 2.074300765991
-18.950038909912 -76.727066040039 -290.141174316406 1.707051992416
-152.477188110352 -77.950660705566 -293.101318359375 1.795835375786
-148.313354492188 -78.376068115234 -296.126678466797 1.078964829445
-149.111953735352 -76.484588623047 -310.929687500000 2.620739936829
-57.221279144287 -77.530204772949 -57.903675079346 1.770390391350
-39.473400115967 -80.481109619141 -62.425315856934 3.045305490494
-76.458099365234 -79.530929565430 -65.926422119141 2.557330369949
-28.744777679443 -77.906021118164 -68.291358947754 2.133335590363
-25.946170806885 -79.451675415039 -72.729408264160 2.823483705521
-85.415580749512 -79.868423461914 -81.492439270020 2.983124256134
87.227058410645 -80.233032226563 -84.627441406250 3.289097309113
-36.617504119873 -77.848442077637 -84.086067199707 2.771098852158
81.718193054199 -81.215713500977 -85.463973999023 3.341346263885
77.020668029785 -79.195167541504 -87.745208740234 3.053337574005
85.100540161133 -79.300529479980 -88.558944702148 1.742666363716
82.544380187988 -78.635391235352 -91.431304931641 2.337665319443
91.168601989746 -78.868682861328 -92.405570983887 2.021756649017
-91.694908142090 -75.908126831055 -95.552558898926 2.797580718994
52.952720642090 -79.262138366699 -105.320785522461 1.110322356224
-92.408767700195 -73.167297363281 -114.600288391113 2.727480888367
43.381252288818 -80.171859741211 -110.299781799316 1.526435256004
49.252944946289 -78.861549377441 -113.317344665527 2.850438117981
41.642822265625 -79.119102478027 -115.274574279785 1.101017832756
32.037517547607 -78.960388183594 -134.676940917969 1.712350845337
26.677310943604 -78.762130737305 -140.259414672852 1.895299196243
23.074497222900 -74.017082214355 -144.425933837891 0.925135433674
32.806934356689 -77.212265014648 -144.203567504883 1.720618844032
-47.896373748779 -79.445587158203 -154.067382812500 0.690180301666
-46.676815032959 -78.551612854004 -151.449630737305 1.520412087440
-41.166294097900 -77.737190246582 -156.127761840820 1.803786396980
25.872804641724 -77.931144714355 -151.745071411133 1.987252354622
26.480445861816 -77.955261230469 -167.637298583984 1.362864136696
-33.663272857666 -76.602859497070 -167.381729125977 0.952781260014
-34.751098632813 -76.328163146973 -160.146255493164 0.923335075378
-45.155273437500 -78.908523559570 -158.156326293945 2.029928207397
2.972389936447 -77.116096496582 -164.045196533203 2.104539394379
24.137506484985 -79.272476196289 -154.025466918945 1.208389282227
32.148513793945 -76.948516845703 -160.840240478516 1.923483371735
28.174537658691 -77.186454772949 -169.061080932617 2.512025833130
-8.614183425903 -77.880737304688 -171.323944091797 2.509751081467
-1.594023942947 -77.925064086914 -169.931823730469 0.198250189424
-56.999198913574 -77.458488464355 -169.030441284180 1.151986718178
-60.279293060303 -77.372917175293 -170.158599853516 0.968494892120
-40.793937683105 -78.874061584473 -170.802062988281 1.087323307991
-38.476829528809 -77.197288513184 -167.677917480469 1.026266574860
23.153247833252 -76.345626831055 -173.037399291992 2.439077138901
-20.668487548828 -80.752166748047 -177.886734008789 2.243463754654
-32.370464324951 -77.221237182617 -180.607284545898 2.186078310013
-60.415042877197 -79.210212707520 -179.258087158203 1.615715742111
103.139617919922 -79.012390136719 -181.375823974609 2.214696884155
21.091554641724 -80.121757507324 -172.730056762695 2.003113031387
-26.081872940063 -77.829299926758 -180.331741333008 1.168797135353
-49.756908416748 -77.030952453613 -180.793289184570 1.911943674088
-18.777482986450 -76.297195434570 -180.187713623047 2.031477451324
110.724449157715 -78.663986206055 -178.877655029297 2.178420543671
-51.278827667236 -79.245857238770 -183.173309326172 1.362187147141
15.878140449524 -79.031860351563 -186.772705078125 2.073811769485
23.100845336914 -78.101623535156 -179.643493652344 2.645986318588
-55.502883911133 -79.596481323242 -179.242370605469 2.395164251328
-22.757503509521 -77.185997009277 -182.173995971680 1.103585243225
-55.458129882813 -78.802345275879 -176.549911499023 2.014835596085
-35.176494598389 -77.184921264648 -180.519363403320 3.418326377869
-28.252332687378 -77.608459472656 -187.149673461914 1.443956494331
22.108480453491 -78.324508666992 -187.526687622070 1.079113364220
-49.585411071777 -77.977935791016 -187.889053344727 1.262593746185
104.754661560059 -78.135490417480 -189.577041625977 0.657710552216
-51.254920959473 -75.572097778320 -190.219573974609 1.310233712196
10.086098670959 -77.789611816406 -201.394317626953 1.431990027428
20.397319793701 -77.582656860352 -199.516311645508 1.712470293045
-47.611198425293 -76.966514587402 -191.104858398438 1.033812642097
-19.210252761841 -78.235122680664 -189.963562011719 1.972978949547
102.526397705078 -78.065383911133 -195.226562500000 1.286561965942
100.006210327148 -79.919418334961 -195.902175903320 3.645076751709
-47.194702148438 -76.944015502930 -189.045593261719 1.505346536636
-147.535400390625 -81.311157226563 -198.842895507813 1.183491826057
-45.282215118408 -77.518981933594 -198.137222290039 1.596606254578
-144.715637207031 -78.460700988770 -198.975845336914 0.427009254694
-135.724884033203 -74.937278747559 -200.978881835938 0.470896601677
-43.801254272461 -78.318634033203 -197.929779052734 1.316976189613
11.480575561523 -78.476638793945 -208.307098388672 1.620830297470
-16.054626464844 -76.598754882813 -204.517654418945 0.841653168201
16.190013885498 -76.681983947754 -202.051849365234 1.517147660255
92.679862976074 -79.433769226074 -209.937805175781 2.996261119843
-36.234783172607 -76.705978393555 -201.600219726563 1.571419715881
-11.013418197632 -77.466842651367 -206.717330932617 1.556677460670
-12.542343139648 -76.744041442871 -211.989990234375 2.194080352783
-36.342277526855 -77.517936706543 -207.086242675781 0.680186510086
9.858280181885 -77.258460998535 -205.803268432617 1.235676169395
-76.205200195313 -76.205589294434 -210.495117187500 1.276582360268
16.051723480225 -78.010314941406 -213.226333618164 1.693388581276
-34.853412628174 -77.026817321777 -206.851119995117 1.300680875778
-144.242980957031 -78.192359924316 -209.804885864258 1.700139522552
-143.674774169922 -73.753822326660 -211.974746704102 2.217310905457
-86.481796264648 -77.283287048340 -213.530838012695 0.451867163181
-34.846111297607 -75.986175537109 -210.863906860352 3.098686218262
-20.467014312744 -79.938087463379 -213.024917602539 4.177128791809
-30.203821182251 -77.749046325684 -210.427444458008 1.044180274010
-91.080764770508 -77.209770202637 -217.453643798828 1.611580610275
-87.422477722168 -77.584548950195 -215.788238525391 1.501357436180
8.820879936218 -79.723388671875 -220.774398803711 1.780147552490
-149.506530761719 -74.416091918945 -215.875335693359 0.611325263977
-12.596179008484 -79.022254943848 -213.380126953125 0.738128542900
9.041785240173 -81.111358642578 -218.253417968750 1.247486591339
-144.268997192383 -75.969581604004 -219.304138183594 3.297561168671
-20.558731079102 -78.529098510742 -218.573715209961 1.354408860207
-1.336732983589 -76.358612060547 -221.432891845703 0.911213099957
-4.594057083130 -78.663154602051 -219.196517944336 1.771363496780
-151.985687255859 -75.246170043945 -224.836471557617 2.471088409424
-137.769439697266 -72.658088684082 -227.173324584961 3.345766782761
-5.414257049561 -77.799263000488 -223.517013549805 1.838200926781
-148.429794311523 -81.218101501465 -228.498321533203 0.878067672253
2.016503095627 -75.311012268066 -230.314300537109 1.270110368729
17.517576217651 -77.498313903809 -233.566619873047 0.766353189945
-0.436271995306 -78.130363464355 -232.195617675781 3.159854888916
0.700583994389 -74.737434387207 -235.121627807617 2.476835250854
8.245863914490 -77.754859924316 -231.884506225586 2.056179285049
-150.610275268555 -76.714363098145 -237.486846923828 1.928444981575
-19.006172180176 -76.143386840820 -236.739471435547 3.098736524582
-34.356292724609 -78.476470947266 -239.363052368164 1.727184653282
5.012715816498 -76.012741088867 -232.987747192383 1.103468775749
1.289180040359 -79.416786193848 -239.180480957031 1.903133511543
3.751308917999 -77.196334838867 -234.550048828125 2.055904150009
-54.880424499512 -76.060997009277 -242.964126586914 0.667592227459
-148.459884643555 -74.941886901855 -247.727081298828 2.764004230499
-151.292510986328 -77.179244995117 -248.566406250000 1.859050989151
10.725060462952 -78.643486022949 -246.739120483398 0.641474604607
23.331663131714 -78.128997802734 -247.554489135742 0.865374088287
-59.766868591309 -75.642562866211 -248.428405761719 1.065027713776
-143.636367797852 -78.875793457031 -253.360687255859 1.341025233269
-152.593231201172 -78.420204162598 -255.162109375000 2.165636301041
-150.673370361328 -81.209030151367 -258.218566894531 2.680348873138
-141.628326416016 -74.760574340820 -261.926879882813 0.722170352936
-138.059677124023 -76.264518737793 -257.305114746094 2.161377429962
-9.621587753296 -77.815750122070 -256.754943847656 2.129515886307
-143.736083984375 -77.594421386719 -263.761657714844 2.028471469879
-11.836904525757 -77.997734069824 -265.197052001953 0.592447042465
-146.657913208008 -75.690261840820 -275.555297851563 1.724843263626
-146.670806884766 -76.182998657227 -283.077850341797 0.627180516720
-148.996536254883 -75.558517456055 -283.567230224609 2.345748662949
-2.693166017532 -73.834274291992 -284.873352050781 1.701893687248
-143.837661743164 -72.561233520508 -285.907470703125 1.103049993515
-28.680898666382 -76.792060852051 -286.931488037109 1.786460638046
-29.310661315918 -75.572334289551 -287.262603759766 1.845083951950
-15.294915199280 -75.592811584473 -290.578399658203 1.776818156242
-10.503225326538 -75.351219177246 -289.815887451172 1.647790670395
14.551383972168 -78.338401794434 -291.495452880859 1.262174606323
-124.533538818359 -76.357551574707 -290.081512451172 1.070577144623
-57.483673095703 -76.161048889160 -288.568695068359 0.638277173042
-38.894687652588 -75.307670593262 -289.717773437500 1.367404222488
-31.423332214355 -77.087875366211 -289.149139404297 1.656319737434
-8.448676109314 -75.796669006348 -291.483215332031 1.817038059235
5.843045234680 -77.003105163574 -288.616394042969 1.802014350891
-142.213958740234 -77.655998229980 -295.329895019531 3.859882593155
10.197855949402 -77.079383850098 -292.620727539063 2.406752586365
-151.340881347656 -74.722023010254 -302.114654541016 3.600314378738
-150.135910034180 -77.793418884277 -301.896820068359 0.850670754910
-151.884857177734 -74.225410461426 -312.005493164063 1.755322098732
-144.325820922852 -75.305000305176 -311.211578369141 1.632654905319
-50.353302001953 -77.309425354004 -54.171352386475 2.674995660782
-55.908279418945 -79.138893127441 -56.668468475342 3.479400873184
-65.086799621582 -76.763099670410 -56.038101196289 1.677944421768
-42.308769226074 -77.213447570801 -60.294677734375 1.461107850075
-36.939765930176 -77.673324584961 -59.538902282715 1.342619419098
-21.322034835815 -77.111732482910 -68.694702148438 1.095144033432
-82.410240173340 -76.492248535156 -68.956390380859 2.310575723648
82.993827819824 -79.020278930664 -78.093307495117 3.666511774063
-89.838180541992 -76.697257995605 -79.708518981934 2.186823129654
82.392295837402 -78.419296264648 -80.018768310547 1.843330979347
86.366302490234 -77.077194213867 -83.420845031738 1.261488199234
94.688186645508 -77.209465026855 -86.889846801758 2.462169885635
-59.520103454590 -81.150840759277 -95.727867126465 2.069767951965
83.149314880371 -78.386199951172 -94.813125610352 2.792475938797
78.418884277344 -80.127243041992 -91.996803283691 1.976754903793
86.999145507813 -79.234794616699 -89.990455627441 1.986203908920
-61.732440948486 -79.748161315918 -97.758895874023 1.939549088478
51.749214172363 -77.438148498535 -97.255310058594 1.868921995163
46.040740966797 -78.318031311035 -106.478294372559 1.723064541817
41.192539215088 -78.822372436523 -104.432731628418 2.507918119431
37.821788787842 -78.364143371582 -106.135383605957 1.960617184639
-91.091537475586 -75.743232727051 -109.806472778320 1.578785061836
36.363529205322 -77.645111083984 -117.293464660645 1.470711231232
-84.554779052734 -78.059700012207 -109.942916870117 1.708616852760
42.424747467041 -79.619972229004 -124.219039916992 1.735059618950
34.211894989014 -78.839950561523 -121.848655700684 1.255440115929
34.074138641357 -74.482772827148 -121.729354858398 2.286928653717
43.558582305908 -77.729217529297 -119.042442321777 0.530005395412
40.366306304932 -79.523880004883 -127.192504882813 2.157698154449
-52.401660919189 -73.669044494629 -135.781936645508 1.252548694611
36.923755645752 -79.705947875977 -135.136718750000 1.663616061211
36.544334411621 -77.415130615234 -142.564422607422 0.280403792858
-52.711307525635 -74.816276550293 -141.221481323242 2.608860492706
-46.589363098145 -77.162971496582 -140.871932983398 0.650870025158
35.233551025391 -78.043724060059 -143.282485961914 0.792880892754
111.581726074219 -76.198394775391 -141.364120483398 2.144570350647
113.755874633789 -76.667404174805 -142.903274536133 1.755266904831
27.023630142212 -78.537376403809 -143.439392089844 0.730216324329
-40.992614746094 -78.379249572754 -149.271911621094 0.552017927170
113.950531005859 -80.745483398438 -153.607101440430 4.179988384247
-39.186195373535 -76.135040283203 -153.562271118164 2.020280599594
-67.541343688965 -77.076713562012 -159.758804321289 1.920386433601
111.153060913086 -79.943305969238 -159.581405639648 3.051604509354
23.281208038330 -77.621269226074 -163.878219604492 1.150625348091
0.848105013371 -78.416481018066 -163.066040039063 1.652244329453
112.785865783691 -78.293785095215 -155.224441528320 1.778688073158
-63.673851013184 -76.473541259766 -165.090164184570 1.347886323929
-36.997070312500 -76.771308898926 -162.197921752930 0.879988133907
113.192680358887 -77.892799377441 -164.273254394531 3.008151769638
29.470855712891 -75.527641296387 -158.523315429688 1.800191521645
-62.512260437012 -73.513198852539 -166.213256835938 1.566504001617
112.173507690430 -78.468002319336 -166.360763549805 1.865746498108
-64.437576293945 -78.388763427734 -168.864334106445 2.097165346146
-50.286556243896 -78.312049865723 -179.699157714844 1.624419927597
106.898956298828 -76.940872192383 -171.381683349609 2.270639896393
-59.302753448486 -75.409927368164 -170.494186401367 1.137415528297
112.103057861328 -77.602409362793 -175.125335693359 0.281069815159
-59.698009490967 -76.719902038574 -174.899765014648 2.398815631866
-13.814050674438 -75.863746643066 -177.576461791992 1.685492634773
-11.326250076294 -79.676544189453 -180.205825805664 2.254551410675
108.467788696289 -78.846191406250 -170.124450683594 1.697867035866
21.520278930664 -77.693099975586 -172.032852172852 0.331527709961
29.673044204712 -75.772285461426 -170.423782348633 2.104831933975
-55.991886138916 -76.009254455566 -177.201828002930 1.471332430840
19.433166503906 -76.447746276855 -182.155090332031 0.778216600418
-57.145076751709 -76.423896789551 -176.486938476563 1.165228843689
-50.742366790771 -75.734878540039 -189.064117431641 1.795424222946
14.199152946472 -75.965522766113 -183.552093505859 2.133741855621
-57.059787750244 -74.939285278320 -180.946609497070 1.737090468407
107.895912170410 -76.905502319336 -185.750915527344 3.361778736115
24.646190643311 -78.125602722168 -181.157028198242 1.523043274879
-32.184223175049 -75.467681884766 -188.704803466797 1.106701016426
-41.777667999268 -77.211708068848 -191.857421875000 0.570012509823
11.857847213745 -77.283393859863 -193.582763671875 2.429521799088
-17.850769042969 -77.749465942383 -190.551208496094 1.942694664001
-48.800136566162 -77.490768432617 -194.370880126953 1.407563209534
103.808456420898 -79.451072692871 -183.995254516602 2.870686292648
14.662956237793 -78.265747070313 -190.833038330078 1.462455868721
-133.564392089844 -78.064796447754 -198.881332397461 1.933845996857
-43.377136230469 -78.156463623047 -194.104278564453 2.003100872040
97.139686584473 -77.403091430664 -198.752380371094 0.973419427872
-147.515319824219 -80.844596862793 -202.453430175781 2.313619613647
19.032085418701 -77.152519226074 -196.126144409180 1.166872501373
-41.489574432373 -75.001647949219 -205.431060791016 2.954009294510
-30.861661911011 -78.108665466309 -205.113693237305 1.400006055832
-36.370464324951 -76.710220336914 -204.333221435547 1.817759275436
-43.317062377930 -78.654617309570 -197.347732543945 1.095996975899
100.663093566895 -77.787025451660 -202.365646362305 2.589616060257
-19.339857101440 -78.061126708984 -202.211395263672 1.370278239250
-149.485885620117 -75.955032348633 -204.361251831055 1.298628449440
16.858078002930 -77.710319519043 -204.590942382813 1.772460579872
-75.683998107910 -79.530502319336 -208.076522827148 1.152272224426
-147.340011596680 -75.018653869629 -211.737014770508 1.492555379868
96.444160461426 -77.602371215820 -210.729583740234 1.905707836151
-31.948028564453 -75.745193481445 -207.404190063477 1.121394276619
-28.111169815063 -76.576362609863 -213.592224121094 1.787821412086
9.105570793152 -77.712882995605 -210.965667724609 1.298287630081
-70.511657714844 -78.236968994141 -211.299514770508 1.641486525536
-27.973106384277 -79.704490661621 -209.050476074219 0.672555923462
-5.064397811890 -77.016540527344 -215.397003173828 1.618504166603
-72.537773132324 -77.935409545898 -214.639892578125 1.794999122620
-13.667037010193 -76.787918090820 -217.459869384766 1.345130801201
8.875284194946 -73.189750671387 -213.048934936523 1.632400631905
16.382732391357 -78.327644348145 -220.024627685547 1.442291736603
-148.253814697266 -76.395217895508 -217.157760620117 1.415789127350
-7.092655181885 -76.494590759277 -214.765945434570 1.607706189156
-96.221733093262 -72.989006042480 -220.785385131836 2.106721162796
-20.912603378296 -75.894622802734 -220.099563598633 1.931954860687
91.589561462402 -79.780158996582 -211.654693603516 3.011590242386
7.904253959656 -76.159393310547 -226.426574707031 0.127937585115
18.702795028687 -76.011161804199 -216.681976318359 1.744462847710
82.089836120605 -77.485069274902 -218.669403076172 3.261669635773
1.921332001686 -77.695716857910 -227.815795898438 1.036558508873
86.814643859863 -77.500656127930 -217.132461547852 1.554992079735
-17.329071044922 -75.116188049316 -222.897781372070 1.495011210442
16.248374938965 -76.117485046387 -219.599777221680 1.375306010246
-145.703033447266 -77.032974243164 -222.429306030273 1.347957611084
-20.603425979614 -77.657485961914 -225.075531005859 1.727379798889
2.497420072556 -76.699867248535 -228.364318847656 1.783884525299
-154.515121459961 -78.712409973145 -227.794006347656 1.801066040993
-135.780960083008 -76.117698669434 -228.757888793945 1.857655048370
7.118772029877 -76.608184814453 -225.302474975586 1.464895009995
-3.169672012329 -75.531234741211 -229.941070556641 1.870954036713
-135.444808959961 -74.026351928711 -231.159408569336 1.290596127510
-145.205108642578 -76.409576416016 -238.108367919922 2.983407735825
-146.504302978516 -75.554000854492 -236.650680541992 2.128503561020
-31.754072189331 -76.842628479004 -238.174575805664 1.306349873543
-144.113800048828 -76.359230041504 -242.942886352539 2.911259174347
19.782289505005 -76.871154785156 -241.697250366211 1.208914756775
5.932366847992 -76.514007568359 -243.494949340820 0.718681216240
-149.352905273438 -73.127258300781 -237.135574340820 2.902498245239
-148.176849365234 -75.713623046875 -244.020919799805 2.132828235626
-45.997192382813 -77.082298278809 -243.293853759766 1.839344143867
-30.490486145020 -77.147583007813 -245.126953125000 3.159086704254
5.867990016937 -77.862808227539 -245.156082153320 0.854280829430
-37.176345825195 -77.069435119629 -245.550155639648 1.188389182091
23.537422180176 -77.159301757813 -247.115493774414 0.328287214041
-4.369235992432 -78.615623474121 -250.231414794922 1.103127717972
-147.245712280273 -75.760063171387 -253.243850708008 2.384364604950
-7.300535202026 -79.437934875488 -251.832168579102 2.269521474838
-146.503051757813 -74.765022277832 -250.831848144531 1.668211460114
-66.087898254395 -76.904365539551 -249.873641967773 2.284339189529
-147.936508178711 -81.826049804688 -260.327087402344 0.492750942707
-125.460044860840 -74.990142822266 -259.264984130859 1.629218578339
-149.455032348633 -73.194961547852 -260.184295654297 0.986480474472
-11.257946968079 -74.404258728027 -266.188812255859 3.665667533875
-145.215270996094 -78.495300292969 -268.392822265625 2.269800186157
-148.999755859375 -75.701370239258 -267.491546630859 2.487494945526
-9.605794906616 -77.580268859863 -270.287994384766 1.825649261475
-145.146560668945 -75.800521850586 -271.421875000000 3.229474067688
-3.579108953476 -76.198585510254 -278.483917236328 2.493717193604
-45.112651824951 -75.583557128906 -286.100738525391 2.991456508636
-133.112014770508 -74.238914489746 -288.968566894531 2.648353815079
-132.788925170898 -74.274307250977 -286.532958984375 1.219843268394
-124.226707458496 -73.692626953125 -285.487548828125 1.762578129768
-51.810474395752 -75.089935302734 -286.799987792969 2.173333406448
-113.128791809082 -73.243728637695 -287.241241455078 0.999132096767
16.928237915039 -76.007812500000 -290.517883300781 1.561299800873
-57.960418701172 -74.677421569824 -289.038116455078 2.102208137512
-140.459121704102 -74.349853515625 -291.937835693359 2.570344209671
-61.414936065674 -74.673080444336 -290.465423583984 2.209661006927
-142.341979980469 -77.877479553223 -292.531402587891 1.537823319435
-116.149826049805 -74.000717163086 -290.825439453125 2.078924655914
-45.823440551758 -76.343139648438 -290.663269042969 1.524324774742
-33.616157531738 -76.021293640137 -291.221252441406 2.388374567032
-134.066268920898 -73.425628662109 -293.373107910156 2.154052019119
-10.874861717224 -74.121490478516 -287.889434814453 1.669259667397
3.309743881226 -76.038391113281 -289.823577880859 1.047892570496
7.553006172180 -75.553031921387 -291.360260009766 2.105240821838
16.190118789673 -76.724288940430 -294.177307128906 1.477792620659
-148.600601196289 -76.453628540039 -297.233154296875 1.255757570267
-145.898529052734 -73.797935485840 -297.944763183594 1.155248761177
-68.459411621094 -77.105331420898 -61.009189605713 1.131292581558
87.988983154297 -78.128059387207 -73.684944152832 3.651319503784
78.870574951172 -78.323661804199 -76.160957336426 3.359960317612
