-100.272315979004 -68.631538391113 -163.839904785156 2.310433626175
22.784191131592 -68.807350158691 -163.709533691406 2.500557184219
26.486690521240 -67.909538269043 -167.689147949219 1.731527447701
-106.293952941895 -69.650131225586 -174.415100097656 2.363203287125
-141.294906616211 -67.153381347656 -176.032424926758 1.684506416321
-20.141441345215 -68.964790344238 -188.505569458008 2.658709526062
-26.670091629028 -68.144744873047 -182.417510986328 1.606379985809
-113.637329101563 -68.782760620117 -187.637512207031 1.355270624161
-143.152893066406 -64.114349365234 -188.324813842773 1.047527670860
-103.899765014648 -66.525192260742 -182.321441650391 2.161940813065
-156.320770263672 -67.913673400879 -192.414611816406 1.617780208588
-130.631378173828 -70.810882568359 -195.779724121094 0.917114019394
-132.677490234375 -69.044044494629 -196.792892456055 0.802968561649
-19.449033737183 -67.278907775879 -190.595794677734 1.987266302109
-120.478118896484 -68.316528320313 -197.823303222656 1.418844938278
-115.258911132813 -65.756607055664 -198.706390380859 1.598306894302
-25.161634445190 -69.615127563477 -195.591537475586 1.814830660820
-153.562454223633 -65.993553161621 -200.162628173828 0.679469466209
-131.142242431641 -69.805686950684 -205.473632812500 1.692419528961
-124.125114440918 -66.473144531250 -205.644149780273 1.022253394127
18.587530136108 -69.624366760254 -201.582778930664 2.303441286087
-160.864196777344 -66.439018249512 -204.893539428711 2.494091033936
10.889456748962 -68.442260742188 -214.068527221680 2.122483968735
14.476200103760 -69.125610351563 -213.998138427734 0.906398534775
-17.176231384277 -66.141624450684 -208.108535766602 2.848619222641
-4.250007152557 -68.779983520508 -216.000488281250 0.830891788006
-167.749969482422 -65.657722473145 -210.923156738281 3.591011524200
-158.072525024414 -65.439033508301 -214.235473632813 1.757745623589
-93.724182128906 -68.023933410645 -218.630996704102 2.314723014832
-98.880378723145 -68.593322753906 -224.171524047852 1.163019061089
-160.058013916016 -67.121498107910 -225.103790283203 1.134318828583
-104.113945007324 -66.845848083496 -220.114593505859 2.471274375916
-11.450046539307 -67.317634582520 -215.651580810547 0.420141428709
-126.030975341797 -68.731437683105 -223.748184204102 1.503668189049
-140.592056274414 -68.311614990234 -225.588989257813 1.243792772293
-2.216677904129 -69.039627075195 -221.219024658203 1.386049389839
-133.439331054688 -66.502899169922 -225.998428344727 1.103555083275
-122.931999206543 -70.382553100586 -224.728118896484 1.979917645454
-113.463645935059 -68.570251464844 -226.088516235352 0.498948603868
2.451232910156 -65.663627624512 -227.296218872070 3.208550930023
-106.092201232910 -67.050506591797 -230.586532592773 2.562074422836
-158.762619018555 -63.888271331787 -224.131744384766 2.639713525772
-146.311981201172 -66.463256835938 -228.045379638672 1.115953803062
-164.808532714844 -66.731178283691 -225.749328613281 2.543438673019
-6.808104991913 -68.877502441406 -227.402465820313 2.143378496170
-7.653216838837 -68.201667785645 -231.852523803711 1.217432975769
79.358184814453 -70.238410949707 -225.149673461914 1.560754776001
1.595141053200 -69.477699279785 -229.759887695313 2.278280496597
-141.800125122070 -67.110015869141 -235.889099121094 2.822183132172
-13.079584121704 -67.556892395020 -228.971862792969 1.918428897858
75.090026855469 -69.099372863770 -227.745300292969 1.322054266930
75.999191284180 -69.197677612305 -232.425872802734 3.069668769836
-133.713928222656 -66.539138793945 -233.642883300781 1.028572320938
-157.157028198242 -68.328529357910 -229.422576904297 1.021120429039
-113.453804016113 -66.964721679688 -233.690933227539 1.905838608742
-123.306648254395 -64.558128356934 -235.812713623047 1.283880114555
-163.325286865234 -66.127273559570 -235.726409912109 1.200357556343
-158.597320556641 -67.194686889648 -236.903793334961 2.091569900513
-144.942016601563 -65.429229736328 -235.931259155273 2.351651906967
-10.404220581055 -68.408287048340 -235.872344970703 2.565981149673
-3.757586002350 -68.185958862305 -239.404968261719 1.581176161766
-159.941253662109 -65.683082580566 -240.529830932617 1.701977610588
6.351511001587 -69.333084106445 -238.755371093750 2.567208051682
5.084808826447 -68.555267333984 -235.594924926758 1.850991249084
-159.634307861328 -66.869804382324 -240.762573242188 1.028225541115
16.822490692139 -71.094184875488 -243.054168701172 2.189758062363
51.720928192139 -70.400848388672 -244.411224365234 1.750878691673
52.520450592041 -69.832832336426 -244.409652709961 1.178590655327
-14.191366195679 -69.151199340820 -246.787979125977 1.179991126060
49.780345916748 -67.495552062988 -248.315917968750 1.160983324051
-161.377090454102 -65.139167785645 -251.891418457031 4.281553745270
-159.478317260742 -66.970916748047 -249.002639770508 0.873555481434
-159.082000732422 -68.960189819336 -250.785903930664 1.807417511940
55.054500579834 -68.814514160156 -248.991729736328 2.023719310760
-90.220985412598 -66.750625610352 -253.348983764648 2.113047838211
-124.245758056641 -67.055480957031 -254.976776123047 1.257255434990
-104.611755371094 -70.115303039551 -254.948104858398 1.600600123405
28.615114212036 -70.890426635742 -257.042755126953 1.314196467400
43.230369567871 -67.318969726563 -250.516204833984 1.700454354286
-99.961257934570 -65.523010253906 -255.714508056641 2.496365308762
-92.983680725098 -64.662696838379 -253.587173461914 3.034627676010
46.245899200439 -70.861694335938 -253.457275390625 1.747266411781
43.963600158691 -67.488304138184 -256.014923095703 1.201137542725
-154.339538574219 -70.294296264648 -259.297119140625 1.797484278679
32.482685089111 -68.304252624512 -258.392852783203 0.932231426239
-141.494140625000 -69.668594360352 -264.797241210938 1.668409585953
-112.975601196289 -66.607666015625 -262.878784179688 1.446153640747
-135.359039306641 -67.160766601563 -263.689849853516 0.848219096661
31.202081680298 -68.509803771973 -262.339111328125 1.894468784332
-125.192138671875 -66.076133728027 -264.720764160156 1.265456557274
-10.181715011597 -67.286979675293 -259.031463623047 2.823678970337
23.329151153564 -70.737648010254 -270.679382324219 1.640694379807
-5.810853958130 -70.261260986328 -265.944366455078 3.111103773117
21.169908523560 -69.546066284180 -279.286499023438 2.200788736343
-151.511642456055 -67.640594482422 -283.390289306641 1.984493136406
-9.491977691650 -67.417243957520 -280.410552978516 1.198396325111
-152.477386474609 -69.721664428711 -284.042999267578 1.818955779076
-123.654823303223 -67.491371154785 -285.754852294922 1.462659955025
-157.643981933594 -71.099708557129 -287.371948242188 2.337254762650
-113.520118713379 -67.116729736328 -287.829437255859 1.991779208183
-103.972602844238 -67.027931213379 -289.681701660156 2.212329387665
-5.940134048462 -66.738525390625 -285.653656005859 1.760803580284
-107.681076049805 -67.633346557617 -290.351074218750 1.409348011017
-115.172538757324 -65.166397094727 -287.038787841797 3.667490005493
-117.682464599609 -64.777923583984 -292.044769287109 2.863950729370
-136.058578491211 -66.189979553223 -290.389862060547 1.167388319969
-124.605178833008 -65.939804077148 -292.527282714844 2.195535182953
-156.129043579102 -69.841964721680 -291.164276123047 0.696640253067
-145.548873901367 -66.107200622559 -294.481201171875 0.750190377235
-153.510803222656 -65.143379211426 -301.893402099609 2.567954301834
-152.767852783203 -65.170578002930 -312.055877685547 2.006626844406
-155.896469116211 -66.052772521973 -301.856964111328 2.707760095596
-141.983657836914 -67.358299255371 -311.692352294922 3.503455162048
-148.839187622070 -66.498046875000 -314.069274902344 2.432107448578
35.236564636230 -72.273605346680 -9.547014236450 2.731144428253
45.399780273438 -74.124656677246 -15.298501968384 2.948519229889
24.270723342896 -67.391487121582 -23.934850692749 2.968271732330
49.876007080078 -71.914558410645 -27.576847076416 1.553847670555
28.339574813843 -73.207908630371 -33.977382659912 1.024348974228
33.481540679932 -72.468391418457 -34.890933990479 2.632423162460
-57.877902984619 -66.928596496582 -46.570598602295 2.942237138748
81.607063293457 -68.339637756348 -61.268516540527 2.202105522156
80.248771667480 -71.517036437988 -65.437957763672 2.512453317642
-90.708305358887 -69.595298767090 -62.014205932617 0.833965361118
-12.313960075378 -68.059135437012 -62.147937774658 1.914719223976
-92.325965881348 -71.197853088379 -69.206001281738 2.649548053741
96.405769348145 -72.060234069824 -68.610939025879 2.993952035904
-14.626831054688 -67.317176818848 -68.046730041504 1.264671087265
67.809829711914 -72.337265014648 -76.397949218750 2.730437517166
-40.450038909912 -73.340126037598 -78.001510620117 1.728996872902
-27.650226593018 -73.508193969727 -76.564147949219 1.273924589157
56.761993408203 -68.629356384277 -85.122047424316 0.593204081059
-44.502410888672 -78.980667114258 -84.789070129395 1.787582874298
65.029067993164 -65.328376770020 -85.761337280273 0.861699283123
53.487564086914 -73.114372253418 -88.026115417480 0.340156406164
52.874511718750 -70.977989196777 -92.369163513184 1.511720538139
60.716808319092 -72.734642028809 -90.132537841797 2.116023540497
57.553985595703 -68.851692199707 -94.931442260742 1.279193401337
100.555381774902 -68.587348937988 -96.193443298340 1.877730369568
105.595466613770 -67.853652954102 -96.737655639648 0.979697763920
59.497653961182 -72.181915283203 -98.546607971191 1.658266544342
106.712043762207 -67.314392089844 -97.651824951172 1.568038582802
-76.060379028320 -68.799018859863 -99.477676391602 1.443937301636
-71.904747009277 -68.018241882324 -101.192657470703 1.419460177422
100.643234252930 -68.099311828613 -97.408294677734 1.364416956902
53.507507324219 -70.221138000488 -99.872444152832 2.009986639023
70.796279907227 -70.982421875000 -98.580802917480 1.288314342499
-72.863548278809 -68.840171813965 -106.315208435059 2.487075805664
-84.433166503906 -67.647315979004 -106.602394104004 1.594557762146
90.874595642090 -71.854690551758 -103.984184265137 2.138230323792
41.309085845947 -70.102882385254 -104.409820556641 1.374971389771
104.435226440430 -67.725257873535 -103.628036499023 0.441196829081
45.903659820557 -70.968765258789 -112.581756591797 1.991328001022
109.907836914063 -69.992065429688 -103.197288513184 1.205086231232
-78.904434204102 -67.792480468750 -110.252418518066 1.110852241516
105.802436828613 -67.046722412109 -107.195297241211 2.016715526581
-84.541114807129 -66.636146545410 -120.798561096191 1.082623481750
-58.305938720703 -70.426849365234 -128.605651855469 1.479422450066
-54.811241149902 -67.368186950684 -125.174125671387 1.480436205864
-72.798400878906 -69.039688110352 -129.416213989258 2.118269205093
-50.856758117676 -69.716186523438 -130.485931396484 1.583555698395
-83.740661621094 -69.637023925781 -132.061859130859 2.653617620468
-77.033882141113 -66.404167175293 -133.654373168945 1.107187986374
-81.018257141113 -67.931236267090 -129.736770629883 1.606074690819
-59.170528411865 -71.882736206055 -140.819702148438 2.377139568329
-71.749931335449 -67.627723693848 -139.981338500977 1.622189164162
-59.310859680176 -69.808921813965 -136.106735229492 2.298515558243
-59.065719604492 -68.954010009766 -141.001327514648 1.525310993195
19.542600631714 -66.545097351074 -142.077590942383 1.907472491264
-90.382080078125 -68.095176696777 -143.086990356445 0.909732639790
-46.789455413818 -70.558578491211 -145.040420532227 0.719694912434
-97.114723205566 -66.184661865234 -149.599273681641 2.072093725204
-99.882156372070 -66.443611145020 -150.301864624023 1.959901690483
18.925809860229 -69.988342285156 -152.456573486328 2.762502908707
14.021929740906 -69.820503234863 -156.976943969727 1.937293171883
-95.797317504883 -68.640922546387 -159.182113647461 1.477197885513
-102.657562255859 -67.568000793457 -155.833740234375 2.038112640381
-100.309120178223 -66.860778808594 -168.903533935547 2.009086847305
22.859069824219 -67.885894775391 -168.801406860352 1.193601965904
-109.070976257324 -67.313301086426 -172.455459594727 1.631358504295
21.871181488037 -68.937583923340 -166.726501464844 1.606781721115
-146.884231567383 -67.201042175293 -176.788925170898 1.448262572289
18.158546447754 -68.484359741211 -175.961868286133 1.009107351303
24.196634292603 -68.790550231934 -185.080520629883 2.049897193909
-152.105438232422 -66.180213928223 -187.481704711914 1.589521288872
22.136714935303 -68.487625122070 -176.607376098633 1.776715874672
19.634502410889 -64.828643798828 -179.174911499023 2.023369789124
-142.150344848633 -69.877105712891 -186.507812500000 1.851643443108
-151.273208618164 -65.794342041016 -189.615554809570 1.971174478531
20.552057266235 -67.959938049316 -188.069000244141 2.870199680328
18.922861099243 -68.824714660645 -188.909576416016 1.635407805443
-141.936630249023 -68.442466735840 -193.962554931641 0.918844878674
-108.080787658691 -67.678436279297 -198.038345336914 1.944542169571
23.113933563232 -68.811340332031 -197.249679565430 2.576997518539
-123.874374389648 -66.530616760254 -195.273101806641 1.776103138924
11.969758033752 -69.331405639648 -198.627166748047 1.847208023071
-130.444488525391 -64.040138244629 -195.077438354492 2.035510063171
-157.132873535156 -65.214927673340 -192.683364868164 2.888738393784
-161.569503784180 -67.006713867188 -197.708679199219 1.833007574081
-159.458999633789 -67.034339904785 -197.057479858398 2.622553586960
-18.855905532837 -67.391876220703 -202.546585083008 2.319336175919
-166.208190917969 -68.521453857422 -200.719070434570 1.795039057732
-25.027151107788 -66.036849975586 -192.210983276367 2.900421857834
-14.708966255188 -68.928283691406 -196.950515747070 1.871564745903
12.290910720825 -65.234321594238 -194.826629638672 2.390851736069
-157.793106079102 -66.352478027344 -202.997222900391 3.421821355820
-108.434410095215 -66.495109558105 -202.250671386719 1.889438390732
-17.368461608887 -65.735565185547 -202.612533569336 2.486245870590
-158.793991088867 -64.637496948242 -202.852371215820 3.609306812286
16.912870407104 -67.842971801758 -200.396362304688 2.206454753876
-166.753936767578 -65.196838378906 -205.206359863281 3.105935096741
-120.759834289551 -69.088500976563 -203.564590454102 2.266778945923
-114.397666931152 -64.989112854004 -206.658569335938 3.381241083145
-122.509826660156 -65.829551696777 -205.120056152344 1.125292181969
-13.504648208618 -67.374206542969 -203.894241333008 0.853427648544
-15.617559432983 -67.610694885254 -204.764221191406 1.575865626335
-163.784957885742 -65.947242736816 -211.020614624023 0.687746107578
-159.603500366211 -65.387237548828 -213.808319091797 2.482727050781
-164.171615600586 -66.695648193359 -220.496597290039 1.007763504982
-141.884765625000 -68.036308288574 -215.162902832031 3.013063192368
-143.716430664063 -67.388504028320 -223.976333618164 1.853489995003
-3.400490999222 -66.429428100586 -220.180358886719 2.891293525696
-9.323169708252 -69.426712036133 -216.512664794922 1.620402097702
-98.660789489746 -66.251266479492 -221.481338500977 1.883355617523
-5.485564231873 -66.695045471191 -229.886901855469 2.240276575089
-165.152297973633 -64.978691101074 -228.898666381836 2.174133062363
-107.173088073730 -65.127479553223 -231.689285278320 2.674769401550
1.611961007118 -67.391860961914 -226.268142700195 2.559044599533
4.130640983582 -66.403228759766 -229.708984375000 1.353278398514
-110.936370849609 -67.743644714355 -233.057632446289 1.572211027145
-0.635664999485 -67.780441284180 -229.350341796875 1.925900816917
-116.329292297363 -64.927116394043 -234.995819091797 2.170422554016
-6.661822795868 -65.598495483398 -233.731643676758 1.894263029099
-1.689602971077 -66.653244018555 -234.427078247070 2.250644683838
-0.138594999909 -67.586608886719 -236.441528320313 1.532378196716
71.978088378906 -66.291130065918 -235.259155273438 1.843759655952
-10.706789016724 -69.762557983398 -237.249237060547 1.655175089836
6.481121063232 -67.940322875977 -237.559204101563 2.200378894806
11.931327819824 -66.690582275391 -239.441040039063 2.201177835464
6.503404140472 -67.556068420410 -238.447860717773 1.366040229797
2.390697002411 -68.344985961914 -240.317733764648 1.571013212204
65.714500427246 -65.423484802246 -236.896316528320 2.569145441055
69.932518005371 -66.537757873535 -238.924407958984 2.366113185883
10.383890151978 -67.614631652832 -245.290603637695 1.312470197678
56.393074035645 -68.041999816895 -241.067687988281 0.764681458473
56.665557861328 -70.314056396484 -240.008392333984 1.886017799377
47.974819183350 -65.791252136230 -247.407135009766 0.853319883347
41.604145050049 -66.735763549805 -250.261764526367 1.722587704659
41.656139373779 -66.770935058594 -254.125885009766 0.499253809452
-132.033157348633 -64.410774230957 -257.208404541016 1.642168283463
-10.400953292847 -67.168457031250 -251.156539916992 1.116057991982
28.010261535645 -67.096725463867 -257.697357177734 1.758895397186
46.859935760498 -67.317642211914 -248.831665039063 1.211172819138
27.029592514038 -69.049926757813 -253.957626342773 2.932049989700
-101.162864685059 -67.261703491211 -258.583312988281 0.698174834251
32.986351013184 -67.848167419434 -255.697586059570 0.418200045824
-147.459945678711 -67.828117370605 -261.078704833984 1.792142271996
-115.275375366211 -66.814460754395 -257.900238037109 1.223060965538
-106.583755493164 -66.179733276367 -257.919311523438 0.796571016312
-3.756460905075 -68.096473693848 -258.758483886719 3.381739616394
-148.491485595703 -67.393203735352 -258.275756835938 1.421972274780
35.123378753662 -66.762908935547 -260.331817626953 1.852868795395
-109.967376708984 -65.460952758789 -257.732147216797 2.318419694901
27.389600753784 -69.188240051270 -258.870269775391 1.208569169044
-134.183944702148 -66.632118225098 -262.196411132813 1.891225337982
-115.423294067383 -65.310462951660 -263.033355712891 1.520151734352
-107.634513854980 -65.672004699707 -260.956054687500 1.423219442368
-114.762634277344 -68.182205200195 -262.247924804688 2.092740058899
-138.011367797852 -67.135833740234 -260.309692382813 2.748661994934
29.481323242188 -67.595878601074 -260.296020507813 1.216783046722
-116.719924926758 -65.636428833008 -263.891357421875 1.230656504631
-143.142181396484 -67.575363159180 -264.234222412109 1.955965638161
-4.163849830627 -65.688423156738 -270.485015869141 1.986107945442
-150.328872680664 -67.964828491211 -282.641693115234 1.811453104019
-6.938824176788 -67.192192077637 -284.069366455078 2.303825616837
-4.217019081116 -65.050994873047 -283.544097900391 1.586155533791
-133.248489379883 -66.031173706055 -287.310852050781 1.524960756302
-125.332283020020 -66.301269531250 -289.932220458984 0.859576523304
-134.694030761719 -66.386573791504 -293.992797851563 3.646559953690
-125.394454956055 -66.027809143066 -293.596008300781 2.812611341476
-153.103683471680 -66.795135498047 -295.443572998047 1.826288223267
-153.909423828125 -65.900009155273 -301.269714355469 1.662658810616
-146.372619628906 -68.108459472656 -301.383514404297 1.968186378479
-148.970657348633 -65.628036499023 -303.234466552734 1.562836050987
-144.063232421875 -66.090370178223 -300.611450195313 3.124640703201
-147.529632568359 -64.915260314941 -303.866729736328 2.021942615509
-145.450820922852 -64.328788757324 -314.528228759766 4.152030467987
19.220129013062 -72.982940673828 -27.956230163574 1.853037357330
48.264331817627 -72.692687988281 -34.722541809082 2.379719495773
25.821714401245 -74.583900451660 -37.983348846436 3.829510450363
32.507820129395 -71.742958068848 -41.112182617188 1.600712418556
-43.325157165527 -65.548736572266 -47.330497741699 0.851312100887
-77.884094238281 -68.033195495605 -50.904926300049 3.080775499344
80.414993286133 -68.346473693848 -60.610065460205 2.751796960831
74.981483459473 -69.791496276855 -61.801792144775 2.583240509033
70.855003356934 -70.250976562500 -66.317245483398 2.644801855087
-98.422500610352 -67.945152282715 -73.729087829590 3.574269294739
99.734352111816 -71.629913330078 -74.932937622070 2.711013317108
-32.051322937012 -68.654861450195 -80.788475036621 3.134386539459
63.978519439697 -68.358871459961 -76.561782836914 2.781060934067
-43.885471343994 -66.247711181641 -81.841705322266 1.148952484131
-52.768840789795 -66.210853576660 -83.363403320313 2.408299684525
50.337722778320 -70.388397216797 -89.747596740723 1.454366445541
102.263153076172 -69.767524719238 -89.241592407227 1.697831869125
64.749420166016 -67.003471374512 -93.638999938965 1.599690198898
57.185218811035 -67.760040283203 -93.082809448242 1.802311897278
49.168704986572 -67.281738281250 -100.310424804688 2.077788352966
56.912506103516 -66.094009399414 -98.520683288574 0.935912072659
103.497413635254 -67.573303222656 -96.880760192871 1.711239337921
70.360168457031 -68.236106872559 -104.470664978027 1.456890940666
49.110027313232 -68.223724365234 -104.881187438965 1.962297677994
77.220481872559 -72.088943481445 -105.705726623535 2.494836807251
93.726806640625 -66.229835510254 -107.076942443848 0.763540685177
-75.938591003418 -66.762153625488 -103.385787963867 1.924161076546
-86.864730834961 -68.602684020996 -110.499710083008 0.892178237438
-82.272369384766 -68.613502502441 -113.419136047363 2.086592912674
-59.766555786133 -66.377410888672 -118.511589050293 1.683685064316
-56.922962188721 -70.486999511719 -125.777145385742 1.334917545319
-94.401626586914 -67.298904418945 -122.234725952148 1.459671735764
-75.689147949219 -68.047920227051 -119.935295104980 2.289853811264
-76.326118469238 -70.196586608887 -132.131134033203 1.748602271080
-60.913745880127 -66.298942565918 -128.739547729492 0.897854208946
-88.688789367676 -64.561042785645 -130.470245361328 1.242180705070
-89.553703308105 -67.240135192871 -129.856719970703 0.905776500702
-47.738834381104 -71.109962463379 -135.462585449219 0.861663937569
-51.687934875488 -67.451828002930 -136.090957641602 1.364424228668
-76.767814636230 -67.691871643066 -138.750686645508 1.934770226479
-53.233028411865 -68.552223205566 -141.639007568359 1.753647923470
-74.591316223145 -68.865264892578 -143.178924560547 1.623384714127
22.422014236450 -66.194931030273 -137.768249511719 2.367359638214
-56.856914520264 -70.288871765137 -145.218276977539 1.709115028381
-54.228706359863 -65.323898315430 -145.179809570313 1.836380481720
9.702751159668 -69.783462524414 -154.598693847656 2.160811901093
16.645793914795 -66.305046081543 -150.749557495117 1.305101990700
-142.333602905273 -66.511062622070 -175.313980102539 1.041859626770
-109.971794128418 -66.562416076660 -178.742523193359 1.160415530205
-108.091049194336 -64.375503540039 -189.717178344727 2.295210361481
-151.609390258789 -67.534790039063 -192.955551147461 1.567543029785
-112.309494018555 -65.977264404297 -185.842193603516 1.470230937004
-151.835006713867 -63.714599609375 -196.605316162109 2.454257965088
-113.403816223145 -65.070693969727 -198.625640869141 1.269635319710
-149.163558959961 -64.725242614746 -200.539749145508 1.359620928764
-150.364715576172 -66.669425964355 -206.712554931641 1.005974292755
-151.664855957031 -68.754524230957 -210.212341308594 3.281878948212
-146.183242797852 -65.760398864746 -224.117111206055 1.350012898445
-150.115600585938 -68.228744506836 -225.318603515625 2.479569196701
-104.036773681641 -65.107261657715 -224.957946777344 1.859131455421
-102.193588256836 -66.006935119629 -223.820892333984 2.333755731583
-122.602920532227 -63.088699340820 -229.873794555664 2.205643177032
-107.775405883789 -65.300308227539 -226.880538940430 0.239006519318
-155.102020263672 -67.369377136230 -231.320602416992 1.103195071220
-1.823961973190 -66.546607971191 -226.466079711914 2.204832315445
-133.399765014648 -66.521652221680 -231.836990356445 1.340903401375
-152.347900390625 -67.480232238770 -235.623733520508 1.416205406189
-134.850387573242 -67.347274780273 -234.334335327148 1.316527843475
-10.770698547363 -66.572929382324 -236.916641235352 2.020487308502
9.768198013306 -67.272193908691 -241.876495361328 1.579403162003
63.876121520996 -64.639999389648 -240.134033203125 2.002493381500
19.503658294678 -68.700721740723 -247.465087890625 1.412315249443
58.086959838867 -66.570915222168 -243.634719848633 1.323148369789
42.700141906738 -67.622451782227 -248.783676147461 1.106579899788
58.109794616699 -65.818206787109 -250.059341430664 2.839651346207
-150.884094238281 -65.669441223145 -251.855285644531 2.175258874893
-149.784896850586 -68.873039245605 -254.874038696289 3.122345209122
43.289379119873 -65.834320068359 -256.261077880859 1.058989286423
31.451726913452 -66.163795471191 -255.901443481445 2.139350652695
48.304084777832 -65.723762512207 -251.232849121094 1.649180889130
-143.434310913086 -68.136947631836 -258.174560546875 1.599377632141
-134.484359741211 -64.339393615723 -256.351379394531 1.166396737099
-124.369926452637 -64.001991271973 -257.561614990234 2.423319339752
-133.391601562500 -66.288467407227 -256.708312988281 1.800174951553
-140.306457519531 -66.022750854492 -258.418243408203 3.271816253662
-122.980110168457 -65.199394226074 -259.656066894531 2.534643888474
-141.433044433594 -64.510787963867 -260.983612060547 1.395462036133
-124.548263549805 -66.651206970215 -260.873962402344 1.719985485077
-122.704071044922 -65.259460449219 -264.419799804688 2.283946514130
-125.491088867188 -66.321914672852 -264.975616455078 0.878967106342
-118.202438354492 -63.549163818359 -264.366912841797 2.632376670837
-4.202425003052 -66.756912231445 -265.253265380859 0.684440612793
28.193222045898 -65.440956115723 -261.891571044922 1.948925375938
-145.449111938477 -63.749507904053 -267.204650878906 2.419696807861
27.295059204102 -66.107139587402 -267.179626464844 1.501886010170
-2.993381023407 -63.642826080322 -272.714721679688 3.740586996078
17.965330123901 -70.804847717285 -283.269500732422 1.047047019005
-140.742431640625 -65.818153381348 -289.579254150391 1.627426266670
-124.732040405273 -65.590286254883 -287.915893554688 0.191369280219
-131.938919067383 -62.808872222900 -290.607238769531 3.466902732849
-156.545089721680 -62.067222595215 -292.044647216797 2.784317493439
-124.416458129883 -62.228618621826 -289.681335449219 3.385777950287
-116.935615539551 -63.545551300049 -289.807098388672 3.054307460785
-125.003234863281 -66.150070190430 -294.984527587891 3.658831119537
-148.740112304688 -67.157272338867 -295.352935791016 2.120874166489
27.131584167480 -73.108428955078 -12.469541549683 1.861772656441
32.269668579102 -73.510910034180 -16.537008285522 0.794474720955
37.800449371338 -71.575798034668 -18.394792556763 1.855323076248
47.984851837158 -64.799446105957 -22.927570343018 2.041723489761
26.093387603760 -74.002830505371 -27.272033691406 2.165475130081
20.870428085327 -72.865798950195 -34.488624572754 1.369381904602
-35.056316375732 -67.978088378906 -46.615531921387 3.153746843338
-83.506690979004 -68.676986694336 -52.933181762695 0.732392549515
-16.244224548340 -67.934333801270 -57.734348297119 1.506818890572
71.670570373535 -67.357307434082 -63.903717041016 2.172041654587
100.216033935547 -68.071716308594 -67.384063720703 2.605896949768
64.674171447754 -67.755638122559 -81.459434509277 2.068394422531
61.368495941162 -64.683082580566 -81.488281250000 1.671741247177
101.597152709961 -67.865486145020 -83.053466796875 1.647454738617
-63.909198760986 -65.330635070801 -90.184082031250 1.464139342308
-65.050857543945 -66.945739746094 -92.172225952148 1.519391298294
48.685497283936 -66.706214904785 -93.395057678223 0.435756057501
-66.846817016602 -67.458908081055 -95.972251892090 2.881453275681
-70.640159606934 -66.946975708008 -100.206916809082 1.239945769310
-97.720626831055 -65.198730468750 -98.568733215332 2.334217309952
-75.528709411621 -64.910232543945 -100.628425598145 0.897742271423
46.801288604736 -65.786338806152 -100.423240661621 1.785314083099
-68.713600158691 -68.383773803711 -103.397338867188 3.314008712769
50.436454772949 -66.130531311035 -101.422256469727 1.742772102356
96.595504760742 -68.125442504883 -103.347366333008 1.668294310570
91.529670715332 -67.368911743164 -108.572654724121 2.655738830566
-73.633575439453 -66.612152099609 -113.768844604492 1.506945729256
-83.156906127930 -67.036560058594 -112.791954040527 1.507418274879
-61.782344818115 -66.792205810547 -119.253875732422 1.807564139366
-96.426071166992 -64.425674438477 -119.750053405762 2.277393341064
-76.866920471191 -67.735382080078 -127.354087829590 1.209544181824
-92.979629516602 -61.976833343506 -124.630661010742 2.073238849640
-62.772525787354 -64.911277770996 -118.546005249023 1.775006055832
-60.133941650391 -62.233230590820 -119.620025634766 1.347259879112
-87.753585815430 -66.084884643555 -129.154434204102 1.469247937202
-62.879161834717 -69.569869995117 -127.979064941406 2.821974277496
-84.152214050293 -65.547897338867 -132.004119873047 0.899936199188
-76.961029052734 -67.282295227051 -133.343627929688 0.432206481695
-62.579929351807 -68.563339233398 -133.136764526367 1.774360895157
-61.036418914795 -63.183559417725 -134.919738769531 1.945953965187
-54.228591918945 -63.593082427979 -136.428268432617 2.512476921082
-94.432991027832 -64.670188903809 -133.308227539063 2.672457218170
-96.508102416992 -65.088424682617 -143.958358764648 1.305758714676
-86.855766296387 -66.736190795898 -134.339843750000 2.139939069748
21.687929153442 -68.538009643555 -146.559860229492 2.112209081650
-49.493537902832 -66.945388793945 -142.611999511719 2.002870798111
17.203184127808 -66.033874511719 -148.798553466797 2.101292133331
-97.879981994629 -66.297035217285 -164.129760742188 3.102589130402
-102.234405517578 -68.477371215820 -172.071151733398 0.665860533714
-101.988807678223 -63.498981475830 -171.631805419922 1.619437456131
-107.045539855957 -63.099281311035 -169.904403686523 1.478091359138
-106.076141357422 -66.387382507324 -180.419418334961 1.682250618935
-110.077850341797 -65.390228271484 -178.267639160156 0.826887547970
-141.302017211914 -64.784111022949 -187.968627929688 2.585522413254
-111.560272216797 -64.487564086914 -187.263336181641 1.824568152428
-132.759506225586 -62.904804229736 -198.880142211914 1.833082675934
-147.699661254883 -66.609443664551 -199.012557983398 1.247267007828
-124.374595642090 -65.524635314941 -198.252471923828 2.030204534531
-155.268005371094 -66.543968200684 -197.909759521484 2.136880874634
-146.533432006836 -67.418174743652 -202.435867309570 3.227978229523
-123.539169311523 -62.208061218262 -200.292190551758 1.214120864868
-133.684066772461 -65.086547851563 -202.973495483398 1.842677712440
-141.944824218750 -68.420349121094 -206.988571166992 2.237136602402
-131.966644287109 -67.350486755371 -224.506225585938 1.673287034035
-110.693519592285 -65.964408874512 -229.318649291992 2.337694644928
-144.270599365234 -66.046340942383 -229.583145141602 2.580853223801
-116.884704589844 -63.762195587158 -230.816040039063 1.642521858215
-114.149681091309 -62.625778198242 -231.466567993164 1.890623927116
-122.577224731445 -65.422386169434 -234.131271362305 1.716623902321
-128.159362792969 -65.417854309082 -235.256820678711 1.719592690468
-115.122703552246 -63.085487365723 -235.734207153320 3.334302902222
4.799541950226 -65.128211975098 -234.766082763672 1.557004690170
-150.667587280273 -66.299369812012 -237.673599243164 3.127104997635
7.780263900757 -67.185554504395 -233.506851196289 1.971269488335
7.430754184723 -63.488117218018 -240.133224487305 1.422445893288
2.585844993591 -66.882316589355 -240.012954711914 0.755403339863
15.621189117432 -62.810096740723 -239.880813598633 1.141344428062
-144.196395874023 -64.500671386719 -236.170944213867 2.201168060303
-3.422889947891 -65.808334350586 -245.828140258789 1.758142828941
20.514507293701 -65.238647460938 -241.707870483398 1.841863155365
49.628589630127 -64.545463562012 -248.218811035156 1.930015444756
51.767906188965 -64.512008666992 -248.514160156250 1.182947754860
-145.765243530273 -66.175193786621 -253.194488525391 2.041527271271
-5.170403003693 -65.741264343262 -251.412551879883 1.422288179398
25.016452789307 -65.938980102539 -256.014160156250 1.698905348778
-132.047058105469 -61.350006103516 -259.364685058594 3.367782831192
-124.264953613281 -63.256530761719 -260.294616699219 1.677726864815
-124.424560546875 -64.610710144043 -258.615173339844 1.503423452377
27.156854629517 -65.471878051758 -258.802795410156 1.606040120125
-133.278244018555 -63.829311370850 -265.588806152344 3.376129865646
30.080112457275 -64.115081787109 -260.651397705078 1.737419724464
32.595985412598 -65.927024841309 -262.946624755859 1.877543568611
-151.359649658203 -66.544395446777 -267.244873046875 0.698665380478
-146.158462524414 -69.050041198730 -288.233551025391 1.612461924553
-149.167510986328 -62.633571624756 -289.238372802734 2.598419904709
-142.734588623047 -62.126941680908 -294.057830810547 3.664957761765
11.664401054382 -67.812095642090 -291.744567871094 1.996331095695
-153.349319458008 -62.495948791504 -298.462799072266 4.379766941071
44.539203643799 -73.038131713867 -25.555553436279 2.200478553772
34.542388916016 -73.729858398438 -39.963027954102 2.731750011444
-63.264244079590 -66.004158020020 -45.726936340332 2.332339525223
-73.282745361328 -65.400039672852 -46.324958801270 1.861477375031
-27.869422912598 -66.108375549316 -50.236125946045 1.431021809578
-22.196460723877 -69.641578674316 -54.282005310059 1.827820062637
-13.038835525513 -64.109695434570 -66.303207397461 0.565553545952
-25.941917419434 -64.674308776855 -69.392456054688 0.804568827152
64.689781188965 -67.031394958496 -72.534423828125 2.427619457245
-97.864501953125 -62.796825408936 -78.705299377441 2.787897348404
-47.210235595703 -66.749816894531 -85.282249450684 1.848211884499
54.285053253174 -67.977592468262 -85.249786376953 1.465901970863
56.986286163330 -66.965866088867 -86.410003662109 1.551846027374
63.017612457275 -67.576866149902 -88.378120422363 1.434155583382
105.231819152832 -66.687500000000 -89.929893493652 1.782374262810
51.757011413574 -64.405029296875 -91.353050231934 1.144793987274
99.101860046387 -65.051078796387 -99.598144531250 2.040826559067
-81.304855346680 -67.673316955566 -103.046035766602 1.563428282738
-95.842552185059 -66.636856079102 -102.813545227051 2.017840147018
75.594726562500 -64.412391662598 -110.113822937012 2.293742179871
-77.080619812012 -64.987403869629 -103.888076782227 2.840200901031
-77.966865539551 -69.080718994141 -116.406883239746 1.774252891541
-83.928100585938 -68.404907226563 -119.029129028320 1.910790205002
-55.477142333984 -66.989700317383 -126.949882507324 1.103213429451
-78.252548217773 -66.727294921875 -128.766845703125 1.049710035324
-62.081195831299 -64.360656738281 -130.632080078125 1.092238426208
-82.467575073242 -67.074035644531 -134.824676513672 1.722076177597
-75.673927307129 -64.847320556641 -133.377105712891 0.460825592279
-80.121147155762 -62.387756347656 -125.807022094727 1.189761877060
-88.038314819336 -64.139091491699 -131.179229736328 1.284905314445
-64.628929138184 -63.738803863525 -133.929733276367 2.253428936005
-90.610015869141 -64.902153015137 -134.004730224609 2.519212484360
-49.811809539795 -67.127212524414 -134.183090209961 1.270482182503
-56.072074890137 -68.535995483398 -139.362106323242 2.752997398376
27.683410644531 -66.245948791504 -137.849334716797 1.240443468094
-57.391029357910 -61.671470642090 -137.661270141602 0.896149873734
15.169685363770 -68.662261962891 -144.619018554688 1.941331982613
17.904756546021 -65.810844421387 -148.260147094727 1.753739118576
18.076269149780 -63.487865447998 -152.562500000000 0.600202858448
-97.362098693848 -64.258316040039 -145.585418701172 2.671228408813
-92.082740783691 -65.759490966797 -151.361602783203 1.548142433167
-95.791801452637 -62.408905029297 -152.344421386719 0.847200334072
-103.768669128418 -65.314491271973 -160.385681152344 0.821551620960
-96.847007751465 -64.521598815918 -159.236846923828 2.128507375717
-151.314575195313 -66.690147399902 -176.289566040039 2.571825265884
-153.279312133789 -65.157424926758 -177.148712158203 1.999978661537
-108.319938659668 -63.501586914063 -182.120635986328 2.156693696976
-141.986984252930 -62.745628356934 -178.871444702148 1.032641768456
-109.708580017090 -62.583438873291 -181.356124877930 0.905654609203
-150.239944458008 -60.848693847656 -188.014083862305 2.206729888916
-111.113456726074 -62.609272003174 -193.813064575195 3.056020498276
-109.527809143066 -64.403625488281 -186.051101684570 1.705074787140
-142.393707275391 -64.472930908203 -198.933425903320 1.396931529045
-131.154876708984 -65.476951599121 -197.541519165039 1.949594616890
-107.561607360840 -64.755027770996 -198.383056640625 1.398475408554
-115.327308654785 -61.421241760254 -199.969192504883 2.171121835709
-111.993667602539 -64.493827819824 -201.104736328125 1.221855521202
-115.062919616699 -62.075729370117 -203.358352661133 2.679193735123
-133.661758422852 -62.596336364746 -198.981277465820 2.106682300568
-136.052429199219 -64.089530944824 -203.300079345703 2.633915185928
-131.093322753906 -63.449031829834 -206.659652709961 2.101145267487
-126.068572998047 -60.891921997070 -202.708587646484 2.028046846390
-125.069000244141 -63.952823638916 -205.721878051758 1.041177392006
-114.409904479980 -63.411788940430 -205.097015380859 2.842393636703
-146.599182128906 -63.897068023682 -215.737350463867 2.442443370819
-150.738021850586 -64.358314514160 -222.230636596680 2.602418422699
-152.192810058594 -62.337890625000 -224.191635131836 0.976200401783
-140.398193359375 -67.916130065918 -226.453186035156 2.015486240387
-131.572311401367 -61.676502227783 -227.678283691406 2.962919712067
-122.697433471680 -65.665321350098 -222.998062133789 2.852327823639
-140.346572875977 -65.267295837402 -229.348861694336 1.389204859734
-149.982818603516 -66.123092651367 -228.279602050781 1.542820811272
-133.726242065430 -64.850105285645 -227.550354003906 1.137176990509
-132.757766723633 -61.881019592285 -229.539688110352 1.820469141006
-147.255966186523 -65.278892517090 -231.005371093750 1.416324138641
-133.515792846680 -60.699192047119 -231.661041259766 3.220741987228
-126.059432983398 -62.476112365723 -230.598632812500 1.945289254189
-8.540972709656 -67.014076232910 -236.817916870117 1.056191205978
5.454717159271 -63.716140747070 -239.679306030273 0.999302089214
14.150172233582 -61.943859100342 -242.347167968750 1.690991997719
10.395616531372 -66.573211669922 -243.594329833984 2.507076740265
-8.151881217957 -66.073516845703 -241.431457519531 0.983090817928
-10.836871147156 -64.761238098145 -246.899032592773 1.820250868797
40.347702026367 -63.487327575684 -250.592849731445 2.122862577438
49.345886230469 -64.708404541016 -251.787963867188 1.630512237549
-144.355148315430 -62.042335510254 -255.252929687500 1.900406718254
42.564815521240 -63.521961212158 -254.855422973633 0.774412155151
38.257278442383 -65.086326599121 -252.929656982422 0.874916613102
-156.738311767578 -65.359359741211 -259.141693115234 1.700186252594
-150.256866455078 -62.465927124023 -258.916992187500 1.611143469810
-148.805541992188 -66.887321472168 -260.826049804688 1.689850091934
3.288043022156 -64.786697387695 -263.698394775391 1.530434370041
-150.167297363281 -63.476291656494 -267.232360839844 1.364572644234
0.764550983906 -64.416275024414 -274.365478515625 1.596071720123
-145.817764282227 -64.811836242676 -275.419616699219 2.590494871140
-146.803710937500 -63.060756683350 -282.958038330078 1.458026766777
-150.247924804688 -63.040733337402 -284.953979492188 1.833897590637
-148.836288452148 -59.546585083008 -284.860504150391 2.944463729858
-143.861938476563 -62.152095794678 -288.425323486328 2.579832315445
-154.605575561523 -62.369918823242 -286.582824707031 1.454445004463
-150.135726928711 -62.484394073486 -287.091735839844 1.973485827446
-149.872817993164 -61.804077148438 -288.145263671875 2.261769056320
-146.198211669922 -62.506099700928 -287.702484130859 1.905191540718
-142.858322143555 -62.327308654785 -288.332550048828 2.036527633667
13.147375106812 -65.040107727051 -286.455444335938 1.480580806732
-146.179351806641 -62.760311126709 -292.768737792969 0.985591590405
-155.388809204102 -60.783023834229 -291.753845214844 3.301667213440
-153.163940429688 -60.080871582031 -289.958007812500 2.576905250549
-150.178421020508 -61.489261627197 -294.484558105469 1.304040193558
-148.496200561523 -59.312686920166 -291.071441650391 4.337120056152
-145.474990844727 -63.490688323975 -292.687774658203 0.825456023216
3.576971054077 -64.988906860352 -292.371002197266 1.989519715309
-143.388153076172 -61.833068847656 -295.023345947266 3.460258960724
-146.672714233398 -60.669258117676 -294.713623046875 2.835551977158
28.109216690063 -61.903537750244 -17.419832229614 3.218895912170
41.113307952881 -71.537910461426 -19.580549240112 2.392280340195
41.981132507324 -64.837348937988 -21.317449569702 0.910848140717
18.297933578491 -72.489540100098 -31.091989517212 2.222398757935
27.328088760376 -60.679328918457 -34.735469818115 1.559540867805
37.621795654297 -70.434516906738 -35.268302917480 1.210488796234
-57.788970947266 -64.318702697754 -43.988227844238 1.169170618057
-51.604110717773 -65.761863708496 -43.032058715820 3.433119535446
88.980751037598 -67.155548095703 -62.345291137695 1.564151763916
-96.486587524414 -63.934635162354 -65.820564270020 1.357744932175
95.219398498535 -72.316955566406 -63.182048797607 5.479664325714
67.259124755859 -66.855850219727 -68.210655212402 2.381852388382
101.173286437988 -68.371490478516 -76.235954284668 2.056034803391
63.780906677246 -68.832839965820 -75.344314575195 3.646611928940
-42.077857971191 -66.862701416016 -77.966835021973 1.192050218582
60.005847930908 -63.169685363770 -81.036705017090 2.477944135666
-55.840091705322 -62.932670593262 -79.553810119629 1.870696783066
60.594390869141 -65.429847717285 -84.060989379883 1.436579465866
61.533954620361 -64.649139404297 -83.926765441895 1.301710247993
-98.567871093750 -65.463829040527 -83.533874511719 2.271882057190
51.274944305420 -65.285987854004 -87.013717651367 2.889768838882
51.805847167969 -68.860176086426 -92.344787597656 1.432982325554
64.157066345215 -67.443405151367 -91.660881042480 0.791310191154
52.207572937012 -64.542007446289 -95.504692077637 1.562561631203
-81.527641296387 -63.708305358887 -106.786491394043 2.114793300629
82.930664062500 -68.997398376465 -104.882560729980 1.608019232750
-79.614334106445 -66.484848022461 -116.214302062988 2.210100650787
-76.657180786133 -63.359165191650 -107.853507995605 1.882196307182
-79.834381103516 -65.786331176758 -121.969299316406 2.080578565598
-86.601325988770 -64.505187988281 -114.299339294434 1.301325917244
-92.817611694336 -64.492492675781 -120.144531250000 2.196691513062
-79.890777587891 -65.433990478516 -124.340293884277 1.313882470131
-53.934173583984 -62.524353027344 -126.568695068359 1.347070217133
-77.970802307129 -63.483573913574 -134.357208251953 1.050675988197
-56.670967102051 -60.842887878418 -131.670471191406 2.496982812881
-87.953491210938 -62.957675933838 -136.911849975586 1.893611788750
29.476316452026 -64.491775512695 -137.276489257813 1.294594407082
19.781055450439 -65.479537963867 -140.105834960938 0.946111142635
-92.274757385254 -59.345455169678 -141.184722900391 3.393648147583
20.144142150879 -65.760887145996 -148.009506225586 0.739059090614
-90.263031005859 -65.631614685059 -146.111526489258 1.000144124031
-93.768165588379 -61.297744750977 -147.776672363281 2.115658521652
19.433294296265 -64.982231140137 -155.609420776367 3.078001260757
-95.783416748047 -63.159919738770 -146.370910644531 1.939615011215
-97.437675476074 -62.233001708984 -148.526214599609 1.160974502563
-102.526542663574 -62.937644958496 -157.755050659180 1.810568690300
-96.791587829590 -63.097423553467 -160.742172241211 1.731659531593
-104.257804870605 -64.258323669434 -177.019622802734 1.837928414345
-107.641960144043 -66.617355346680 -168.912582397461 2.671278953552
-100.395538330078 -63.396644592285 -165.500289916992 4.284483909607
-105.626754760742 -63.499526977539 -170.762161254883 1.277336716652
-140.618530273438 -64.757987976074 -178.255828857422 2.652508497238
-108.713249206543 -62.981002807617 -178.812484741211 1.177350521088
-141.695861816406 -63.048389434814 -188.275924682617 1.985903739929
-148.223297119141 -61.675342559814 -190.218338012695 3.171199560165
-151.272293090820 -61.570758819580 -191.939437866211 3.066677331924
-122.955757141113 -61.921466827393 -196.900344848633 0.691916465759
-130.405746459961 -64.005004882813 -197.497528076172 0.870452761650
-121.991455078125 -62.480110168457 -200.446197509766 1.627009630203
-141.796081542969 -65.039855957031 -202.888290405273 0.150081977248
-123.234870910645 -64.825180053711 -204.532196044922 1.162779331207
-145.384887695313 -64.331771850586 -205.806961059570 0.936884403229
-150.216369628906 -63.367031097412 -206.729843139648 1.625927448273
-154.316177368164 -61.428714752197 -229.016464233398 0.346011817455
-141.473052978516 -66.231506347656 -232.292388916016 1.268156528473
-126.177612304688 -61.833644866943 -232.971710205078 3.600202560425
-153.483398437500 -60.858711242676 -232.033309936523 0.755191564560
-2.150403022766 -67.260345458984 -237.957412719727 1.436216592789
13.643144607544 -61.800807952881 -239.078048706055 3.022814035416
-2.284396886826 -65.857032775879 -242.878601074219 1.989221692085
-147.684982299805 -61.742626190186 -245.705490112305 0.770224928856
-6.319423198700 -62.132331848145 -244.275268554688 1.978756546974
-148.546249389648 -64.342689514160 -254.108444213867 1.928419589996
-5.306853771210 -64.715156555176 -248.766052246094 2.466108322144
-149.141479492188 -63.067459106445 -254.238525390625 1.280632019043
23.729450225830 -66.115898132324 -252.543334960938 1.540174961090
-151.688018798828 -59.829025268555 -256.095001220703 2.184235334396
-147.791534423828 -61.936794281006 -255.917831420898 0.797204017639
-152.284240722656 -61.895713806152 -255.205535888672 0.923193812370
-148.539291381836 -60.877540588379 -258.158264160156 1.881203413010
35.713222503662 -63.454261779785 -256.751617431641 1.260836005211
31.219530105591 -62.755290985107 -262.116149902344 3.165114402771
-145.444747924805 -61.814109802246 -257.845092773438 0.909709215164
-150.057983398438 -59.613037109375 -261.566772460938 1.378403306007
-153.530441284180 -63.281723022461 -260.953369140625 2.006983995438
-146.619796752930 -60.317226409912 -261.338562011719 2.661357641220
27.797698974609 -62.409091949463 -261.942901611328 1.217621445656
29.911121368408 -63.301406860352 -264.471466064453 2.377998590469
-151.450347900391 -62.603729248047 -264.067230224609 1.170607209206
-142.236007690430 -61.684234619141 -263.820190429688 2.255145788193
-149.523315429688 -59.918106079102 -264.533447265625 2.584200143814
-143.627319335938 -61.407611846924 -264.369995117188 2.698577880859
-144.775344848633 -63.587001800537 -265.314331054688 1.153589844704
-147.681472778320 -63.854022979736 -266.614624023438 1.149914979935
-147.551193237305 -60.298366546631 -266.502838134766 1.860675811768
-148.842086791992 -59.686820983887 -285.635925292969 2.845808744431
-148.108367919922 -61.492893218994 -283.289947509766 2.127970218658
-147.239974975586 -61.673995971680 -281.159912109375 2.312624692917
18.845499038696 -63.898967742920 -282.254425048828 0.871050179005
-152.911788940430 -60.261619567871 -285.510589599609 2.006289482117
-145.842315673828 -60.903308868408 -287.383972167969 2.546257972717
-3.114084959030 -66.417488098145 -287.753265380859 0.785843253136
6.308588981628 -63.238468170166 -292.378265380859 2.509702920914
-150.057937622070 -62.648773193359 -296.194702148438 0.732344627380
26.180814743042 -73.133880615234 -21.529352188110 1.470279812813
44.081901550293 -66.678558349609 -28.084543228149 2.788323640823
48.771625518799 -72.367927551270 -32.021797180176 2.248682975769
41.133583068848 -63.708484649658 -33.159400939941 1.024802565575
24.395105361938 -73.206428527832 -36.899547576904 2.094193220139
43.912429809570 -71.792953491211 -39.006450653076 0.983483076096
80.150436401367 -64.606872558594 -60.444610595703 1.349520087242
76.103744506836 -66.372688293457 -60.811138153076 2.017388820648
-15.088772773743 -66.402587890625 -67.891166687012 2.085213422775
