-44.434276580811 -74.034667968750 -195.862365722656 2.846535921097
102.407760620117 -71.484848022461 -195.158432006836 2.815325737000
106.184204101563 -70.791999816895 -183.787673950195 2.287623405457
-45.440437316895 -75.747070312500 -195.782302856445 1.520257353783
-23.693040847778 -78.691322326660 -196.002944946289 1.074676275253
-148.426849365234 -83.131629943848 -199.424621582031 1.767317056656
-25.170351028442 -76.112907409668 -196.419357299805 0.600845634937
-156.176284790039 -80.081169128418 -198.333297729492 3.933260202408
-152.780395507813 -82.969299316406 -203.163208007813 2.001486301422
-142.414382934570 -80.239227294922 -201.529937744141 1.029263973236
-38.535587310791 -75.909118652344 -198.027496337891 1.760345697403
100.636268615723 -71.781433105469 -198.530502319336 0.815964162350
-40.557651519775 -74.039749145508 -198.404632568359 1.039698600769
-143.811065673828 -81.508544921875 -204.717178344727 1.027560591698
-38.316692352295 -73.047607421875 -204.734115600586 1.009719967842
-19.964975357056 -77.613708496094 -208.660644531250 2.845913648605
96.410438537598 -72.439895629883 -202.700012207031 2.501484632492
91.769943237305 -71.934532165527 -210.221115112305 1.833420872688
-32.984073638916 -73.975250244141 -215.852890014648 2.477240562439
-87.083236694336 -77.293281555176 -210.732711791992 1.719278693199
-75.746612548828 -76.517311096191 -210.842559814453 1.258362293243
-18.375316619873 -74.773727416992 -214.610992431641 2.522911310196
-149.839843750000 -78.661666870117 -207.849990844727 2.474425077438
89.257186889648 -71.966987609863 -211.010955810547 1.192743778229
89.052871704102 -70.813201904297 -216.195465087891 2.337554931641
90.285827636719 -71.079536437988 -217.503219604492 1.655745983124
-102.040878295898 -76.192047119141 -220.512252807617 2.853005886078
-152.057769775391 -80.597763061523 -222.387893676758 2.199998378754
-19.903228759766 -73.893692016602 -220.572052001953 0.999941706657
79.347366333008 -70.245773315430 -223.111801147461 2.796188831329
-149.151626586914 -80.893043518066 -225.027633666992 2.244312047958
-27.404527664185 -75.551162719727 -218.754699707031 1.745757222176
-133.030303955078 -76.483627319336 -229.906509399414 2.464633226395
-12.148068428040 -76.020149230957 -227.704849243164 1.887626051903
17.583242416382 -73.135795593262 -222.701934814453 2.532012462616
19.403289794922 -73.969093322754 -230.698638916016 2.298331499100
-154.256286621094 -81.159759521484 -233.386993408203 2.841702222824
-125.516609191895 -74.912246704102 -232.281219482422 0.578169465065
-8.171174049377 -73.052398681641 -233.545059204102 0.823720932007
0.022296000272 -73.123191833496 -235.424468994141 1.321512937546
69.222152709961 -71.413963317871 -231.894104003906 1.487338900566
71.408699035645 -69.643424987793 -235.161849975586 1.362940788269
-0.420433014631 -72.897773742676 -238.773620605469 0.779831290245
16.582071304321 -70.533439636230 -237.811660766602 1.459693193436
-29.545640945435 -70.500465393066 -238.753387451172 4.161645889282
-34.285167694092 -77.657325744629 -239.857177734375 1.680112481117
-45.711273193359 -73.929344177246 -239.152725219727 1.430312395096
-38.505798339844 -72.975311279297 -240.357864379883 2.809652805328
-17.984527587891 -75.058189392090 -241.250396728516 1.234615921974
-52.710239410400 -73.611381530762 -242.471725463867 1.853730320930
2.012715101242 -73.339607238770 -243.454803466797 2.018795967102
-67.971878051758 -74.861381530762 -244.027526855469 2.808400154114
20.296047210693 -73.086311340332 -245.373001098633 1.865454912186
-145.000885009766 -79.286750793457 -245.489791870117 2.621052980423
-72.261001586914 -77.112625122070 -249.645172119141 1.691751241684
14.783499717712 -74.619873046875 -247.080963134766 1.948051929474
-161.354278564453 -76.902786254883 -249.354492187500 1.843505620956
16.415172576904 -75.071647644043 -250.595916748047 2.244909048080
-79.647644042969 -73.328536987305 -249.806976318359 1.935304164886
-74.676338195801 -75.961189270020 -250.225799560547 1.300788521767
20.453662872314 -73.459877014160 -253.881942749023 2.732202053070
-88.878944396973 -74.985275268555 -252.232742309570 1.510707855225
-125.509635925293 -75.007980346680 -255.034393310547 0.462461173534
-134.045669555664 -77.799057006836 -258.603454589844 1.524429917336
-134.174911499023 -78.415443420410 -255.787918090820 2.108573675156
-147.073684692383 -76.788940429688 -260.231018066406 1.047168135643
-143.155181884766 -75.598060607910 -256.454132080078 2.058105468750
-135.092864990234 -75.320449829102 -261.383789062500 1.375601291656
-161.488845825195 -75.801292419434 -260.876556396484 1.421859979630
-126.239463806152 -74.975837707520 -265.069335937500 2.065089225769
-134.558044433594 -74.729339599609 -261.984985351563 1.591616511345
-164.342468261719 -75.571403503418 -265.597656250000 1.498326539993
-157.275802612305 -75.365737915039 -263.687957763672 2.244363069534
-149.944686889648 -75.732673645020 -265.155151367188 2.519036769867
-147.364532470703 -76.971839904785 -265.374176025391 0.665914833546
16.650518417358 -74.389869689941 -276.629364013672 2.700077772141
-165.711166381836 -76.993377685547 -267.796295166016 1.223379731178
-151.923721313477 -76.908630371094 -273.269104003906 2.050673007965
-5.810561180115 -78.550895690918 -271.951141357422 2.801291942596
-158.458236694336 -75.583442687988 -270.813537597656 2.992578744888
12.664481163025 -75.534301757813 -279.472961425781 2.111712217331
-151.711807250977 -76.280319213867 -281.883209228516 1.463541984558
-163.254318237305 -77.148994445801 -287.108367919922 2.069102287292
-154.230682373047 -77.492248535156 -281.539764404297 3.611144781113
-165.170913696289 -75.890144348145 -286.785980224609 2.226513385773
2.181025981903 -73.701103210449 -286.113769531250 1.981010079384
7.698461055756 -75.398780822754 -282.386199951172 2.820969581604
-99.750030517578 -73.896728515625 -288.998535156250 1.560230731964
-152.202453613281 -78.652221679688 -287.492431640625 1.959465146065
-148.187866210938 -75.099876403809 -286.184051513672 0.868069648743
-107.880409240723 -74.298057556152 -289.279968261719 1.265434741974
-151.230102539063 -77.330566406250 -290.945526123047 2.168804407120
-148.204528808594 -77.689109802246 -289.581146240234 2.688831329346
-70.012367248535 -75.275543212891 -291.042388916016 2.142667770386
-164.109054565430 -77.693367004395 -289.758575439453 2.768361568451
-123.222763061523 -73.657577514648 -290.857635498047 1.821404814720
-43.037765502930 -75.555053710938 -288.079223632813 1.917667031288
-154.339172363281 -76.203872680664 -288.808593750000 2.212429523468
-133.995803833008 -72.552574157715 -292.880859375000 1.906000971794
-17.493190765381 -71.035614013672 -291.756988525391 1.609689593315
-127.064918518066 -74.074333190918 -293.176910400391 1.330741286278
5.860432147980 -72.471481323242 -292.295715332031 1.839591026306
15.707126617432 -70.337898254395 -290.888885498047 2.331319093704
-133.469848632813 -74.407585144043 -291.927856445313 2.462742805481
-145.433639526367 -76.665397644043 -296.015258789063 2.298476219177
-155.627441406250 -76.606079101563 -312.770294189453 2.963665723801
-73.626190185547 -75.613861083984 -51.267654418945 3.972726106644
-23.815717697144 -73.835243225098 -61.249774932861 1.221135973930
-21.848148345947 -78.277267456055 -63.864704132080 2.995156049728
72.326698303223 -72.951553344727 -73.906906127930 2.445689439774
90.303657531738 -73.930526733398 -73.407806396484 1.335911870003
-38.559558868408 -76.795608520508 -77.270042419434 2.739748001099
73.658973693848 -74.076362609863 -76.547157287598 1.738449215889
88.067031860352 -76.580131530762 -79.616065979004 0.874766886234
67.893844604492 -74.047317504883 -80.943130493164 3.200828552246
71.247207641602 -73.881614685059 -85.474121093750 1.047983527184
-50.546554565430 -79.278907775879 -86.141845703125 2.345072507858
-92.794204711914 -80.205390930176 -87.111831665039 5.211734294891
57.340343475342 -75.440910339355 -91.802612304688 2.331083536148
48.956462860107 -75.270561218262 -96.408317565918 1.448997139931
93.287208557129 -72.059211730957 -95.492469787598 3.530365228653
-94.057220458984 -75.723541259766 -101.170616149902 4.432072639465
81.990371704102 -72.083427429199 -96.254325866699 3.764538049698
72.925170898438 -73.946548461914 -97.106735229492 0.648957848549
90.954429626465 -74.196159362793 -96.191825866699 0.374737590551
81.863456726074 -72.845993041992 -96.742530822754 2.932729005814
83.526153564453 -75.768310546875 -96.094047546387 1.954347848892
-84.328804016113 -79.596099853516 -101.671226501465 3.117140054703
40.548851013184 -74.251037597656 -106.154579162598 0.915549933910
104.914535522461 -73.123420715332 -108.399032592773 0.523615479469
107.930374145508 -72.773468017578 -108.451744079590 1.712570667267
46.275440216064 -75.592544555664 -115.953521728516 1.205003976822
109.105812072754 -73.436401367188 -119.669578552246 1.214079022408
115.472160339355 -73.522903442383 -132.431365966797 1.797661542892
-52.664936065674 -75.291870117188 -131.548248291016 1.778027653694
26.369134902954 -73.929084777832 -132.623840332031 3.407980680466
39.620487213135 -75.371467590332 -131.739486694336 1.242537856102
24.717782974243 -71.947494506836 -141.557678222656 1.879430294037
112.411590576172 -73.144943237305 -136.928207397461 1.055013775826
111.219314575195 -72.090339660645 -130.478485107422 1.580399155617
-74.212081909180 -76.908508300781 -147.539855957031 2.078413486481
-44.820056915283 -75.776077270508 -143.398910522461 1.377371072769
-71.765258789063 -75.194000244141 -149.787643432617 1.278506517410
19.776601791382 -73.389709472656 -149.141189575195 2.961680889130
112.162483215332 -70.378639221191 -147.981170654297 2.705250740051
-53.894763946533 -76.789329528809 -149.333175659180 1.557645916939
-71.185485839844 -75.317146301270 -149.503585815430 1.324158310890
-39.189956665039 -78.419815063477 -152.211212158203 2.454998493195
32.092002868652 -70.130462646484 -151.089889526367 1.473539948463
110.147026062012 -69.823295593262 -149.432220458984 3.206722497940
113.862190246582 -70.475120544434 -157.475021362305 1.492454767227
-68.838928222656 -73.930686950684 -153.683822631836 0.634758055210
-71.696296691895 -77.155906677246 -161.077774047852 2.300669193268
21.164520263672 -75.828247070313 -161.722869873047 0.683676779270
-60.459300994873 -74.351249694824 -165.886672973633 1.242733955383
-33.529590606689 -74.718177795410 -160.823348999023 1.407775998116
6.931346893311 -74.739631652832 -161.675094604492 2.148425340652
109.069831848145 -70.294815063477 -159.602539062500 2.555160284042
6.048097133636 -75.788505554199 -164.732925415039 0.939848423004
-33.561607360840 -75.498466491699 -164.513809204102 1.564442276955
-1.519363045692 -71.924858093262 -165.073287963867 1.220210909843
107.659355163574 -69.427162170410 -166.688888549805 2.463575601578
-41.685508728027 -73.112228393555 -165.840026855469 2.283036470413
27.953159332275 -70.911903381348 -169.819763183594 0.469374954700
111.630477905273 -72.455406188965 -170.302749633789 0.890848040581
-57.753074645996 -73.352371215820 -175.707870483398 1.431847214699
-28.786743164063 -76.347450256348 -172.993255615234 1.408199310303
103.353492736816 -70.826156616211 -171.813827514648 3.446548223495
28.483062744141 -72.161796569824 -169.322357177734 1.148798823357
109.134994506836 -72.580589294434 -172.617385864258 1.812408447266
-37.368034362793 -73.073669433594 -176.462402343750 2.571557283401
107.140571594238 -72.157218933105 -178.508361816406 0.942226469517
-61.399585723877 -74.236244201660 -176.853317260742 2.601076602936
-25.645240783691 -77.443717956543 -178.527954101563 1.990607380867
-146.123962402344 -74.856185913086 -182.926773071289 1.477012515068
-54.605400085449 -74.632194519043 -180.994293212891 2.139571666718
-147.192596435547 -77.953887939453 -186.508850097656 1.470606684685
-33.837959289551 -73.099166870117 -185.015289306641 0.679991424084
25.174057006836 -75.161842346191 -182.227935791016 0.981466472149
106.548759460449 -70.970535278320 -181.020294189453 2.026468515396
-32.801925659180 -75.412879943848 -184.140472412109 0.438827842474
11.055190086365 -73.902458190918 -189.361648559570 2.128111600876
17.853075027466 -72.526443481445 -200.906555175781 1.215388298035
-147.657409667969 -78.186134338379 -190.854522705078 3.128101110458
103.865959167480 -71.609222412109 -193.244445800781 2.422651529312
-20.327310562134 -71.909439086914 -192.265380859375 2.463495492935
101.514732360840 -71.162521362305 -186.931015014648 2.422921657562
13.162343978882 -71.598564147949 -187.425582885742 2.224586009979
-135.040740966797 -76.587104797363 -202.322326660156 0.775791227818
-139.647720336914 -77.297668457031 -200.156753540039 1.963484168053
98.812149047852 -71.904113769531 -199.173645019531 1.908597826958
-12.066674232483 -76.485229492188 -199.653961181641 2.142113924026
-15.875623703003 -74.822402954102 -201.012222290039 2.282618045807
9.936801910400 -74.350807189941 -205.990570068359 2.234808444977
-150.207473754883 -75.350822448730 -205.718795776367 1.416598439217
-146.115234375000 -78.470550537109 -207.192306518555 2.121830224991
99.191596984863 -67.979248046875 -201.878005981445 3.647734165192
-80.709693908691 -74.881523132324 -208.054748535156 2.508179664612
-36.694789886475 -74.381095886230 -201.452697753906 2.608505249023
17.944158554077 -74.221870422363 -210.848678588867 1.839791297913
-25.659740447998 -74.127410888672 -210.292572021484 1.371042132378
-77.634437561035 -74.048225402832 -208.629882812500 1.719067215919
90.874740600586 -70.549491882324 -208.174148559570 1.145164251328
-81.297027587891 -73.512344360352 -211.933425903320 1.175352811813
-146.888397216797 -77.675086975098 -218.297027587891 1.916607260704
-79.789787292480 -74.495239257813 -213.150497436523 1.356746315956
-14.402114868164 -70.262138366699 -210.178115844727 2.404371023178
-20.849771499634 -71.636947631836 -217.053970336914 1.609457492828
18.486289978027 -71.982215881348 -211.048629760742 0.630773425102
-5.688262939453 -74.196037292480 -216.777221679688 2.108623504639
-88.123283386230 -76.602798461914 -218.156158447266 1.356832027435
92.243392944336 -69.889297485352 -211.514404296875 1.629680037498
-97.333297729492 -75.257781982422 -215.420303344727 3.139775276184
-151.136886596680 -77.074020385742 -223.373245239258 1.008394002914
-22.799644470215 -72.410835266113 -222.039520263672 0.921205163002
16.963405609131 -72.459274291992 -214.874450683594 2.267225742340
-101.903518676758 -75.363700866699 -219.624465942383 2.479530811310
7.377985000610 -71.039466857910 -218.399261474609 2.836598873138
-24.744812011719 -73.833824157715 -215.216583251953 2.473325967789
83.112144470215 -69.454429626465 -221.876251220703 2.048713207245
-145.777816772461 -76.829376220703 -220.317474365234 1.699176073074
7.900841236115 -70.974128723145 -224.420883178711 2.393320798874
-9.413468360901 -75.301277160645 -223.236022949219 2.251292228699
17.228553771973 -68.267120361328 -220.409271240234 1.827615022659
83.405158996582 -70.910812377930 -220.108154296875 1.683427453041
-12.984043121338 -74.156242370605 -226.996231079102 1.017128586769
-130.533462524414 -76.724311828613 -226.149322509766 2.374070644379
-13.096941947937 -73.583549499512 -223.534652709961 1.955241084099
16.866615295410 -72.960083007813 -230.945617675781 1.611687421799
-125.950149536133 -77.405715942383 -227.203018188477 2.357996702194
-150.445571899414 -74.158149719238 -228.594528198242 1.640983462334
-141.878402709961 -75.692283630371 -228.698028564453 1.098674774170
-132.354187011719 -74.880699157715 -228.705215454102 1.351662993431
-14.208395957947 -71.949569702148 -224.755386352539 1.536942958832
71.805351257324 -70.302589416504 -227.019409179688 1.036030411720
-142.503921508789 -73.974266052246 -234.252563476563 1.192510843277
72.181259155273 -71.733039855957 -227.314910888672 0.953498899937
-19.888021469116 -75.580558776855 -227.632232666016 2.588159799576
-141.897232055664 -79.721069335938 -230.097656250000 1.589522004128
77.877510070801 -72.985298156738 -226.797103881836 1.780641198158
9.537707328796 -74.911903381348 -233.124603271484 1.492845416069
-142.318084716797 -80.489311218262 -234.767349243164 2.286501646042
-150.264648437500 -75.664161682129 -234.360916137695 0.295330643654
16.297100067139 -69.832054138184 -230.576889038086 1.889491438866
-2.738485097885 -73.781623840332 -235.592987060547 1.536678671837
-26.411418914795 -72.909576416016 -236.436386108398 2.664984941483
-1.722532033920 -69.338562011719 -237.165557861328 1.512248754501
-160.768753051758 -77.830764770508 -237.732604980469 4.346961975098
9.382455825806 -71.768783569336 -242.756225585938 0.371975302696
-164.526321411133 -76.798164367676 -237.580673217773 4.259320735931
-13.239342689514 -73.803047180176 -236.725540161133 2.545113801956
63.298801422119 -71.208633422852 -237.486282348633 1.431242346764
-12.722743988037 -72.251457214355 -237.957290649414 1.867294907570
-24.730888366699 -71.925727844238 -241.524246215820 1.447230577469
-25.312059402466 -72.461067199707 -240.768814086914 0.636326253414
-13.974966049194 -73.548995971680 -240.327270507813 0.967965781689
-146.191024780273 -76.358894348145 -232.705245971680 1.979553103447
8.325631141663 -71.738426208496 -241.578964233398 1.220420360565
64.393928527832 -69.942459106445 -241.239318847656 2.488525629044
14.190257072449 -70.428970336914 -243.719314575195 1.491186499596
-164.054794311523 -75.418540954590 -240.935333251953 2.564152002335
-49.723667144775 -72.647994995117 -241.202484130859 1.473885178566
3.563895940781 -78.159744262695 -246.498641967773 1.503956198692
16.914897918701 -71.514381408691 -243.493850708008 1.711424350739
-54.335319519043 -72.637733459473 -246.261825561523 0.895513415337
-3.306654930115 -69.529029846191 -245.901199340820 3.334932327271
21.326129913330 -74.516029357910 -246.066497802734 0.956159651279
-167.264343261719 -75.365142822266 -248.702484130859 1.748631477356
-68.720397949219 -76.181762695313 -246.954574584961 0.815826594830
-50.927196502686 -72.901008605957 -246.403884887695 1.761221051216
-79.949775695801 -73.802986145020 -249.807403564453 1.776653766632
-160.231826782227 -76.637313842773 -247.440811157227 2.554685354233
-150.687805175781 -72.575843811035 -250.553131103516 2.447463989258
-59.590568542480 -74.924865722656 -248.852691650391 1.435808062553
-68.645439147949 -73.791137695313 -249.978454589844 2.008168220520
-153.403915405273 -74.659744262695 -253.103988647461 1.090797781944
-151.740447998047 -76.171707153320 -252.470535278320 2.612423181534
-76.403099060059 -72.122383117676 -253.450775146484 2.239114046097
-93.205963134766 -72.701225280762 -253.928070068359 2.270222425461
-164.945831298828 -73.450256347656 -251.546218872070 1.149864912033
-156.206390380859 -75.866729736328 -258.890838623047 1.766464352608
-134.150421142578 -76.194801330566 -257.006042480469 0.721158802509
-82.818893432617 -74.374786376953 -251.806442260742 2.409658193588
-162.253875732422 -74.445129394531 -252.651489257813 0.579527854919
-141.746047973633 -74.538948059082 -256.643402099609 1.313386797905
-85.439231872559 -73.426765441895 -252.388504028320 1.792788028717
-96.031867980957 -72.055038452148 -259.041290283203 0.846698462963
-145.986953735352 -76.136795043945 -256.514617919922 3.044056892395
-93.903633117676 -73.866416931152 -255.944015502930 1.021084547043
-151.146942138672 -74.714187622070 -256.505310058594 2.484829187393
-101.183326721191 -73.965049743652 -255.845520019531 1.152706861496
-166.936508178711 -75.773895263672 -259.211914062500 3.203115701675
-160.747482299805 -76.640830993652 -261.856109619141 2.242963552475
-125.193954467773 -76.589897155762 -256.791839599609 2.143013000488
-150.909530639648 -75.496566772461 -259.442749023438 1.729315757751
-112.860939025879 -72.898818969727 -261.151397705078 1.176151871681
-14.359921455383 -71.543022155762 -260.763549804688 1.936646819115
-141.796661376953 -75.160614013672 -261.314453125000 0.394605398178
-124.929992675781 -74.562690734863 -260.022155761719 1.823470711708
-154.420944213867 -74.687835693359 -262.373291015625 1.540097117424
23.159275054932 -71.513969421387 -268.572631835938 0.713400900364
-147.590682983398 -76.911491394043 -278.302490234375 1.564629197121
-167.534225463867 -75.917068481445 -279.092132568359 2.504136800766
-7.321321010590 -72.495979309082 -278.184448242188 2.496981859207
-145.921630859375 -75.466049194336 -281.257537841797 1.713321208954
-8.410349845886 -70.541946411133 -281.816284179688 1.276954174042
13.247806549072 -70.757446289063 -284.415649414063 2.347490310669
-135.881927490234 -74.160034179688 -286.041473388672 0.422704398632
-69.114212036133 -74.036933898926 -286.081298828125 1.928847789764
-32.835224151611 -73.484695434570 -286.427947998047 1.620678544044
-112.738716125488 -73.788215637207 -285.298431396484 2.276320695877
-93.658432006836 -75.903442382813 -290.074035644531 1.789978146553
-89.756652832031 -73.438995361328 -290.919555664063 1.474575400352
-48.591266632080 -73.387367248535 -290.712219238281 3.150322198868
-115.351013183594 -76.571945190430 -289.336547851563 2.477253913879
-112.006172180176 -74.789390563965 -290.088531494141 2.015305519104
-32.227626800537 -70.412902832031 -289.118499755859 2.088757991791
-114.004676818848 -73.791519165039 -292.305114746094 1.363279104233
-125.796562194824 -71.473548889160 -290.894561767578 2.123727083206
-143.520553588867 -75.953880310059 -293.108459472656 2.228346109390
7.720787048340 -70.382995605469 -290.737609863281 2.351722478867
16.203664779663 -72.092887878418 -292.334350585938 2.569028377533
-158.279739379883 -75.310150146484 -293.436553955078 2.405276536942
-156.228607177734 -77.752334594727 -300.837463378906 2.163254737854
-145.308868408203 -75.529930114746 -310.947601318359 1.513774514198
-150.643371582031 -73.285865783691 -311.332061767578 1.611944437027
-151.686279296875 -76.736396789551 -313.171173095703 2.018777608871
27.940664291382 -76.924507141113 -14.253220558167 5.189359664917
27.053522109985 -74.095275878906 -16.146377563477 2.629236459732
20.234537124634 -75.442359924316 -22.243534088135 3.425781250000
27.465259552002 -73.512153625488 -37.917617797852 2.954218387604
-58.764408111572 -75.763359069824 -48.728683471680 4.892866611481
-66.585525512695 -76.339576721191 -49.255855560303 4.587263107300
-39.702552795410 -77.865173339844 -50.365264892578 5.586112022400
-84.132644653320 -75.406021118164 -60.674980163574 3.336223125458
80.845314025879 -75.339118957520 -71.646469116211 1.593034029007
-17.950218200684 -75.109214782715 -69.842742919922 1.036633133888
87.967201232910 -73.880149841309 -66.523658752441 1.529567122459
97.571083068848 -72.198722839355 -75.845848083496 1.406043052673
-93.863250732422 -76.096748352051 -76.880599975586 4.433478355408
67.768753051758 -73.060829162598 -78.643493652344 2.204423666000
-42.564105987549 -79.432670593262 -84.191162109375 1.960571646690
99.516540527344 -70.947647094727 -80.878158569336 2.274466037750
-55.361022949219 -75.950782775879 -88.183341979980 2.667641401291
50.900562286377 -73.671981811523 -88.893852233887 2.546921730042
70.733055114746 -76.401992797852 -89.549980163574 1.890317559242
55.606807708740 -72.916648864746 -95.086250305176 1.565149545670
52.143966674805 -75.041641235352 -96.831718444824 1.524547696114
73.022102355957 -75.269744873047 -93.657981872559 1.592387318611
45.290832519531 -73.625747680664 -101.753013610840 1.700228333473
101.124824523926 -72.647026062012 -98.007530212402 0.397698193789
105.636558532715 -74.561225891113 -103.674575805664 2.360189676285
80.577484130859 -69.757469177246 -101.302436828613 1.858753323555
89.816291809082 -73.375625610352 -100.662689208984 1.166398048401
100.490554809570 -72.236747741699 -94.197975158691 1.973100066185
108.415412902832 -71.806793212891 -101.297622680664 1.216001391411
38.720909118652 -74.155082702637 -104.399955749512 2.109835863113
111.171684265137 -69.186317443848 -117.047523498535 1.928660511971
112.699211120605 -72.431755065918 -116.390357971191 2.159416437149
31.477794647217 -72.702590942383 -121.454650878906 2.659353256226
44.259696960449 -74.119621276855 -117.791725158691 1.197373628616
114.647529602051 -71.294548034668 -126.792533874512 1.465886592865
37.037094116211 -73.112075805664 -125.086250305176 2.886680364609
113.494430541992 -73.261634826660 -126.084930419922 0.376935660839
108.722747802734 -71.959609985352 -120.227302551270 1.208989381790
25.523303985596 -73.287780761719 -135.224182128906 2.040451526642
-49.034366607666 -75.619575500488 -133.843292236328 2.321285247803
-52.627265930176 -74.178939819336 -134.667205810547 1.279270052910
110.715225219727 -70.393989562988 -132.531707763672 1.442051172256
-70.490165710449 -78.238304138184 -140.601165771484 3.901931285858
-74.028007507324 -76.663307189941 -139.785278320313 2.235858201981
-58.612495422363 -76.116477966309 -141.720642089844 1.772769093513
32.263317108154 -72.579925537109 -141.292449951172 1.714030623436
113.990745544434 -71.788078308105 -143.020721435547 1.047059893608
-69.277198791504 -73.429191589355 -146.063018798828 1.753382921219
-47.523883819580 -74.435119628906 -142.631591796875 2.429148435593
33.517005920410 -73.662124633789 -148.824996948242 0.565266668797
-68.246452331543 -76.543121337891 -147.326828002930 1.419923067093
113.422927856445 -70.254592895508 -140.136001586914 2.020717382431
111.907806396484 -69.397888183594 -155.187225341797 0.493073165417
116.010589599609 -71.662734985352 -149.917221069336 2.153928518295
-38.459735870361 -76.420265197754 -152.650787353516 1.796101450920
-65.372703552246 -75.603851318359 -163.003051757813 1.266001582146
-70.735885620117 -73.832511901855 -156.210311889648 2.403239727020
30.657264709473 -73.920127868652 -146.336135864258 2.837136983871
-2.219728946686 -75.257240295410 -161.070877075195 2.265668153763
108.423576354980 -70.956993103027 -158.827713012695 2.410303831100
111.277015686035 -69.611907958984 -151.272293090820 1.793537974358
111.807518005371 -71.670654296875 -155.525955200195 0.989786922932
-64.508377075195 -72.768424987793 -160.612686157227 1.582412362099
-45.703838348389 -76.270751953125 -162.983963012695 2.060739517212
-1.673328995705 -72.656845092773 -163.802597045898 1.798494815826
-28.171365737915 -73.807357788086 -173.836715698242 1.858885049820
106.032752990723 -70.196014404297 -164.661193847656 3.285093545914
-35.508010864258 -76.374504089355 -159.325027465820 1.607301235199
109.650016784668 -69.430419921875 -166.759597778320 2.020504474640
-41.775512695313 -75.062118530273 -172.345428466797 1.352400660515
108.889541625977 -69.054847717285 -165.634262084961 1.508243680000
-150.290451049805 -77.800895690918 -180.803192138672 4.121045589447
-27.783721923828 -71.237205505371 -175.293670654297 1.591451525688
-20.788909912109 -73.450973510742 -181.882598876953 1.352619528770
25.041217803955 -74.665763854980 -175.864669799805 1.506977796555
15.559554100037 -72.969673156738 -181.294448852539 0.926060318947
27.008666992188 -72.576515197754 -181.726669311523 1.055939793587
105.348442077637 -72.402297973633 -181.022964477539 1.020848274231
-151.474716186523 -75.116409301758 -185.730361938477 3.256244659424
-19.960515975952 -75.470092773438 -185.445770263672 1.378718972206
102.759880065918 -70.583732604980 -176.470809936523 2.595364093781
103.312660217285 -68.204627990723 -187.887466430664 1.692862868309
107.507797241211 -70.809150695801 -176.452331542969 3.120201587677
98.424758911133 -71.690193176270 -192.044677734375 1.665698289871
-151.417709350586 -78.322975158691 -195.618957519531 1.684400916100
100.418891906738 -70.782829284668 -202.793487548828 1.344019770622
-28.221277236938 -71.599128723145 -195.095443725586 2.047715902328
98.304534912109 -69.858474731445 -194.453109741211 2.282344579697
-122.519622802734 -77.761756896973 -198.988830566406 4.385949611664
-29.377733230591 -77.398078918457 -190.266357421875 1.899096727371
-141.456863403320 -73.680267333984 -198.203491210938 2.109643459320
94.992034912109 -70.387321472168 -197.117309570313 3.095133543015
8.950403213501 -73.530860900879 -197.363601684570 1.873664140701
23.457057952881 -71.660423278809 -191.742492675781 1.312041282654
-147.482910156250 -75.868522644043 -202.020858764648 3.251313447952
-139.654830932617 -75.384880065918 -201.640197753906 1.027997851372
-10.275026321411 -72.480819702148 -204.304672241211 1.615871548653
-124.285118103027 -75.843139648438 -202.474121093750 1.984703302383
-143.329589843750 -79.089630126953 -201.407791137695 1.542725205421
5.637111186981 -72.571960449219 -198.853103637695 3.639936208725
-23.053421020508 -75.122810363770 -200.637741088867 2.249872446060
20.554395675659 -73.927581787109 -201.518264770508 2.568082809448
7.505022048950 -73.057365417480 -209.716049194336 2.008734703064
87.202873229980 -69.127967834473 -206.197540283203 5.541495800018
-18.643022537231 -70.848228454590 -210.709304809570 2.316926956177
91.841079711914 -68.576133728027 -206.791412353516 2.982404708862
96.495231628418 -70.902511596680 -204.923767089844 1.562955260277
-149.233978271484 -76.570167541504 -215.078048706055 1.579699039459
95.875381469727 -70.812660217285 -209.474502563477 2.324170827866
5.648970127106 -72.185432434082 -206.765747070313 2.313902616501
4.513484001160 -74.138259887695 -213.105499267578 2.299535512924
-33.473224639893 -73.032630920410 -206.743652343750 1.665367245674
-89.247932434082 -74.105606079102 -212.790481567383 1.033071756363
-26.852149963379 -73.722999572754 -210.408493041992 2.119572162628
85.013816833496 -69.900451660156 -214.220214843750 1.960829019547
88.595916748047 -69.232063293457 -215.856933593750 1.958096623421
-31.990592956543 -72.751083374023 -211.649826049805 1.839444398880
-84.646270751953 -72.372253417969 -217.031524658203 1.943648099899
-1.425394058228 -74.145919799805 -216.991394042969 2.023860454559
84.258468627930 -67.912239074707 -212.027755737305 4.490772247314
-151.197326660156 -77.946441650391 -222.286865234375 2.014977455139
-165.275070190430 -75.254730224609 -214.472732543945 1.961059212685
-160.726150512695 -77.338867187500 -222.761413574219 4.939204216003
-20.978597640991 -72.790069580078 -225.693634033203 0.282093405724
-153.037643432617 -77.354064941406 -223.127853393555 2.208990335464
-6.267056941986 -73.750564575195 -223.644821166992 3.029030323029
7.208449840546 -72.399177551270 -216.970581054688 0.961034417152
-165.546386718750 -75.962921142578 -225.308380126953 3.056630611420
-159.607177734375 -76.397064208984 -226.991424560547 3.560974359512
79.915145874023 -72.106597900391 -228.994491577148 1.504377484322
1.547767043114 -70.575416564941 -225.796386718750 1.760148167610
-156.169708251953 -72.917869567871 -226.051055908203 2.152348518372
-141.991378784180 -76.286933898926 -225.186920166016 1.644874691963
-19.234476089478 -72.308082580566 -222.936203002930 1.917341113091
1.002715945244 -75.885429382324 -222.372543334961 2.244974851608
80.416992187500 -68.464233398438 -222.787612915039 3.538073062897
-161.125610351563 -74.900718688965 -228.058868408203 2.070162534714
-144.995086669922 -74.077079772949 -229.685745239258 1.742904067039
-124.346839904785 -73.958000183105 -230.231536865234 1.608918905258
79.554542541504 -70.426269531250 -225.023986816406 1.469722867012
-115.167709350586 -74.498306274414 -228.783187866211 0.153828427196
-147.555328369141 -75.589942932129 -229.243988037109 1.816619873047
-149.745300292969 -74.593711853027 -231.123260498047 0.902380645275
-148.080673217773 -76.122146606445 -231.011581420898 1.812574505806
-155.511932373047 -75.951133728027 -229.213882446289 2.644327878952
-164.842514038086 -76.225837707520 -229.615005493164 3.439165115356
-133.961044311523 -74.696434020996 -234.223724365234 1.373890995979
-132.902801513672 -76.208709716797 -232.831008911133 2.584013938904
-153.490066528320 -77.667655944824 -232.598114013672 1.246038079262
-144.949188232422 -72.641136169434 -236.140350341797 2.274868249893
-151.609603881836 -75.712356567383 -235.190689086914 1.303301095963
74.866752624512 -71.046897888184 -229.818740844727 0.899748921394
67.773918151855 -66.824821472168 -234.767837524414 0.931583762169
-157.668975830078 -74.808547973633 -235.550537109375 3.132894992828
71.336494445801 -66.939842224121 -231.371276855469 2.249516248703
-18.883092880249 -71.648880004883 -235.663085937500 2.472022056580
11.148400306702 -72.113967895508 -234.966262817383 1.960667371750
6.826778888702 -72.373649597168 -234.750854492188 0.986792922020
-153.188156127930 -75.506065368652 -243.651672363281 3.100150585175
14.234388351440 -70.875785827637 -239.517578125000 1.130389094353
62.449192047119 -69.477027893066 -235.720886230469 1.348722696304
13.937609672546 -69.663246154785 -236.274093627930 2.044155836105
6.293767929077 -72.192756652832 -240.385543823242 2.629772186279
-5.969791889191 -70.805702209473 -239.564056396484 1.114066362381
-20.247289657593 -71.197189331055 -241.666320800781 1.386076807976
-0.769236028194 -71.440895080566 -241.471893310547 1.448640227318
3.785619974136 -73.479888916016 -242.941680908203 1.253689169884
57.894763946533 -70.709304809570 -240.192230224609 2.128099203110
-55.334300994873 -74.811798095703 -243.983688354492 1.773204922676
19.588439941406 -70.135078430176 -245.390701293945 1.670174837112
-59.866287231445 -74.172973632813 -242.126739501953 2.561167478561
-8.884797096252 -71.755737304688 -246.528045654297 0.648316442966
-65.082809448242 -70.616134643555 -249.360031127930 1.232565641403
-85.687858581543 -73.110855102539 -252.017181396484 1.493740677834
-82.235336303711 -73.892959594727 -250.540771484375 1.863353610039
-10.365290641785 -71.108894348145 -252.534408569336 2.513406515121
-123.551048278809 -74.063865661621 -257.364288330078 0.472497254610
-13.609377861023 -72.647911071777 -252.769180297852 1.148069381714
-116.446884155273 -74.472648620605 -256.131530761719 0.543583571911
-115.133750915527 -73.375900268555 -258.246887207031 0.602948725224
-102.826316833496 -73.698883056641 -257.345611572266 1.912291049957
-143.688522338867 -74.351646423340 -262.846496582031 1.606117606163
-144.674240112305 -74.184425354004 -266.642791748047 2.221886396408
-167.741119384766 -75.455032348633 -264.166473388672 1.430642604828
18.951276779175 -72.926574707031 -278.667846679688 0.600433290005
-55.914115905762 -70.832687377930 -284.813049316406 2.263385534286
-65.901039123535 -71.548889160156 -283.941925048828 2.245962858200
-41.343425750732 -73.169395446777 -283.883331298828 2.159544944763
-28.057312011719 -72.474845886230 -284.957458496094 1.539665341377
-95.904693603516 -74.126953125000 -287.891784667969 2.140738010406
-29.592988967896 -69.876983642578 -285.367492675781 3.224382877350
-3.692084074020 -71.073593139648 -285.342773437500 2.576063871384
-166.663421630859 -74.735061645508 -289.306793212891 2.502681016922
-13.393561363220 -72.505432128906 -285.145996093750 1.762854576111
7.676011085510 -71.408187866211 -286.699188232422 2.438301086426
14.991067886353 -73.382255554199 -284.356231689453 1.462693572044
-56.142837524414 -73.291992187500 -288.204193115234 1.140108466148
-31.251308441162 -71.165061950684 -290.152282714844 0.482968837023
14.802129745483 -68.584983825684 -291.165466308594 2.746887922287
-69.709335327148 -71.516815185547 -291.585083007813 1.506267189980
-38.254688262939 -69.847198486328 -288.912506103516 2.761805534363
-17.036844253540 -69.347076416016 -289.238403320313 1.895853519440
16.283424377441 -71.800521850586 -289.284698486328 1.954953908920
-10.428888320923 -71.685966491699 -292.139923095703 2.702702999115
4.307886123657 -69.200729370117 -291.791168212891 1.688616991043
14.875138282776 -71.136878967285 -290.390899658203 1.198737382889
-134.124801635742 -72.957550048828 -294.338470458984 1.413436055183
-143.982742309570 -76.064147949219 -299.987213134766 2.370260953903
-148.546356201172 -74.881660461426 -313.153594970703 1.689463138580
40.853256225586 -74.116806030273 -11.900506973267 1.877842426300
29.262454986572 -74.758338928223 -10.501473426819 3.727223157883
37.678962707520 -74.652282714844 -14.202233314514 2.916461229324
20.313737869263 -72.976638793945 -17.781278610229 3.620066881180
43.465167999268 -73.093193054199 -20.265830993652 1.453158974648
24.079204559326 -74.004875183105 -21.918510437012 1.921247720718
22.891609191895 -75.150665283203 -26.740985870361 3.077766418457
22.759521484375 -75.364433288574 -35.314403533936 3.561751127243
39.948772430420 -75.322006225586 -29.222236633301 4.980545997620
25.614742279053 -76.825843811035 -34.249919891357 4.794415950775
41.607944488525 -73.305648803711 -34.888248443604 1.966044783592
30.755680084229 -74.827552795410 -36.945903778076 4.043716430664
36.747341156006 -75.132453918457 -34.807571411133 3.673557758331
30.165813446045 -74.050498962402 -38.433467864990 2.688646793365
41.711483001709 -73.956466674805 -39.073322296143 2.167942047119
33.538597106934 -74.031845092773 -38.430801391602 1.783736586571
-41.031166076660 -73.946701049805 -47.890762329102 3.035084247589
-31.471509933472 -71.568519592285 -49.988838195801 2.057629108429
-89.726844787598 -74.551452636719 -55.035324096680 5.750775337219
-89.147079467773 -77.870498657227 -64.733345031738 6.225636959076
77.679023742676 -74.406822204590 -66.111122131348 4.337104320526
83.474967956543 -72.703956604004 -70.273429870605 1.301204800606
-19.714677810669 -73.259582519531 -71.560821533203 2.073464870453
-89.096496582031 -77.945999145508 -71.009140014648 3.803294181824
-26.022314071655 -74.877716064453 -75.730613708496 1.736580491066
-50.451431274414 -76.215324401855 -84.317710876465 2.752686977386
65.050483703613 -68.863937377930 -84.105163574219 1.440387845039
52.436393737793 -72.115463256836 -90.966484069824 0.854446411133
98.785285949707 -70.151054382324 -89.021102905273 1.911291122437
69.122200012207 -72.864433288574 -94.345520019531 2.657108783722
-67.706939697266 -77.819152832031 -91.547370910645 4.471594810486
-64.319557189941 -75.047203063965 -96.554344177246 1.184813380241
44.348960876465 -73.731849670410 -95.558059692383 1.913798809052
76.772369384766 -70.948455810547 -98.846099853516 2.480015993118
53.606422424316 -77.643196105957 -102.977081298828 1.901934146881
100.290153503418 -70.860992431641 -94.948570251465 1.270274281502
-96.059181213379 -76.891983032227 -106.647735595703 4.840308189392
38.325988769531 -73.387298583984 -109.625732421875 0.857437849045
106.179290771484 -71.255477905273 -105.705467224121 0.488657563925
47.451057434082 -72.080421447754 -109.190734863281 1.996797919273
101.543983459473 -71.402923583984 -106.516845703125 2.342541217804
-86.392707824707 -76.405326843262 -113.548118591309 2.296639919281
35.528038024902 -75.256912231445 -109.544342041016 1.517030119896
105.611206054688 -70.185035705566 -114.315162658691 1.081033587456
104.097763061523 -68.671882629395 -112.979629516602 1.641794204712
105.963310241699 -70.899085998535 -112.562805175781 2.007190465927
109.551658630371 -70.047119140625 -112.391326904297 0.629824638367
38.605445861816 -73.188484191895 -109.622756958008 0.859388709068
31.298040390015 -71.797309875488 -116.564582824707 2.550971746445
41.460727691650 -72.161537170410 -113.319084167480 1.319637775421
107.347625732422 -71.180610656738 -119.774391174316 1.772463798523
38.971519470215 -71.206130981445 -122.468788146973 1.740586757660
108.165428161621 -69.808547973633 -129.283859252930 2.426896572113
111.064544677734 -69.213905334473 -128.394699096680 2.024536371231
33.015659332275 -71.097694396973 -120.115356445313 2.468289375305
-78.148849487305 -74.759582519531 -126.139282226563 4.589555740356
114.260261535645 -68.559547424316 -131.981491088867 1.975010871887
-55.717056274414 -74.689239501953 -136.085006713867 2.293384790421
35.496623992920 -72.844497680664 -133.340423583984 2.183492660522
-73.547119140625 -75.447166442871 -135.743545532227 2.824695348740
27.347278594971 -73.656425476074 -131.085418701172 1.977617263794
-79.218444824219 -75.348609924316 -141.432327270508 4.352851867676
-45.646396636963 -76.781654357910 -140.922042846680 1.541348695755
-73.544952392578 -74.722839355469 -137.102935791016 1.543845891953
110.308570861816 -69.371162414551 -135.066635131836 2.112408638000
114.991722106934 -68.613502502441 -139.201065063477 2.112565040588
117.063392639160 -72.162307739258 -143.017959594727 1.039293408394
-75.838218688965 -73.571899414063 -143.094207763672 1.825330734253
8.293896675110 -69.496253967285 -149.275344848633 1.603901624680
-53.284015655518 -74.915275573730 -149.377517700195 1.139392018318
-50.504673004150 -74.707649230957 -154.561767578125 2.346066951752
107.074005126953 -69.718139648438 -158.129577636719 3.097777843475
-42.271553039551 -75.089859008789 -148.814666748047 2.124030590057
13.213809013367 -71.060089111328 -155.673919677734 1.936592936516
21.854330062866 -73.116935729980 -156.188369750977 2.121711254120
114.506263732910 -69.518966674805 -161.733474731445 2.958565235138
29.107622146606 -71.663612365723 -163.071487426758 1.859343767166
-1.287595987320 -73.610740661621 -161.875900268555 1.291175603867
31.405918121338 -72.576622009277 -159.411453247070 1.694636702538
-68.296028137207 -72.884582519531 -157.757354736328 0.770501613617
-65.690650939941 -73.822990417480 -158.275588989258 0.844621479511
-68.697029113770 -73.783866882324 -164.379074096680 1.850081801414
114.397491455078 -66.993232727051 -158.619964599609 3.437530994415
-44.815402984619 -73.708671569824 -161.895675659180 1.257398247719
18.358552932739 -72.324310302734 -164.203262329102 1.308459043503
-64.305076599121 -73.669097900391 -168.560241699219 0.221686556935
-62.385452270508 -73.092582702637 -170.336380004883 2.569502592087
-40.560855865479 -73.981857299805 -158.804031372070 1.530024170876
-33.093681335449 -74.421798706055 -168.051803588867 2.550751447678
114.181762695313 -70.689025878906 -168.631317138672 0.466187864542
-37.149539947510 -70.375564575195 -177.295333862305 1.259768724442
14.352867126465 -72.881988525391 -172.071792602539 2.971712350845
110.642364501953 -71.193275451660 -180.699935913086 1.333383560181
-148.060195922852 -77.624290466309 -175.842300415039 4.417692184448
-145.843307495117 -76.316970825195 -174.313598632813 3.537627935410
-149.956573486328 -74.984191894531 -178.675994873047 2.371811389923
-142.789459228516 -76.460601806641 -181.580825805664 2.867162227631
-31.464694976807 -72.067886352539 -184.705871582031 2.090232849121
-23.128713607788 -72.468971252441 -184.646743774414 1.491203069687
22.841962814331 -69.214775085449 -188.561004638672 0.653484284878
-142.032592773438 -75.090438842773 -186.510437011719 1.295251011848
-146.976333618164 -76.048439025879 -188.126327514648 1.618270993233
-21.043914794922 -70.103279113770 -185.793777465820 1.937312245369
11.915967941284 -72.563575744629 -180.935623168945 2.973241329193
-148.853622436523 -75.891319274902 -193.228591918945 1.710050582886
-31.658041000366 -74.038711547852 -185.942794799805 1.262810468674
100.156555175781 -69.183319091797 -185.995956420898 3.100440740585
106.747009277344 -68.929924011230 -187.382156372070 1.215190887451
23.498689651489 -68.197425842285 -191.723632812500 2.877412319183
-15.545232772827 -72.882179260254 -187.195083618164 3.727992534637
-27.199056625366 -74.285636901855 -192.534423828125 2.104941844940
-154.714340209961 -76.118278503418 -197.622024536133 0.857249319553
-132.448593139648 -76.016670227051 -196.553802490234 1.293555736542
-124.932952880859 -73.237258911133 -194.824462890625 2.147604942322
-123.824989318848 -73.460937500000 -197.279953002930 0.823780894279
-22.985294342041 -69.105033874512 -195.525955200195 1.194459557533
11.669623374939 -72.883621215820 -191.141296386719 1.637481093407
93.370590209961 -71.114013671875 -198.879135131836 2.989227533340
-149.322631835938 -73.139907836914 -195.894485473633 2.947239875793
-145.601440429688 -73.840072631836 -198.352264404297 1.514467835426
-150.340591430664 -74.727577209473 -199.321334838867 3.056646585464
-155.034179687500 -74.051017761230 -197.941314697266 2.282959938049
-25.289562225342 -72.465110778809 -198.358169555664 1.637054085732
-12.240166664124 -72.282806396484 -194.399826049805 3.136107921600
-147.306350708008 -72.996238708496 -201.368240356445 0.929222941399
-17.425325393677 -71.589179992676 -199.116561889648 2.371437311172
-161.878311157227 -75.175987243652 -199.730651855469 3.106077671051
-134.166473388672 -75.100196838379 -199.216598510742 1.633599877357
16.229261398315 -71.813880920410 -205.574569702148 2.237240791321
-162.366149902344 -73.670539855957 -203.796264648438 2.141650199890
-145.859542846680 -76.073043823242 -206.108734130859 0.827031373978
9.095550537109 -70.182418823242 -200.334106445313 1.370443344116
-153.945922851563 -73.755279541016 -202.675674438477 2.241729259491
-24.048963546753 -72.216995239258 -200.007553100586 2.319378614426
99.411231994629 -69.335853576660 -197.316925048828 1.034740686417
-157.361938476563 -75.815902709961 -213.531341552734 3.733021259308
-164.454040527344 -77.470497131348 -208.484848022461 4.625269889832
-77.546798706055 -72.012725830078 -208.609588623047 1.984290361404
88.769477844238 -68.612419128418 -207.504074096680 3.954987287521
-3.717461109161 -70.143363952637 -216.124221801758 1.392064809799
-153.144866943359 -74.386947631836 -212.770294189453 2.967746496201
-87.780021667480 -73.228675842285 -213.301269531250 1.477845072746
-8.827106475830 -73.354965209961 -210.281585693359 1.023837685585
15.386862754822 -70.881759643555 -219.554855346680 0.913318514824
-145.267593383789 -75.572166442871 -219.279785156250 2.522103786469
-3.149456024170 -73.741325378418 -219.643157958984 1.540664792061
-20.451234817505 -71.802368164063 -218.191375732422 1.674615144730
-14.630006790161 -68.959251403809 -218.547195434570 2.218913316727
89.505630493164 -68.913017272949 -215.728256225586 1.710988044739
-21.172403335571 -70.848854064941 -216.126251220703 2.412044286728
-30.499635696411 -71.691169738770 -215.484359741211 2.191878795624
-107.354415893555 -71.221908569336 -223.669601440430 1.041517138481
-15.782766342163 -70.376335144043 -221.587493896484 0.533270955086
91.451568603516 -67.179817199707 -216.943984985352 2.427493333817
79.099510192871 -69.573905944824 -217.793930053711 2.603789567947
6.508491039276 -72.076416015625 -218.440139770508 2.418073892593
-10.849213600159 -70.462219238281 -224.062347412109 1.769250631332
78.447250366211 -69.982566833496 -220.363098144531 3.136112451553
-122.770378112793 -76.029594421387 -224.727508544922 3.119441270828
-21.318138122559 -70.287849426270 -221.750076293945 2.387149095535
-98.050178527832 -72.869140625000 -223.243667602539 0.903974354267
-103.470733642578 -73.744804382324 -224.515045166016 2.002904653549
-132.669326782227 -75.899581909180 -228.005432128906 1.655060648918
81.550247192383 -68.763031005859 -221.992187500000 2.899975776672
-123.325202941895 -74.377555847168 -226.848541259766 1.650760889053
5.216509819031 -70.699401855469 -227.096908569336 1.224250197411
80.854904174805 -67.957168579102 -222.337600708008 3.702095985413
-15.054535865784 -72.091590881348 -227.422607421875 1.858011126518
-12.818461418152 -71.908226013184 -227.586196899414 0.838169574738
-2.845525979996 -74.366813659668 -228.645019531250 2.158236026764
9.625038146973 -71.878150939941 -225.855667114258 1.030590057373
87.822311401367 -69.691665649414 -223.788299560547 3.245610237122
10.542429924011 -69.600883483887 -230.272933959961 2.931666851044
4.831803798676 -71.196220397949 -227.933822631836 1.519390702248
-8.810481071472 -71.668540954590 -229.593017578125 1.510161757469
-6.595491886139 -71.447257995605 -230.232971191406 1.464573144913
18.031084060669 -69.471412658691 -230.858718872070 2.163383722305
-12.246626853943 -69.741249084473 -232.277938842773 1.180892109871
71.362533569336 -69.457946777344 -237.255889892578 1.368627786636
-8.526352882385 -69.611488342285 -237.127731323242 0.975275039673
19.025295257568 -71.449256896973 -234.388809204102 1.724925756454
-164.040115356445 -74.386405944824 -240.861755371094 2.298050880432
-5.121057033539 -69.586380004883 -236.637649536133 1.923959493637
