-138.710861206055 -83.578117370605 -287.337493896484 2.131311416626
-146.890914916992 -82.787330627441 -287.341094970703 2.108506441116
-150.083511352539 -83.501869201660 -288.698791503906 1.608643770218
-154.541992187500 -79.004692077637 -291.881744384766 1.275318503380
-134.438537597656 -81.861587524414 -292.555206298828 4.141144752502
-151.303131103516 -80.895751953125 -293.889007568359 2.024876594543
-56.929569244385 -79.008483886719 -67.895294189453 3.009635686874
-56.490348815918 -82.372772216797 -72.197509765625 1.698079347610
-42.212974548340 -81.874618530273 -73.103103637695 1.189629793167
-80.220756530762 -81.414299011230 -82.381378173828 0.512153208256
-38.486663818359 -83.147094726563 -80.765243530273 2.000441074371
-44.177719116211 -80.679084777832 -84.866279602051 1.884428143501
-83.276588439941 -85.070877075195 -103.033065795898 1.700251936913
-73.914154052734 -77.964698791504 -101.382873535156 1.410598635674
32.992271423340 -82.008628845215 -125.451599121094 2.995378017426
31.305942535400 -80.821739196777 -142.886718750000 2.063498973846
-11.988872528076 -81.507591247559 -179.905868530273 2.363154888153
-18.123750686646 -81.213417053223 -182.697753906250 2.806060314178
-26.480537414551 -82.609725952148 -182.180969238281 1.560995578766
-37.903629302979 -82.428657531738 -190.102691650391 1.560617685318
-52.309333801270 -80.950935363770 -188.324493408203 2.019567728043
-31.726852416992 -81.613098144531 -193.570510864258 2.395556926727
-142.275909423828 -77.996772766113 -187.740020751953 1.774372816086
-150.472122192383 -79.185974121094 -195.876831054688 1.801582813263
-152.298339843750 -79.673194885254 -200.287094116211 0.265972346067
-149.146423339844 -78.971168518066 -203.368011474609 1.899117827415
-69.398643493652 -83.389678955078 -209.073226928711 0.646679103374
-60.557136535645 -78.637771606445 -207.512832641602 1.278804421425
-147.886962890625 -80.795265197754 -212.718032836914 1.792370796204
-73.158836364746 -81.680374145508 -211.003448486328 0.451783478260
-71.159233093262 -82.181732177734 -212.536895751953 2.022272825241
-77.464469909668 -79.000930786133 -212.453109741211 1.781780600548
-142.276138305664 -80.448928833008 -226.530822753906 0.864478230476
-143.252151489258 -81.248336791992 -231.768402099609 1.570445895195
-149.979202270508 -81.922546386719 -249.641998291016 2.182213544846
15.508581161499 -80.296783447266 -246.097320556641 2.016188383102
8.818312644958 -80.444313049316 -248.326751708984 1.635851860046
-135.393341064453 -81.829284667969 -258.385955810547 1.599138617516
14.785436630249 -83.972084045410 -255.178024291992 1.550883769989
11.430700302124 -83.542121887207 -258.281616210938 2.652399539948
-150.035217285156 -82.653442382813 -264.235382080078 2.741505146027
-151.966751098633 -80.273963928223 -276.749298095703 1.189167022705
-2.290162086487 -81.843727111816 -273.238861083984 2.031322002411
10.852589607239 -82.027854919434 -277.902832031250 1.094666719437
-153.177307128906 -83.978729248047 -286.323394775391 1.227879643440
-143.540756225586 -82.909721374512 -281.430755615234 2.946524381638
-146.233200073242 -82.299186706543 -303.232543945313 2.772243022919
-45.836071014404 -82.011924743652 -71.198020935059 1.468739628792
-69.324661254883 -79.155334472656 -69.592102050781 1.761228203773
-42.352363586426 -81.360412597656 -69.157333374023 2.130019426346
-32.769821166992 -81.991432189941 -76.222953796387 0.548309862614
-74.300285339355 -78.846420288086 -69.806350708008 1.006438255310
-32.461475372314 -81.670143127441 -76.816017150879 1.084615826607
-46.796958923340 -76.825447082520 -85.016052246094 1.733184695244
-55.563179016113 -77.598411560059 -92.275123596191 1.740584850311
-63.360080718994 -84.387947082520 -93.605323791504 2.581397056580
-64.063957214355 -80.554351806641 -99.949760437012 2.208106517792
-89.347358703613 -80.434638977051 -108.517730712891 2.539772033691
42.831226348877 -80.435340881348 -117.805221557617 1.772507071495
38.066642761230 -83.382255554199 -123.204315185547 3.333640336990
-42.155517578125 -81.384719848633 -164.114608764648 1.732085466385
-40.205352783203 -80.218788146973 -161.294952392578 2.102992773056
-6.204483032227 -81.129066467285 -170.738357543945 1.160011172295
-61.551559448242 -82.127586364746 -169.270111083984 1.993137478828
-58.560802459717 -80.383659362793 -178.848861694336 2.769084215164
-57.446849822998 -80.297454833984 -174.104675292969 1.057508349419
-31.943862915039 -80.369865417480 -172.101501464844 2.190231561661
-54.071273803711 -80.233863830566 -180.964004516602 1.275933027267
-27.574882507324 -79.480697631836 -181.213668823242 1.506385922432
-146.473510742188 -79.378303527832 -185.945083618164 2.145626544952
-50.531101226807 -80.475875854492 -182.505889892578 1.209203004837
-43.487751007080 -79.904075622559 -194.043029785156 1.952022552490
-30.987236022949 -80.852821350098 -184.799545288086 1.792296528816
-33.460136413574 -81.087585449219 -188.835540771484 2.716056108475
-31.913095474243 -78.959487915039 -191.662078857422 0.957866668701
-23.716693878174 -81.345802307129 -188.160003662109 1.069443225861
-46.281787872314 -80.700088500977 -197.277770996094 0.934233605862
-144.113830566406 -76.933349609375 -194.479400634766 0.813457727432
-39.333522796631 -77.665184020996 -195.013397216797 1.850636005402
-39.300338745117 -79.660659790039 -199.773406982422 1.778473615646
-41.388656616211 -81.599578857422 -200.710220336914 0.386815965176
-44.787883758545 -78.426109313965 -199.496597290039 1.827944397926
-132.980819702148 -78.893493652344 -198.281448364258 2.420578956604
-135.739379882813 -78.752479553223 -201.308013916016 1.916800379753
-47.701271057129 -80.759376525879 -203.112258911133 1.146620750427
-59.495216369629 -82.100952148438 -203.852737426758 0.313031405210
-38.851734161377 -80.584686279297 -204.069885253906 1.057104229927
-143.301193237305 -80.166305541992 -205.614105224609 0.878053247929
-68.662117004395 -77.159217834473 -207.243286132813 2.117190599442
-34.895191192627 -81.804550170898 -207.795928955078 2.294607400894
15.035788536072 -81.136009216309 -205.178451538086 2.181136608124
-73.185760498047 -80.579154968262 -213.592941284180 1.824500918388
-29.589460372925 -78.866897583008 -213.431243896484 1.298671722412
12.551207542419 -80.524902343750 -217.743972778320 2.384286165237
-151.072235107422 -79.448638916016 -218.244689941406 2.048396110535
10.083285331726 -80.857620239258 -226.816940307617 1.883372306824
13.828106880188 -81.460838317871 -222.638824462891 2.603455066681
16.860122680664 -79.782600402832 -226.650497436523 1.727097868919
-135.959487915039 -81.754852294922 -227.191940307617 1.774820089340
-145.107162475586 -78.136230468750 -229.690597534180 1.703362226486
11.001157760620 -81.877059936523 -236.759796142578 1.590002417564
17.138866424561 -79.345954895020 -236.690109252930 1.957706451416
13.904779434204 -80.431831359863 -236.163665771484 1.441756248474
-149.347656250000 -80.957839965820 -241.315063476563 1.176260352135
-145.048492431641 -84.153892517090 -239.982391357422 1.390529870987
13.996504783630 -81.201629638672 -236.861022949219 1.754716753960
-37.310577392578 -79.798957824707 -243.994232177734 2.105566024780
18.669584274292 -80.641906738281 -247.291732788086 0.720309615135
-41.342555999756 -80.638710021973 -243.412811279297 1.521628260612
-144.873306274414 -81.827659606934 -255.778076171875 1.880429983139
16.755104064941 -81.327766418457 -252.365036010742 2.251001834869
-143.320709228516 -81.141166687012 -256.665985107422 1.572431802750
-151.671646118164 -80.488624572754 -256.145874023438 1.246513366699
16.886442184448 -79.697364807129 -256.090057373047 2.662020206451
-8.308577537537 -77.903785705566 -252.372116088867 1.415522813797
-7.782442092896 -80.965789794922 -261.832977294922 1.664167523384
-145.232040405273 -82.355133056641 -259.438110351563 1.583987474442
-154.880111694336 -75.506805419922 -261.473724365234 1.439007878304
-144.728042602539 -81.608634948730 -264.144226074219 1.700111865997
-150.449966430664 -76.509414672852 -267.636871337891 2.320929288864
-149.174301147461 -81.108314514160 -270.177978515625 2.090004205704
-8.096638679504 -81.188354492188 -267.881835937500 2.351838827133
-3.536914110184 -80.999580383301 -272.329803466797 0.644074678421
13.850459098816 -81.969734191895 -267.941345214844 1.106047987938
7.170517921448 -80.894523620605 -278.969757080078 2.038604259491
5.184202194214 -79.545463562012 -282.716827392578 1.350235819817
-137.274383544922 -76.400894165039 -291.187957763672 1.630466699600
-144.019348144531 -79.147506713867 -292.524993896484 1.697248578072
-60.899608612061 -78.980514526367 -64.645401000977 2.277907371521
-43.258865356445 -78.296310424805 -64.195785522461 1.783045649529
-49.420288085938 -77.453125000000 -66.064636230469 2.222165584564
-46.311595916748 -77.662788391113 -65.020782470703 2.104504346848
-68.166381835938 -80.775451660156 -65.859703063965 1.603464722633
-78.346496582031 -78.118904113770 -72.508331298828 2.558249950409
-34.725521087646 -78.873054504395 -78.740036010742 2.533372163773
-40.999301910400 -80.706489562988 -85.444007873535 1.668578386307
-48.712921142578 -82.009834289551 -87.878868103027 1.711051702499
-86.201927185059 -77.924194335938 -87.603073120117 3.465843677521
-76.081901550293 -80.951789855957 -105.770156860352 2.392017364502
43.290328979492 -79.953895568848 -108.126289367676 1.953484892845
-85.270660400391 -78.839767456055 -109.906974792480 1.804114222527
41.604541778564 -81.342750549316 -118.781646728516 1.922545552254
40.714225769043 -79.849121093750 -124.873840332031 0.444969832897
34.492191314697 -79.739143371582 -120.592674255371 1.857748389244
30.910547256470 -81.654380798340 -125.841567993164 4.585038185120
33.616012573242 -79.898475646973 -135.279693603516 1.627727985382
24.893753051758 -78.140304565430 -144.973403930664 1.432051777840
-47.153007507324 -80.621620178223 -153.473541259766 1.677837848663
31.640504837036 -80.247741699219 -145.045578002930 0.871922969818
24.771804809570 -81.330345153809 -157.484939575195 3.411767959595
-44.096397399902 -80.385360717773 -153.567565917969 1.499480009079
27.728691101074 -80.518211364746 -155.361312866211 0.570236623287
-45.931556701660 -77.130577087402 -162.292175292969 2.747648239136
25.818120956421 -80.251235961914 -166.110076904297 1.849469304085
-59.755825042725 -79.759880065918 -169.809875488281 1.578184604645
-6.605576038361 -82.135337829590 -173.533477783203 2.186304807663
-34.419384002686 -79.299728393555 -173.360229492188 1.215564250946
-13.191470146179 -81.498748779297 -173.976959228516 1.755295276642
-55.671257019043 -79.205108642578 -175.185150146484 1.262984156609
22.878313064575 -81.083328247070 -172.542968750000 2.037912368774
-14.065374374390 -79.138366699219 -182.172576904297 1.594799041748
-22.846548080444 -77.503822326660 -186.339462280273 1.625411033630
-53.553478240967 -77.571098327637 -184.811431884766 1.898007273674
-29.017101287842 -80.125732421875 -185.411392211914 0.902984738350
18.796979904175 -80.654235839844 -189.392364501953 1.041783332825
-148.975143432617 -79.873275756836 -188.418228149414 1.408197999001
-28.019311904907 -79.848281860352 -189.059280395508 1.194054484367
-47.899780273438 -77.546302795410 -189.991012573242 0.739567041397
-150.188095092773 -81.168327331543 -193.796524047852 1.513310790062
-142.118545532227 -79.947013854980 -197.299667358398 2.722659826279
-22.784002304077 -79.658676147461 -196.853424072266 1.950651407242
-20.300153732300 -79.930191040039 -195.821762084961 0.816846370697
-45.775642395020 -78.749778747559 -196.478408813477 1.411997914314
-21.007856369019 -79.905906677246 -197.313339233398 2.395580768585
-48.407226562500 -79.174682617188 -200.645797729492 2.193269968033
-45.120487213135 -79.189926147461 -199.236190795898 1.404849290848
-55.199035644531 -79.837249755859 -201.701171875000 1.867043733597
-18.955698013306 -77.250030517578 -205.805221557617 2.019715309143
-147.543426513672 -79.633255004883 -213.154037475586 2.094482660294
-59.044204711914 -77.463356018066 -207.575622558594 1.725703835487
-56.775463104248 -77.633659362793 -207.731475830078 1.927969217300
-32.011817932129 -76.246994018555 -206.189575195313 1.419275283813
-14.196153640747 -78.240020751953 -205.516937255859 1.292253136635
-36.489948272705 -78.563545227051 -207.674774169922 1.242554426193
-79.059005737305 -78.853660583496 -210.719146728516 0.370740324259
-144.135406494141 -81.780143737793 -210.777038574219 1.036443352699
-32.339775085449 -80.273368835449 -207.690841674805 2.074242591858
8.667530059814 -81.009719848633 -209.409027099609 3.444282531738
-64.222724914551 -80.379592895508 -211.125350952148 1.467619538307
-67.307823181152 -79.310791015625 -213.586242675781 1.103183865547
-25.493589401245 -77.410240173340 -214.885086059570 0.384375482798
-10.513747215271 -82.517654418945 -211.580856323242 3.054927587509
-25.200946807861 -79.700691223145 -218.667053222656 2.006734371185
17.226125717163 -79.703414916992 -216.528869628906 1.938732028008
-150.220092773438 -77.449462890625 -222.666168212891 1.176856875420
-9.898838043213 -82.191795349121 -218.857254028320 1.921401739120
-154.398284912109 -80.280189514160 -227.862716674805 1.270290493965
8.756708145142 -80.858329772949 -229.671508789063 1.574356794357
13.268159866333 -78.073295593262 -227.198287963867 1.476607203484
-3.038155078888 -79.851417541504 -223.149154663086 1.255830168724
17.194854736328 -79.724388122559 -227.387130737305 1.903633713722
-136.459014892578 -81.475944519043 -232.785858154297 1.593156576157
10.999843597412 -79.632431030273 -225.873107910156 1.681622624397
-152.997695922852 -78.148742675781 -230.490997314453 1.235083341599
-144.947174072266 -80.230064392090 -234.110733032227 1.583848953247
-1.674064993858 -80.527389526367 -222.189392089844 1.546268701553
19.257280349731 -80.869575500488 -234.335861206055 3.010426521301
-31.222198486328 -78.165016174316 -239.491378784180 2.170156717300
-144.945129394531 -77.354072570801 -240.543426513672 2.712399959564
-38.011631011963 -78.910369873047 -242.516723632813 1.098505139351
-45.404281616211 -78.384933471680 -241.848770141602 2.129946470261
-31.183752059937 -78.433670043945 -241.080093383789 1.964813351631
20.289476394653 -80.513099670410 -242.480651855469 1.863878965378
-48.954330444336 -76.708610534668 -245.271636962891 2.315357685089
14.704625129700 -80.440223693848 -245.884033203125 1.609355568886
10.677715301514 -78.610092163086 -240.742416381836 1.203887343407
10.626985549927 -81.519660949707 -247.631103515625 2.276570320129
-42.185058593750 -80.318046569824 -246.256866455078 1.833280444145
23.147253036499 -81.333366394043 -247.070068359375 2.694026470184
-144.068511962891 -77.785720825195 -248.561172485352 0.695916354656
20.901859283447 -78.441169738770 -248.660995483398 1.511018514633
1.476454019547 -82.864288330078 -250.128799438477 2.522904396057
11.433167457581 -79.656829833984 -246.023132324219 0.726658582687
-150.365463256836 -75.277122497559 -254.081787109375 2.093168497086
-147.082626342773 -81.629951477051 -260.193603515625 0.995554685593
-141.933532714844 -78.548751831055 -260.291717529297 1.579344630241
-152.449111938477 -77.639175415039 -262.378295898438 3.109084129333
17.818754196167 -77.427284240723 -265.834075927734 3.117585897446
-152.021408081055 -75.784454345703 -271.586669921875 1.580776929855
-5.191288948059 -79.919136047363 -274.948547363281 1.053903341293
-149.785247802734 -77.894851684570 -272.999847412109 1.675429224968
-144.777297973633 -77.001914978027 -278.987396240234 2.838160276413
-151.840988159180 -76.095451354980 -277.078552246094 1.331814527512
-154.120635986328 -78.876861572266 -286.022186279297 0.926206767559
-133.127456665039 -79.169822692871 -288.959838867188 2.232723712921
-151.181976318359 -78.856094360352 -288.913452148438 1.136598587036
-146.520553588867 -81.659675598145 -290.831268310547 2.188167572021
-146.185546875000 -78.870834350586 -293.317413330078 2.097507476807
-151.961318969727 -78.780105590820 -295.903076171875 0.510134935379
-146.083129882813 -76.037445068359 -294.544250488281 0.767104864120
-151.826126098633 -77.872047424316 -300.940795898438 0.975679576397
-146.421035766602 -78.769241333008 -302.181518554688 1.339653611183
-148.323501586914 -76.233955383301 -303.878784179688 2.843020200729
-56.319393157959 -74.836357116699 -60.374595642090 2.780884027481
-63.054405212402 -77.839141845703 -62.637062072754 3.348428010941
-47.956649780273 -78.130325317383 -61.674026489258 2.282206058502
-27.179273605347 -79.398513793945 -73.670753479004 1.602571368217
-52.311656951904 -80.701751708984 -90.701789855957 0.848288476467
-87.528808593750 -83.061477661133 -100.322120666504 3.172654628754
45.831089019775 -80.142585754395 -106.061172485352 2.265625476837
-78.004776000977 -81.251152038574 -104.269592285156 1.622438788414
41.395080566406 -81.437774658203 -113.296630859375 2.308083772659
39.813903808594 -79.610153198242 -120.248542785645 1.286898255348
39.286441802979 -79.897071838379 -125.042633056641 1.071083784103
37.396381378174 -79.467636108398 -134.709136962891 1.938156247139
31.727741241455 -78.952583312988 -135.156295776367 2.202489614487
33.969425201416 -82.373077392578 -135.923202514648 2.845136880875
30.436937332153 -78.288017272949 -149.699569702148 1.110026001930
-44.579975128174 -77.020027160645 -149.414749145508 1.382588028908
28.391843795776 -81.064796447754 -140.927978515625 1.348137974739
-66.516929626465 -75.738494873047 -154.034637451172 1.288792014122
-38.447998046875 -80.279945373535 -154.833023071289 1.314334869385
-62.217247009277 -79.459922790527 -164.528518676758 0.330289185047
-40.544609069824 -79.008193969727 -158.893798828125 2.041528940201
30.342388153076 -79.308067321777 -156.284118652344 1.441879034042
-35.365791320801 -81.744216918945 -161.710800170898 2.590010881424
-3.015435934067 -80.305000305176 -170.859588623047 1.794437170029
31.895967483521 -77.341156005859 -162.065444946289 1.552336335182
-8.976103782654 -79.471946716309 -169.749786376953 1.187606215477
-59.848754882813 -78.399299621582 -164.241638183594 0.903222262859
-35.548534393311 -76.971519470215 -169.443771362305 1.440344452858
-29.953920364380 -77.360488891602 -172.806823730469 2.523566961288
25.114318847656 -80.237846374512 -175.124328613281 2.464085340500
-54.291416168213 -78.660354614258 -177.508453369141 2.232954502106
-30.004938125610 -76.735183715820 -175.738403320313 2.681250333786
22.862844467163 -79.394363403320 -181.659194946289 2.289551019669
-50.243377685547 -78.713737487793 -185.277893066406 1.414016366005
-25.429641723633 -76.146125793457 -184.102981567383 3.008326768875
-53.407131195068 -77.014694213867 -183.881866455078 0.852955996990
-40.591587066650 -78.729713439941 -194.670684814453 1.218708038330
-29.401859283447 -77.820518493652 -188.711746215820 0.610832095146
-42.597431182861 -79.085525512695 -196.364700317383 0.856011450291
-23.309789657593 -78.376312255859 -191.353820800781 1.214474797249
-135.950622558594 -79.340736389160 -197.607696533203 2.353894948959
18.872848510742 -79.267875671387 -199.270980834961 1.930697679520
-133.279998779297 -75.366882324219 -199.430099487305 2.165909767151
-21.633016586304 -76.922882080078 -196.187011718750 1.459461331367
-19.326871871948 -77.003112792969 -197.042297363281 1.068102240562
-40.995239257813 -78.662643432617 -196.318023681641 2.191321134567
15.334512710571 -78.114463806152 -194.173614501953 2.008052587509
-15.510836601257 -79.891517639160 -198.249053955078 1.889851570129
-59.025669097900 -79.096824645996 -205.011672973633 1.690424084663
-34.798954010010 -78.347419738770 -204.773239135742 0.618841469288
-64.334503173828 -76.256866455078 -207.531417846680 1.526361346245
-68.695030212402 -76.088417053223 -210.494674682617 2.026238918304
17.362520217896 -78.240890502930 -208.957656860352 2.307116031647
-84.683616638184 -77.473365783691 -213.705612182617 1.503519177437
-29.020107269287 -78.497222900391 -215.747802734375 1.372026443481
-79.470764160156 -78.759948730469 -213.438476562500 1.679594635963
-146.247848510742 -79.906890869141 -216.642883300781 1.711802482605
-7.299757003784 -78.315803527832 -215.734527587891 2.022683382034
-9.595071792603 -78.132736206055 -217.850692749023 1.724440097809
12.919267654419 -79.114402770996 -215.973175048828 1.508852720261
13.447957992554 -76.637741088867 -222.671234130859 2.864342689514
-1.893506050110 -79.565666198730 -230.012588500977 1.940960288048
-136.878921508789 -75.994415283203 -225.335205078125 2.267376661301
-148.424804687500 -81.146080017090 -232.751510620117 1.509788036346
-149.352478027344 -76.219955444336 -232.316207885742 2.439740180969
6.867262840271 -79.645271301270 -234.773513793945 1.674728870392
1.928449034691 -78.326583862305 -236.035659790039 1.330505847931
-23.265798568726 -80.482910156250 -240.847686767578 1.936982870102
-150.018463134766 -75.711502075195 -240.324462890625 1.022730708122
11.211331367493 -79.276397705078 -244.485183715820 1.539457678795
-23.170948028564 -76.125717163086 -242.124221801758 0.956662118435
19.171386718750 -78.041076660156 -238.005157470703 1.791043996811
-53.820129394531 -77.476707458496 -244.299453735352 1.018793344498
-50.319381713867 -78.155860900879 -248.127960205078 2.485262632370
-145.855072021484 -81.964439392090 -246.622375488281 0.724867761135
-62.766399383545 -77.667457580566 -247.707504272461 1.632143259048
-3.192621946335 -77.170852661133 -246.722671508789 1.602719426155
-9.697675704956 -77.967948913574 -256.817291259766 2.136671781540
-147.200271606445 -81.448211669922 -258.079559326172 1.748060941696
-133.232757568359 -76.656799316406 -257.875732421875 1.243130683899
-135.550979614258 -75.698028564453 -260.430877685547 0.592695474625
19.182870864868 -78.625930786133 -260.418365478516 1.408643603325
-145.248077392578 -78.349060058594 -271.942474365234 1.871903657913
18.175161361694 -79.966178894043 -268.569396972656 0.709913790226
-147.096023559570 -76.087638854980 -273.555725097656 2.848368883133
2.826071977615 -81.215042114258 -277.676239013672 1.312927246094
-144.028472900391 -78.233215332031 -282.953552246094 0.819358825684
2.994735002518 -79.548484802246 -283.533721923828 1.327124357224
-151.476638793945 -76.716384887695 -283.514556884766 1.839173197746
-142.454849243164 -75.827919006348 -285.682769775391 1.126320123672
-136.948654174805 -78.419631958008 -287.006591796875 2.259663105011
-148.407348632813 -82.061172485352 -292.497100830078 2.345595359802
-19.169960021973 -77.074394226074 -289.915252685547 1.241985201836
-152.705520629883 -77.717758178711 -292.672485351563 2.083677768707
-148.548141479492 -78.179306030273 -295.701416015625 1.200912833214
-149.360366821289 -76.370002746582 -310.513946533203 3.035413503647
-57.097789764404 -76.361778259277 -57.621112823486 1.843605518341
-39.370033264160 -79.418174743652 -62.151596069336 2.591231584549
-76.355300903320 -78.322845458984 -65.603912353516 2.233700513840
-28.638784408569 -76.925109863281 -68.048194885254 1.678650259972
-25.853731155396 -78.508934020996 -72.481307983398 2.741053104401
-85.337425231934 -78.710372924805 -81.154563903809 2.596474885941
87.296997070313 -79.865425109863 -84.540565490723 3.206580400467
-36.534736633301 -76.923759460449 -83.831413269043 2.444235086441
81.782554626465 -80.828277587891 -85.363304138184 3.024549722672
77.090698242188 -78.799987792969 -87.649330139160 2.672246694565
85.168800354004 -78.946197509766 -88.474281311035 2.033794641495
82.611351013184 -78.286270141602 -91.346702575684 2.252319574356
91.232978820801 -78.563774108887 -92.332244873047 1.779795765877
-91.619979858398 -74.803489685059 -95.228179931641 2.661923170090
52.996494293213 -78.861038208008 -105.188911437988 1.062938213348
-92.350013732910 -72.169815063477 -114.290412902832 2.644950628281
43.413639068604 -79.756744384766 -110.148506164551 1.160224676132
49.286613464355 -78.490211486816 -113.182228088379 2.554373741150
41.672504425049 -78.725044250488 -115.126762390137 1.059479475021
32.039062500000 -78.635688781738 -134.515609741211 1.523486375809
26.671468734741 -78.445777893066 -140.091293334961 2.123793840408
23.083662033081 -73.708862304688 -144.279953002930 0.798053860664
32.802059173584 -76.946212768555 -144.053344726563 1.762818813324
-47.925045013428 -78.875556945801 -153.785690307617 0.423917919397
-46.697605133057 -77.971900939941 -151.174957275391 0.885271847248
-41.190486907959 -77.209236145020 -155.865798950195 1.642800569534
25.853542327881 -77.677711486816 -151.580383300781 2.128484487534
26.437351226807 -77.796546936035 -167.473083496094 1.523527145386
-33.699279785156 -76.173660278320 -167.137145996094 1.279228210449
-34.775070190430 -75.852218627930 -159.901809692383 0.627588272095
-45.187683105469 -78.374435424805 -157.881683349609 1.470615267754
2.938664913177 -76.831451416016 -163.851425170898 2.293619155884
24.108871459961 -79.024444580078 -153.850418090820 0.905946016312
32.119995117188 -76.775840759277 -160.690277099609 2.061275720596
28.132732391357 -77.043594360352 -168.903778076172 2.606075525284
-8.662056922913 -77.586380004883 -171.108612060547 2.249618291855
-1.640094995499 -77.654052734375 -169.726562500000 0.476776331663
-57.041229248047 -76.934417724609 -168.746643066406 1.577221870422
-60.322589874268 -76.840705871582 -169.870483398438 1.553965210915
-40.845111846924 -78.432701110840 -170.533798217773 1.077091455460
-38.515876770020 -76.748252868652 -167.422821044922 1.254746556282
23.109319686890 -76.203338623047 -172.877517700195 2.412414073944
-20.738842010498 -80.441802978516 -177.636978149414 2.126327753067
-32.428981781006 -76.874374389648 -180.360778808594 2.494330406189
-60.480117797852 -78.730026245117 -178.958953857422 1.159004807472
103.070449829102 -79.276123046875 -181.317657470703 2.481220006943
21.031248092651 -79.968368530273 -172.545272827148 1.902555704117
-26.142766952515 -77.508956909180 -180.090942382813 1.345427989960
-49.814662933350 -76.607391357422 -180.522384643555 1.650624871254
-18.831401824951 -76.008735656738 -179.966506958008 1.937962412834
110.660484313965 -78.947189331055 -178.832656860352 2.245121479034
-51.350006103516 -78.829208374023 -182.887283325195 1.534418344498
15.801802635193 -78.936477661133 -186.586349487305 1.985246777534
23.039218902588 -77.997306823730 -179.473251342773 2.750736474991
-55.569713592529 -79.138168334961 -178.948196411133 2.033999204636
-22.818309783936 -76.891204833984 -181.941772460938 1.435360789299
-55.517395019531 -78.328666687012 -176.260452270508 1.672350049019
-35.234691619873 -76.824996948242 -180.268966674805 3.050457715988
-28.322389602661 -77.317878723145 -186.906860351563 1.500843048096
22.034105300903 -78.261383056641 -187.353561401367 1.103721857071
-49.657981872559 -77.596199035645 -187.612792968750 1.269106507301
104.677154541016 -78.453948974609 -189.526168823242 0.954345226288
-51.320213317871 -75.196449279785 -189.954772949219 1.298167109489
9.993551254272 -77.753005981445 -201.206420898438 1.368678689003
20.308383941650 -77.581314086914 -199.344757080078 1.826297640800
-47.684074401855 -76.612251281738 -190.837295532227 1.209530830383
-19.287406921387 -78.001274108887 -189.730316162109 1.758466839790
102.440803527832 -78.406585693359 -195.172714233398 1.614978194237
99.911354064941 -80.253204345703 -195.833877563477 3.933621168137
-47.264411926270 -76.579696655273 -188.778808593750 1.835389256477
-147.638122558594 -80.554573059082 -198.403472900391 1.430246472359
-45.368080139160 -77.215835571289 -197.869750976563 1.551662921906
-144.805862426758 -77.717575073242 -198.557083129883 1.029286503792
-135.802459716797 -74.246063232422 -200.593688964844 1.202934145927
-43.890399932861 -78.020889282227 -197.659851074219 1.591036677361
11.374629020691 -78.486267089844 -208.117126464844 1.610213041306
-16.146228790283 -76.463317871094 -204.298263549805 1.005889177322
16.101362228394 -76.676521301270 -201.879302978516 1.620347023010
92.566307067871 -79.816055297852 -209.861343383789 3.366345405579
-36.322284698486 -76.463378906250 -201.350662231445 1.929488897324
-11.112235069275 -77.366676330566 -206.500259399414 1.411730408669
-12.645784378052 -76.667572021484 -211.774765014648 2.289217233658
-36.441589355469 -77.306594848633 -206.831726074219 0.955464839935
9.761527061462 -77.246376037598 -205.618026733398 1.443851351738
-76.303306579590 -75.835693359375 -210.189697265625 1.092442393303
15.940466880798 -78.068885803223 -213.045684814453 1.503842234612
-34.950199127197 -76.820793151855 -206.601638793945 1.072526335716
-144.348159790039 -77.514053344727 -209.388168334961 2.117351055145
-143.763397216797 -73.090736389160 -211.584564208984 2.004117012024
-86.589126586914 -76.884963989258 -213.204025268555 0.612315177917
-34.944240570068 -75.803443908691 -210.620407104492 3.268292665482
-20.586174011230 -79.832077026367 -212.779541015625 4.163406848907
-30.309221267700 -77.584503173828 -210.180526733398 1.075235724449
-91.193565368652 -76.813591003418 -217.120452880859 1.327778339386
-87.534507751465 -77.195083618164 -215.458267211914 1.437846660614
8.690791130066 -79.793266296387 -220.573089599609 1.739742398262
-149.603851318359 -73.749488830566 -215.472686767578 1.014000296593
-12.711865425110 -78.953536987305 -213.151596069336 0.512223720551
8.909258842468 -81.167594909668 -218.044433593750 1.470954775810
-144.378433227539 -75.346214294434 -218.900115966797 2.587164163589
-20.679878234863 -78.454841613770 -218.336273193359 1.613398909569
-1.452669024467 -76.386947631836 -221.236175537109 0.726003646851
-4.716908931732 -78.663917541504 -218.981704711914 1.613386750221
-152.100051879883 -74.620330810547 -224.425231933594 3.091778993607
-137.875915527344 -72.109443664551 -226.797882080078 3.218064308167
-5.539690017700 -77.821395874023 -223.305923461914 1.628029227257
-148.576339721680 -80.629203796387 -228.057601928711 1.323742747307
1.891953945160 -75.405799865723 -230.128417968750 1.436834692955
17.378236770630 -77.681213378906 -233.390731811523 0.589640378952
-0.576189994812 -78.224998474121 -231.989761352539 3.135257005692
0.571435987949 -74.854187011719 -234.937057495117 2.486417770386
8.107990264893 -77.886543273926 -231.693557739258 2.144089221954
-150.750106811523 -76.167869567871 -237.068878173828 1.343764662743
-19.143793106079 -76.181304931641 -236.517822265625 3.218750000000
-34.508079528809 -78.460853576660 -239.105316162109 1.689019203186
4.881011009216 -76.136390686035 -232.802139282227 1.263108849525
1.133074998856 -79.559547424316 -238.969573974609 2.043110370636
3.612000942230 -77.323356628418 -234.355697631836 1.837234616280
-55.026569366455 -75.974479675293 -242.690231323242 0.958667099476
-148.607116699219 -74.464347839355 -247.322357177734 2.377704381943
-151.450942993164 -76.693832397461 -248.144546508789 2.253734827042
10.561022758484 -78.872230529785 -246.546401977539 0.662527024746
23.168567657471 -78.418876647949 -247.383224487305 1.065164446831
-59.919246673584 -75.565834045410 -248.149673461914 1.298803210258
-143.809616088867 -78.452346801758 -252.940139770508 1.955202817917
-152.767028808594 -77.967132568359 -254.731033325195 2.235629320145
-150.864196777344 -80.782165527344 -257.774078369141 2.557082653046
-141.796005249023 -74.395805358887 -261.532958984375 0.632780075073
-138.227203369141 -75.888923645020 -256.907836914063 2.586987733841
-9.796648979187 -78.011482238770 -256.537017822266 2.106675148010
-143.919128417969 -77.230781555176 -263.348205566406 2.188047647476
-12.025351524353 -78.232429504395 -264.974639892578 0.896387994289
-146.850021362305 -75.381874084473 -275.148406982422 1.891659379005
-146.876342773438 -75.918098449707 -282.667938232422 0.211607083678
-149.199981689453 -75.286056518555 -283.157501220703 2.298413515091
-2.892488956451 -74.223899841309 -284.688140869141 1.894736289978
-144.031280517578 -72.325477600098 -285.522674560547 1.356700539589
-28.896211624146 -77.077270507813 -286.691009521484 2.139375448227
-29.521015167236 -75.856674194336 -287.028259277344 2.046579360962
-15.510464668274 -75.959045410156 -290.364440917969 1.596450090408
-10.716610908508 -75.734481811523 -289.610351562500 1.318010687828
14.321876525879 -78.843391418457 -291.309326171875 1.710566282272
-124.750549316406 -76.232215881348 -289.702911376953 1.042325615883
-57.698291778564 -76.326911926270 -288.289581298828 0.534415245056
-39.107418060303 -75.563362121582 -289.470855712891 1.676944255829
-31.643243789673 -77.373649597168 -288.902862548828 1.472092628479
-8.666561126709 -76.198768615723 -291.278076171875 2.317718029022
5.623894214630 -77.452499389648 -288.425292968750 2.106021881104
-142.444412231445 -77.481925964355 -294.917755126953 3.436474800110
9.972339630127 -77.571441650391 -292.435485839844 2.121564149857
-151.568252563477 -74.546478271484 -301.705993652344 3.286789178848
-150.376678466797 -77.621917724609 -301.472137451172 0.652101099491
-152.124755859375 -74.104705810547 -311.598754882813 2.110655784607
-144.569442749023 -75.213485717773 -310.809692382813 1.891506671906
-50.223331451416 -76.150115966797 -53.900207519531 2.019385337830
-55.790145874023 -77.969146728516 -56.378532409668 2.987211227417
-64.957008361816 -75.548706054688 -55.748485565186 1.272903919220
-42.187599182129 -76.125579833984 -60.035778045654 0.848263680935
-36.819580078125 -76.605087280273 -59.285224914551 1.082433462143
-21.213178634644 -76.166381835938 -68.467018127441 0.807175159454
-82.298332214355 -75.275154113770 -68.642715454102 2.082909822464
83.078979492188 -78.595939636230 -78.007369995117 3.452007293701
-89.743148803711 -75.509178161621 -79.382568359375 2.338082551956
82.477264404297 -78.003433227539 -79.935394287109 2.071633815765
86.452148437500 -76.698837280273 -83.351020812988 1.016991496086
94.768173217773 -76.888420104980 -86.831398010254 2.206047534943
-59.469200134277 -80.191009521484 -95.420280456543 2.111839532852
83.212341308594 -78.059371948242 -94.730796813965 2.623201608658
78.478401184082 -79.762901306152 -91.897491455078 1.711659908295
87.065544128418 -78.897247314453 -89.908935546875 1.893675923347
-61.678283691406 -78.790229797363 -97.456153869629 1.787683606148
51.813179016113 -76.985015869141 -97.132385253906 1.952218532562
46.087081909180 -77.892738342285 -106.341735839844 1.658737301826
41.239730834961 -78.363540649414 -104.286170959473 2.435172796249
37.868522644043 -77.900093078613 -105.986511230469 1.777510762215
-91.037147521973 -74.723823547363 -109.483680725098 2.279399633408
36.396839141846 -77.239158630371 -117.146423339844 1.254460453987
-84.511009216309 -77.070259094238 -109.616279602051 2.309965610504
42.438838958740 -79.281173706055 -124.069320678711 1.544738411903
34.233093261719 -78.450714111328 -121.691452026367 1.233857750893
34.114971160889 -74.092346191406 -121.597206115723 2.070546627045
43.588825225830 -77.365577697754 -118.905433654785 0.304694533348
40.376411437988 -79.193092346191 -127.040267944336 2.093119382858
-52.377204895020 -72.973152160645 -135.527450561523 0.839389383793
36.921230316162 -79.405746459961 -134.978240966797 1.556946873665
36.540954589844 -77.156295776367 -142.418533325195 0.118609182537
-52.700088500977 -74.150459289551 -140.959793090820 2.159629583359
-46.588169097900 -76.522453308105 -140.605621337891 0.707884550095
35.226310729980 -77.783172607422 -143.131011962891 0.973062038422
111.584747314453 -76.268325805664 -141.335342407227 2.117462635040
113.754478454590 -76.755958557129 -142.874923706055 1.756947994232
27.014041900635 -78.240989685059 -143.273010253906 0.400090456009
-41.009445190430 -77.812370300293 -149.006607055664 0.697778403759
113.914947509766 -80.896766662598 -153.555221557617 4.313430309296
-39.199428558350 -75.601142883301 -153.312545776367 2.097489356995
-67.567718505859 -76.451812744141 -159.461929321289 1.283580422401
111.112174987793 -80.116683959961 -159.529968261719 3.179704666138
23.245250701904 -77.426490783691 -163.711303710938 1.157451868057
0.810057997704 -78.116630554199 -162.861633300781 1.840304136276
112.758827209473 -78.449287414551 -155.185028076172 1.922976016998
-63.705532073975 -75.896827697754 -164.802352905273 1.916393160820
-37.026058197021 -76.297180175781 -161.947555541992 0.723754048347
113.153923034668 -78.102523803711 -164.236602783203 3.072855710983
29.452169418335 -75.329612731934 -158.377716064453 2.018883228302
-62.532409667969 -72.948257446289 -165.944305419922 2.174711227417
112.129081726074 -78.685234069824 -166.319259643555 2.020566940308
-64.483428955078 -77.830429077148 -168.564254760742 2.205947399139
-50.348392486572 -77.879753112793 -179.420074462891 1.771338701248
106.853912353516 -77.163612365723 -171.341186523438 2.275235891342
-59.337795257568 -74.884078979492 -170.218856811523 1.273826718330
112.049415588379 -77.870086669922 -175.088577270508 0.258332133293
-59.745468139648 -76.217758178711 -174.616195678711 2.342252492905
-13.862191200256 -75.582382202148 -177.365097045898 1.965709328651
-11.395365715027 -79.421424865723 -179.975952148438 1.940006852150
108.416099548340 -79.068626403809 -170.075241088867 1.930609822273
21.471851348877 -77.537658691406 -171.862792968750 0.399997144938
29.635503768921 -75.644050598145 -170.276840209961 2.136008024216
-56.039649963379 -75.537040710449 -176.927764892578 1.415529370308
19.375217437744 -76.341606140137 -181.989013671875 0.976679325104
-57.193611145020 -75.942367553711 -176.208801269531 1.023012757301
-50.806667327881 -75.354827880859 -188.799133300781 1.574031591415
14.141329765320 -75.844062805176 -183.381103515625 2.230275630951
-57.108352661133 -74.483993530273 -180.677124023438 1.622522950172
107.829566955566 -77.215896606445 -185.711837768555 3.520812034607
24.582181930542 -78.036956787109 -180.988891601563 1.496310830116
-32.246997833252 -75.168579101563 -188.468597412109 1.481228709221
-41.852828979492 -76.887893676758 -191.596984863281 0.410336583853
11.779196739197 -77.209503173828 -193.400527954102 2.502153396606
-17.926647186279 -77.525108337402 -190.322753906250 1.657478690147
-48.880214691162 -77.150077819824 -194.098480224609 1.468639612198
103.733421325684 -79.732948303223 -183.935470581055 3.068109273911
14.583992004395 -78.188453674316 -190.649261474609 1.354029059410
-133.652832031250 -77.371017456055 -198.481216430664 1.466683983803
-43.459850311279 -77.838478088379 -193.835983276367 2.083545923233
97.051841735840 -77.740631103516 -198.694412231445 1.158753633499
-147.621337890625 -80.109024047852 -202.016677856445 2.564093828201
18.950145721436 -77.125450134277 -195.955139160156 1.186352491379
-41.575126647949 -74.757766723633 -205.183609008789 2.838215827942
-30.960731506348 -77.910400390625 -204.863815307617 1.630624651909
-36.462062835693 -76.482833862305 -204.083389282227 2.060017585754
-43.406841278076 -78.355659484863 -197.076568603516 1.475673794746
100.568099975586 -78.161224365234 -202.310577392578 2.572776079178
-19.434511184692 -77.897605895996 -201.978759765625 1.660016655922
-149.572906494141 -75.221817016602 -203.949920654297 1.806778311729
16.761037826538 -77.722511291504 -204.413375854492 1.671283364296
-75.793342590332 -79.148849487305 -207.752639770508 0.749061822891
-147.433868408203 -74.337760925293 -211.334136962891 1.989279627800
96.337554931641 -78.006134033203 -210.669235229492 2.224968194962
-32.039951324463 -75.555397033691 -207.166381835938 1.361727476120
-28.216081619263 -76.439529418945 -213.355117797852 1.943913936615
8.999093055725 -77.727302551270 -210.776596069336 1.110136508942
-70.620094299316 -77.897140502930 -210.990646362305 1.700628280640
-28.085208892822 -79.541900634766 -208.795516967773 0.794034898281
-5.174222946167 -76.993247985840 -215.191116333008 1.768954038620
-72.649826049805 -77.605865478516 -214.329742431641 1.763726353645
-13.778824806213 -76.738082885742 -217.242645263672 1.514000058174
8.785895347595 -73.215316772461 -212.885711669922 1.498529434204
16.259908676147 -78.427047729492 -219.842514038086 1.620188355446
-148.361907958984 -75.741584777832 -216.745468139648 0.881874382496
-7.199184894562 -76.458580017090 -214.560104370117 1.426275014877
-96.320602416992 -72.589233398438 -220.469070434570 2.387377738953
-21.024261474609 -75.827682495117 -219.876846313477 1.700241327286
91.471908569336 -80.167503356934 -211.574584960938 3.409162521362
7.781652927399 -76.257987976074 -226.244476318359 0.275032281876
18.595277786255 -76.101654052734 -216.516738891602 1.588089108467
81.972068786621 -77.870582580566 -218.588546752930 3.412183761597
1.789863944054 -77.775550842285 -227.615997314453 1.082617282867
86.699050903320 -77.898414611816 -217.058471679688 1.810334205627
-17.441467285156 -75.081504821777 -222.684783935547 1.429549574852
16.136056900024 -76.213890075684 -219.430282592773 1.467377424240
-145.821868896484 -76.421249389648 -222.016952514648 0.767822265625
-20.730382919312 -77.620689392090 -224.842956542969 1.693184375763
2.369574069977 -76.785484313965 -228.171127319336 1.656093001366
-154.649368286133 -78.092285156250 -227.358901977539 1.833688735962
-135.905258178711 -75.587028503418 -228.365280151367 1.310236811638
6.995852947235 -76.696754455566 -225.116653442383 1.702254414558
-3.294589996338 -75.600662231445 -229.746307373047 1.858279228210
-135.563354492188 -73.511146545410 -230.779373168945 1.797045350075
-145.344558715820 -75.890869140625 -237.700088500977 3.090655088425
-146.637756347656 -75.021072387695 -236.245483398438 1.688856363297
-31.896816253662 -76.831809997559 -237.930145263672 1.203015208244
-144.260253906250 -75.873405456543 -242.536407470703 2.452588319778
19.633588790894 -77.111274719238 -241.528182983398 1.406784772873
5.782732963562 -76.702590942383 -243.307601928711 0.846533417702
-149.476211547852 -72.584449768066 -236.740249633789 2.557011604309
-148.321990966797 -75.215873718262 -243.612197875977 2.040873050690
-46.148490905762 -77.037399291992 -243.027069091797 1.546708941460
-30.644981384277 -77.182662963867 -244.882492065430 2.910369157791
5.709856987000 -78.060684204102 -244.960784912109 0.917537033558
-37.331047058105 -77.077056884766 -245.296325683594 1.092852592468
23.379308700562 -77.447578430176 -246.950164794922 0.113327465951
-4.538191795349 -78.797065734863 -250.016662597656 1.002985239029
-147.404830932617 -75.319877624512 -252.836074829102 2.152975082397
-7.475519180298 -79.615516662598 -251.608306884766 2.451969146729
-146.654144287109 -74.314216613770 -250.430969238281 1.898265838623
-66.248001098633 -76.807685852051 -249.578308105469 1.945793628693
-148.133285522461 -81.423614501953 -259.883026123047 1.083403229713
-125.624954223633 -74.682289123535 -258.893493652344 1.928287506104
-149.613037109375 -72.785140991211 -259.788024902344 1.066450119019
-11.431837081909 -74.647377014160 -265.988098144531 3.392137527466
-145.409240722656 -78.151832580566 -267.971893310547 2.622190475464
-149.179855346680 -75.335823059082 -267.081298828125 2.419890403748
-9.800000190735 -77.854431152344 -270.071197509766 1.583507061005
-145.333007812500 -75.474960327148 -271.016601562500 3.368490457535
-3.779443025589 -76.547195434570 -278.283813476563 2.754165410995
-45.321147918701 -75.790481567383 -285.843170166016 3.051383256912
-133.317810058594 -74.068817138672 -288.589691162109 2.702433586121
-132.991241455078 -74.091552734375 -286.154418945313 1.231065392494
-124.424972534180 -73.542144775391 -285.124938964844 1.908517718315
-52.017734527588 -75.270965576172 -286.535430908203 2.017934560776
-113.327781677246 -73.153053283691 -286.897491455078 1.264286160469
16.710569381714 -76.517837524414 -290.348754882813 1.989343404770
-58.169109344482 -74.843902587891 -288.766937255859 1.934632539749
-140.669769287109 -74.164077758789 -291.547485351563 2.385425567627
-61.625698089600 -74.832374572754 -290.189147949219 2.182458639145
-142.569244384766 -77.686622619629 -292.117828369141 1.235195398331
-116.357513427734 -73.917259216309 -290.472808837891 2.338647842407
-46.042129516602 -76.573280334473 -290.400177001953 1.719323635101
-33.834377288818 -76.309280395508 -290.977935791016 2.079412221909
-134.275009155273 -73.276786804199 -292.997467041016 2.257764101028
-11.079877853394 -74.491966247559 -287.690521240234 1.464497566223
3.093126058578 -76.483474731445 -289.634307861328 0.776429235935
7.336215019226 -76.026008605957 -291.179992675781 2.152561426163
15.963799476624 -77.252174377441 -294.002899169922 1.625838041306
-148.828445434570 -76.262039184570 -296.818572998047 1.470328569412
-146.115615844727 -73.622619628906 -297.549530029297 1.353857159615
-68.338531494141 -75.904617309570 -60.712554931641 1.427831292152
88.084640502930 -77.700561523438 -73.611579895020 3.234357595444
78.961769104004 -77.869712829590 -76.073043823242 2.909633159637
-26.624738693237 -77.641807556152 -76.658172607422 1.657392740250
84.624557495117 -76.366706848145 -75.546401977539 2.220124959946
-35.978881835938 -77.275115966797 -80.038955688477 1.189912915230
86.370368957520 -76.623634338379 -79.323143005371 1.717124581337
94.305641174316 -76.323310852051 -80.827354431152 1.502946972847
-64.573539733887 -70.283508300781 -94.029281616211 0.955298006535
74.955718994141 -77.438529968262 -93.299827575684 2.272655487061
80.852333068848 -76.583686828613 -96.713829040527 2.261768579483
93.863082885742 -78.649551391602 -93.953895568848 2.623782396317
55.584205627441 -77.699760437012 -97.480827331543 2.415313959122
-72.442504882813 -76.722885131836 -101.470977783203 3.122397184372
-74.264610290527 -71.633361816406 -101.522102355957 1.486697316170
49.866241455078 -78.209777832031 -104.505493164063 1.444575786591
-89.581649780273 -77.034156799316 -104.373680114746 2.824934720993
46.067459106445 -76.106025695801 -116.957122802734 1.584205865860
111.021194458008 -76.939819335938 -118.136047363281 1.692018032074
112.855354309082 -78.531494140625 -130.869003295898 2.723725557327
25.292736053467 -75.652404785156 -137.805541992188 0.897601485252
110.758300781250 -78.020980834961 -126.099647521973 1.523608922958
27.885286331177 -76.048614501953 -133.929672241211 1.297191500664
113.998924255371 -75.077301025391 -129.564941406250 0.778870701790
38.632045745850 -76.278106689453 -134.254028320313 2.447427034378
-52.419811248779 -76.595535278320 -142.664489746094 1.611072778702
35.792724609375 -77.176574707031 -142.622558593750 0.882315814495
109.928726196289 -76.101119995117 -136.484191894531 1.611917376518
-48.456199645996 -75.246475219727 -144.384170532227 1.485195517540
32.682769775391 -76.558364868164 -148.403533935547 1.679676055908
-55.697387695313 -73.150527954102 -139.910140991211 1.103935003281
-54.602397918701 -76.353485107422 -146.635864257813 1.208084225655
-50.581943511963 -77.209526062012 -149.718612670898 0.981533050537
-64.205932617188 -77.155509948730 -156.165786743164 1.520491838455
114.485984802246 -79.141319274902 -147.678222656250 3.081055402756
-49.751983642578 -78.424156188965 -155.320755004883 2.042396783829
22.646186828613 -78.658546447754 -155.012634277344 2.005095720291
109.775192260742 -77.890823364258 -158.234161376953 0.996860742569
-65.808235168457 -74.944175720215 -156.022628784180 1.364330172539
-45.685482025146 -76.583518981934 -156.308258056641 1.441701889038
9.044589042664 -74.459602355957 -154.642471313477 0.849017143250
-66.957931518555 -75.084953308105 -158.187011718750 0.703542888165
-61.567554473877 -76.506866455078 -160.539169311523 1.881002664566
-0.135690003633 -76.388809204102 -161.995544433594 1.290764331818
-41.602096557617 -74.665054321289 -167.321273803711 2.710676908493
30.900970458984 -75.088035583496 -165.017410278320 1.382484912872
-61.752819061279 -74.163345336914 -166.493057250977 1.404463052750
-56.319210052490 -76.413658142090 -167.820816040039 2.199194669724
18.658432006836 -77.670715332031 -160.517105102539 2.695097923279
-30.332483291626 -75.754455566406 -169.048477172852 1.367639303207
-29.230421066284 -77.583183288574 -167.011215209961 1.540789604187
16.978429794312 -77.034370422363 -174.364974975586 2.164606332779
-40.793117523193 -77.231506347656 -172.838409423828 1.287961363792
-10.937439918518 -76.436592102051 -172.668930053711 0.996776342392
