-87.645500183105 -84.088821411133 -100.599655151367 3.794783830643
45.673191070557 -79.730346679688 -106.382987976074 2.330137252808
-78.142944335938 -82.170783996582 -104.548019409180 1.376024246216
41.248607635498 -81.062866210938 -113.618667602539 2.471085309982
39.645275115967 -79.242515563965 -120.567413330078 1.739620923996
39.119106292725 -79.528312683105 -125.361709594727 1.337924480438
37.220890045166 -79.105545043945 -135.026916503906 1.440594911575
31.546878814697 -78.650749206543 -135.471267700195 2.521644115448
33.824863433838 -82.045890808105 -136.243835449219 2.756596088409
30.243515014648 -77.979545593262 -150.013137817383 0.787860095501
-44.782569885254 -77.517356872559 -149.699295043945 1.297398805618
28.231664657593 -80.790496826172 -141.244735717773 1.377479672432
-66.733764648438 -76.464881896973 -154.309387207031 1.094983816147
-38.618000030518 -80.703613281250 -155.124389648438 1.550343990326
-62.398349761963 -80.125122070313 -164.810089111328 0.974443197250
-40.729682922363 -79.448707580566 -159.182601928711 2.326082706451
30.157428741455 -78.991256713867 -156.599075317383 1.532524704933
-35.522857666016 -82.125000000000 -162.005355834961 2.481253623962
-3.193280935287 -80.325660705566 -171.163848876953 1.624725341797
31.687618255615 -76.999618530273 -162.378189086914 1.773470282555
-9.162126541138 -79.558212280273 -170.050689697266 0.899238049984
-60.041271209717 -79.039535522461 -164.522567749023 1.511508345604
-35.759750366211 -77.343627929688 -169.731506347656 1.433135032654
-30.162553787231 -77.667762756348 -173.097122192383 2.689806938171
24.932516098022 -79.950515747070 -175.438690185547 2.128799200058
-54.486469268799 -79.222190856934 -177.791748046875 2.450022220612
-30.221389770508 -77.038902282715 -176.027801513672 2.520133018494
22.669645309448 -79.122024536133 -181.971542358398 1.888370156288
-50.441032409668 -79.221145629883 -185.562728881836 1.272864341736
-25.655845642090 -76.388954162598 -184.393203735352 2.657678604126
-53.622314453125 -77.558135986328 -184.163146972656 1.463823795319
-40.793178558350 -79.120239257813 -194.959045410156 1.515628457069
-29.611604690552 -78.099395751953 -189.002883911133 1.025992155075
-42.795726776123 -79.495178222656 -196.652832031250 0.814487755299
-23.514917373657 -78.586021423340 -191.647949218750 1.030394315720
-136.141250610352 -80.750785827637 -197.862289428711 1.507405996323
18.671859741211 -79.013519287109 -199.581680297852 1.850743055344
-133.514129638672 -76.745918273926 -199.680038452148 1.715396046638
-21.855672836304 -77.107856750488 -196.479690551758 1.401240706444
-19.549123764038 -77.162117004395 -197.335922241211 0.817004144192
-41.198150634766 -79.055191040039 -196.606124877930 2.148624181747
15.123274803162 -77.905357360840 -194.481414794922 1.636284828186
-15.702758789063 -80.007682800293 -198.548171997070 1.914423942566
-59.226169586182 -79.670631408691 -205.293838500977 1.521099328995
-35.008804321289 -78.661529541016 -205.063156127930 0.703674554825
-64.566131591797 -76.884269714355 -207.807647705078 1.034970760345
-68.929336547852 -76.758468627930 -210.769073486328 1.991533517838
17.146928787231 -77.989135742188 -209.266357421875 2.485591650009
-84.903350830078 -78.310440063477 -213.976165771484 1.779096364975
-29.232837677002 -78.733795166016 -216.040008544922 1.535778999329
-79.676879882813 -79.541366577148 -213.712753295898 1.735351681709
-146.439025878906 -81.400581359863 -216.894515991211 1.130310773849
-7.515683174133 -78.319229125977 -216.034362792969 1.967667460442
-9.813631057739 -78.157829284668 -218.149444580078 1.586996674538
12.710656166077 -78.900390625000 -216.281478881836 1.207207202911
13.210195541382 -76.408744812012 -222.976226806641 3.135969877243
-2.101727962494 -79.490821838379 -230.316146850586 2.146307706833
-137.115905761719 -77.375488281250 -225.584701538086 1.107061028481
-148.608642578125 -82.640335083008 -233.004104614258 1.904862046242
-149.588958740234 -77.725067138672 -232.561492919922 1.795132994652
6.657588005066 -79.469657897949 -235.080368041992 1.984397172928
1.704427003860 -78.202285766602 -236.338851928711 1.336450934410
-23.467037200928 -80.622161865234 -241.144775390625 2.064854383469
-150.263412475586 -77.212493896484 -240.568771362305 1.972396254539
10.993773460388 -79.040466308594 -244.793075561523 1.287722587585
-23.419450759888 -76.262405395508 -242.415176391602 1.127535581589
18.942560195923 -77.728912353516 -238.314193725586 1.625474452972
-54.053180694580 -77.939270019531 -244.581192016602 1.169346570969
-50.546794891357 -78.575401306152 -248.411926269531 2.844707012177
-146.035522460938 -83.411476135254 -246.877044677734 1.559602618217
-62.998176574707 -78.221237182617 -247.986267089844 2.066676378250
-3.432797908783 -77.086517333984 -247.022354125977 1.565609574318
-9.932738304138 -77.939147949219 -257.115722656250 1.937227964401
-147.390518188477 -82.893547058105 -258.333007812500 1.136438369751
-133.475158691406 -77.952758789063 -258.127441406250 1.778866767883
-135.804504394531 -77.015327453613 -260.680389404297 1.665051221848
18.951841354370 -78.281967163086 -260.728240966797 1.336812496185
-145.476943969727 -79.754051208496 -272.192230224609 1.793845057487
17.955495834351 -79.621452331543 -268.880767822266 0.766972124577
-147.349670410156 -77.510322570801 -273.801605224609 1.885371446609
2.617253065109 -81.022163391113 -277.983795166016 1.554715037346
-144.262817382813 -79.609573364258 -283.203582763672 1.725343942642
2.765799999237 -79.345626831055 -283.838958740234 1.460518717766
-151.727050781250 -78.172004699707 -283.759704589844 1.103893876076
-142.716140747070 -77.183677673340 -285.929931640625 1.897707104683
-137.182937622070 -79.714256286621 -287.259460449219 1.333636760712
-148.603958129883 -83.470848083496 -292.750946044922 2.368471860886
-19.426586151123 -77.100608825684 -290.208953857422 1.327715516090
-152.948562622070 -79.173583984375 -292.918609619141 2.246593236923
-148.787628173828 -79.586196899414 -295.949707031250 2.238650560379
-149.624832153320 -77.764808654785 -310.759368896484 2.199933052063
-57.272006988525 -77.123100280762 -57.900253295898 1.693211078644
-39.514175415039 -79.982612609863 -62.441497802734 2.737164735794
-76.510375976563 -79.279518127441 -65.878829956055 2.478619337082
-28.812540054321 -77.366165161133 -68.338455200195 1.840545415878
-26.012323379517 -78.913742065430 -72.774818420410 2.532007217407
-85.493698120117 -79.741500854492 -81.426750183105 2.847303867340
87.141876220703 -79.038436889648 -84.877067565918 2.736815214157
-36.714019775391 -77.427299499512 -84.118789672852 2.771118640900
81.637771606445 -80.059272766113 -85.699165344238 2.399756431580
76.923553466797 -78.078239440918 -87.980613708496 2.146649599075
85.002441406250 -78.136558532715 -88.808708190918 2.215811967850
82.436965942383 -77.500068664551 -91.679260253906 1.666384816170
91.060707092285 -77.683609008789 -92.668319702148 1.098109722137
-91.823150634766 -75.882423400879 -95.492546081543 2.679184675217
52.824756622314 -78.373184204102 -105.511520385742 1.080974578857
-92.588630676270 -73.229835510254 -114.550765991211 2.652040004730
43.250194549561 -79.364707946777 -110.468894958496 1.253695607185
49.108085632324 -78.030914306641 -113.502952575684 2.747361898422
41.496200561523 -78.344734191895 -115.445053100586 1.326685547829
31.855022430420 -78.331428527832 -134.830261230469 1.872213482857
26.483591079712 -78.191291809082 -140.403717041016 2.422862291336
22.843557357788 -73.487243652344 -144.584365844727 1.219331979752
32.596233367920 -76.620399475098 -144.365859985352 2.041683673859
-48.109184265137 -79.402519226074 -154.071624755859 0.610937476158
-46.890525817871 -78.489425659180 -151.460067749023 1.455773591995
-41.393688201904 -77.661064147949 -156.151824951172 1.728248357773
25.653120040894 -77.415832519531 -151.891418457031 2.420844554901
26.232160568237 -77.505958557129 -167.784469604492 1.875245332718
-33.918292999268 -76.529212951660 -167.424407958984 1.089030385017
-34.994735717773 -76.229553222656 -160.188232421875 1.032428503036
-45.378906250000 -78.866264343262 -158.167907714844 1.943190932274
2.725840091705 -76.798294067383 -164.152923583984 2.070164442062
23.922147750854 -78.778007507324 -154.162719726563 0.938482403755
31.906084060669 -76.433876037598 -161.002304077148 2.229944944382
27.918819427490 -76.732826232910 -169.214721679688 2.199366092682
-8.868853569031 -77.667472839355 -171.406967163086 2.547129154205
-1.846047997475 -77.661705017090 -170.027557373047 0.402810603380
-57.251335144043 -77.538238525391 -169.026519775391 1.135246396065
-60.533939361572 -77.478172302246 -170.149017333984 0.958571195602
-41.040744781494 -78.860046386719 -170.821655273438 0.852612257004
-38.728553771973 -77.155075073242 -167.709167480469 0.952729225159
22.885173797607 -75.940940856934 -173.185455322266 2.827463626862
-20.916757583618 -80.643157958984 -177.934982299805 2.103225946426
-32.645549774170 -77.197586059570 -180.649490356445 2.222222089767
-60.674613952637 -79.356246948242 -179.240097045898 1.840149998665
102.871475219727 -78.143226623535 -181.658950805664 1.407081246376
20.847763061523 -79.728523254395 -172.857788085938 2.117575407028
-26.352781295776 -77.765029907227 -180.382827758789 0.975882470608
-50.033149719238 -77.117027282715 -180.804412841797 1.732858538628
-19.057897567749 -76.186576843262 -180.258926391602 1.971229791641
110.458488464355 -77.736343383789 -179.176254272461 2.013030052185
-51.545448303223 -79.351860046387 -183.171890258789 1.608387470245
15.602231025696 -78.733009338379 -186.895477294922 1.971415996552
22.831840515137 -77.726242065430 -179.783691406250 2.368826389313
-55.760108947754 -79.711669921875 -179.231704711914 2.338658809662
-23.035848617554 -77.109016418457 -182.233993530273 1.146008253098
-55.715465545654 -78.905441284180 -176.542846679688 1.956139206886
-35.451591491699 -77.178459167480 -180.556579589844 3.547265768051
-28.536909103394 -77.587745666504 -187.197677612305 1.284117698669
21.826637268066 -77.989967346191 -187.664001464844 1.162336111069
-49.868549346924 -78.094093322754 -187.896255493164 1.269974708557
104.466163635254 -77.292266845703 -189.866882324219 0.695455610752
-51.557331085205 -75.709014892578 -190.234237670898 1.169679522514
9.776081085205 -77.591323852539 -201.511749267578 1.065583229065
20.089178085327 -77.311538696289 -199.653594970703 1.403837323189
-47.906539916992 -77.084457397461 -191.120086669922 1.092085361481
-19.496179580688 -78.170112609863 -190.025375366211 1.790622115135
102.227287292480 -77.260940551758 -195.512557983398 0.707022070885
99.717559814453 -79.133674621582 -196.175415039063 3.212435960770
-47.486469268799 -77.050308227539 -189.061706542969 1.516142845154
-147.815353393555 -82.088897705078 -198.655548095703 1.070223450661
-45.586860656738 -77.653221130371 -198.154220581055 1.328741550446
-145.013763427734 -79.221443176270 -198.806167602539 1.031075954437
-136.048934936523 -75.650611877441 -200.841125488281 0.814943492413
-44.100540161133 -78.442657470703 -197.945999145508 1.508249402046
11.162335395813 -78.299964904785 -208.423995971680 1.639122128487
-16.377202987671 -76.577964782715 -204.592285156250 0.628847241402
15.871729850769 -76.448387145996 -202.185333251953 1.567796111107
92.362945556641 -78.755599975586 -210.199569702148 2.241532087326
-36.550979614258 -76.798782348633 -201.637359619141 1.612589240074
-11.334635734558 -77.424118041992 -206.797378540039 1.502798080444
-12.877595901489 -76.734077453613 -212.070343017578 2.089104175568
-36.663299560547 -77.635490417480 -207.119567871094 0.934660434723
9.536963462830 -77.080986022949 -205.922561645508 1.381117224693
-76.539772033691 -76.587860107422 -210.460968017578 1.149220466614
15.721565246582 -77.826629638672 -213.353607177734 1.663422107697
-35.177120208740 -77.134033203125 -206.889343261719 1.006650328636
-144.562377929688 -78.997734069824 -209.637130737305 2.259800434113
-144.025955200195 -74.565299987793 -211.827468872070 1.570872783661
-86.814872741699 -77.743240356445 -213.473068237305 0.970216393471
-35.183605194092 -76.111000061035 -210.906646728516 3.315327882767
-20.783937454224 -79.982223510742 -213.076705932617 4.025947570801
-30.529567718506 -77.842826843262 -210.470977783203 1.028183221817
-91.421295166016 -77.715766906738 -217.387710571289 1.504121422768
-87.757728576660 -78.060302734375 -215.727386474609 1.193645358086
8.487972259521 -79.618118286133 -220.880813598633 1.428678631783
-149.860473632813 -75.281219482422 -215.714401245117 0.713721811771
-12.919655799866 -79.018676757813 -213.450378417969 0.635817289352
8.722135543823 -80.993583679199 -218.354187011719 1.500013828278
-144.619522094727 -76.816917419434 -219.145980834961 2.509790420532
-20.894521713257 -78.598228454590 -218.631454467773 1.525217771530
-1.691719055176 -76.319953918457 -221.535400390625 1.060411691666
-4.930476188660 -78.635017395020 -219.282974243164 1.544715046883
-152.350585937500 -76.166168212891 -224.667251586914 1.613488435745
-138.155105590820 -73.499382019043 -227.041519165039 2.962756395340
-5.763888835907 -77.795272827148 -223.605697631836 1.865406751633
-148.763946533203 -82.131736755371 -228.309417724609 1.449463725090
1.638813972473 -75.290405273438 -230.427459716797 1.549760341644
17.147394180298 -77.394828796387 -233.698608398438 0.993906676769
-0.799628019333 -78.133308410645 -232.291900634766 2.964861154556
0.310631990433 -74.746215820313 -235.234832763672 2.427345752716
7.880529880524 -77.702056884766 -231.998367309570 1.987137794495
-150.988876342773 -77.681282043457 -237.313568115234 1.480026006699
-19.389808654785 -76.282669067383 -236.810317993164 3.229677438736
-34.729717254639 -78.723365783691 -239.395462036133 1.797681212425
4.634530067444 -75.985092163086 -233.103302001953 1.121075987816
0.921225011349 -79.439575195313 -239.274215698242 1.980400204659
3.377748012543 -77.183418273926 -234.658081054688 2.174544095993
-55.275070190430 -76.452346801758 -242.969390869141 0.687602281570
-148.868164062500 -75.940383911133 -247.565414428711 2.653383493423
-151.688217163086 -78.199104309082 -248.389724731445 1.040341734886
10.338383674622 -78.640396118164 -246.853485107422 0.342432379723
22.940015792847 -78.050537109375 -247.694244384766 1.040066123009
-60.173915863037 -76.088546752930 -248.426483154297 0.850948750973
-144.030273437500 -79.868713378906 -253.190582275391 1.414077639580
-152.993057250977 -79.477157592773 -254.977523803711 1.674337744713
-151.061264038086 -82.267303466797 -258.025268554688 1.940697312355
-142.063568115234 -75.778663635254 -261.778381347656 0.999597012997
-138.477203369141 -77.239913940430 -257.156646728516 2.229995727539
-10.031131744385 -77.984138488770 -256.835479736328 1.872799038887
-144.156814575195 -78.633705139160 -263.596862792969 1.971759319305
-12.260526657104 -78.217086791992 -265.272613525391 1.006722331047
-147.111846923828 -76.799713134766 -275.393371582031 1.703915953636
-147.135253906250 -77.325569152832 -282.913635253906 0.954289913177
-149.465744018555 -76.717826843262 -283.401489257813 2.121922016144
-3.178678989410 -74.082923889160 -284.983734130859 1.590119004250
-144.330017089844 -73.698593139648 -285.764312744141 1.309926390648
-29.151025772095 -77.212448120117 -286.981170654297 2.181253433228
-29.789024353027 -75.998161315918 -287.316497802734 1.870656609535
-15.779446601868 -75.945411682129 -290.657897949219 1.263044953346
-10.987995147705 -75.670463562012 -289.905212402344 1.082780241966
14.081778526306 -78.507995605469 -291.617675781250 1.625403642654
-125.010040283203 -77.392219543457 -289.957092285156 1.323361992836
-57.960102081299 -76.769081115723 -288.568237304688 0.210209295154
-39.378948211670 -75.804328918457 -289.755187988281 1.569928288460
-31.895555496216 -77.535179138184 -289.192474365234 1.849700212479
-8.933711051941 -76.110359191895 -291.574340820313 2.268674612045
5.370457172394 -77.214630126953 -288.728515625000 1.951408863068
-142.691436767578 -78.824440002441 -295.167266845703 3.193066596985
9.718411445618 -77.281227111816 -292.740478515625 2.462882995605
-151.848831176758 -75.977523803711 -301.948059082031 2.780669689178
-150.624221801758 -79.040328979492 -301.718963623047 1.322036623955
-152.413787841797 -75.527786254883 -311.839965820313 2.612676858902
-144.846710205078 -76.556510925293 -311.055206298828 1.720475554466
-50.398807525635 -76.842903137207 -54.181549072266 2.487895965576
-55.946712493896 -78.718086242676 -56.660423278809 3.231697797775
-65.138793945313 -76.397087097168 -56.023624420166 1.617411732674
-42.366123199463 -76.723449707031 -60.319995880127 1.192780137062
-36.992984771729 -77.146354675293 -59.572071075439 1.400640487671
-21.395666122437 -76.527175903320 -68.758895874023 1.180363655090
-82.486923217773 -76.291519165039 -68.911155700684 2.264707565308
82.912940979004 -77.823524475098 -78.340545654297 2.740113258362
-89.932861328125 -76.590286254883 -79.648628234863 2.218564271927
82.304168701172 -77.234786987305 -80.267517089844 2.183572530746
86.263526916504 -75.882781982422 -83.682739257813 1.460215091705
94.579788208008 -75.978157043457 -87.166397094727 2.188794374466
-59.616470336914 -80.924209594727 -95.703941345215 2.139011621475
83.034210205078 -77.261947631836 -95.063247680664 2.220454931259
78.319900512695 -79.020202636719 -92.230644226074 1.635894417763
86.898010253906 -78.065216064453 -90.243972778320 1.366863250732
-61.841232299805 -79.544357299805 -97.737030029297 1.808870196342
51.624420166016 -76.521347045898 -97.451911926270 1.830378174782
45.904911041260 -77.477493286133 -106.660461425781 2.148007631302
41.063674926758 -78.003196716309 -104.603805541992 2.598551750183
37.687042236328 -77.573570251465 -106.302261352539 1.812696218491
-91.246604919434 -75.776382446289 -109.748130798340 1.665665149689
36.204124450684 -76.912719726563 -117.460693359375 1.633543729782
-84.695709228516 -78.052436828613 -109.886421203613 1.791503548622
42.265079498291 -78.879981994629 -124.388671875000 1.631870985031
34.051792144775 -78.141014099121 -122.006645202637 1.306914567947
33.886928558350 -73.784301757813 -121.906188964844 1.601171135902
43.396389007568 -76.959442138672 -119.222496032715 0.280293405056
40.200698852539 -78.809852600098 -127.358741760254 1.877442955971
-52.617538452148 -73.574020385742 -135.803436279297 1.128455162048
36.744998931885 -79.048385620117 -135.295745849609 1.063876628876
36.337787628174 -76.792640686035 -142.732711791992 0.600015699863
-52.929821014404 -74.747062683105 -141.237319946289 2.432498931885
-46.792655944824 -77.053810119629 -140.888717651367 0.436413884163
35.029678344727 -77.432586669922 -143.445602416992 0.917273521423
111.368118286133 -75.100639343262 -141.675506591797 1.322911739349
113.542373657227 -75.562774658203 -143.216583251953 2.235388517380
26.822742462158 -77.978340148926 -143.585266113281 0.631125211716
-41.203586578369 -78.271896362305 -149.293563842773 0.316520065069
113.743255615234 -79.686546325684 -153.902786254883 3.450144052505
-39.419040679932 -76.035285949707 -153.597030639648 1.820255756378
-67.778884887695 -77.181770324707 -159.737304687500 2.037504673004
110.930000305176 -78.928169250488 -159.875396728516 2.321846961975
23.037694931030 -77.175498962402 -164.021026611328 1.449427485466
0.611526012421 -78.107643127441 -163.164184570313 1.615842938423
112.560302734375 -77.249320983887 -155.528701782227 1.087892293930
-63.924900054932 -76.577819824219 -165.078338623047 1.209362387657
-37.241588592529 -76.695770263672 -162.233795166016 1.067608475685
112.948234558105 -76.885559082031 -164.579925537109 2.851664304733
29.223762512207 -75.019638061523 -158.686721801758 2.240106105804
-62.783931732178 -73.615219116211 -166.216537475586 1.431584239006
111.928916931152 -77.476295471191 -166.663024902344 1.784234404564
-64.683418273926 -78.514350891113 -168.842681884766 2.122073173523
-50.552776336670 -78.396606445313 -179.703689575195 1.642837524414
106.635818481445 -76.004310607910 -171.680892944336 1.516764640808
-59.570339202881 -75.510597229004 -170.494995117188 0.886240899563
111.837188720703 -76.649673461914 -175.431152343750 1.104482531548
-59.965335845947 -76.842361450195 -174.894073486328 2.118575811386
-14.092565536499 -75.710578918457 -177.658721923828 1.831102848053
-11.585659980774 -79.519233703613 -180.275909423828 2.110545873642
108.218841552734 -77.894218444824 -170.418197631836 0.984286963940
21.262506484985 -77.294189453125 -172.172012329102 0.656432032585
29.405961990356 -75.315292358398 -170.586349487305 2.091070175171
-56.267910003662 -76.118644714355 -177.206008911133 1.508146882057
19.149324417114 -76.106422424316 -182.295761108398 0.954604983330
-57.417182922363 -76.537353515625 -176.487197875977 1.181981086731
-51.041675567627 -75.863510131836 -189.079010009766 1.521452188492
13.909871101379 -75.663131713867 -183.685256958008 1.883370757103
-57.349273681641 -75.071838378906 -180.953475952148 1.481934905052
107.606544494629 -76.025825500488 -186.051956176758 3.262917757034
24.374565124512 -77.747184753418 -181.299942016602 1.676753163338
-32.484954833984 -75.478492736816 -188.754943847656 1.094370245934
-42.072956085205 -77.296409606934 -191.882278442383 0.443634986877
11.558741569519 -77.039703369141 -193.705749511719 2.134354352951
-18.140834808350 -77.678535461426 -190.617645263672 1.768632888794
-49.098068237305 -77.630493164063 -194.381591796875 1.573681950569
103.538322448730 -78.589210510254 -184.277648925781 2.386719942093
14.374924659729 -77.992370605469 -190.956893920898 1.116310238838
-133.865066528320 -78.755287170410 -198.733871459961 2.306310176849
-43.670528411865 -78.261032104492 -194.122024536133 2.207569599152
96.830162048340 -76.647903442383 -199.031341552734 1.303188204765
-147.804733276367 -81.638092041016 -202.268127441406 1.819055080414
18.727407455444 -76.875068664551 -196.262847900391 1.033514857292
-41.823276519775 -75.144248962402 -205.465972900391 2.999186515808
-31.175529479980 -78.183204650879 -205.154510498047 1.509162902832
-36.691574096680 -76.815879821777 -204.370056152344 1.997338533401
-43.613197326660 -78.773040771484 -197.363372802734 1.230857133865
100.349365234375 -77.025627136230 -202.649368286133 2.505628824234
-19.649021148682 -78.050750732422 -202.273605346680 1.452308654785
-149.809371948242 -76.769393920898 -204.193740844727 0.535616517067
16.541637420654 -77.483657836914 -204.721115112305 1.592934727669
-75.993347167969 -79.898788452148 -208.028793334961 1.246694803238
-147.682739257813 -75.852005004883 -211.577468872070 0.735537827015
96.114234924316 -76.904159545898 -211.006271362305 1.184061646461
-32.280838012695 -75.836669921875 -207.453338623047 1.056462645531
-28.450038909912 -76.670967102051 -213.644714355469 1.876379609108
8.777784347534 -77.562789916992 -211.081527709961 1.134328365326
-70.835060119629 -78.587051391602 -211.266906738281 1.713624238968
-28.284147262573 -79.778182983398 -209.089553833008 0.645246982574
-5.404263019562 -76.974700927734 -215.489852905273 1.470185518265
-72.869064331055 -78.312866210938 -214.604858398438 1.383959054947
-14.011882781982 -76.809028625488 -217.537902832031 1.335878133774
8.515366554260 -73.050384521484 -213.184173583984 1.812937498093
16.042263031006 -78.171752929688 -220.151062011719 1.301698088646
-148.597702026367 -77.258071899414 -216.990447998047 1.688868999481
-7.434608936310 -76.462699890137 -214.857360839844 1.695030093193
-96.594650268555 -73.541969299316 -220.728485107422 2.378634929657
-21.267669677734 -75.972747802734 -220.168182373047 2.027781724930
91.271736145020 -79.116355895996 -211.912918090820 2.331418991089
7.538791179657 -76.084800720215 -226.546875000000 0.464520096779
18.353792190552 -75.826118469238 -216.822845458984 1.696410298347
81.745124816895 -76.911651611328 -218.920166015625 3.481659173965
1.563120007515 -77.664665222168 -227.918365478516 0.726203799248
86.472717285156 -76.890899658203 -217.391845703125 0.850736081600
-17.694156646729 -75.184181213379 -222.976364135742 1.434493064880
15.894816398621 -75.960632324219 -219.735656738281 1.475552558899
-146.052520751953 -77.902984619141 -222.263824462891 1.838112592697
-20.956439971924 -77.755485534668 -225.136932373047 1.666065335274
2.131957054138 -76.667648315430 -228.472305297852 1.544352054596
-154.863571166992 -79.661148071289 -227.604919433594 1.752664566040
-136.147827148438 -76.953399658203 -228.614547729492 2.398577213287
6.758172988892 -76.533561706543 -225.419372558594 1.605437397957
-3.545193910599 -75.541473388672 -230.043746948242 1.489550352097
-135.829147338867 -74.870559692383 -231.025817871094 1.429724097252
-145.586853027344 -77.345375061035 -237.946350097656 3.245377063751
-146.888763427734 -76.491569519043 -236.490036010742 2.232866764069
-32.135646820068 -77.068046569824 -238.218933105469 1.460805296898
-144.504638671875 -77.309440612793 -242.783035278320 3.511176347733
19.393421173096 -76.789230346680 -241.836059570313 1.492996335030
5.538303852081 -76.526748657227 -243.609878540039 1.079689979553
-149.753402709961 -74.084861755371 -236.980346679688 1.960608959198
-148.573593139648 -76.694038391113 -243.856430053711 1.236704707146
-46.386219024658 -77.419425964355 -243.310958862305 1.550652623177
-30.882747650146 -77.395629882813 -245.172210693359 2.945600271225
5.479384899139 -77.883209228516 -245.264968872070 0.716531991959
-37.569721221924 -77.361221313477 -245.583480834961 1.561330437660
23.140483856201 -77.077651977539 -247.259872436523 0.563085794449
-4.762078762054 -78.722427368164 -250.318145751953 1.365483522415
-147.658874511719 -76.775169372559 -253.080764770508 2.338533639908
-7.691051959991 -79.570114135742 -251.909896850586 2.139363050461
-146.918090820313 -75.764900207520 -250.674514770508 1.808819293976
-66.489509582520 -77.396255493164 -249.854583740234 2.168813228607
-148.324417114258 -82.876426696777 -260.136077880859 0.859866619110
-125.889381408691 -75.895256042480 -259.145202636719 0.667757868767
-149.896774291992 -74.254478454590 -260.028320312500 1.357169866562
-11.705913543701 -74.624443054199 -266.281188964844 3.491502285004
-145.638702392578 -79.564170837402 -268.221282958984 2.442679643631
-149.438995361328 -76.790061950684 -267.325347900391 3.066142320633
-10.041289329529 -77.808029174805 -270.369415283203 1.332680940628
-145.592376708984 -76.882339477539 -271.262268066406 2.080848217010
-4.038218975067 -76.424644470215 -278.582366943359 2.596715927124
-45.588504791260 -76.103263854980 -286.125579833984 3.081406593323
-133.599609375000 -75.322486877441 -288.837707519531 1.943852424622
-133.271896362305 -75.345153808594 -286.402557373047 0.301994085312
-124.711624145508 -74.705268859863 -285.375427246094 1.298475503922
-52.290546417236 -75.654685974121 -286.814666748047 1.473455190659
-113.619926452637 -74.194564819336 -287.151458740234 0.757082164288
16.445732116699 -76.158294677734 -290.654693603516 1.525388598442
-58.446994781494 -75.290534973145 -289.043304443359 1.646031498909
-140.951232910156 -75.492492675781 -291.792968750000 1.643214702606
-61.904045104980 -75.314109802246 -290.464263916016 2.023191690445
-142.813003540039 -79.034416198730 -292.367614746094 1.161224365234
-116.642631530762 -74.986206054688 -290.726745605469 2.335959672928
-46.302768707275 -76.887321472168 -290.683410644531 1.997155547142
-34.098770141602 -76.491470336914 -291.265228271484 1.810152769089
-134.566909790039 -74.534553527832 -293.244018554688 1.846418738365
-11.363853454590 -74.434631347656 -287.983520507813 1.866006851196
2.828974962234 -76.271125793457 -289.935272216797 1.149980902672
7.066325187683 -75.765953063965 -291.481842041016 1.807222843170
15.705503463745 -76.895446777344 -294.309600830078 1.618949651718
-149.088912963867 -77.670471191406 -297.064056396484 2.039584636688
-146.404846191406 -75.001052856445 -297.792266845703 1.436767339706
-68.518173217773 -76.782279968262 -60.986965179443 1.191728353500
87.910369873047 -76.880668640137 -73.945312500000 2.849965095520
78.788902282715 -77.144271850586 -76.403701782227 2.229966163635
-26.794174194336 -78.049049377441 -76.950172424316 2.132529973984
84.435432434082 -75.581298828125 -75.876991271973 1.961121559143
-36.152992248535 -77.778022766113 -80.327033996582 1.471976757050
86.182472229004 -75.814147949219 -79.654724121094 0.880416452885
94.113487243652 -75.426528930664 -81.161392211914 1.365757465363
-64.826339721680 -71.074043273926 -94.297065734863 1.072395801544
74.771942138672 -76.731803894043 -93.628402709961 1.671049952507
80.657745361328 -75.808883666992 -97.043334960938 2.155764818192
93.690963745117 -77.738853454590 -94.291053771973 2.218282461166
55.402767181396 -77.195075988770 -97.802734375000 2.005084276199
-72.628547668457 -77.587020874023 -101.745018005371 2.383132934570
-74.505203247070 -72.517288208008 -101.788276672363 1.037977814674
49.687953948975 -77.756530761719 -104.826042175293 1.735374212265
-89.764457702637 -78.078163146973 -104.641937255859 2.771898984909
45.862094879150 -75.676101684570 -117.273300170898 1.330873012543
110.820587158203 -75.810890197754 -118.476989746094 1.248542904854
112.666908264160 -77.364807128906 -131.212860107422 1.593567013741
25.075817108154 -75.416107177734 -138.113510131836 1.186410784721
110.566299438477 -76.883567810059 -126.442016601563 0.416038125753
27.673936843872 -75.789924621582 -134.239151000977 1.540057539940
113.773826599121 -73.900382995605 -129.904312133789 0.976774871349
38.422416687012 -75.903579711914 -134.567733764648 2.448963642120
-52.623958587646 -77.186584472656 -142.945587158203 1.652920007706
35.589736938477 -76.820671081543 -142.936492919922 1.239096879959
109.712242126465 -74.958068847656 -136.823532104492 1.899863362312
-48.675704956055 -75.792625427246 -144.664794921875 1.324077367783
32.471138000488 -76.227714538574 -148.715469360352 2.053955316544
-55.937282562256 -73.780853271484 -140.185165405273 1.584375619888
-54.810520172119 -76.962371826172 -146.915817260742 1.329468369484
-50.782276153564 -77.770851135254 -150.001235961914 1.585549116135
-64.408493041992 -77.853988647461 -156.443374633789 1.070849657059
114.297630310059 -77.933372497559 -148.023513793945 2.575722455978
-49.941440582275 -78.968589782715 -155.605392456055 2.336910724640
22.455181121826 -78.426185607910 -155.323883056641 1.963406324387
109.569694519043 -76.718612670898 -158.575958251953 1.087112903595
-66.034385681152 -75.660194396973 -156.296508789063 0.842875719070
-45.895309448242 -77.083015441895 -156.591766357422 1.110570788383
8.809433937073 -74.374031066895 -154.942855834961 1.068490266800
-67.183326721191 -75.810249328613 -158.460678100586 0.201076209545
-61.778884887695 -77.170890808105 -160.816802978516 1.539786219597
-0.352385997772 -76.391296386719 -162.295318603516 1.599143385887
-41.836914062500 -75.105278015137 -167.603530883789 2.741452455521
30.667375564575 -74.753150939941 -165.326599121094 1.830474019051
-61.991550445557 -74.821090698242 -166.767288208008 0.918197929859
-56.534599304199 -77.011070251465 -168.100204467773 1.575915098190
18.454969406128 -77.473457336426 -160.825515747070 2.630923032761
-30.556913375854 -76.071197509766 -169.336364746094 1.500680327415
-29.434513092041 -77.890861511230 -167.302093505859 1.276817202568
16.762994766235 -76.835639953613 -174.671859741211 1.961092591286
-41.002525329590 -77.655105590820 -173.124603271484 1.534173130989
-11.157036781311 -76.539970397949 -172.964828491211 0.668754220009
-61.576568603516 -74.463233947754 -172.552108764648 1.931792616844
-5.551826953888 -74.335906982422 -172.285888671875 1.295756340027
-22.292329788208 -76.628120422363 -179.855438232422 1.588752269745
23.784749984741 -74.899612426758 -182.056396484375 1.173285841942
-38.576118469238 -76.358428955078 -172.367980957031 1.257508993149
19.590463638306 -74.256004333496 -177.493881225586 2.004903078079
-22.466979980469 -73.345130920410 -184.109497070313 1.645397305489
-31.882917404175 -77.385978698730 -180.732650756836 2.136278867722
-147.071792602539 -75.179107666016 -188.762435913086 1.577201724052
-20.172149658203 -78.058631896973 -185.595108032227 1.449037075043
-142.665328979492 -75.327651977539 -189.030868530273 2.453758478165
-150.717483520508 -75.420684814453 -187.722244262695 2.659947395325
-47.685237884521 -74.922187805176 -187.571990966797 2.632825851440
98.774093627930 -75.685394287109 -194.464981079102 2.286057710648
-144.247970581055 -76.511978149414 -192.716552734375 1.580124616623
-150.244155883789 -75.891105651855 -196.812591552734 2.065534830093
22.035329818726 -75.423057556152 -197.458190917969 1.963751435280
-136.157226562500 -75.242134094238 -197.809967041016 1.336296796799
17.528839111328 -74.280136108398 -198.545913696289 2.433454275131
-139.391769409180 -76.117851257324 -198.873687744141 1.126974940300
13.525248527527 -74.340629577637 -196.896240234375 1.443863153458
-134.071258544922 -73.999435424805 -199.790939331055 1.313012957573
7.265035152435 -74.953254699707 -205.430709838867 2.045614719391
-149.719406127930 -75.522491455078 -205.398864746094 1.349244832993
94.464706420898 -75.841361999512 -204.559020996094 1.655384421349
-15.036837577820 -77.465011596680 -204.531295776367 1.744011640549
-29.849447250366 -75.232627868652 -207.651107788086 2.075001478195
-10.116436958313 -74.452301025391 -205.767669677734 2.043491840363
-147.489822387695 -77.416481018066 -211.972702026367 1.184367179871
-34.937290191650 -75.898025512695 -205.284103393555 1.122560024261
-81.868598937988 -77.476905822754 -208.353027343750 2.622620105743
-26.289966583252 -76.836059570313 -209.602264404297 2.123922586441
17.683763504028 -75.954078674316 -210.918502807617 2.148924827576
-146.869155883789 -75.378166198730 -214.079467773438 2.249089241028
-89.951828002930 -76.158233642578 -216.293792724609 0.933380603790
-29.216657638550 -74.847045898438 -215.384277343750 1.592966794968
-25.656667709351 -74.936454772949 -219.231658935547 1.470129847527
-11.784074783325 -76.659210205078 -212.243789672852 1.805796384811
-26.947799682617 -75.230438232422 -211.257904052734 0.774478435516
-81.552673339844 -75.613517761230 -218.545989990234 3.218934774399
-86.975357055664 -78.040321350098 -218.699874877930 1.423581957817
-23.134761810303 -75.627494812012 -220.159698486328 1.225412368774
-1.570896029472 -78.687812805176 -222.716430664063 1.484776854515
-151.292007446289 -76.171928405762 -217.596511840820 2.182799100876
-1.868631958961 -77.137710571289 -219.559204101563 1.219830036163
86.052734375000 -77.607505798340 -224.746490478516 1.799596190453
-140.968414306641 -77.551940917969 -224.776519775391 0.996742725372
-7.188283920288 -76.701164245605 -223.081481933594 1.183262944221
-140.293670654297 -76.727264404297 -226.791687011719 1.111641645432
-146.566085815430 -82.493629455566 -226.944732666016 0.866159260273
-5.961779117584 -74.583580017090 -229.480209350586 1.880736351013
18.412448883057 -75.927406311035 -219.362457275391 0.624758601189
-139.818359375000 -74.840736389160 -229.857482910156 1.742686033249
-15.715063095093 -76.211616516113 -228.961181640625 1.296485543251
76.642402648926 -76.276428222656 -226.721511840820 1.717235326767
76.781654357910 -75.544281005859 -232.020248413086 1.917843341827
9.485028266907 -76.539520263672 -230.967590332031 2.232990026474
-28.700698852539 -77.048614501953 -237.405624389648 2.982777118683
-19.677286148071 -79.399787902832 -241.104751586914 1.904980182648
5.337781906128 -74.387390136719 -243.230590820313 1.104205012321
-46.962558746338 -73.611686706543 -242.650802612305 1.530670166016
-21.937044143677 -75.027015686035 -243.033447265625 2.646570920944
9.335307121277 -74.585945129395 -242.064224243164 1.790192246437
-62.847324371338 -75.824226379395 -245.647750854492 0.759717464447
-32.176715850830 -77.283279418945 -243.885940551758 1.275323271751
-40.920089721680 -74.070335388184 -245.346221923828 1.710797190666
-148.837249755859 -74.866539001465 -246.599121093750 2.186670541763
-45.690738677979 -77.272178649902 -247.656204223633 1.797178745270
-52.703601837158 -73.151985168457 -248.177978515625 3.081293821335
-65.911224365234 -75.771064758301 -250.318054199219 2.156572103500
-10.185420989990 -77.153465270996 -249.417892456055 2.225507020950
-79.818489074707 -75.767150878906 -253.680541992188 1.036589026451
-154.888000488281 -79.593368530273 -256.032501220703 1.267001509666
-140.905471801758 -75.949218750000 -256.089477539063 2.605106830597
-123.471115112305 -76.056846618652 -260.778472900391 2.517693996429
-154.669448852539 -72.658180236816 -262.579071044922 2.446233749390
21.088548660278 -78.563743591309 -264.378723144531 2.095819711685
-12.556291580200 -76.914840698242 -268.470916748047 1.477372646332
-151.408920288086 -77.470191955566 -272.790924072266 1.554336071014
-150.715560913086 -79.261772155762 -278.314392089844 1.158804416656
-144.038085937500 -78.723762512207 -285.390258789063 1.900375127792
-57.306068420410 -72.894432067871 -283.882354736328 3.231152534485
-37.781120300293 -73.521415710449 -286.270172119141 1.323134899139
-22.337848663330 -73.527206420898 -287.677337646484 3.158954620361
-10.739212989807 -74.096977233887 -284.066162109375 2.345055103302
-64.912322998047 -76.672386169434 -286.750518798828 2.849668025970
-79.019668579102 -76.369987487793 -287.017883300781 1.466124773026
-2.487535953522 -76.178611755371 -285.935485839844 1.599238038063
7.205668926239 -75.994079589844 -289.624481201172 1.189160704613
-136.433532714844 -74.588874816895 -289.265045166016 1.471762299538
-78.031669616699 -74.092521667480 -288.239074707031 2.116955518723
-146.632064819336 -75.053161621094 -288.753967285156 2.059535264969
-93.467475891113 -78.067741394043 -287.929779052734 3.269075632095
-77.711120605469 -74.930831909180 -288.401580810547 1.628420233727
-83.680320739746 -73.651779174805 -292.852081298828 2.363925933838
-60.190345764160 -74.928962707520 -291.238555908203 1.932234048843
-26.990318298340 -72.428695678711 -293.145477294922 2.219546318054
-4.567498207092 -74.958213806152 -291.693695068359 2.696770191193
-151.953765869141 -71.915908813477 -296.580535888672 1.302215933800
-149.973495483398 -74.389076232910 -300.643829345703 2.728902816772
-144.482284545898 -75.492866516113 -303.029785156250 1.474313497543
-155.069366455078 -75.090866088867 -306.886474609375 1.579504966736
-57.029544830322 -74.751358032227 -55.506946563721 0.949019372463
-46.237895965576 -74.873825073242 -53.247013092041 2.256335973740
-38.907085418701 -76.012222290039 -55.078315734863 2.508939743042
-76.117286682129 -76.935821533203 -60.284797668457 1.719331383705
-28.678077697754 -75.273162841797 -63.164043426514 2.157843351364
-31.770774841309 -75.814079284668 -79.479675292969 2.439979791641
75.445228576660 -77.687988281250 -80.840621948242 2.641570329666
75.589622497559 -77.077674865723 -80.822860717773 2.072888374329
74.439224243164 -75.659782409668 -83.757431030273 1.726317524910
97.773361206055 -74.383407592773 -89.589706420898 0.748528301716
71.813446044922 -77.279441833496 -89.292015075684 2.310107946396
51.812408447266 -76.763648986816 -91.391914367676 2.551481246948
49.313812255859 -79.060783386230 -99.892662048340 2.115408658981
-66.943321228027 -75.495094299316 -100.712493896484 1.589731335640
-72.418525695801 -70.392112731934 -101.990608215332 1.781425833702
45.251132965088 -76.739776611328 -103.174392700195 1.692127227783
-82.086570739746 -79.411209106445 -109.277709960938 3.035004854202
-93.165260314941 -74.314292907715 -112.052474975586 1.153377771378
51.186721801758 -75.486732482910 -106.411544799805 2.277622699738
107.767982482910 -74.945152282715 -111.618316650391 0.833405435085
32.850860595703 -77.351913452148 -121.686416625977 1.876152157784
45.010150909424 -76.474136352539 -118.657119750977 0.799444615841
42.020809173584 -76.057991027832 -124.720237731934 1.613350391388
30.047786712646 -76.725143432617 -124.208854675293 1.467160940170
109.220619201660 -75.673423767090 -119.262741088867 0.842901647091
39.698200225830 -76.866218566895 -129.313613891602 2.009379625320
31.903913497925 -73.536560058594 -131.061187744141 1.906723022461
-45.797542572021 -75.371696472168 -143.796585083008 1.893578648567
-71.307693481445 -76.540245056152 -145.237503051758 1.327175378799
-53.852684020996 -74.271041870117 -145.822555541992 1.887468218803
-71.719276428223 -76.951354980469 -146.288131713867 1.279494166374
-40.321670532227 -74.349632263184 -147.319061279297 2.169294118881
108.274238586426 -74.508117675781 -152.057022094727 2.284154653549
-71.480934143066 -76.449645996094 -155.650085449219 2.544513463974
24.256273269653 -77.190101623535 -148.400100708008 2.403664588928
31.994689941406 -77.080848693848 -151.852569580078 1.522866845131
113.932960510254 -77.006538391113 -159.785964965820 1.478733301163
9.505389213562 -76.329826354980 -159.229675292969 1.833890080452
32.318988800049 -74.396331787109 -155.262100219727 1.525919556618
-64.098419189453 -75.843566894531 -159.208923339844 1.707805991173
-42.226486206055 -76.368293762207 -170.297241210938 2.480286836624
20.048217773438 -74.363616943359 -163.195526123047 1.337430953979
-63.912719726563 -74.403282165527 -161.579360961914 1.430667400360
-68.409004211426 -75.748176574707 -165.425003051758 2.773947715759
110.206809997559 -76.383728027344 -165.666687011719 0.797619938850
-7.213418006897 -75.656204223633 -167.452529907227 1.535135626793
-62.594047546387 -75.117874145508 -175.153701782227 1.011671185493
-30.078813552856 -76.123146057129 -169.461807250977 1.798728704453
-54.780345916748 -74.309417724609 -173.302810668945 1.376772403717
29.101478576660 -75.312705993652 -170.905059814453 2.083975553513
110.817680358887 -74.331176757813 -172.428817749023 1.113425850868
103.057327270508 -75.092346191406 -183.152481079102 1.525707364082
106.870872497559 -75.592658996582 -188.875244140625 2.375788688660
107.546081542969 -74.225845336914 -177.071670532227 1.898793816566
-52.437561035156 -74.800392150879 -189.244430541992 0.843586266041
-49.883689880371 -73.289749145508 -182.762741088867 2.514674425125
26.607204437256 -75.995948791504 -183.009674072266 1.299868106842
-48.939685821533 -73.879737854004 -187.860885620117 1.520607590675
-19.859796524048 -75.978240966797 -184.489562988281 1.543781399727
-50.408908843994 -76.374122619629 -191.663726806641 0.883592724800
-150.261642456055 -75.016212463379 -193.510742187500 1.292436838150
101.909416198730 -75.987419128418 -192.742660522461 0.890939474106
-44.493713378906 -73.436347961426 -193.443496704102 2.186090230942
-15.134903907776 -76.547882080078 -197.899063110352 2.231794595718
-139.973785400391 -76.065628051758 -195.901748657227 1.592398643494
-43.780941009521 -73.518913269043 -197.068328857422 2.995906591415
103.075820922852 -75.152442932129 -197.000732421875 1.482013821602
106.921882629395 -74.371536254883 -185.659057617188 2.434228420258
-44.835102081299 -75.200241088867 -196.954452514648 1.583053946495
-23.181631088257 -78.767807006836 -197.211532592773 1.989080786705
-148.005508422852 -79.702087402344 -200.052673339844 2.165891408920
-24.586755752563 -76.155822753906 -197.666748046875 1.004035234451
-155.659881591797 -76.413146972656 -198.983337402344 1.203363537788
-152.369537353516 -79.480041503906 -203.775939941406 2.134668111801
-141.922668457031 -77.019363403320 -202.232192993164 1.971821784973
-37.947902679443 -75.598175048828 -199.224304199219 2.356553792953
101.281356811523 -75.456489562988 -200.359970092773 1.012266516685
-39.917575836182 -73.678604125977 -199.625732421875 1.328285932541
-143.369354248047 -78.303115844727 -205.391220092773 0.935324013233
-37.677928924561 -72.860298156738 -205.980484008789 1.929304480553
-19.481693267822 -78.015815734863 -209.900985717773 2.605113029480
97.019660949707 -76.065872192383 -204.500335693359 2.061202526093
92.361457824707 -75.558105468750 -212.010314941406 1.199155926704
-32.424270629883 -74.131706237793 -217.102859497070 1.849801778793
-86.572280883789 -75.814308166504 -211.707748413086 0.778338670731
-75.218757629395 -75.364463806152 -211.876754760742 0.957159638405
-17.838718414307 -75.325553894043 -215.906158447266 2.623033523560
-149.328704833984 -75.339714050293 -208.548736572266 2.475185871124
89.845245361328 -75.532409667969 -212.789337158203 1.299026131630
89.650428771973 -74.462944030762 -217.992279052734 0.795490324497
90.869361877441 -74.786918640137 -219.300155639648 1.627550601959
-101.536582946777 -74.455314636230 -221.444595336914 1.340222001076
-151.666656494141 -77.462387084961 -223.041732788086 1.695675492287
-19.367900848389 -74.505287170410 -221.875427246094 1.833462238312
79.933830261230 -73.738029479980 -224.878250122070 1.916705965996
-148.782089233398 -77.886077880859 -225.687622070313 2.491721630096
-26.905071258545 -75.916206359863 -219.999313354492 2.511943340302
-132.563919067383 -74.023811340332 -230.707366943359 0.917413532734
-11.708822250366 -76.975212097168 -229.001373291016 2.106815338135
18.114925384521 -74.855270385742 -224.169250488281 0.967424631119
19.874292373657 -75.878150939941 -232.157531738281 2.136590003967
-153.930038452148 -78.151184082031 -234.020446777344 2.203903675079
-125.019340515137 -72.708915710449 -233.139312744141 1.080686450005
-7.675466060638 -74.223533630371 -234.908279418945 0.977531790733
0.504073977470 -74.560752868652 -236.819183349609 1.225177407265
69.739807128906 -74.768005371094 -233.598037719727 1.794458627701
71.961090087891 -73.117324829102 -236.904861450195 1.432576179504
0.052795000374 -74.380638122559 -240.169952392578 1.849439024925
17.119932174683 -72.486640930176 -239.317779541016 0.763553857803
-28.991909027100 -71.152442932129 -240.073989868164 3.519808530807
-33.938343048096 -78.189010620117 -241.034072875977 2.105931997299
-45.250301361084 -74.124588012695 -240.348495483398 1.739485025406
-38.026100158691 -73.397697448730 -241.599075317383 1.657843232155
-17.576744079590 -76.080955505371 -242.537963867188 0.891863048077
-52.252315521240 -73.664207458496 -243.644287109375 2.482327461243
2.451160907745 -74.972541809082 -244.852508544922 1.391391396523
-67.550254821777 -74.504470825195 -245.116577148438 2.318293333054
20.725421905518 -75.274711608887 -246.848510742188 1.228057503700
-144.679901123047 -76.752525329590 -246.191192626953 1.833956241608
-71.927146911621 -76.728935241699 -250.676895141602 1.947777032852
15.163751602173 -76.679458618164 -248.507308959961 1.624582886696
-160.976058959961 -73.969528198242 -250.030807495117 1.345516443253
16.765968322754 -77.238273620605 -252.020416259766 1.111076354980
-79.203643798828 -72.738777160645 -250.874710083008 2.509650468826
-74.311309814453 -75.519187927246 -251.267730712891 1.688129782677
20.833824157715 -75.799484252930 -255.350219726563 1.881836652756
-88.489280700684 -74.172813415527 -253.234069824219 1.665749669075
-125.118057250977 -73.197631835938 -255.887237548828 0.972522675991
-133.746200561523 -75.804969787598 -259.372772216797 1.523136377335
-133.880218505859 -76.368705749512 -256.546447753906 1.210610508919
-146.747375488281 -74.451408386230 -260.965148925781 1.568293809891
-142.779495239258 -73.307899475098 -257.225372314453 1.566427826881
-134.734924316406 -73.345832824707 -262.191558837891 1.421563506126
-161.131332397461 -73.063728332520 -261.569641113281 2.105859994888
-125.892074584961 -73.317916870117 -265.918182373047 2.695563554764
-134.186203002930 -72.780708312988 -262.805114746094 1.854527473450
-163.998580932617 -72.833976745605 -266.282470703125 2.738518238068
-156.920364379883 -72.797294616699 -264.405151367188 1.931128144264
-149.609375000000 -73.398742675781 -265.895294189453 2.488305807114
-147.066604614258 -74.714698791504 -266.103149414063 1.195037722588
16.902832031250 -77.013069152832 -278.062530517578 1.802629232407
-165.417175292969 -74.254028320313 -268.450531005859 2.435473680496
-151.657806396484 -74.657608032227 -273.979522705078 1.767195701599
-5.646267890930 -80.449478149414 -273.222167968750 1.856120109558
-158.140731811523 -73.104125976563 -271.521057128906 3.004674196243
12.872984886169 -78.092117309570 -280.869720458984 1.810856699944
