-145.158035278320 -84.369094848633 -255.970443725586 2.008790731430
16.431550979614 -81.072273254395 -252.285369873047 1.995738863945
-143.615737915039 -83.664108276367 -256.861846923828 1.185339093208
-151.977584838867 -83.149971008301 -256.361907958984 2.126292705536
16.541936874390 -79.473289489746 -256.024658203125 2.853560447693
-8.686960220337 -78.077987670898 -252.366134643555 1.388762235641
-8.090895652771 -81.215164184570 -261.798187255859 1.576925277710
-145.500869750977 -84.935401916504 -259.626220703125 1.465749859810
-155.260818481445 -78.271720886230 -261.739807128906 3.005404233932
-145.000930786133 -84.222572326660 -264.337951660156 2.034097909927
-150.802688598633 -79.253524780273 -267.886108398438 3.279263019562
-149.443832397461 -83.852493286133 -270.383575439453 1.661329627037
-8.389957427979 -81.497245788574 -267.845336914063 2.314795255661
-3.825839042664 -81.270309448242 -272.286987304688 0.784757494926
13.567365646362 -81.903358459473 -267.860229492188 1.251076579094
6.890596866608 -81.041481018066 -278.909301757813 2.010600805283
4.888494968414 -79.760231018066 -282.671722412109 1.580900192261
-137.586975097656 -79.130477905273 -291.414611816406 1.903669118881
-144.281494140625 -82.003997802734 -292.738433837891 0.819688558578
-61.601947784424 -78.373054504395 -64.727653503418 2.541710138321
-43.976356506348 -77.383010864258 -64.254005432129 2.342303514481
-50.147800445557 -76.662178039551 -66.140907287598 3.221942424774
-47.037925720215 -76.809249877930 -65.089889526367 2.255651950836
-68.834686279297 -80.302917480469 -65.938201904297 1.657488465309
-79.046325683594 -77.880668640137 -72.627853393555 2.514244794846
-35.407279968262 -77.943870544434 -78.777847290039 1.935123562813
-41.636276245117 -79.944404602051 -85.475799560547 2.075602531433
-49.321926116943 -81.401336669922 -87.912048339844 1.388324737549
-86.875762939453 -77.955657958984 -87.737159729004 3.683304309845
-76.671577453613 -80.972206115723 -105.858940124512 2.601487636566
42.670318603516 -77.952423095703 -108.019615173340 2.349242925644
-85.887382507324 -79.054916381836 -110.030303955078 2.044683456421
41.028404235840 -79.465316772461 -118.664924621582 2.071486473083
40.124046325684 -78.041778564453 -124.771820068359 1.835287690163
33.893066406250 -77.999969482422 -120.502464294434 1.779461622238
30.354490280151 -80.023170471191 -125.740058898926 3.584500551224
33.047130584717 -78.305831909180 -135.188949584961 1.152468323708
24.314180374146 -76.784118652344 -144.912979125977 1.826297283173
-47.663635253906 -80.574272155762 -153.513778686523 1.923479199409
31.096107482910 -78.776321411133 -144.954666137695 1.689984440804
24.270137786865 -80.087722778320 -157.395523071289 3.288155555725
-44.611339569092 -80.286575317383 -153.604690551758 1.148362040520
27.208738327026 -79.206108093262 -155.274215698242 1.306031942368
-46.485614776611 -77.141960144043 -162.361328125000 2.784902572632
25.313934326172 -79.068168640137 -166.028198242188 1.286105155945
-60.248851776123 -80.074737548828 -169.878738403320 1.831703782082
-7.058900833130 -81.573379516602 -173.489868164063 2.263221025467
-34.917404174805 -79.212814331055 -173.389709472656 1.264506936073
-13.653880119324 -81.053611755371 -173.950317382813 1.928572177887
-56.164348602295 -79.498306274414 -175.251785278320 1.352570056915
22.400789260864 -80.008049011230 -172.458374023438 1.069868087769
-14.552730560303 -78.782043457031 -182.168304443359 1.411283254623
-23.352785110474 -77.335426330566 -186.364746093750 1.983387708664
-54.056869506836 -77.914588928223 -184.888732910156 2.285989999771
-29.479320526123 -80.054145812988 -185.423690795898 0.996332228184
18.344150543213 -79.799827575684 -189.317916870117 1.377333998680
-149.418319702148 -81.881889343262 -188.638015747070 1.434614181519
-28.479619979858 -79.792350769043 -189.072219848633 0.802617430687
-48.394771575928 -77.839424133301 -190.058624267578 1.146402359009
-150.598922729492 -83.245643615723 -194.006515502930 1.256056785583
-142.544906616211 -81.917816162109 -197.506668090820 1.377766966820
-23.233787536621 -79.582992553711 -196.858779907227 1.586176276207
-20.747589111328 -79.802703857422 -195.820480346680 1.033665060997
-46.238269805908 -79.064430236816 -196.531311035156 0.887640237808
-21.452819824219 -79.803894042969 -197.313415527344 2.610394001007
-48.854427337646 -79.571624755859 -200.699203491211 1.959575772285
-45.570541381836 -79.517982482910 -199.283905029297 1.291642189026
-55.631931304932 -80.359779357910 -201.760208129883 1.315264225006
-19.430541992188 -77.189453125000 -205.825302124023 1.721150636673
-147.944778442383 -81.838989257813 -213.372482299805 2.282796859741
-59.506168365479 -78.104759216309 -207.662322998047 1.691267251968
-57.234558105469 -78.237594604492 -207.812774658203 1.334794163704
-32.501163482666 -76.413513183594 -206.240997314453 1.499768137932
-14.655310630798 -78.095214843750 -205.519973754883 1.558304905891
-36.936248779297 -78.819587707520 -207.712982177734 1.177081584930
-79.488365173340 -79.865539550781 -210.827484130859 1.057582139969
-144.504989624023 -83.905853271484 -210.970458984375 1.489133119583
-32.757423400879 -80.458206176758 -207.706573486328 1.789175748825
8.259612083435 -80.507926940918 -209.347885131836 3.232439041138
-64.627433776855 -81.140892028809 -211.194564819336 1.081639170647
-67.725761413574 -80.147132873535 -213.670242309570 0.940083682537
-25.947790145874 -77.542869567871 -214.914535522461 0.684747397900
-10.888990402222 -82.363342285156 -211.538894653320 2.729021072388
-25.608968734741 -79.861770629883 -218.675247192383 2.375355482101
16.807884216309 -79.119148254395 -216.464508056641 1.380833983421
-150.640655517578 -79.786621093750 -222.908432006836 2.404107332230
-10.266172409058 -82.092193603516 -218.816848754883 1.949133634567
-154.760131835938 -82.734886169434 -228.086471557617 2.643077373505
8.383982658386 -80.536544799805 -229.610702514648 1.875835299492
12.842529296875 -77.652656555176 -227.154907226563 1.575074672699
-3.438519954681 -79.673271179199 -223.117874145508 1.178284645081
16.797227859497 -79.237922668457 -227.322189331055 1.358052134514
-136.793884277344 -83.667465209961 -232.967956542969 2.232022523880
10.598737716675 -79.238449096680 -225.819656372070 1.952008008957
-153.391296386719 -80.603408813477 -230.731399536133 1.492271065712
-145.299621582031 -82.578971862793 -234.318496704102 1.072558283806
-2.064862012863 -80.317169189453 -222.149734497070 1.698344707489
18.891893386841 -80.409835815430 -234.256790161133 2.776384353638
-31.616748809814 -78.615982055664 -239.522811889648 1.685523748398
-145.334762573242 -79.761100769043 -240.776779174805 0.966196417809
-38.386787414551 -79.504501342773 -242.552947998047 1.442975044250
-45.788578033447 -79.099716186523 -241.902404785156 2.000899314880
-31.570751190186 -78.898155212402 -241.108978271484 1.622054338455
19.933031082153 -80.108718872070 -242.402679443359 2.002543449402
-49.360382080078 -77.515129089355 -245.346282958984 1.906372308731
14.354108810425 -80.161933898926 -245.816146850586 1.758411288261
10.286910057068 -78.355018615723 -240.698074340820 0.943923532963
10.298789978027 -81.326614379883 -247.560409545898 2.129547834396
-42.528549194336 -81.016853332520 -246.287429809570 1.818708419800
22.812973022461 -80.921035766602 -246.979644775391 2.375110626221
-144.435928344727 -80.249496459961 -248.788787841797 1.219634056091
20.521421432495 -78.082061767578 -248.600341796875 1.948736071587
1.177265048027 -82.849983215332 -250.061569213867 2.314983844757
11.069999694824 -79.435928344727 -245.967864990234 0.415901809931
-150.764556884766 -77.898590087891 -254.342514038086 1.746792435646
-147.362182617188 -84.248794555664 -260.391357421875 0.318859219551
-142.266342163086 -81.080917358398 -260.508331298828 2.004307031631
-152.792037963867 -80.370185852051 -262.621002197266 1.163440465927
17.453468322754 -77.274971008301 -265.787109375000 3.416551113129
-152.378921508789 -78.590980529785 -271.844940185547 1.977345824242
-5.493559837341 -80.241836547852 -274.918151855469 1.133041501045
-150.104370117188 -80.675369262695 -273.235260009766 1.534784078598
-145.101272583008 -79.750511169434 -279.221984863281 2.180252313614
-152.182983398438 -78.948020935059 -277.333465576172 0.865037620068
-154.398040771484 -81.848045349121 -286.255645751953 2.032895326614
-133.397476196289 -81.807945251465 -289.154602050781 3.498129606247
-151.454772949219 -81.802886962891 -289.141937255859 1.236078143120
-146.742523193359 -84.543334960938 -291.026489257813 1.284669876099
-146.450622558594 -81.771553039551 -293.537048339844 0.875283658504
-152.222274780273 -81.802864074707 -296.133270263672 1.482747673988
-146.394378662109 -78.947929382324 -294.789093017578 1.890000462532
-152.093231201172 -80.937789916992 -301.178741455078 1.176210165024
-146.671279907227 -81.753410339355 -302.402069091797 3.266826391220
-148.613647460938 -79.266365051270 -304.125335693359 2.917951107025
-57.101242065430 -74.113021850586 -60.486431121826 2.897047519684
-63.779689788818 -77.250785827637 -62.733337402344 3.470335960388
-48.680988311768 -77.274879455566 -61.741882324219 2.615700244904
-27.862621307373 -78.294662475586 -73.691139221191 0.673146784306
-52.937232971191 -80.180389404297 -90.752769470215 1.349382638931
-88.090881347656 -83.228630065918 -100.411773681641 3.367396116257
45.210079193115 -78.079093933105 -105.948539733887 1.796951889992
-78.591850280762 -81.290992736816 -104.359046936035 1.916137576103
40.810371398926 -79.514778137207 -113.179649353027 1.782435774803
39.211143493652 -77.776832580566 -120.150405883789 3.058522462845
38.697605133057 -78.115669250488 -124.942611694336 1.738777756691
36.818511962891 -77.805252075195 -134.615814208984 0.439653903246
31.142736434937 -77.391334533691 -135.077270507813 2.577027320862
33.444011688232 -80.779685974121 -135.809570312500 2.657143354416
29.867887496948 -76.879257202148 -149.628128051758 1.271425843239
-45.160140991211 -76.892951965332 -149.483123779297 1.392100572586
27.854217529297 -79.611946105957 -140.835433959961 0.903367817402
-67.107147216797 -76.028518676758 -154.151885986328 1.192758798599
-38.963218688965 -80.095840454102 -154.861358642578 1.138591408730
-62.724887847900 -79.769660949707 -164.604522705078 0.709772229195
-41.073696136475 -78.896591186523 -158.936996459961 1.736558198929
29.803075790405 -77.959716796875 -156.203384399414 1.971820235252
-35.843601226807 -81.568695068359 -161.720413208008 2.184536695480
-3.505578994751 -79.657981872559 -170.826400756836 1.086075901985
31.333574295044 -76.018363952637 -161.999496459961 1.911777496338
-9.481679916382 -78.917167663574 -169.734313964844 1.142048120499
-60.375419616699 -78.666122436523 -164.323120117188 1.115395188332
-36.093509674072 -76.869285583496 -169.496276855469 1.879302859306
-30.486795425415 -77.192550659180 -172.846115112305 2.939522266388
24.626819610596 -79.147575378418 -175.043395996094 1.659676671028
-54.789695739746 -78.950851440430 -177.577529907227 2.603673219681
-30.543031692505 -76.594490051270 -175.783294677734 3.088918209076
22.373443603516 -78.401329040527 -181.589431762695 1.574251890182
-50.726848602295 -79.004531860352 -185.339218139648 1.168870568275
-25.962882995605 -76.002159118652 -184.144973754883 3.034791469574
-53.921794891357 -77.347450256348 -183.963943481445 1.403167963028
-41.058696746826 -78.939437866211 -194.714965820313 1.172669053078
-29.897285461426 -77.785514831543 -188.745300292969 1.068373560905
-43.054996490479 -79.344696044922 -196.409149169922 0.527649164200
-23.791685104370 -78.260597229004 -191.371826171875 0.831125617027
-136.387695312500 -81.208839416504 -197.809585571289 1.522439956665
18.414726257324 -78.500907897949 -199.208435058594 1.478075146675
-133.782012939453 -77.206336975098 -199.663070678711 1.567713379860
-22.130998611450 -76.822036743164 -196.215026855469 1.352366328239
-19.822227478027 -76.870437622070 -197.065597534180 1.176509618759
-41.460361480713 -78.894050598145 -196.363525390625 1.887565732002
14.847682952881 -77.362625122070 -194.127716064453 1.965364813805
-15.955114364624 -79.703796386719 -198.239807128906 1.967674851418
-59.464485168457 -79.714637756348 -205.083770751953 1.433510541916
-35.254611968994 -78.548576354980 -204.810623168945 0.604680836201
-64.816398620605 -76.988647460938 -207.638031005859 1.184058785439
-69.173629760742 -76.921417236328 -210.610137939453 1.682797670364
16.905126571655 -77.586738586426 -208.906524658203 2.044968843460
-85.130180358887 -78.608528137207 -213.835861206055 1.712788939476
-29.453590393066 -78.697746276855 -215.773483276367 1.205154538155
-79.896591186523 -79.803253173828 -213.548248291016 1.705092906952
-146.638214111328 -82.121650695801 -216.856506347656 0.496415346861
-7.739581108093 -78.144470214844 -215.724655151367 2.334247589111
-10.033739089966 -78.019676208496 -217.846313476563 1.533447146416
12.490553855896 -78.598983764648 -215.921508789063 0.966114938259
12.989308357239 -76.173736572266 -222.640640258789 3.023571252823
-2.286123991013 -79.429458618164 -229.981628417969 1.838551402092
-137.321350097656 -78.127410888672 -225.567596435547 1.005463719368
-148.763610839844 -83.542167663574 -232.957046508789 1.318312883377
-149.776184082031 -78.628944396973 -232.567642211914 2.001579761505
6.483589172363 -79.401748657227 -234.726638793945 1.730334162712
1.525310993195 -78.179145812988 -236.009048461914 1.237470149994
-23.619359970093 -80.809402465820 -240.844604492188 2.041175842285
-150.435836791992 -78.203720092773 -240.581253051758 1.331983208656
10.838822364807 -79.045585632324 -244.433776855469 1.584993720055
-23.596651077271 -76.462837219238 -242.160095214844 0.881016314030
18.764490127563 -77.616203308105 -237.951507568359 1.665817618370
-54.214138031006 -78.357658386230 -244.375564575195 1.571640014648
-50.695152282715 -79.011054992676 -248.191802978516 3.079495191574
-146.154403686523 -84.440635681152 -246.815582275391 2.406036853790
-63.149463653564 -78.732025146484 -247.797058105469 2.331369876862
-3.594831943512 -77.207023620605 -246.714767456055 1.246452927589
-10.066464424133 -78.205734252930 -256.812927246094 1.992298960686
-147.486846923828 -84.050163269043 -258.279235839844 0.582259476185
-133.603713989258 -79.018753051758 -258.094543457031 0.863079369068
-135.933227539063 -78.122726440430 -260.662170410156 1.087861537933
18.827775955200 -78.401527404785 -260.358520507813 1.546324610710
-145.562088012695 -81.042350769043 -272.166076660156 1.294107437134
17.858339309692 -79.831787109375 -268.498840332031 0.850971460342
-147.445419311523 -78.827438354492 -273.802764892578 1.964159727097
2.549861907959 -81.424713134766 -277.620361328125 1.101797819138
-144.324096679688 -81.004287719727 -283.175659179688 1.490428924561
2.700927019119 -79.808052062988 -283.492279052734 1.715044140816
-151.796066284180 -79.620262145996 -283.763000488281 1.191137075424
-142.786758422852 -78.596961975098 -285.923675537109 2.700866699219
-137.234573364258 -81.105804443359 -287.214721679688 1.577725291252
-148.619064331055 -84.991973876953 -292.691894531250 1.557369589806
-19.490892410278 -77.770950317383 -289.933746337891 0.812458276749
-152.990539550781 -80.724510192871 -292.913635253906 2.442868947983
-148.820236206055 -81.141944885254 -295.931182861328 2.305324792862
-149.635665893555 -79.479568481445 -310.760742187500 1.740903496742
-57.858577728271 -75.626815795898 -57.720684051514 1.587008953094
-40.072723388672 -78.419792175293 -62.193161010742 1.372717976570
-77.064811706543 -77.988632202148 -65.718482971191 1.902839422226
-29.374698638916 -75.796333312988 -68.093551635742 2.303383588791
-26.554704666138 -77.371910095215 -72.507476806641 2.341441869736
-86.009971618652 -78.669128417969 -81.280372619629 1.924140691757
86.624977111816 -76.899467468262 -84.360351562500 1.758489608765
-37.240066528320 -76.071517944336 -83.889633178711 3.036130666733
81.129348754883 -77.963897705078 -85.183845520020 2.445921659470
76.407760620117 -76.036766052246 -87.496032714844 0.762520372868
84.488708496094 -76.052078247070 -88.305809020996 3.242949247360
81.925704956055 -75.461776733398 -91.188415527344 2.590850353241
90.552642822266 -75.600486755371 -92.156661987305 1.787000060081
-92.332153320313 -74.996582031250 -95.399269104004 2.434758186340
52.350879669189 -76.667320251465 -105.075569152832 2.231384992599
-93.071571350098 -72.546646118164 -114.485618591309 2.657273530960
42.794013977051 -77.771308898926 -110.043312072754 1.795702815056
48.650119781494 -76.431663513184 -113.078231811523 2.237256050110
41.044780731201 -76.814193725586 -115.033607482910 2.198547363281
31.447397232056 -77.063423156738 -134.438949584961 2.222063541412
26.087751388550 -77.015373229980 -140.025268554688 2.190722942352
22.427286148071 -72.378265380859 -144.262481689453 1.965513110161
32.199180603027 -75.446640014648 -143.990142822266 2.709027290344
-48.464836120605 -78.844543457031 -153.842926025391 0.470560312271
-47.257896423340 -77.896659851074 -151.238327026367 0.912862360477
-41.755886077881 -77.081901550293 -155.926391601563 1.694402456284
25.278240203857 -76.364364624023 -151.522186279297 2.252150774002
25.893640518188 -76.615547180176 -167.412155151367 2.811006069183
-34.262474060059 -76.019256591797 -167.193756103516 1.591165423393
-35.357097625732 -75.651473999023 -159.963455200195 1.158448457718
-45.728805541992 -78.333358764648 -157.938568115234 1.344534039497
2.375170946121 -76.020393371582 -163.839553833008 2.550412893295
23.561090469360 -77.761047363281 -153.783020019531 0.758345007896
31.545337677002 -75.437004089355 -160.629089355469 2.113685369492
27.578563690186 -75.846527099609 -168.846649169922 1.510027885437
-9.197388648987 -77.038757324219 -171.109512329102 2.338907957077
-2.177886962891 -76.973838806152 -169.714874267578 1.187109589577
-57.584957122803 -77.193817138672 -168.836303710938 1.311519026756
-60.865337371826 -77.166358947754 -169.966552734375 1.427591800690
-41.362281799316 -78.430618286133 -170.582183837891 0.618781149387
-39.068000793457 -76.678741455078 -167.482513427734 1.208063125610
22.548936843872 -75.128013610840 -172.836380004883 3.177688360214
-21.211381912231 -80.158828735352 -177.632598876953 2.222754240036
-32.955715179443 -76.816551208496 -180.408370971680 2.600677251816
-60.973583221436 -79.139427185059 -179.037933349609 1.787186384201
102.566520690918 -76.907203674316 -181.111663818359 1.558671236038
20.534934997559 -78.924926757813 -172.473861694336 1.401770353317
-26.660081863403 -77.341003417969 -180.122070312500 1.273014307022
-50.343086242676 -76.848640441895 -180.602127075195 1.293507218361
-19.375684738159 -75.714805603027 -179.998611450195 1.858881473541
110.145179748535 -76.426162719727 -178.616744995117 1.342745423317
-51.835796356201 -79.117507934570 -182.949584960938 1.908224463463
15.314806938171 -78.108512878418 -186.532577514648 1.704733729362
22.521825790405 -76.981925964355 -179.415832519531 2.611066102982
-56.056949615479 -79.463356018066 -179.015106201172 1.987808704376
-23.343227386475 -76.683052062988 -181.972686767578 1.654590487480
-56.023494720459 -78.629028320313 -176.334671020508 1.562810420990
-35.762023925781 -76.814384460449 -180.321792602539 3.341494083405
-28.829936981201 -77.248329162598 -186.943145751953 1.141739845276
21.536075592041 -77.333747863770 -187.295166015625 1.148945331573
-50.156299591064 -77.898101806641 -187.683074951172 1.285507798195
104.174247741699 -76.131210327148 -189.324478149414 1.203358054161
-51.854949951172 -75.548225402832 -190.049377441406 0.818471789360
9.514447212219 -77.155639648438 -201.172607421875 0.855439722538
19.821346282959 -76.790756225586 -199.294921875000 1.521131157875
-48.193492889404 -76.909439086914 -190.912902832031 1.268829464912
-19.779338836670 -77.802238464355 -189.744873046875 1.454683661461
101.947937011719 -76.172714233398 -194.975051879883 0.794538199902
99.451683044434 -78.068206787109 -195.623916625977 3.297971010208
-47.778285980225 -76.851264953613 -188.854080200195 1.839920639992
-148.051223754883 -82.629623413086 -198.614425659180 1.319479227066
-45.854404449463 -77.536262512207 -197.935684204102 1.399459123611
-145.267608642578 -79.746055603027 -198.788681030273 1.067726016045
-136.321105957031 -76.139328002930 -200.840988159180 1.278959035873
-44.363563537598 -78.313995361328 -197.716018676758 1.827665567398
10.920749664307 -77.927032470703 -208.074081420898 1.427169680595
-16.637750625610 -76.341300964355 -204.320663452148 0.946709632874
15.604202270508 -75.980842590332 -201.844696044922 2.060263633728
92.126411437988 -77.882507324219 -209.667282104492 1.780356645584
-36.816318511963 -76.660293579102 -201.407714843750 1.973099946976
-11.584947586060 -77.178054809570 -206.505828857422 1.236185193062
-13.120387077332 -76.552581787109 -211.789031982422 2.092871904373
-36.910964965820 -77.554496765137 -206.881179809570 1.260530114174
9.282022476196 -76.692596435547 -205.588989257813 1.886473894119
-76.785667419434 -76.796226501465 -210.320465087891 0.958649456501
15.487966537476 -77.475730895996 -212.998367309570 1.266675114632
-35.428531646729 -77.041191101074 -206.652923583984 1.089926481247
-144.793258666992 -79.631759643555 -209.620361328125 2.526431322098
-144.280105590820 -75.218933105469 -211.855422973633 0.948647081852
-87.046409606934 -78.048355102539 -213.342849731445 0.669080495834
-35.432472229004 -76.059928894043 -210.680648803711 3.199770927429
-21.003614425659 -79.861404418945 -212.778915405273 3.880546569824
-30.768505096436 -77.757385253906 -210.216842651367 1.140832185745
-91.644081115723 -78.090888977051 -217.267623901367 1.526538848877
-87.982139587402 -78.394790649414 -215.595825195313 1.032744407654
8.282891273499 -79.391304016113 -220.522354125977 1.426846385002
-150.101196289063 -76.012351989746 -215.747451782227 1.434014081955
-13.144801139832 -78.851585388184 -213.145370483398 0.290338933468
8.520112037659 -80.738983154297 -217.981094360352 1.718881249428
-144.842849731445 -77.550048828125 -219.151443481445 1.989373445511
-21.110490798950 -78.535804748535 -218.347946166992 1.862842559814
-1.916079044342 -76.165176391602 -221.233398437500 1.004909038544
-5.145104885101 -78.477401733398 -218.964141845703 1.387201428413
-152.565444946289 -77.005950927734 -224.696060180664 0.928045332432
-138.381912231445 -74.273330688477 -227.066833496094 2.518697977066
-5.974105834961 -77.687850952148 -223.297164916992 1.539080977440
-148.932723999023 -82.985931396484 -228.268249511719 1.335243940353
1.427857041359 -75.206619262695 -230.128356933594 1.874310731888
16.956842422485 -77.245765686035 -233.343566894531 0.906975090504
-0.988241016865 -78.084213256836 -231.968521118164 2.856481075287
0.107070997357 -74.720787048340 -234.944015502930 2.334330081940
7.688313961029 -77.594520568848 -231.660507202148 2.132863283157
-151.165649414063 -78.643356323242 -237.322967529297 1.725823998451
-19.579597473145 -76.399269104004 -236.546539306641 3.422465085983
-34.897804260254 -78.964538574219 -239.139739990234 1.892493724823
4.433951854706 -75.909866333008 -232.790298461914 1.178292393684
0.756610989571 -79.451774597168 -238.933105468750 1.726042628288
3.188324928284 -77.132247924805 -234.335281372070 1.909420490265
-55.449092864990 -76.861938476563 -242.781967163086 1.000446796417
-149.032974243164 -76.995323181152 -247.587661743164 2.396389484406
-151.836730957031 -79.280433654785 -248.394638061523 0.861403226852
10.185543060303 -78.671089172363 -246.499664306641 0.356165677309
22.785030364990 -78.009521484375 -247.318939208984 0.925148308277
-60.337848663330 -76.586021423340 -248.253234863281 1.111005902290
-144.157516479492 -80.950790405273 -253.161148071289 1.270221710205
-153.118560791016 -80.635017395020 -254.971664428711 1.887329697609
-151.162185668945 -83.444213867188 -257.986022949219 1.107936143875
-142.197540283203 -76.937515258789 -261.786621093750 0.884344041348
-138.612365722656 -78.327835083008 -257.142150878906 2.256650447845
-10.165201187134 -78.248443603516 -256.532440185547 1.984077334404
-144.268478393555 -79.824554443359 -263.579956054688 1.801193833351
-12.374058723450 -78.583076477051 -264.971557617188 1.315948247910
-147.208541870117 -78.131858825684 -275.401275634766 0.572999298573
-147.211669921875 -78.735794067383 -282.915710449219 0.962401151657
-149.544860839844 -78.148033142090 -283.414947509766 1.565363049507
-3.274322986603 -74.595565795898 -284.704620361328 1.999092102051
-144.423141479492 -75.120727539063 -285.797760009766 1.925141334534
-29.221670150757 -77.911422729492 -286.726257324219 2.323578834534
-29.866624832153 -76.704780578613 -287.075531005859 1.524481415749
-15.850172996521 -76.597206115723 -290.386657714844 1.244429469109
-11.062274932861 -76.283882141113 -289.626434326172 0.976554512978
14.028840065002 -78.978858947754 -291.254516601563 1.928766012192
-125.070663452148 -78.734169006348 -289.909729003906 1.976001024246
-58.029338836670 -77.668502807617 -288.380828857422 1.006628870964
-39.452068328857 -76.597480773926 -289.537078857422 1.505731225014
-31.959102630615 -78.274581909180 -288.940063476563 1.506206989288
-9.001479148865 -76.727920532227 -291.286407470703 2.425945520401
5.302978992462 -77.711273193359 -288.397979736328 2.179989576340
-142.730804443359 -80.333206176758 -295.143402099609 2.652613878250
9.660296440125 -77.791687011719 -292.399505615234 2.091667890549
-151.890823364258 -77.615272521973 -301.973358154297 2.008370399475
-150.647277832031 -80.667655944824 -301.709808349609 1.175924301147
-152.436355590820 -77.271728515625 -311.870605468750 1.564194798470
-144.864669799805 -78.243919372559 -311.058685302734 1.941892385483
-50.995693206787 -75.264198303223 -53.990070343018 1.562615990639
-56.525955200195 -77.200370788574 -56.461467742920 2.331643581390
-65.734031677246 -74.931640625000 -55.868896484375 2.095034360886
-42.950122833252 -75.157089233398 -60.111850738525 1.426723837852
-37.576103210449 -75.537895202637 -59.347827911377 0.601963043213
-21.962383270264 -74.914405822754 -68.506462097168 1.872274041176
-83.053413391113 -75.070457458496 -68.794723510742 2.607853889465
82.373687744141 -75.643890380859 -77.846061706543 1.947087049484
-90.473091125488 -75.528068542480 -79.544769287109 2.372699975967
81.765518188477 -75.079063415527 -79.780364990234 1.660757660866
85.723876953125 -73.737274169922 -83.200767517090 3.150303840637
94.048408508301 -73.815658569336 -86.665054321289 2.603252887726
-60.093650817871 -79.834518432617 -95.487907409668 2.408154249191
82.529045104980 -75.254943847656 -94.573379516602 2.285547971725
77.819648742676 -77.013809204102 -91.732986450195 1.652733683586
86.387008666992 -75.983520507813 -89.737594604492 2.464227199554
-62.322563171387 -78.490043640137 -97.540061950684 1.542553782463
51.120635986328 -74.739738464355 -97.038269042969 0.534958183765
45.428085327148 -75.827796936035 -106.248870849609 1.748955488205
40.585666656494 -76.363059997559 -104.197463989258 2.721903562546
37.210205078125 -75.972633361816 -105.907669067383 2.752233505249
-91.724189758301 -75.034652709961 -109.653892517090 2.167218446732
35.748252868652 -75.436981201172 -117.075569152832 2.303383350372
-85.158645629883 -77.270133972168 -109.754226684570 2.280133724213
41.837188720703 -77.437217712402 -123.969482421875 1.625959157944
33.614025115967 -76.726058959961 -121.613220214844 2.194158792496
33.421215057373 -72.369682312012 -121.558357238770 1.439732789993
42.944618225098 -75.456031799316 -118.821060180664 1.869045734406
39.779102325439 -77.411064147949 -126.944625854492 0.794621169567
-53.051322937012 -72.855888366699 -135.646118164063 1.263975381851
36.342876434326 -77.753921508789 -134.886260986328 0.411640912294
35.938068389893 -75.578048706055 -142.347122192383 1.772434711456
-53.343894958496 -74.087165832520 -141.068206787109 1.707589507103
-47.192974090576 -76.350936889648 -140.682266235352 0.559190630913
34.635669708252 -76.233688354492 -143.056182861328 2.095730304718
110.953552246094 -73.396080017090 -141.143493652344 2.284727334976
113.134170532227 -73.860275268555 -142.674926757813 1.998516082764
26.432706832886 -76.833259582520 -143.208114624023 0.841256201267
-41.577350616455 -77.620376586914 -149.061767578125 0.626796960831
113.385353088379 -78.093238830566 -153.317276000977 2.315159320831
-39.797386169434 -75.417152404785 -153.384307861328 1.889594554901
-68.135459899902 -76.808303833008 -159.574340820313 1.776930093765
110.580787658691 -77.414794921875 -159.303573608398 0.969435334206
22.688667297363 -76.266502380371 -163.659332275391 1.907628774643
0.267008990049 -77.332901000977 -162.841888427734 2.215909242630
112.190582275391 -75.680603027344 -154.970993041992 1.319600343704
-64.273368835449 -76.235153198242 -164.912918090820 1.578471064568
-37.596324920654 -76.153213500977 -162.008972167969 1.310246586800
112.596580505371 -75.408218383789 -164.024627685547 1.981632947922
28.848861694336 -74.015998840332 -158.334182739258 2.891780138016
-63.148715972900 -73.277282714844 -166.079299926758 1.807180643082
111.585731506348 -76.027023315430 -166.103713989258 2.173487186432
-65.011077880859 -78.215408325195 -168.658599853516 2.171338558197
-50.857036590576 -78.120033264160 -179.489334106445 1.763489246368
106.294692993164 -74.640960693359 -171.148147583008 0.770251810551
-59.913497924805 -75.196357727051 -170.330825805664 0.642037868500
111.508499145508 -75.291946411133 -174.880126953125 1.166384220123
-60.290103912354 -76.576148986816 -174.716690063477 1.854586005211
-14.419352531433 -75.180175781250 -177.392639160156 2.391459465027
-11.882374763489 -78.999671936035 -179.964660644531 1.542178988457
107.886863708496 -76.507537841797 -169.862442016602 1.499095320702
20.932634353638 -76.481018066406 -171.812500000000 1.457783460617
29.059740066528 -74.433822631836 -170.229660034180 1.434968471527
-56.592159271240 -75.852844238281 -177.027938842773 1.536419272423
18.834745407104 -75.411781311035 -181.952636718750 1.391462922096
-57.740364074707 -76.271408081055 -176.307327270508 1.186704277992
-51.340927124023 -75.687438964844 -188.891479492188 1.297580003738
13.595721244812 -75.016387939453 -183.358108520508 1.738535761833
-57.671718597412 -74.851875305176 -180.788421630859 1.128573775291
107.297904968262 -74.805259704590 -185.516052246094 2.645965099335
24.068065643311 -77.008735656738 -180.928405761719 1.454427123070
-32.787803649902 -75.180587768555 -188.530853271484 1.532847881317
-42.356979370117 -77.092025756836 -191.660110473633 0.174500852823
11.275975227356 -76.511756896973 -193.368865966797 2.130264759064
-18.425817489624 -77.308181762695 -190.339248657227 1.234445452690
-49.374176025391 -77.496849060059 -194.171173095703 1.651870489120
103.242088317871 -77.376045227051 -183.724136352539 1.328524947166
14.091963768005 -77.417869567871 -190.604141235352 0.467294782400
-134.122299194336 -79.207984924316 -198.696853637695 1.966071605682
-43.943332672119 -78.089988708496 -193.893203735352 1.930198788643
96.554962158203 -75.630668640137 -198.511810302734 2.098451375961
-148.035324096680 -82.216232299805 -202.231460571289 1.759814858437
18.449190139771 -76.327857971191 -195.911865234375 1.474212408066
-42.090400695801 -75.079246520996 -205.264831542969 2.956561088562
-31.424263000488 -78.046752929688 -204.898544311523 1.244325518608
-36.950649261475 -76.706619262695 -204.140396118164 2.153392553329
-43.875442504883 -78.635200500488 -197.128936767578 1.606003165245
100.084632873535 -76.023391723633 -202.118011474609 2.045099973679
-19.905345916748 -77.810829162598 -201.993988037109 1.709195137024
-150.066558837891 -77.380661010742 -204.211883544922 0.432690709829
16.286394119263 -77.038047790527 -204.368118286133 1.578317403793
-76.223670959473 -80.078208923340 -207.852859497070 1.261379599571
-147.929199218750 -76.526306152344 -211.600067138672 0.580029785633
95.867652893066 -76.015617370605 -210.484970092773 0.401618182659
-32.539299011230 -75.731285095215 -207.224029541016 1.289055943489
-28.689331054688 -76.605239868164 -213.398010253906 2.120614290237
8.537547111511 -77.232696533203 -210.744323730469 0.721057653427
-71.066558837891 -78.767189025879 -211.093124389648 1.950352430344
-28.513933181763 -79.663940429688 -208.810501098633 0.860075414181
-5.637989997864 -76.780914306641 -215.189514160156 1.684463620186
-73.094734191895 -78.540618896484 -214.438171386719 1.067173480988
-14.241855621338 -76.691452026367 -217.257980346680 1.702228903770
8.251159667969 -72.744094848633 -212.894271850586 1.834263086319
15.826165199280 -77.889244079590 -219.791137695313 1.341642498970
-148.822982788086 -77.994224548340 -217.000152587891 1.308517336845
-7.672972202301 -76.275352478027 -214.566802978516 1.432672381401
-96.836349487305 -73.985069274902 -220.662857055664 2.493365526199
-21.496873855591 -75.928833007813 -219.912658691406 1.821340084076
91.041381835938 -78.267967224121 -211.379180908203 1.909595608711
7.324013233185 -75.923049926758 -226.226837158203 0.756955683231
18.115221023560 -75.494514465332 -216.482406616211 1.841897726059
81.516746520996 -76.196907043457 -218.429748535156 3.193187713623
1.361618995667 -77.555175781250 -227.594924926758 0.957056224346
86.240653991699 -76.130119323730 -216.891403198242 1.033138990402
-17.922134399414 -75.146621704102 -222.721054077148 1.370858550072
15.663716316223 -75.674926757813 -219.399032592773 1.966698288918
-146.261886596680 -78.677505493164 -222.260971069336 1.968001365662
-21.163116455078 -77.760955810547 -224.861953735352 1.683131456375
1.925348043442 -76.560340881348 -228.157928466797 1.544274449348
-155.049530029297 -80.547172546387 -227.602767944336 2.016089916229
-136.349151611328 -77.730575561523 -228.599548339844 2.227383136749
6.543728828430 -76.365074157715 -225.096466064453 1.962661147118
-3.755300045013 -75.486793518066 -229.753402709961 1.478576540947
-136.038299560547 -75.670852661133 -231.031600952148 1.848113656044
-145.764465332031 -78.279541015625 -237.947387695313 2.584609031677
-147.075042724609 -77.419013977051 -236.502868652344 2.792353391647
-32.316978454590 -77.280586242676 -237.974777221680 1.622749805450
-144.671585083008 -78.286842346191 -242.781799316406 3.430569171906
19.217294692993 -76.710227966309 -241.481948852539 1.819986462593
5.364818096161 -76.554634094238 -243.288681030273 1.273739576340
-149.953826904297 -75.035865783691 -237.024383544922 1.478845715523
-148.741958618164 -77.708595275879 -243.870407104492 0.863456249237
-46.553520202637 -77.775726318359 -243.094039916992 1.147551178932
-31.046360015869 -77.672218322754 -244.921539306641 2.781914472580
5.318258762360 -77.928527832031 -244.929718017578 0.694007396698
-37.732471466064 -77.684783935547 -245.347747802734 1.761395454407
22.978322982788 -77.030921936035 -246.894271850586 0.666622102261
-4.906250000000 -78.885467529297 -249.996292114258 1.244330167770
-147.805953979492 -77.879501342773 -253.091384887695 1.938154339790
-7.826178073883 -79.768295288086 -251.585556030273 2.481057405472
-147.077056884766 -76.839637756348 -250.694137573242 1.593261599541
-66.641761779785 -77.948768615723 -249.681472778320 2.199758768082
-148.416778564453 -84.057701110840 -260.084442138672 0.938250184059
-126.028900146484 -76.923515319824 -259.117004394531 0.500785291195
-150.044204711914 -75.445312500000 -260.069610595703 1.302864789963
-11.840045928955 -74.997619628906 -266.016143798828 3.098386049271
-145.733993530273 -80.812355041504 -268.197692871094 2.767647266388
-149.553863525391 -78.053436279297 -267.338897705078 3.181360960007
-10.145994186401 -78.212715148926 -270.067474365234 1.156942725182
-145.697875976563 -78.161956787109 -271.266235351563 1.145495057106
-4.133362770081 -76.876235961914 -278.281188964844 2.950050830841
-45.667758941650 -76.898414611816 -285.918151855469 2.889074087143
-133.675720214844 -76.707839965820 -288.830657958984 1.098303318024
-133.353347778320 -76.703163146973 -286.394714355469 1.463885188103
-124.799667358398 -75.998016357422 -285.355529785156 1.335748791695
-52.370948791504 -76.499809265137 -286.626495361328 1.068507313728
-113.707473754883 -75.434928894043 -287.112518310547 1.511835336685
16.375619888306 -76.604255676270 -290.310821533203 1.768403887749
-58.524555206299 -76.198112487793 -288.872253417969 0.958961784840
-141.019439697266 -76.955406188965 -291.800048828125 1.092115521431
-61.978176116943 -76.258491516113 -290.300445556641 1.659361720085
-142.857345581055 -80.514923095703 -292.341949462891 2.024312973022
-116.717010498047 -76.282882690430 -290.686004638672 1.939868807793
-46.366748809814 -77.734222412109 -290.469146728516 2.429347038269
-34.164237976074 -77.266502380371 -291.028350830078 1.086395859718
-134.638092041016 -75.971817016602 -293.247009277344 1.134429097176
-11.450316429138 -75.030616760254 -287.718475341797 1.646842002869
2.758270978928 -76.796577453613 -289.620025634766 0.930798888206
6.995792865753 -76.280410766602 -291.162475585938 2.010315656662
15.648331642151 -77.383972167969 -293.959472656250 1.367244601250
-149.131210327148 -79.239837646484 -297.066009521484 2.514186382294
-146.462539672852 -76.561027526855 -297.816040039063 1.623716711998
-69.099708557129 -75.389831542969 -60.835346221924 2.317056894302
87.355094909668 -74.623634338379 -73.449935913086 2.066717147827
78.241050720215 -74.970947265625 -75.925392150879 0.421557128429
-27.332635879517 -76.555557250977 -76.693283081055 1.815012097359
83.876319885254 -73.366569519043 -75.402587890625 1.454402327538
-36.685359954834 -76.379318237305 -80.093223571777 1.887863755226
85.633316040039 -73.627410888672 -79.173873901367 1.585384249687
93.565078735352 -73.204788208008 -80.667137145996 2.269338846207
-65.369247436523 -70.003768920898 -94.194755554199 1.708044886589
74.260353088379 -74.762725830078 -93.162185668945 0.861369252205
80.147850036621 -73.837692260742 -96.573631286621 2.099702119827
93.186851501465 -75.655754089355 -93.772979736328 2.078382253647
54.903972625732 -75.392921447754 -97.373817443848 0.742441117764
-73.113059997559 -76.643295288086 -101.591728210449 2.547572851181
-75.021827697754 -71.586364746094 -101.691711425781 1.989388942719
49.208683013916 -76.063644409180 -104.403388977051 1.617753505707
-90.238929748535 -77.273864746094 -104.520851135254 2.471845388412
45.397712707520 -74.136840820313 -116.879913330078 1.375738859177
110.358291625977 -73.869285583496 -117.940109252930 1.010346889496
112.243148803711 -75.543327331543 -130.655090332031 1.805183529854
24.657192230225 -74.225646972656 -137.767089843750 2.224922180176
110.128784179688 -75.026077270508 -125.894104003906 1.320731163025
27.248905181885 -74.542678833008 -133.883392333984 2.468787431717
113.325050354004 -72.058525085449 -129.380172729492 1.765756368637
37.998603820801 -74.591094970703 -134.187271118164 3.292542934418
-53.018669128418 -76.542259216309 -142.750381469727 2.166076183319
35.190673828125 -75.612960815430 -142.552230834961 2.160138368607
109.285873413086 -73.213798522949 -136.296905517578 2.325880765915
-49.075500488281 -75.141014099121 -144.475326538086 1.890338659286
32.081390380859 -75.099876403809 -148.343841552734 1.831949591637
-56.359806060791 -73.129325866699 -140.032730102539 1.469240784645
-55.197662353516 -76.373191833496 -146.727493286133 0.760384082794
-51.157417297363 -77.187866210938 -149.795547485352 1.307129025459
-64.768287658691 -77.424804687500 -156.266250610352 1.362810134888
113.915321350098 -76.275703430176 -147.455322265625 1.367310643196
-50.296356201172 -78.438247680664 -155.385101318359 2.267367839813
22.094533920288 -77.430656433105 -154.950973510742 2.068585395813
109.203529357910 -75.200622558594 -158.030120849609 0.745968103409
-66.408432006836 -75.240028381348 -156.145721435547 1.381855726242
-46.260093688965 -76.537193298340 -156.382156372070 1.492195725441
8.422455787659 -73.461990356445 -154.641860961914 1.030730247498
-67.551513671875 -75.419845581055 -158.310714721680 0.438517242670
-62.133232116699 -76.770301818848 -160.640777587891 1.891681075096
-0.709758996964 -75.613830566406 -161.992996215820 1.590906023979
-42.189571380615 -74.647850036621 -167.404953002930 2.195452213287
30.305702209473 -73.809143066406 -164.973297119141 1.947373032570
-62.347438812256 -74.483718872070 -166.615783691406 0.729953527451
-56.873676300049 -76.652503967285 -167.913955688477 1.602440476418
18.100744247437 -76.560569763184 -160.470916748047 2.790058374405
-30.899776458740 -75.559631347656 -169.103012084961 1.546356797218
-29.770406723022 -77.350898742676 -167.047515869141 1.139088511467
16.435937881470 -76.077148437500 -174.326797485352 2.581377506256
-41.326538085938 -77.249397277832 -172.897415161133 1.512797594070
-11.489185333252 -75.942100524902 -172.683990478516 0.962836563587
-61.921714782715 -74.183212280273 -172.403091430664 2.112825155258
-5.899655818939 -73.695365905762 -172.015716552734 1.081629276276
-22.608144760132 -76.172790527344 -179.597640991211 1.242746829987
23.461849212646 -74.172981262207 -181.715667724609 1.454683184624
-38.910140991211 -75.929481506348 -172.149002075195 0.948409795761
19.253286361694 -73.508911132813 -177.169265747070 1.852709412575
-22.794097900391 -72.935256958008 -183.885925292969 1.283213257790
-32.191715240479 -77.000923156738 -180.487899780273 2.397834777832
-147.373931884766 -75.613037109375 -188.791976928711 1.869544029236
-20.465980529785 -77.649154663086 -185.317489624023 1.190559625626
-142.966018676758 -75.736213684082 -189.049224853516 1.993764281273
-151.020339965820 -75.867088317871 -187.757308959961 2.601931810379
-47.993946075439 -74.709129333496 -187.386978149414 2.308281898499
98.482437133789 -74.608474731445 -193.951446533203 1.275880813599
-144.532775878906 -76.968765258789 -192.725860595703 1.889519453049
-150.523559570313 -76.428695678711 -196.841232299805 2.048144102097
21.750492095947 -74.867225646973 -197.114990234375 1.315426588058
-136.438827514648 -75.700157165527 -197.814483642578 1.284773111343
17.239280700684 -73.764450073242 -198.224365234375 2.718842744827
-139.665328979492 -76.607482910156 -198.876129150391 0.896234750748
13.232449531555 -73.833396911621 -196.582916259766 1.106475710869
-134.356353759766 -74.464759826660 -199.803680419922 1.674908161163
6.995501041412 -74.574432373047 -205.124221801758 1.646431803703
-149.981811523438 -76.145767211914 -205.429702758789 1.763469815254
94.196876525879 -74.896598815918 -204.052719116211 2.284172773361
-15.291910171509 -77.219093322754 -204.247543334961 1.576606750488
-30.111358642578 -75.113807678223 -207.422744750977 1.953830003738
-10.388005256653 -74.188003540039 -205.504379272461 2.052227973938
-147.725433349609 -78.093536376953 -211.978622436523 1.202914476395
-35.200187683105 -75.787101745605 -205.060089111328 1.286535024643
-82.113471984863 -77.697380065918 -208.215057373047 2.870559692383
-26.537363052368 -76.714622497559 -209.349365234375 2.306814670563
17.432722091675 -75.565536499023 -210.578552246094 1.861763477325
-147.113006591797 -76.073242187500 -214.105072021484 2.083885192871
-90.187019348145 -76.512741088867 -216.186737060547 1.056579470634
-29.463619232178 -74.804382324219 -215.158096313477 1.803171038628
-25.894475936890 -74.910934448242 -218.996536254883 1.232380151749
-12.026975631714 -76.472526550293 -211.960861206055 1.991972804070
-27.201667785645 -75.130485534668 -211.023010253906 0.963204681873
-81.786453247070 -75.937782287598 -218.426086425781 3.139515876770
-87.193222045898 -78.400627136230 -218.566635131836 1.615613102913
-23.366138458252 -75.595443725586 -219.911834716797 1.173847913742
-1.777531981468 -78.544334411621 -222.389511108398 1.270340800285
-151.522781372070 -76.931648254395 -217.623352050781 1.797588229179
-2.092236042023 -76.963516235352 -219.249206542969 1.076272964478
85.841804504395 -76.925605773926 -224.239105224609 1.008814215660
-141.174468994141 -78.320068359375 -224.766052246094 0.935997605324
-7.406610012054 -76.597488403320 -222.787445068359 1.374574780464
-140.500457763672 -77.512039184570 -226.788192749023 1.365219950676
-146.735687255859 -83.319610595703 -226.895080566406 0.797973394394
-6.179193973541 -74.538566589355 -229.205123901367 2.215070486069
18.180238723755 -75.621749877930 -219.020706176758 0.759283304214
-140.030242919922 -75.654396057129 -229.872360229492 1.631613969803
-15.923068046570 -76.223381042480 -228.690551757813 1.177564740181
76.427665710449 -75.675193786621 -226.248413085938 2.049408197403
76.574195861816 -74.997138977051 -231.554138183594 1.465659141541
9.283057212830 -76.411140441895 -230.638336181641 2.244232177734
-28.884061813354 -77.230781555176 -237.154220581055 3.092735052109
-19.837560653687 -79.562507629395 -240.809005737305 1.781790971756
5.149834156036 -74.412780761719 -242.932052612305 1.322888970375
-47.155559539795 -73.965103149414 -242.474700927734 1.301278233528
-22.120746612549 -75.224487304688 -242.787918090820 2.334800481796
9.145904541016 -74.573707580566 -241.754943847656 1.901632905006
-63.019138336182 -76.309982299805 -245.483230590820 0.918247759342
-32.343910217285 -77.554809570313 -243.639312744141 1.296654224396
-41.104240417480 -74.413070678711 -245.151992797852 1.429152488708
-149.011062622070 -75.911354064941 -246.632507324219 2.286722183228
-45.849201202393 -77.669097900391 -247.439041137695 1.592848658562
-52.886947631836 -73.599395751953 -248.018890380859 2.706850290298
-66.072792053223 -76.324806213379 -250.160537719727 2.443605184555
-10.341480255127 -77.341918945313 -249.124237060547 2.548681259155
-79.972190856934 -76.444564819336 -253.553283691406 0.586262166500
-155.010345458984 -80.774253845215 -256.029479980469 0.710524678230
-141.051193237305 -77.041687011719 -256.093750000000 2.969127416611
-123.605987548828 -77.086578369141 -260.743225097656 2.884737730026
-154.821182250977 -73.906059265137 -262.647247314453 1.483712673187
20.974451065063 -78.707481384277 -264.001220703125 2.048147439957
-12.670899391174 -77.315979003906 -268.183837890625 1.595630407333
-151.507110595703 -78.802757263184 -272.801391601563 1.929543972015
-150.789916992188 -80.647033691406 -278.304443359375 1.595700621605
-144.100082397461 -80.139778137207 -285.370910644531 1.437782526016
-57.410526275635 -73.741394042969 -283.733978271484 2.437088012695
-37.876655578613 -74.268402099609 -286.072479248047 0.979162096977
-22.430526733398 -74.190162658691 -287.445739746094 3.115509271622
-10.836663246155 -74.648391723633 -283.803466796875 2.623566627502
-64.986106872559 -77.597373962402 -286.579406738281 3.040196895599
-79.094459533691 -77.387855529785 -286.880737304688 2.111452817917
-2.567718029022 -76.696556091309 -285.633056640625 1.714547634125
7.132401943207 -76.488372802734 -289.302551269531 0.718808472157
-136.513290405273 -75.996803283691 -289.271759033203 1.337460279465
-78.118217468262 -75.116905212402 -288.123321533203 1.795306444168
-146.709777832031 -76.520881652832 -288.778198242188 2.634844064713
-93.529075622559 -79.187202453613 -287.806518554688 4.274497509003
-77.791976928711 -75.954795837402 -288.276428222656 0.926268100739
-83.759155273438 -74.760093688965 -292.752990722656 2.274421215057
-60.265220642090 -75.870452880859 -291.074951171875 1.078390479088
-27.077564239502 -73.178131103516 -292.935150146484 1.702583193779
-4.642426967621 -75.549217224121 -291.408172607422 2.555020570755
-152.033706665039 -73.498985290527 -296.648529052734 1.000291466713
-150.028594970703 -76.001449584961 -300.681579589844 2.070740461349
-144.525100708008 -77.094825744629 -303.043945312500 2.028905868530
-155.105819702148 -76.800445556641 -306.927764892578 1.048402070999
-57.636604309082 -73.228881835938 -55.351604461670 2.172277688980
-46.849510192871 -73.259002685547 -53.066932678223 1.928197979927
-39.507495880127 -74.369483947754 -54.870285034180 1.590253233910
-76.699249267578 -75.584609985352 -60.148239135742 1.751572847366
-29.265211105347 -73.648986816406 -62.940864562988 3.269838571548
-32.317646026611 -74.378753662109 -79.256721496582 2.427039146423
74.910903930664 -75.581970214844 -80.363731384277 1.199254155159
