-67.915023803711 -71.228637695313 -159.098953247070 1.554931640625
-65.342750549316 -72.263381958008 -159.598800659180 1.797966241837
-68.355384826660 -72.257247924805 -165.699325561523 1.289315819740
114.871871948242 -71.380744934082 -160.233520507813 2.890875101089
-44.480533599854 -72.915351867676 -163.237014770508 1.357522010803
18.701198577881 -73.663726806641 -165.624023437500 1.125120878220
-63.968334197998 -72.377746582031 -169.885467529297 1.690785408020
-62.033439636230 -71.903358459473 -171.675186157227 3.339493751526
-40.232639312744 -73.261642456055 -160.143539428711 1.435832023621
-32.797920227051 -74.147361755371 -169.385513305664 3.405738592148
114.519500732422 -75.283119201660 -170.162246704102 1.785924673080
-36.732250213623 -70.170570373535 -178.711349487305 2.251138925552
14.667489051819 -74.259193420410 -173.475448608398 3.501254558563
110.947273254395 -75.931419372559 -182.214309692383 1.082463860512
-147.819107055664 -73.727455139160 -177.013854980469 1.809284210205
-145.558074951172 -72.461128234863 -175.515594482422 0.996867060661
-149.631790161133 -71.088211059570 -179.902603149414 2.367666006088
-142.521560668945 -72.862480163574 -182.780426025391 1.663783669472
-31.117366790771 -72.209220886230 -186.087966918945 1.919092416763
-22.799034118652 -72.883407592773 -186.026763916016 0.823831260204
23.247919082642 -71.231262207031 -190.046981811523 0.888095438480
-141.727401733398 -71.624961853027 -187.739151000977 1.142068028450
-146.702438354492 -72.454269409180 -189.330001831055 1.967266917229
-20.639198303223 -70.613067626953 -187.226425170898 0.668149948120
12.229064941406 -74.052467346191 -182.342178344727 2.754823923111
-148.581207275391 -72.345787048340 -194.432998657227 2.199438333511
-31.377361297607 -74.198898315430 -187.281723022461 1.718113541603
100.525375366211 -73.692054748535 -187.544357299805 2.646760940552
107.118507385254 -73.686019897461 -188.940933227539 2.345342874527
23.933029174805 -70.304763793945 -193.231430053711 0.541556000710
-15.237115859985 -73.601318359375 -188.571533203125 3.392864942551
-26.938850402832 -74.735160827637 -193.869995117188 0.871341884136
-154.452804565430 -72.474479675293 -198.815841674805 0.806631803513
-132.194213867188 -73.083564758301 -197.767684936523 0.837717354298
-124.588546752930 -70.516555786133 -196.104919433594 1.793765306473
-123.492240905762 -70.829689025879 -198.555862426758 1.044634222984
-22.561292648315 -69.762145996094 -196.976409912109 1.620303988457
11.956963539124 -74.584915161133 -192.538314819336 1.076628565788
93.660148620605 -75.676330566406 -200.377304077148 2.372484445572
-148.963363647461 -69.638725280762 -197.157501220703 0.788169622421
-145.270950317383 -70.514137268066 -199.602478027344 2.043334245682
-150.038208007813 -71.265754699707 -200.548339843750 1.894511222839
-154.704895019531 -70.405197143555 -199.179595947266 2.039291858673
-24.979207992554 -73.104957580566 -199.733322143555 1.711826682091
-11.924948692322 -73.267181396484 -195.790191650391 2.413185358047
-146.951690673828 -69.680023193359 -202.634689331055 2.481005668640
-17.091545104980 -72.505256652832 -200.516754150391 2.509657382965
-161.585037231445 -71.342468261719 -200.938720703125 2.724754333496
-133.884994506836 -72.168792724609 -200.448348999023 0.943918287754
16.527633666992 -73.978485107422 -206.994979858398 2.739199638367
-162.029159545898 -69.910064697266 -205.035629272461 1.761927485466
-145.614105224609 -72.904663085938 -207.308547973633 1.295602798462
9.459404945374 -71.999855041504 -201.785461425781 1.553465723991
-153.614608764648 -70.247962951660 -203.920120239258 1.510100603104
-23.733594894409 -72.933593750000 -201.388687133789 1.659251689911
99.758399963379 -74.064811706543 -198.858764648438 1.578376293182
-157.112945556641 -72.429252624512 -214.725875854492 2.242661952972
-164.248092651367 -73.739692687988 -209.639099121094 1.270379781723
-77.208564758301 -71.152679443359 -209.950805664063 1.163327336311
89.130935668945 -73.211639404297 -209.050781250000 1.424192070961
-3.369108915329 -71.880195617676 -217.562576293945 1.072648525238
-152.849975585938 -71.123908996582 -213.999298095703 2.882826089859
-87.483322143555 -72.131958007813 -214.606948852539 1.224518775940
-8.572937965393 -74.794525146484 -211.647674560547 1.194980621338
15.695355415344 -73.321762084961 -220.991516113281 2.176768302917
-145.025802612305 -72.708602905273 -220.487823486328 1.671051144600
-2.925179004669 -75.570190429688 -221.003158569336 0.855312943459
-20.151523590088 -73.031196594238 -219.580062866211 1.008975982666
-14.240378379822 -70.389816284180 -220.002014160156 2.390623807907
89.844413757324 -73.714164733887 -217.267089843750 0.526422441006
-20.837795257568 -72.009994506836 -217.535507202148 1.185392975807
-30.186729431152 -72.530410766602 -216.868133544922 1.085685372353
-106.996589660645 -69.706016540527 -225.000854492188 1.664220213890
-15.443746566772 -71.833580017090 -223.009979248047 0.831456542015
91.844535827637 -72.072746276855 -218.521636962891 1.709597349167
79.419082641602 -74.076324462891 -219.309722900391 3.283201694489
6.784149169922 -74.198806762695 -219.844161987305 1.758744359016
-10.519425392151 -72.135505676270 -225.486282348633 0.358846575022
78.749855041504 -74.518753051758 -221.868927001953 1.124830365181
-122.564071655273 -74.024864196777 -225.942138671875 1.243939161301
-20.973440170288 -71.566276550293 -223.170059204102 2.638519525528
-97.751014709473 -71.649353027344 -224.546676635742 1.890220999718
-103.199363708496 -72.373222351074 -225.794494628906 1.244140625000
-132.458297729492 -73.639656066895 -229.214279174805 0.777958273888
81.888870239258 -73.437660217285 -223.526519775391 2.282759666443
-123.067390441895 -72.401702880859 -228.098037719727 1.080001354218
5.525188922882 -72.967559814453 -228.527709960938 1.987936735153
81.219924926758 -72.616973876953 -223.888763427734 2.782021760941
-14.781168937683 -73.697731018066 -228.807128906250 0.678845822811
-12.540518760681 -73.591735839844 -228.976425170898 1.169622063637
-2.655553102493 -76.399940490723 -229.989608764648 2.198510169983
9.894374847412 -74.263816833496 -227.264694213867 2.907103776932
88.124252319336 -74.611106872559 -225.307037353516 2.984194993973
10.879608154297 -72.114097595215 -231.731002807617 1.896228313446
5.123075008392 -73.469413757324 -229.353363037109 1.018373131752
-8.529843330383 -73.527717590332 -230.991119384766 2.021680355072
-6.309733867645 -73.393440246582 -231.637481689453 2.230933427811
18.367572784424 -72.244171142578 -232.325363159180 2.038052082062
-11.904698371887 -71.546775817871 -233.714477539063 0.750008523464
71.660850524902 -74.126510620117 -238.763519287109 2.611430168152
-8.189470291138 -71.644615173340 -238.568878173828 1.138960003853
19.290807723999 -74.329605102539 -235.812561035156 0.390811622143
-163.781555175781 -71.372024536133 -242.075561523438 3.073580026627
-4.784461021423 -71.721145629883 -238.082138061523 1.369320273399
-8.101770401001 -72.973037719727 -241.095855712891 1.220917224884
-167.237091064453 -71.887657165527 -252.260177612305 0.708530843258
-10.144962310791 -72.244316101074 -244.956253051758 1.840871572495
16.627504348755 -71.477516174316 -245.963317871094 0.961116075516
-146.678955078125 -73.802444458008 -252.896652221680 1.054571151733
-70.984321594238 -71.582015991211 -249.988235473633 1.478469729424
-60.720619201660 -72.929420471191 -247.384628295898 1.416515827179
53.547786712646 -72.374702453613 -246.619171142578 1.322330951691
-75.195137023926 -72.325027465820 -247.922058105469 1.800452232361
18.001142501831 -74.073326110840 -249.393707275391 2.540011644363
-72.724182128906 -72.237777709961 -252.280303955078 0.946653127670
-14.469466209412 -72.264541625977 -248.199356079102 1.255004525185
-145.091644287109 -73.884872436523 -253.845367431641 1.299405574799
48.036136627197 -71.533622741699 -249.273132324219 1.386785745621
-78.883049011230 -73.340850830078 -255.583435058594 2.344175100327
-101.886703491211 -70.359909057617 -255.611343383789 0.902308225632
-98.135253906250 -73.806472778320 -255.502288818359 1.667993664742
-118.370758056641 -71.534355163574 -254.849182128906 1.944187521935
-105.070198059082 -71.272041320801 -257.820343017578 1.923060774803
-105.749259948730 -72.500442504883 -259.373840332031 0.705288290977
22.524778366089 -72.516319274902 -259.303710937500 2.453335285187
-128.019256591797 -70.520698547363 -265.922912597656 1.502732396126
-12.206930160522 -73.885749816895 -276.169616699219 1.685157656670
-146.272888183594 -70.604217529297 -283.732238769531 0.619815886021
-168.073135375977 -72.947319030762 -285.880859375000 2.141868114471
-124.291007995605 -72.939666748047 -285.786865234375 1.053971648216
-113.573043823242 -70.010009765625 -287.739013671875 1.104849576950
-74.881637573242 -69.202743530273 -286.196289062500 1.715250611305
-56.678085327148 -72.517410278320 -287.184509277344 2.033834934235
-41.783580780029 -72.054840087891 -286.724456787109 1.486129045486
-14.658965110779 -74.586868286133 -289.199005126953 1.832125544548
-13.303302764893 -71.137756347656 -290.912200927734 0.875019013882
-37.577648162842 -73.495437622070 -290.069366455078 1.657756567001
-33.758346557617 -72.373313903809 -289.174377441406 2.544625043869
-18.235956192017 -70.791145324707 -289.179138183594 2.342570066452
-70.287925720215 -71.671905517578 -292.759460449219 1.345222353935
-54.452003479004 -72.073898315430 -291.371124267578 1.911318421364
-16.255542755127 -70.453689575195 -291.536926269531 1.398433923721
-13.142713546753 -73.815338134766 -290.475799560547 1.059165358543
-3.288305997849 -72.076446533203 -291.859344482422 2.133272886276
2.898128986359 -70.871841430664 -291.916870117188 1.151612639427
-90.629135131836 -72.534759521484 -293.221984863281 1.693425297737
-140.298873901367 -72.605728149414 -295.097290039063 3.290520191193
-116.383285522461 -73.004760742188 -293.402740478516 1.213885664940
-153.172073364258 -71.943855285645 -296.829711914063 0.542576909065
-152.456710815430 -72.314605712891 -300.596160888672 2.442451953888
-145.820541381836 -71.526443481445 -300.890075683594 0.473540842533
44.485313415527 -71.266921997070 -19.952507019043 1.291811704636
19.050804138184 -73.949638366699 -23.342388153076 2.845502614975
48.510494232178 -70.993820190430 -25.411716461182 1.101908564568
46.407497406006 -73.149909973145 -34.313297271729 0.579127907753
86.661193847656 -72.731513977051 -68.552230834961 1.181083440781
94.791709899902 -74.031921386719 -72.836753845215 2.185480594635
100.585975646973 -72.011512756348 -78.411918640137 2.276046037674
97.850883483887 -73.824958801270 -82.271339416504 1.347603082657
56.940910339355 -73.429183959961 -88.506111145020 1.875603199005
46.325042724609 -76.274299621582 -91.881500244141 3.660817146301
62.826145172119 -71.624351501465 -90.287841796875 2.665139913559
-65.382621765137 -69.081443786621 -93.064941406250 2.240774869919
69.664924621582 -72.929199218750 -87.696823120117 0.497265040874
101.065589904785 -68.822532653809 -97.769844055176 1.954313158989
74.206993103027 -73.873153686523 -100.047492980957 1.623393177986
94.586120605469 -72.166847229004 -101.352119445801 1.953829288483
-83.453605651855 -72.550018310547 -102.985679626465 3.978734493256
44.277618408203 -72.123374938965 -99.284088134766 1.241955757141
-85.882049560547 -72.669281005859 -104.329826354980 3.618342399597
50.471431732178 -74.086166381836 -110.196502685547 1.792539954185
38.162261962891 -75.555931091309 -103.762100219727 3.338655471802
103.448814392090 -72.257087707520 -102.593429565430 1.251037240028
37.221553802490 -71.979400634766 -106.723510742188 2.810563087463
40.866687774658 -72.671714782715 -116.803955078125 2.573878526688
42.650970458984 -71.801849365234 -112.818878173828 1.572762727737
108.800643920898 -71.913513183594 -112.346412658691 0.785558760166
-82.123558044434 -73.799278259277 -121.869659423828 3.458463668823
111.468170166016 -74.531593322754 -124.219192504883 2.689552545547
38.655445098877 -70.204231262207 -124.191383361816 2.064271211624
40.618289947510 -71.385459899902 -120.256195068359 1.188370585442
35.118179321289 -72.453979492188 -121.398094177246 2.122466802597
-56.538066864014 -74.499328613281 -130.161071777344 2.016518592834
30.193851470947 -71.807510375977 -123.519493103027 0.996392071247
-77.283538818359 -71.395355224609 -137.987899780273 2.237849473953
-55.880718231201 -73.781967163086 -133.217330932617 1.645086288452
-79.778442382813 -70.190673828125 -135.502807617188 2.193166255951
34.453186035156 -71.012199401855 -129.789596557617 0.808368325233
-59.680053710938 -72.051063537598 -134.269851684570 2.400754928589
34.740383148193 -71.695381164551 -133.540710449219 2.484154939651
-72.746116638184 -70.332000732422 -140.218826293945 1.568775296211
-59.503330230713 -71.053039550781 -140.208160400391 1.767413258553
26.719076156616 -72.579048156738 -141.325576782227 0.940486788750
109.920745849609 -74.976676940918 -142.657348632813 1.452635765076
115.215087890625 -70.160598754883 -136.187927246094 1.623255491257
30.654491424561 -72.011611938477 -140.563018798828 1.437572121620
-47.389938354492 -72.151809692383 -141.027542114258 2.016668081284
107.711288452148 -71.411827087402 -151.331130981445 3.132943391800
-75.239257812500 -71.499214172363 -144.167175292969 1.373624444008
-58.997558593750 -71.899589538574 -142.996932983398 1.337248563766
31.245965957642 -70.257583618164 -148.313796997070 1.624063730240
-77.335601806641 -72.411857604980 -147.005050659180 2.152113676071
-71.128341674805 -71.944961547852 -151.219970703125 1.770188927650
115.287391662598 -75.084403991699 -149.131271362305 1.893389463425
-65.031143188477 -71.870193481445 -155.341278076172 1.801702499390
-39.474426269531 -70.359848022461 -153.087417602539 2.062986373901
26.214427947998 -70.884902954102 -146.924850463867 1.148727178574
-74.254302978516 -71.804359436035 -148.063613891602 1.770347237587
12.074798583984 -72.340415954590 -150.498153686523 2.509003877640
31.552564620972 -71.673019409180 -155.913513183594 1.261680126190
30.451864242554 -70.725479125977 -149.127670288086 1.622176527977
13.550217628479 -75.613235473633 -154.580780029297 3.217284202576
-49.643562316895 -72.361183166504 -153.957138061523 1.463330030441
25.612434387207 -72.422286987305 -153.182113647461 1.538510441780
-45.961669921875 -71.072143554688 -150.041702270508 2.203513383865
5.321934223175 -72.363937377930 -154.081604003906 1.916212201118
20.881689071655 -71.645324707031 -150.001831054688 2.476328372955
-70.333511352539 -71.436653137207 -157.347717285156 2.519103527069
-46.489063262939 -69.550559997559 -154.591888427734 2.576716661453
-68.220664978027 -70.858337402344 -155.628662109375 1.045993566513
16.448606491089 -71.300674438477 -158.436233520508 1.428966403008
24.296443939209 -71.542541503906 -150.118041992188 1.687490701675
2.267059087753 -72.018920898438 -163.360214233398 0.843621671200
20.620784759521 -72.683372497559 -154.640548706055 0.993228733540
30.532907485962 -72.468803405762 -166.072616577148 2.826711654663
-47.702758789063 -73.196952819824 -163.129837036133 0.323976010084
-35.980529785156 -75.615158081055 -162.828582763672 1.322892069817
-40.623104095459 -72.024139404297 -161.086624145508 2.174547672272
27.568971633911 -72.191955566406 -159.465652465820 2.603811979294
-44.351867675781 -71.046363830566 -167.626052856445 2.370243310928
-40.419158935547 -70.657279968262 -165.216506958008 2.221127986908
20.747413635254 -71.402008056641 -166.106460571289 1.903466224670
-40.280395507813 -72.183334350586 -174.826599121094 2.128785610199
28.017591476440 -70.144989013672 -170.119659423828 1.086670994759
112.253364562988 -70.713928222656 -165.377273559570 0.698912024498
-33.317134857178 -71.562362670898 -172.288040161133 1.378503322601
104.204147338867 -70.998832702637 -172.608169555664 2.302912235260
-34.847888946533 -71.420715332031 -177.482238769531 1.639176487923
-37.318508148193 -73.794265747070 -181.348861694336 1.798590064049
19.731626510620 -74.336112976074 -176.195449829102 1.096679091454
105.076850891113 -72.556663513184 -181.539764404297 1.039624810219
-30.672918319702 -70.726135253906 -183.986709594727 2.393122673035
-34.892837524414 -71.108787536621 -176.488754272461 1.015868663788
-23.764280319214 -73.645690917969 -186.712219238281 1.296038389206
-149.195892333984 -71.915229797363 -189.588043212891 1.747592210770
13.852983474731 -72.014778137207 -183.428115844727 1.656794071198
105.378524780273 -71.473869323730 -189.824783325195 1.557304739952
-157.879043579102 -70.751853942871 -194.731658935547 0.888638794422
-24.596647262573 -70.120033264160 -190.791656494141 0.894180774689
-115.815040588379 -72.351730346680 -197.843490600586 2.142379760742
-132.275848388672 -72.171455383301 -197.261734008789 1.304793715477
-108.931861877441 -71.368606567383 -200.405273437500 2.407096862793
-113.021003723145 -70.960525512695 -201.137680053711 0.874807953835
-13.318550109863 -72.290077209473 -196.637908935547 1.637894749641
20.101848602295 -71.808647155762 -196.295074462891 1.670444846153
-15.902068138123 -69.110046386719 -202.022979736328 1.752532005310
-125.774169921875 -71.365966796875 -206.086746215820 1.000385522842
-21.287591934204 -69.277572631836 -204.563934326172 2.059750080109
-130.444885253906 -71.068832397461 -203.935165405273 0.591160535812
-14.745085716248 -72.267646789551 -201.593521118164 2.160218238831
-145.498687744141 -70.335197448730 -204.825805664063 2.315093040466
91.733947753906 -70.026359558105 -206.389205932617 2.519634485245
-164.916198730469 -68.292388916016 -202.934326171875 1.200990438461
-3.384836912155 -73.909568786621 -216.358901977539 1.397572636604
10.837821006775 -72.564125061035 -209.702209472656 1.609249353409
10.342879295349 -72.931083679199 -216.959838867188 2.828659296036
82.832626342773 -72.199943542480 -216.828811645508 2.220502138138
7.775166034698 -72.673446655273 -212.973403930664 1.419452071190
13.412629127502 -71.370399475098 -214.650268554688 2.307629823685
-15.919468879700 -74.764823913574 -216.551254272461 2.112024784088
-90.579757690430 -71.267707824707 -216.359512329102 1.281984448433
-97.680877685547 -71.553024291992 -217.305938720703 1.187838673592
-1.593822956085 -70.844902038574 -220.036117553711 0.685794293880
-166.396850585938 -72.178123474121 -223.723678588867 1.122226595879
14.370715141296 -70.728164672852 -220.785232543945 1.515554189682
-144.545333862305 -70.595603942871 -223.150756835938 1.435697555542
12.504712104797 -72.071510314941 -225.093170166016 2.631935358047
-134.186523437500 -71.989982604980 -225.825332641602 1.261219501495
-116.269447326660 -72.087799072266 -227.303253173828 1.598734855652
16.387447357178 -71.243789672852 -221.445083618164 1.991753101349
77.630554199219 -72.259552001953 -222.347763061523 2.040880680084
7.119192123413 -71.425758361816 -223.481979370117 1.931103348732
-110.545814514160 -71.070472717285 -231.431365966797 1.927064538002
74.228668212891 -72.796478271484 -227.768508911133 1.384915947914
82.980529785156 -72.988204956055 -229.215301513672 1.593009591103
-124.360595703125 -71.184959411621 -234.863784790039 1.055634737015
-115.772232055664 -71.526290893555 -231.708602905273 1.658692121506
-10.493880271912 -69.890892028809 -229.297454833984 0.498274832964
72.002670288086 -73.020790100098 -230.085205078125 1.223767042160
64.769607543945 -72.839431762695 -233.651077270508 2.670969963074
74.111885070801 -71.880661010742 -229.957489013672 0.968804001808
-134.355758666992 -68.924194335938 -235.341827392578 1.147667884827
70.938842773438 -73.047111511230 -233.314132690430 1.835994720459
66.566101074219 -70.877807617188 -235.366287231445 0.842897236347
-166.220092773438 -70.362327575684 -231.129623413086 1.264250874519
1.080075979233 -76.689781188965 -240.296539306641 1.990891575813
18.555871963501 -72.844787597656 -239.908645629883 1.317729949951
-5.846711158752 -70.119010925293 -240.352905273438 1.668293476105
15.012758255005 -68.730468750000 -239.451644897461 2.529450654984
65.663688659668 -73.091361999512 -238.247268676758 1.287495613098
10.019696235657 -70.900367736816 -242.653976440430 0.646419405937
-10.358202934265 -66.929008483887 -241.508087158203 1.887773633003
0.411774009466 -69.500488281250 -239.040313720703 0.993290960789
65.130775451660 -72.992324829102 -242.508560180664 0.871455848217
4.258097171783 -72.854560852051 -242.886917114258 0.760726511478
-7.522192001343 -72.530525207520 -243.439056396484 1.136745572090
14.124558448792 -73.460685729980 -243.739624023438 1.592976212502
-167.325744628906 -71.729347229004 -242.401123046875 2.526005268097
57.358551025391 -71.871704101563 -247.240280151367 0.859403967857
50.965930938721 -68.452888488770 -249.406448364258 1.167783737183
57.289001464844 -72.944892883301 -242.500640869141 1.621024847031
-11.959737777710 -70.968353271484 -248.230895996094 0.842739045620
57.421962738037 -72.514244079590 -246.101257324219 1.609993696213
-73.299743652344 -70.960609436035 -249.837921142578 1.136154294014
51.290508270264 -72.560913085938 -248.977035522461 1.726477384567
-89.420669555664 -71.688537597656 -252.988418579102 0.979249536991
-123.984893798828 -72.382247924805 -256.682739257813 1.824408054352
-132.558685302734 -70.930442810059 -254.439239501953 1.458092093468
45.422389984131 -73.259620666504 -252.136611938477 1.929937720299
-133.701309204102 -73.008918762207 -255.225631713867 1.525683045387
-109.548446655273 -70.489463806152 -256.721618652344 1.433056116104
-114.923675537109 -69.335113525391 -258.098205566406 1.601476311684
-83.148674011230 -71.952804565430 -255.589782714844 0.835022389889
-111.120384216309 -70.804588317871 -260.726898193359 1.417886853218
-123.810760498047 -73.660301208496 -263.219268798828 0.773749411106
-145.740371704102 -68.997352600098 -268.067657470703 2.239980459213
-15.133301734924 -71.004196166992 -264.520538330078 1.071234107018
-169.717239379883 -72.014533996582 -265.434173583984 3.615274906158
-14.128463745117 -71.760734558105 -273.341979980469 1.685329198837
-159.036590576172 -68.611824035645 -268.535644531250 2.393417358398
-152.426559448242 -70.698013305664 -275.290222167969 2.061461687088
-168.997848510742 -70.908157348633 -278.653930664063 2.301871776581
-13.322739601135 -71.386260986328 -277.915374755859 1.886278629303
-131.326644897461 -72.863433837891 -284.431335449219 2.348937034607
-158.446228027344 -70.669509887695 -287.312316894531 2.372688770294
-144.264999389648 -70.345031738281 -282.370178222656 2.031214714050
-134.632751464844 -73.772865295410 -283.219482421875 2.575705289841
-7.891184806824 -67.729507446289 -284.987030029297 1.983002901077
-125.414848327637 -74.304206848145 -284.781005859375 1.316810369492
-140.956954956055 -70.121124267578 -286.498596191406 2.732287883759
-115.750244140625 -72.860397338867 -286.779907226563 1.559390783310
-77.363700866699 -70.376045227051 -288.055084228516 2.310534238815
-61.109909057617 -71.447937011719 -287.776885986328 2.563047885895
-6.088201999664 -72.354614257813 -288.218505859375 1.708735585213
-53.190071105957 -70.616645812988 -287.692016601563 0.939501345158
-57.215225219727 -69.720954895020 -289.196380615234 1.670697569847
-69.500885009766 -69.948654174805 -290.995086669922 1.788786292076
-87.137329101563 -70.979362487793 -293.543640136719 2.108500719070
-95.974143981934 -68.991645812988 -290.541290283203 1.645006299019
-160.747299194336 -69.739227294922 -292.559906005859 1.344322085381
-161.378082275391 -71.828109741211 -294.254608154297 0.972179532051
-124.709892272949 -73.181999206543 -295.187164306641 1.733947277069
-144.563430786133 -71.500091552734 -296.473541259766 1.453394651413
-153.758316040039 -72.803543090820 -303.741546630859 2.643736839294
-148.848739624023 -72.311187744141 -313.644134521484 1.296217918396
46.514396667480 -70.869316101074 -15.753241539001 1.644468903542
16.903575897217 -73.301986694336 -28.747453689575 3.656018018723
40.596389770508 -70.015014648438 -34.295627593994 1.123054146767
-16.955894470215 -74.486160278320 -66.878341674805 2.643848896027
81.078704833984 -70.841293334961 -64.973205566406 2.025600194931
86.621452331543 -69.192916870117 -65.682182312012 0.599286258221
76.505165100098 -73.690681457520 -65.527053833008 4.570510864258
72.329818725586 -72.693778991699 -68.621299743652 2.415889978409
90.528350830078 -74.701843261719 -73.897369384766 1.298231363297
-95.984817504883 -68.946022033691 -71.000755310059 1.477251887321
68.132476806641 -72.889221191406 -75.415946960449 3.681230306625
-37.486949920654 -71.445381164551 -77.539924621582 2.000450611115
98.634872436523 -72.337661743164 -85.846885681152 0.824053525925
60.047664642334 -70.385421752930 -90.181625366211 1.796917676926
105.988334655762 -75.328186035156 -94.190177917480 4.284274578094
102.161308288574 -74.115745544434 -97.736175537109 1.756454229355
70.867706298828 -71.538932800293 -99.886863708496 2.489996910095
-79.771713256836 -71.483932495117 -101.264968872070 0.835494518280
53.576976776123 -72.345130920410 -103.049346923828 1.247617721558
105.685012817383 -70.391296386719 -105.139038085938 1.124291062355
47.119892120361 -72.974678039551 -111.238998413086 1.494064092636
79.404029846191 -71.044090270996 -104.589508056641 1.816338300705
41.102828979492 -71.423606872559 -106.985992431641 1.326802849770
104.613891601563 -71.429389953613 -102.914710998535 1.365260720253
46.968326568604 -70.947052001953 -107.642845153809 1.875221252441
107.392555236816 -74.866729736328 -109.973976135254 1.685348987579
109.044250488281 -73.490493774414 -111.816452026367 1.610509991646
-79.623916625977 -69.867904663086 -114.667106628418 1.276270031929
-83.363639831543 -70.039253234863 -119.207954406738 1.246164321899
43.425045013428 -74.001518249512 -120.245513916016 2.253134012222
113.285278320313 -73.004196166992 -119.717414855957 1.054893493652
113.308456420898 -71.168075561523 -123.197631835938 0.845956265926
-86.694679260254 -70.401000976563 -127.785537719727 1.527039408684
105.962997436523 -72.783241271973 -124.433532714844 3.457502841949
-59.730388641357 -74.109100341797 -132.168823242188 2.821831941605
-86.749015808105 -71.116981506348 -127.479225158691 1.783976554871
-74.315032958984 -70.726997375488 -127.999603271484 1.266917824745
-59.146884918213 -67.757141113281 -127.189567565918 1.299434423447
30.789630889893 -70.899703979492 -129.679183959961 1.860743522644
40.635456085205 -71.176445007324 -133.846389770508 2.456366300583
-74.772300720215 -70.676673889160 -137.408157348633 2.363130569458
28.121379852295 -70.327331542969 -131.641952514648 1.728803753853
110.449508666992 -71.645278930664 -141.180404663086 1.538658380508
-41.917549133301 -70.879776000977 -147.808334350586 2.264042854309
28.007951736450 -71.014869689941 -148.380050659180 0.783608675003
113.948188781738 -70.356826782227 -146.331283569336 1.638155460358
34.721778869629 -71.595764160156 -142.931030273438 1.883894205093
110.265922546387 -70.526206970215 -141.107269287109 1.454272031784
-53.197086334229 -71.659591674805 -149.604034423828 0.600934326649
-70.301025390625 -69.263870239258 -151.087158203125 0.951368212700
-53.994686126709 -71.421897888184 -153.972671508789 1.252323389053
-42.095985412598 -73.114295959473 -165.264205932617 2.877038955688
5.045040130615 -71.492286682129 -156.045104980469 1.705084681511
110.072937011719 -71.336090087891 -153.352813720703 2.012683391571
108.951309204102 -71.422248840332 -158.354492187500 1.637808918953
9.047612190247 -70.254402160645 -157.919906616211 2.050069332123
3.775901079178 -71.739242553711 -161.927276611328 1.294780492783
17.504848480225 -71.329277038574 -155.982849121094 2.260738611221
24.998472213745 -70.196876525879 -155.643112182617 1.229002118111
109.322723388672 -70.900291442871 -165.311645507813 1.330587983131
108.355484008789 -73.736213684082 -167.348342895508 1.674168467522
23.562908172607 -69.027809143066 -173.246093750000 1.549344539642
25.121667861938 -72.210350036621 -162.953720092773 2.823339462280
112.321052551270 -70.098541259766 -161.381576538086 1.925580620766
-28.887502670288 -70.132362365723 -176.317596435547 1.576026558876
109.634384155273 -71.390129089355 -167.505981445313 2.175208091736
16.988008499146 -71.692665100098 -169.298294067383 1.729660630226
21.460725784302 -70.907501220703 -166.779571533203 1.824155807495
108.602653503418 -71.307014465332 -172.583816528320 1.877012133598
25.962163925171 -70.468833923340 -170.590072631836 0.836524307728
111.135307312012 -71.316665649414 -182.335052490234 0.985730290413
-38.335571289063 -70.163497924805 -176.855758666992 2.267369031906
25.529565811157 -70.499343872070 -172.161621093750 1.252366185188
107.030578613281 -71.136047363281 -182.820816040039 1.521652340889
23.178197860718 -71.831832885742 -179.522369384766 0.851410865784
-152.423309326172 -69.383865356445 -187.715194702148 2.540002346039
-28.587856292725 -68.490669250488 -189.155548095703 1.081041216850
24.655929565430 -69.739677429199 -184.652420043945 2.025829076767
-112.848701477051 -71.246635437012 -192.328216552734 1.843767642975
-110.382881164551 -68.857337951660 -191.138946533203 1.425667166710
22.833250045776 -71.334297180176 -188.979248046875 0.833178460598
12.035110473633 -70.139350891113 -185.288757324219 2.630172014236
-26.971904754639 -69.311973571777 -190.273056030273 1.739357829094
-30.275888442993 -73.410881042480 -189.410415649414 0.593334019184
-27.622062683105 -70.967628479004 -186.752166748047 1.983714222908
15.773670196533 -69.692527770996 -179.905563354492 1.351034998894
-151.062728881836 -70.293525695801 -195.464065551758 1.173899054527
-144.887176513672 -70.242378234863 -194.157058715820 1.507187247276
-143.186355590820 -72.135200500488 -198.538879394531 1.814827442169
-22.626430511475 -70.043106079102 -191.561172485352 1.783453702927
13.026732444763 -69.568443298340 -199.483612060547 1.638112664223
98.968879699707 -70.931709289551 -193.418563842773 1.034526109695
-113.973457336426 -69.790496826172 -199.045822143555 1.858527302742
21.166978836060 -73.030410766602 -198.712371826172 1.694648146629
-16.489301681519 -70.091705322266 -196.218658447266 0.659472942352
-18.156982421875 -69.883377075195 -199.068450927734 2.265348434448
100.460037231445 -70.515975952148 -198.687652587891 1.886973500252
8.336512565613 -71.937324523926 -200.035919189453 2.120485305786
-21.971132278442 -69.302513122559 -196.551574707031 1.204958677292
-121.954231262207 -72.627899169922 -203.104446411133 1.535573363304
-134.104553222656 -70.171974182129 -204.234512329102 1.157579541206
-114.039276123047 -67.457725524902 -204.991928100586 1.106813192368
-142.260696411133 -72.085098266602 -204.449691772461 1.348705530167
17.840074539185 -70.545890808105 -197.679351806641 1.647349119186
94.442794799805 -71.790534973145 -202.716873168945 1.547197341919
-166.351882934570 -66.931343078613 -203.407516479492 1.899071335793
99.780654907227 -71.231025695801 -202.226104736328 0.842847526073
-20.654935836792 -72.980667114258 -206.796157836914 2.205900669098
94.469116210938 -70.306655883789 -211.013458251953 1.501069784164
87.882499694824 -71.801185607910 -212.491180419922 1.449355006218
13.013256072998 -71.732292175293 -207.795455932617 2.924502611160
19.061431884766 -70.775718688965 -211.445083618164 1.080927014351
12.396321296692 -68.982299804688 -207.650222778320 1.668054580688
-10.890645980835 -71.163482666016 -221.826385498047 0.947352230549
-94.882255554199 -71.329414367676 -218.564208984375 2.261978387833
-9.393563270569 -72.130554199219 -213.193374633789 1.016101360321
89.724945068359 -71.035659790039 -215.273193359375 1.673009753227
-93.063713073730 -71.673889160156 -219.112731933594 2.233631372452
-101.987327575684 -69.192420959473 -221.420074462891 1.474716305733
-93.388153076172 -71.756385803223 -220.492706298828 1.630739927292
87.584739685059 -71.866271972656 -221.361358642578 1.815369844437
-134.979675292969 -70.256607055664 -226.056686401367 1.067246079445
-133.285949707031 -72.097473144531 -226.986785888672 1.275625944138
-116.792800903320 -69.924156188965 -225.722808837891 1.522465825081
-112.965553283691 -68.117042541504 -225.091293334961 1.265584707260
-133.760604858398 -69.575721740723 -227.670349121094 2.570396423340
-110.741188049316 -75.009506225586 -227.836975097656 2.885044574738
-112.823196411133 -70.613868713379 -228.646194458008 1.949639558792
-6.774084091187 -72.802085876465 -225.360702514648 1.574641466141
-16.476661682129 -72.056518554688 -223.473815917969 1.672575473785
-1.071064949036 -69.639572143555 -231.072158813477 1.751330971718
-10.298157691956 -68.818077087402 -227.373687744141 1.064623832703
15.190325737000 -71.311660766602 -233.309310913086 0.725517451763
-17.925649642944 -69.645683288574 -229.239791870117 1.585178017616
-166.883605957031 -68.688484191895 -224.406204223633 1.443268895149
-3.279088973999 -70.226943969727 -233.481185913086 1.560279488564
80.651885986328 -69.384353637695 -230.336196899414 2.028722524643
10.313926696777 -72.072967529297 -234.093032836914 2.062675714493
-6.212334156036 -70.121345520020 -234.652770996094 0.873255074024
-156.675567626953 -68.265701293945 -237.966598510742 1.344529628754
-141.643859863281 -69.177268981934 -232.595748901367 1.411191582680
63.632526397705 -69.860679626465 -235.356628417969 1.843347668648
-5.693697929382 -71.669471740723 -234.988983154297 0.913006484509
8.178583145142 -72.352973937988 -231.917037963867 1.876335144043
69.359008789063 -72.375534057617 -232.019470214844 0.995935022831
77.030319213867 -71.986595153809 -233.945343017578 2.334944725037
70.687294006348 -71.991584777832 -240.570434570313 1.670379042625
-1.329614043236 -72.629013061523 -236.559112548828 0.896904945374
57.745727539063 -70.116134643555 -238.713348388672 2.698517084122
-18.781213760376 -72.444671630859 -239.768798828125 2.198338031769
-15.814658164978 -69.443122863770 -241.100280761719 0.876894772053
8.543429374695 -70.813262939453 -240.116333007813 0.953737616539
65.325599670410 -73.246887207031 -238.599761962891 0.803543925285
64.188537597656 -70.147857666016 -240.066497802734 1.574350833893
50.296855926514 -71.010101318359 -246.385177612305 2.541672468185
61.302463531494 -73.310623168945 -242.763793945313 1.356519699097
-15.593741416931 -73.535079956055 -250.421585083008 2.315152406693
-83.300727844238 -68.804710388184 -253.259307861328 1.013298153877
-76.697723388672 -68.953903198242 -253.097732543945 2.201380491257
44.491977691650 -72.958152770996 -248.329772949219 2.350186347961
-147.280029296875 -70.621597290039 -252.183425903320 1.975013375282
36.589828491211 -71.254570007324 -255.770721435547 1.833816647530
-91.748367309570 -72.392845153809 -252.611511230469 1.642198204994
-155.513717651367 -67.542015075684 -256.153991699219 1.966170191765
-140.524200439453 -66.372940063477 -255.072357177734 2.385624170303
46.481586456299 -71.231246948242 -253.167877197266 1.775367140770
-124.486991882324 -66.971214294434 -258.324981689453 1.134425282478
-116.233047485352 -69.825813293457 -256.646881103516 1.502470254898
-92.703269958496 -67.391990661621 -258.078704833984 2.093430280685
-13.992300987244 -68.879455566406 -252.291854858398 1.476594924927
31.864196777344 -70.827720642090 -257.881072998047 1.749128341675
25.067045211792 -69.099197387695 -259.931640625000 1.627885341644
-158.070281982422 -67.279281616211 -260.929412841797 3.034023523331
-114.723182678223 -72.466346740723 -263.489898681641 1.115538120270
-14.064763069153 -70.274482727051 -262.139404296875 0.238828480244
-133.185729980469 -70.124603271484 -266.045288085938 2.253897905350
-13.680098533630 -69.660751342773 -270.668518066406 0.634199857712
-165.512374877930 -69.145545959473 -274.434265136719 1.745841622353
-7.909182071686 -71.541778564453 -280.477966308594 1.702250719070
-161.207092285156 -69.801719665527 -289.006256103516 1.696246623993
-163.026107788086 -70.552146911621 -278.813568115234 2.445265054703
-142.589965820313 -69.954193115234 -286.289245605469 2.134209871292
-168.981124877930 -71.170501708984 -285.877868652344 1.658410429955
13.977942466736 -72.053161621094 -287.672302246094 1.504215955734
-102.974220275879 -70.875679016113 -287.442871093750 2.925669431686
-86.662765502930 -67.800239562988 -287.072296142578 1.376859784126
-166.997970581055 -67.878662109375 -286.039062500000 2.231990337372
-91.361412048340 -72.063369750977 -286.204925537109 3.357448816299
-152.157043457031 -70.055419921875 -289.152923583984 2.106788158417
-74.203193664551 -70.531745910645 -292.247985839844 3.112357139587
-69.459808349609 -69.828086853027 -289.328582763672 0.628435492516
-81.797523498535 -70.575828552246 -291.646484375000 1.532810091972
-3.636200904846 -67.868782043457 -289.836364746094 2.420942544937
-86.384513854980 -70.246345520020 -290.284881591797 2.455896139145
-98.651611328125 -70.859420776367 -292.063690185547 1.372460484505
-115.268043518066 -70.505729675293 -293.397033691406 1.463114857674
-116.293869018555 -68.475456237793 -293.572906494141 1.997348308563
-133.971923828125 -68.759872436523 -293.799652099609 1.984737634659
-142.886627197266 -70.623367309570 -301.902740478516 2.424861907959
-143.762649536133 -71.395797729492 -312.578582763672 1.166268229485
22.722721099854 -70.209777832031 -15.761466979980 2.988384962082
30.744729995728 -70.436637878418 -16.871770858765 1.341446757317
28.107212066650 -72.491607666016 -18.599994659424 1.599087238312
42.813472747803 -70.228347778320 -21.251722335815 1.540097117424
24.682958602905 -71.243606567383 -31.746736526489 2.324411630630
-75.827362060547 -68.393310546875 -48.002056121826 2.065991163254
89.046165466309 -67.865165710449 -64.622947692871 1.704012989998
-17.380117416382 -69.916664123535 -68.249496459961 2.117123126984
100.935890197754 -69.611473083496 -72.100540161133 1.670775175095
95.204483032227 -74.184417724609 -75.278396606445 1.901505708694
67.990959167480 -72.527793884277 -78.077148437500 1.721142292023
68.488502502441 -73.240692138672 -82.789001464844 2.061044454575
-45.547958374023 -73.083251953125 -83.243835449219 1.231968164444
60.796325683594 -72.694297790527 -83.025924682617 3.511905193329
-95.664093017578 -70.429496765137 -88.644798278809 2.387576103210
-50.854877471924 -68.476547241211 -86.291191101074 1.598607182503
-56.267700195313 -76.607437133789 -89.634239196777 2.075629949570
99.444946289063 -75.015289306641 -96.600517272949 1.937951207161
58.037040710449 -73.405838012695 -93.234786987305 1.445535778999
64.352661132813 -70.199424743652 -90.978187561035 2.066859722137
-97.031608581543 -66.032615661621 -97.467025756836 2.286429166794
107.106430053711 -71.969451904297 -93.893203735352 3.522350549698
44.484008789063 -69.788757324219 -98.722465515137 1.684941172600
100.281654357910 -70.842582702637 -97.625587463379 1.598741769791
105.881095886230 -69.721061706543 -105.320755004883 1.325402140617
101.387023925781 -71.272476196289 -104.724372863770 2.691950082779
73.044677734375 -72.015968322754 -101.502861022949 1.584629893303
86.937767028809 -72.602592468262 -105.426239013672 2.536082029343
49.219116210938 -71.297523498535 -111.161315917969 2.029201030731
110.086120605469 -70.266983032227 -103.980049133301 0.634223163128
44.778644561768 -72.059242248535 -106.072982788086 2.746166706085
41.194923400879 -68.872680664063 -101.264785766602 1.901293277740
111.771377563477 -71.073173522949 -109.827095031738 1.944322466850
-79.297264099121 -68.380264282227 -110.792358398438 0.524208962917
45.857955932617 -70.269828796387 -112.892601013184 1.863443017006
35.149375915527 -71.685783386230 -114.468444824219 1.454795598984
104.577468872070 -69.124359130859 -109.377220153809 2.691057443619
40.039810180664 -68.116790771484 -111.441345214844 2.209844827652
-89.139045715332 -69.321449279785 -114.616210937500 1.448062896729
-96.360443115234 -67.908622741699 -115.838851928711 2.651429414749
104.710983276367 -72.526741027832 -118.254165649414 2.317107439041
-95.240646362305 -71.399284362793 -119.241813659668 1.830957412720
38.150672912598 -71.401382446289 -121.480567932129 1.919132232666
36.690204620361 -69.958724975586 -119.650520324707 0.460286676884
-82.967025756836 -69.250160217285 -125.089309692383 2.388612985611
31.435096740723 -68.997711181641 -135.122909545898 1.236255764961
109.605438232422 -72.159912109375 -130.714553833008 0.459864795208
-52.700393676758 -69.505432128906 -135.089965820313 2.291328668594
-88.887710571289 -68.961044311523 -131.429443359375 1.368978500366
37.277191162109 -72.612556457520 -132.390090942383 1.684609174728
-90.850967407227 -66.300437927246 -136.158828735352 1.199132561684
-89.778259277344 -70.816307067871 -139.566513061523 3.254205226898
-49.766109466553 -71.563583374023 -137.582122802734 1.971410036087
-71.094924926758 -68.573036193848 -140.473861694336 1.054760932922
-51.115169525146 -68.830360412598 -134.522644042969 1.640301346779
113.976570129395 -68.959869384766 -137.631072998047 1.056855440140
-74.417190551758 -70.535240173340 -138.724060058594 1.124499917030
35.476177215576 -70.255744934082 -131.723159790039 1.139773130417
-79.166824340820 -69.318084716797 -140.185134887695 1.398202657700
-74.335784912109 -69.063621520996 -136.623428344727 1.219099521637
-90.243682861328 -67.919136047363 -139.661102294922 0.560472548008
-53.399925231934 -68.867675781250 -148.373596191406 0.930507063866
31.055419921875 -67.672172546387 -145.678543090820 1.145517945290
27.340442657471 -68.625450134277 -149.885543823242 0.771686077118
18.145105361938 -67.016464233398 -144.346557617188 0.398264497519
112.697669982910 -70.332015991211 -145.933822631836 1.978829503059
-95.177726745605 -68.278778076172 -153.705245971680 1.751793265343
13.872743606567 -71.607032775879 -152.524093627930 1.576134324074
-72.385108947754 -69.143295288086 -152.934417724609 1.337021231651
22.995765686035 -69.832038879395 -150.208511352539 1.703669071198
-49.308834075928 -68.982742309570 -155.878158569336 1.669045805931
9.118797302246 -69.012832641602 -153.000762939453 1.752271771431
13.836676597595 -71.792602539063 -158.077514648438 1.206855654716
18.000789642334 -73.138450622559 -164.003280639648 1.366954684258
-47.994155883789 -71.035057067871 -162.428558349609 1.522227048874
-39.831161499023 -69.295593261719 -154.885467529297 0.506762564182
-45.991680145264 -69.543151855469 -160.747711181641 1.515758156776
-104.125907897949 -69.462120056152 -172.025421142578 1.481153726578
21.500732421875 -70.556892395020 -173.599777221680 2.424057960510
-35.545520782471 -69.217155456543 -175.068283081055 0.807186603546
15.250410079956 -72.456031799316 -178.384048461914 2.023897171021
-144.509963989258 -69.470466613770 -176.398025512695 1.700228810310
-32.814918518066 -67.597404479980 -173.360000610352 1.233446836472
-154.389968872070 -71.551734924316 -178.475250244141 2.054347515106
22.532892227173 -67.416069030762 -181.973999023438 3.421924829483
-32.416072845459 -70.049827575684 -172.468002319336 1.466380596161
-108.311889648438 -68.397399902344 -179.457458496094 1.980465531349
-107.368934631348 -71.748992919922 -183.776321411133 3.050026416779
-29.743106842041 -66.754760742188 -185.194824218750 2.101579427719
-23.393148422241 -72.427085876465 -182.156585693359 1.288321733475
14.773407936096 -69.230316162109 -189.521820068359 2.504267692566
17.483942031860 -68.415420532227 -196.329086303711 2.029318571091
14.118553161621 -69.417243957520 -186.770309448242 2.373743057251
-143.151977539063 -68.793670654297 -188.711257934570 1.811566233635
20.019098281860 -67.678489685059 -190.139572143555 1.726164102554
8.549259185791 -70.179405212402 -196.851699829102 1.320112586021
-138.364028930664 -67.976554870605 -195.873321533203 2.802109241486
-115.347908020020 -69.029907226563 -196.205581665039 1.332332134247
14.811667442322 -68.847106933594 -199.776260375977 1.474048256874
-115.112998962402 -68.685150146484 -197.445358276367 1.277345657349
-107.943756103516 -66.394752502441 -192.667282104492 2.381602525711
-164.547454833984 -69.945770263672 -200.118270874023 0.821380376816
-24.301963806152 -69.237945556641 -200.371627807617 1.318230867386
14.103333473206 -68.931907653809 -200.687072753906 1.452341318130
-141.831848144531 -68.938491821289 -204.656753540039 1.174354791641
-134.672378540039 -69.710113525391 -206.634628295898 2.649253606796
-19.137952804565 -68.584526062012 -207.194458007813 0.884992420673
-11.631882667542 -70.854812622070 -204.284759521484 1.147263407707
-15.367221832275 -69.795532226563 -206.245529174805 1.977512955666
-142.074600219727 -70.935859680176 -206.266723632813 3.003178358078
-16.034481048584 -70.387428283691 -213.172317504883 0.580347180367
-11.253711700439 -71.748374938965 -214.340362548828 2.974912643433
17.278913497925 -68.284080505371 -210.955657958984 0.822946369648
-13.559285163879 -71.531707763672 -211.555923461914 2.206995487213
10.626634597778 -69.487525939941 -210.740753173828 1.873599410057
-9.890286445618 -70.119338989258 -216.075592041016 2.305532932281
-19.554176330566 -68.222152709961 -212.473693847656 3.867485523224
13.333879470825 -72.407745361328 -221.291687011719 1.797061562538
-0.973389983177 -73.255264282227 -220.349136352539 1.471307754517
11.357308387756 -67.559776306152 -221.774353027344 0.964591801167
-5.623225212097 -70.814086914063 -226.249298095703 0.856506347656
-157.691955566406 -68.945808410645 -225.430511474609 1.723110079765
81.108787536621 -71.739929199219 -220.226928710938 1.634160280228
-134.829849243164 -67.802879333496 -225.513580322266 0.443466812372
-134.739562988281 -69.874145507813 -224.799072265625 1.003667473793
-8.509692192078 -70.326950073242 -225.561645507813 1.937637209892
9.870838165283 -69.908676147461 -233.093994140625 1.895102381706
-155.921920776367 -68.474357604980 -229.463256835938 1.798094749451
87.289260864258 -69.445861816406 -219.773040771484 1.755136966705
-2.349358081818 -68.988029479980 -225.555343627930 1.088218331337
0.704966008663 -70.506324768066 -224.171524047852 1.404921650887
74.211441040039 -72.014106750488 -228.282867431641 1.685078144073
1.061434984207 -68.422248840332 -234.222900390625 0.500706791878
-15.112357139587 -71.654724121094 -228.755798339844 1.893893241882
-125.674934387207 -68.819183349609 -235.432815551758 2.356552839279
-3.435528039932 -69.635002136230 -236.495483398438 1.166886925697
2.627846002579 -68.178169250488 -233.210769653320 0.877034306526
66.213706970215 -69.267059326172 -238.342178344727 0.923962950706
-158.093643188477 -69.134613037109 -239.793777465820 2.351654052734
-11.723912239075 -70.052413940430 -244.500244140625 1.159597873688
-168.136657714844 -70.227813720703 -239.688385009766 1.226325035095
9.725451469421 -68.785133361816 -242.654968261719 1.044396758080
-164.902893066406 -68.795585632324 -240.118530273438 0.671620726585
-160.887542724609 -69.492172241211 -246.505416870117 1.277497410774
56.708808898926 -69.607429504395 -245.456253051758 0.925527334213
63.284118652344 -70.718338012695 -242.945037841797 2.067147970200
56.807144165039 -70.256515502930 -243.736328125000 1.768626451492
52.251686096191 -69.939994812012 -248.709472656250 1.164420962334
-156.520126342773 -68.898254394531 -245.664443969727 1.413383364677
-156.335372924805 -67.627662658691 -250.478179931641 2.116513729095
-13.497249603271 -71.070640563965 -249.731765747070 0.615436136723
-151.459182739258 -68.640434265137 -247.312561035156 0.930575788021
20.872877120972 -71.827575683594 -251.478424072266 1.350699067116
-168.548797607422 -71.716369628906 -251.929672241211 1.609297752380
-166.533447265625 -67.365394592285 -248.230026245117 2.241052865982
-81.792572021484 -69.999488830566 -250.548828125000 1.626883983612
-168.347396850586 -68.725013732910 -261.942169189453 0.482799917459
-85.195030212402 -68.779869079590 -256.577362060547 2.361778736115
42.616683959961 -69.454696655273 -253.086685180664 1.477283835411
22.890878677368 -72.892105102539 -255.935333251953 0.571203827858
-158.721633911133 -69.081718444824 -262.097595214844 1.788798928261
-100.223136901855 -65.351013183594 -260.151794433594 2.231640815735
39.244228363037 -70.556434631348 -256.487976074219 1.085550665855
-103.220031738281 -73.248207092285 -260.294799804688 1.731603026390
