-47.502349853516 -77.025138854980 -189.429443359375 1.211914062500
-147.848098754883 -81.243309020996 -199.240188598633 1.044937491417
-45.589256286621 -77.609931945801 -198.520309448242 1.360768437386
-145.023880004883 -78.397346496582 -199.374816894531 0.842442810535
-136.027313232422 -74.889450073242 -201.379013061523 0.357781827450
-44.109577178955 -78.411735534668 -198.312026977539 1.514802813530
11.173656463623 -78.663703918457 -208.679992675781 1.713358759880
-16.359210968018 -76.740058898926 -204.896560668945 0.348645359278
15.884848594666 -76.871681213379 -202.425308227539 1.084766983986
92.371620178223 -79.748588562012 -210.296432495117 3.174197673798
-36.539993286133 -76.813644409180 -201.982406616211 1.410764098167
-11.318998336792 -77.617668151855 -207.094741821289 1.686643719673
-12.845922470093 -76.896453857422 -212.368194580078 1.854450702667
-36.647842407227 -77.629570007324 -207.467834472656 0.819563865662
9.552845954895 -77.441116333008 -206.177352905273 1.191223263741
-76.508110046387 -76.257682800293 -210.884368896484 1.245647192001
15.746339797974 -78.208213806152 -213.598815917969 1.980923414230
-35.158252716064 -77.140594482422 -207.232849121094 0.837331712246
-144.548995971680 -78.137916564941 -210.203979492188 1.476321578026
-143.973526000977 -73.701904296875 -212.377090454102 2.113390684128
-86.785865783691 -77.321655273438 -213.920974731445 0.819774627686
-35.148666381836 -76.102996826172 -211.246414184570 3.070568084717
-20.775388717651 -80.078933715820 -213.402038574219 3.751659154892
-30.509201049805 -77.872764587402 -210.807846069336 0.921282351017
-91.384056091309 -77.243927001953 -217.844604492188 1.868003964424
-87.726638793945 -77.623153686523 -216.178314208984 1.247744321823
8.514087677002 -79.915710449219 -221.146789550781 1.422258138657
-149.805648803711 -74.358032226563 -216.278152465820 1.032463550568
-12.903077125549 -79.175636291504 -213.756622314453 0.972470045090
8.732411384583 -81.302124023438 -218.624740600586 1.455267310143
-144.569976806641 -75.922264099121 -219.704925537109 2.805119991302
-20.863988876343 -78.673988342285 -218.951904296875 1.335674047470
-1.638159990311 -76.535606384277 -221.809524536133 1.234732866287
-4.899442195892 -78.833389282227 -219.571945190430 1.617031812668
-152.284606933594 -75.190994262695 -225.239089965820 2.520676851273
-138.063980102539 -72.626838684082 -227.575515747070 3.121220350266
-5.717577934265 -77.971481323242 -223.893234252930 2.198907375336
-148.737442016602 -81.171218872070 -228.895843505859 1.168303847313
1.718176007271 -75.499931335449 -230.691162109375 1.351351261139
17.216360092163 -77.713836669922 -233.939239501953 1.105348587036
-0.738677978516 -78.316886901855 -232.570770263672 3.075369119644
0.403948992491 -74.927940368652 -235.499145507813 2.257903337479
7.943981170654 -77.954673767090 -232.258483886719 1.664721965790
-150.909408569336 -76.670867919922 -237.888122558594 2.197859048843
-19.304702758789 -76.304397583008 -237.119216918945 2.949046134949
-34.658008575439 -78.615539550781 -239.743591308594 1.858755230904
4.713735103607 -76.208351135254 -233.363571166992 1.339391589165
0.985925018787 -79.611259460449 -239.554367065430 2.282015800476
3.450742959976 -77.391159057617 -234.925186157227 2.128053426743
-55.177749633789 -76.170806884766 -243.349899291992 0.537980258465
-148.754562377930 -74.909469604492 -248.129333496094 3.029500007629
-151.590530395508 -77.143043518066 -248.967437744141 2.054299592972
10.424249649048 -78.858360290527 -247.112014770508 0.667981326580
23.031774520874 -78.364128112793 -247.925659179688 1.149038434029
-60.062629699707 -75.748878479004 -248.815322875977 0.637644708157
-143.936248779297 -78.855140686035 -253.759170532227 1.336964964867
-152.892089843750 -78.386955261230 -255.562423706055 2.560724735260
-150.976058959961 -81.181068420410 -258.616455078125 2.717208147049
-141.920364379883 -74.749511718750 -262.328125000000 0.625159502029
-138.354827880859 -76.255531311035 -257.704650878906 1.754230856895
-9.919420242310 -78.006469726563 -257.131866455078 1.989125609398
-144.032241821289 -77.581459045410 -264.161102294922 2.460998058319
-12.133619308472 -78.191375732422 -265.574188232422 0.876707255840
-146.949127197266 -75.681640625000 -275.956695556641 2.081370830536
-146.961547851563 -76.180030822754 -283.478851318359 0.924964189529
-149.286224365234 -75.552299499512 -283.969085693359 2.554645061493
-2.980144023895 -74.057006835938 -285.252075195313 1.309035897255
-144.122314453125 -72.564819335938 -286.310760498047 1.464989900589
-28.972110748291 -76.975845336914 -287.312347412109 2.176130056381
-29.599918365479 -75.755393981934 -287.644500732422 2.165443897247
-15.583671569824 -75.800209045410 -290.957916259766 1.286705255508
-10.791739463806 -75.565513610840 -290.194793701172 1.205751776695
14.258462905884 -78.592994689941 -291.867919921875 1.710850000381
-124.823425292969 -76.394355773926 -290.478698730469 1.303002595901
-57.773593902588 -76.301193237305 -288.954833984375 0.536800861359
-39.183113098145 -75.477645874023 -290.101440429688 1.662580490112
-31.714633941650 -77.269058227539 -289.530212402344 2.082886457443
-8.737608909607 -76.015419006348 -291.861419677734 2.006289243698
5.551739215851 -77.241958618164 -288.991333007813 1.977554321289
-142.504989624023 -77.669219970703 -295.729034423828 4.257800579071
9.907088279724 -77.328041076660 -292.994873046875 2.701704263687
-151.626190185547 -74.726135253906 -302.517517089844 3.374971866608
-150.426040649414 -77.799240112305 -302.297180175781 1.290493726730
-152.167755126953 -74.236137390137 -312.408843994141 1.809159874916
-144.610534667969 -75.326904296875 -311.612854003906 1.318554759026
-50.683864593506 -77.283897399902 -54.555473327637 2.927213668823
-56.241275787354 -79.106597900391 -57.052139282227 3.162547826767
-65.416183471680 -76.716026306152 -56.425094604492 1.439608454704
-42.638179779053 -77.205078125000 -60.677528381348 1.743517398834
-37.270027160645 -77.672744750977 -59.920509338379 1.000839233398
-21.649923324585 -77.142402648926 -69.074119567871 1.037550926208
-82.737037658691 -76.427925109863 -69.346481323242 2.775274753571
82.664390563965 -79.220573425293 -78.453880310059 3.382581949234
-90.163505554199 -76.629470825195 -80.099693298340 1.898576140404
82.064109802246 -78.620109558105 -80.379890441895 1.348993897438
86.040771484375 -77.286766052246 -83.782318115234 1.782059907913
94.363014221191 -77.434623718262 -87.249824523926 2.225625038147
-59.849758148193 -81.142372131348 -96.110618591309 2.082614898682
82.823631286621 -78.599349975586 -95.174140930176 2.980189800262
78.090034484863 -80.330894470215 -92.357299804688 2.394498586655
86.671340942383 -79.450309753418 -90.350189208984 1.798053383827
-62.059570312500 -79.737777709961 -98.143066406250 2.037832021713
51.425453186035 -77.604209899902 -97.622283935547 1.727817773819
45.717147827148 -78.482162475586 -106.845558166504 2.212609291077
40.867824554443 -78.977401733398 -104.800422668457 2.750573635101
37.498077392578 -78.515197753906 -106.503982543945 2.269502878189
-91.410392761230 -75.696197509766 -110.198562622070 1.335784196854
36.042789459229 -77.802314758301 -117.662849426270 1.711560130119
-84.877227783203 -78.022949218750 -110.332168579102 1.528588652611
42.102069854736 -79.791839599609 -124.585922241211 1.245738148689
33.890048980713 -78.997230529785 -122.217498779297 1.522275209427
33.759063720703 -74.639755249023 -122.101501464844 1.955657958984
43.237991333008 -77.898948669434 -119.410560607910 0.772018492222
40.044273376465 -79.694786071777 -127.559806823730 2.583707094193
-52.713027954102 -73.701881408691 -136.169128417969 0.811299562454
36.602760314941 -79.877479553223 -135.504455566406 1.596182465553
36.228137969971 -77.591667175293 -142.933944702148 0.771923124790
-53.023559570313 -74.852729797363 -141.607864379883 2.639135599136
-46.905338287354 -77.208702087402 -141.255523681641 0.665090262890
34.916500091553 -78.218772888184 -143.651748657227 0.302973479033
111.267135620117 -76.490959167480 -141.722030639648 2.134264707565
113.440803527832 -76.964515686035 -143.260467529297 2.283316135406
26.705844879150 -78.699745178223 -143.809646606445 1.163438796997
-41.309097290039 -78.440032958984 -149.653640747070 0.457051813602
113.630882263184 -81.050964355469 -153.961181640625 4.595303535461
-39.498474121094 -76.201881408691 -153.945404052734 1.583061933517
-67.854026794434 -77.104034423828 -160.145950317383 2.104227066040
110.835647583008 -80.248939514160 -159.936553955078 3.428490877151
22.968242645264 -77.793220520020 -164.249801635742 1.308137655258
0.533793985844 -78.552864074707 -163.440765380859 1.456947207451
112.470298767090 -78.598670959473 -155.580566406250 2.006377220154
-63.984714508057 -76.510917663574 -165.477111816406 1.359210491180
-37.308910369873 -76.848075866699 -162.580200195313 1.345784902573
112.879241943359 -78.205146789551 -164.629608154297 2.767252683640
29.160257339478 -75.705200195313 -158.895446777344 1.542209148407
-62.818328857422 -73.553230285645 -166.602249145508 1.346305608749
111.859519958496 -78.780334472656 -166.716873168945 2.081851482391
-64.750801086426 -78.427795410156 -169.249984741211 2.520105600357
-50.597881317139 -78.381301879883 -180.082489013672 1.428215861320
106.588188171387 -77.248779296875 -171.739807128906 2.419434309006
-59.611068725586 -75.458190917969 -170.881210327148 0.840902626514
111.791870117188 -77.921241760254 -175.482101440430 0.347145587206
-60.007637023926 -76.770866394043 -175.285873413086 2.122539043427
-14.121958732605 -75.988227844238 -177.955551147461 1.609822869301
-11.639668464661 -79.806884765625 -180.581619262695 2.465070486069
108.153839111328 -79.155586242676 -170.480880737305 2.049231052399
21.208555221558 -77.868461608887 -172.404663085938 0.510289728642
29.364036560059 -75.959136962891 -170.795684814453 2.268624544144
-56.300025939941 -76.067733764648 -177.587844848633 1.851801633835
19.125064849854 -76.627487182617 -182.528182983398 0.476962715387
-57.453983306885 -76.480041503906 -176.872833251953 1.467437148094
-51.048122406006 -75.810485839844 -189.449462890625 1.443591356277
13.892040252686 -76.138160705566 -183.926422119141 1.919085860252
-57.365642547607 -74.998924255371 -181.333618164063 1.438584566116
107.587577819824 -77.225791931152 -186.108901977539 3.863981246948
24.335300445557 -78.312705993652 -181.527999877930 1.994672894478
-32.489643096924 -75.571937561035 -189.087265014648 0.906215608120
-42.085273742676 -77.303390502930 -192.240173339844 0.749535739422
11.550345420837 -77.459953308105 -193.956481933594 2.270561933517
-18.159460067749 -77.877441406250 -190.929550170898 2.064419269562
-49.107749938965 -77.573394775391 -194.754592895508 1.286768317223
103.495872497559 -79.763664245605 -184.352005004883 3.299215555191
14.353465080261 -78.444595336914 -191.205566406250 1.593122720718
-133.872039794922 -78.018745422363 -199.278747558594 1.773195147514
-43.685840606689 -78.247344970703 -194.486572265625 2.009203910828
96.832740783691 -77.716430664063 -199.111785888672 1.178815841675
-147.826690673828 -80.779502868652 -202.851074218750 2.713685750961
18.725200653076 -77.342170715332 -196.498779296875 0.730484485626
-41.791488647461 -75.104019165039 -205.815414428711 2.952428340912
-31.168481826782 -78.227348327637 -205.493927001953 1.464289426804
-36.675228118896 -76.819732666016 -204.715438842773 1.893368244171
-43.626003265381 -78.748031616211 -197.729644775391 1.040007591248
100.356147766113 -78.108573913574 -202.724182128906 2.612975358963
-19.647098541260 -78.195579528809 -202.589752197266 1.170124411583
-149.789321899414 -75.888313293457 -204.762924194336 1.489874243736
16.551729202271 -77.902969360352 -204.963516235352 1.843310713768
-75.992485046387 -79.581581115723 -208.463180541992 1.497909784317
-147.640762329102 -74.960838317871 -212.139022827148 1.402034282684
96.138893127441 -77.923660278320 -211.088958740234 2.122771978378
-32.250785827637 -75.863914489746 -207.786392211914 0.930233359337
-28.414201736450 -76.705726623535 -213.973159790039 1.648998737335
8.800285339355 -77.898262023926 -211.339523315430 1.446910262108
-70.817604064941 -78.298530578613 -211.686279296875 1.233900308609
-28.281766891479 -79.830642700195 -209.429031372070 0.520296037197
-5.367846012115 -77.183181762695 -215.773757934570 1.355227470398
-72.842689514160 -77.996337890625 -215.027221679688 1.758000373840
-13.969776153564 -76.942703247070 -217.838226318359 1.013879537582
8.577392578125 -73.376342773438 -213.426254272461 1.773951888084
16.077980041504 -78.531188964844 -220.396820068359 1.283950567245
-148.555816650391 -76.340065002441 -217.558883666992 1.809416770935
-7.395390987396 -76.657592773438 -215.143432617188 2.030080795288
-96.517890930176 -73.017677307129 -221.180389404297 2.291201353073
-21.213502883911 -76.040107727051 -220.479812622070 2.325765848160
91.281059265137 -80.094581604004 -212.013229370117 3.250823736191
7.603952884674 -76.354553222656 -226.801803588867 0.497402161360
18.401096343994 -76.215805053711 -217.055511474609 1.506237983704
81.786087036133 -77.789978027344 -219.031265258789 3.715049028397
1.618873953819 -77.882606506348 -228.190872192383 0.560242831707
86.510612487793 -77.811767578125 -217.493515014648 1.521152973175
-17.628297805786 -75.269378662109 -223.278015136719 1.579037904739
15.946997642517 -76.320503234863 -219.973648071289 1.061786651611
-146.005157470703 -76.985771179199 -222.829528808594 1.441261529922
-20.906248092651 -77.807205200195 -225.454391479492 1.717012047768
2.196604013443 -76.888069152832 -228.740051269531 1.453861713409
-154.818969726563 -78.655525207520 -228.194427490234 2.030819416046
-136.080612182617 -76.090736389160 -229.157135009766 2.207643032074
6.817585945129 -76.801284790039 -225.677505493164 1.476632237434
-3.468396902084 -75.711799621582 -230.318634033203 1.371713876724
-135.740814208984 -74.001724243164 -231.560165405273 1.567828655243
-145.503662109375 -76.374977111816 -238.508972167969 2.503679275513
-146.801773071289 -75.516281127930 -237.052139282227 2.562889814377
-32.053440093994 -76.984855651855 -238.555908203125 1.526372790337
-144.411483764648 -76.329978942871 -243.343338012695 2.979293584824
19.483394622803 -77.096343994141 -242.069961547852 1.299383163452
5.634345054626 -76.718971252441 -243.870239257813 0.991735160351
-149.646499633789 -73.085464477539 -237.539352416992 2.897247314453
-148.473342895508 -75.678855895996 -244.422531127930 2.278851985931
-46.296066284180 -77.206192016602 -243.677383422852 1.871376633644
-30.789178848267 -77.297027587891 -245.507843017578 3.198979616165
5.568140983582 -78.068923950195 -245.530364990234 1.017130017281
-37.474834442139 -77.208778381348 -245.932220458984 1.663237214088
23.238971710205 -77.394424438477 -247.487365722656 0.528475821018
-4.669404029846 -78.809616088867 -250.606842041016 1.365982890129
-147.540756225586 -75.733703613281 -253.645278930664 2.848649978638
-7.601715087891 -79.628570556641 -252.207458496094 1.861160159111
-146.796936035156 -74.737998962402 -251.233901977539 1.502413868904
-66.385383605957 -77.001914978027 -250.260665893555 2.503827095032
-148.239822387695 -81.803939819336 -260.724060058594 0.708880662918
-125.752906799316 -75.002265930176 -259.663360595703 1.554648399353
-149.744918823242 -73.170394897461 -260.588012695313 1.377142310143
-11.548898696899 -74.599548339844 -266.568572998047 3.585991144180
-145.512054443359 -78.483528137207 -268.791839599609 1.783026218414
-149.292327880859 -75.683021545410 -267.893310546875 2.444881439209
-9.901018142700 -77.781227111816 -270.665069580078 1.437229633331
-145.438644409180 -75.791137695313 -271.822906494141 3.300974607468
-3.870829105377 -76.415115356445 -278.861022949219 2.271530628204
-45.402095794678 -75.741111755371 -286.485260009766 3.059959173203
-133.398773193359 -74.261520385742 -289.368774414063 2.204291820526
-133.076141357422 -74.295578002930 -286.933105468750 1.291866898537
-124.513206481934 -73.726455688477 -285.886688232422 1.517451882362
-52.099025726318 -75.237586975098 -287.185974121094 1.815908074379
-113.414314270020 -73.296165466309 -287.638885498047 1.003940820694
16.638782501221 -76.265373229980 -290.891723632813 1.437271833420
-58.247947692871 -74.817176818848 -289.425476074219 2.127029418945
-140.745559692383 -74.363243103027 -292.339172363281 2.413817882538
-61.702217102051 -74.808532714844 -290.853332519531 2.314309120178
-142.633819580078 -77.888381958008 -292.930389404297 1.883303761482
-116.435928344727 -74.051155090332 -291.223022460938 1.612514853477
-46.113315582275 -76.503028869629 -291.047302246094 1.827112913132
-33.905452728271 -76.200630187988 -291.603515625000 2.144849300385
-134.351043701172 -73.450065612793 -293.774108886719 2.080739974976
-11.161776542664 -74.333747863770 -288.269348144531 1.993077754974
3.020143985748 -76.274208068848 -290.199645996094 1.120195150375
7.264411926270 -75.796623229980 -291.735992431641 1.615114331245
15.900154113770 -76.983459472656 -294.550720214844 1.873337984085
-148.889419555664 -76.458328247070 -297.634277343750 1.146316647530
-146.183090209961 -73.807388305664 -298.347442626953 0.691683471203
-68.788497924805 -77.056755065918 -61.396484375000 1.431040287018
87.660194396973 -78.332817077637 -74.045349121094 4.083022594452
78.541900634766 -78.516082763672 -76.522735595703 3.594745635986
-27.043706893921 -78.592254638672 -77.281555175781 2.790068387985
84.199417114258 -76.999282836914 -75.979164123535 2.572679996490
-36.393318176270 -78.235733032227 -80.675926208496 1.568063974380
85.952163696289 -77.232101440430 -79.754249572754 2.104463815689
93.888984680176 -76.901123046875 -81.243789672852 1.457187056541
-64.985237121582 -71.256881713867 -94.678207397461 1.494493246078
74.562889099121 -78.009735107422 -93.753746032715 2.809711694717
80.462585449219 -77.120552062988 -97.153633117676 2.840001583099
93.474754333496 -79.162460327148 -94.382591247559 2.846349239349
55.199111938477 -78.306221008301 -97.968070983887 2.251331329346
-72.823173522949 -77.681533813477 -102.165245056152 2.118413209915
-74.660026550293 -72.597137451172 -102.193763732910 1.236571907997
49.494201660156 -78.797462463379 -105.004676818848 2.090166807175
-89.956550598145 -78.028007507324 -105.097862243652 2.311715602875
45.709739685059 -76.642036437988 -117.451835632324 1.780557870865
110.667472839355 -77.280998229980 -118.527381896973 1.461129426956
112.527160644531 -78.803146362305 -131.265136718750 2.857677459717
24.968027114868 -76.143768310547 -138.332077026367 1.243098616600
110.420806884766 -78.322769165039 -126.496749877930 1.814299225807
27.555356979370 -76.551956176758 -134.453964233398 1.735375046730
113.658508300781 -75.352256774902 -129.941802978516 0.609802961349
38.303256988525 -76.748558044434 -134.761672973633 1.821563720703
-52.733356475830 -77.288368225098 -143.324386596680 1.782012462616
35.480304718018 -77.613098144531 -143.139312744141 1.205997943878
109.602676391602 -76.353027343750 -136.872863769531 2.178172111511
-48.770877838135 -75.919136047363 -145.030685424805 1.547372698784
32.378051757813 -76.974807739258 -148.922241210938 2.024321317673
-56.025478363037 -73.866828918457 -140.558166503906 1.760118842125
-54.910118103027 -77.032653808594 -147.298095703125 1.085929155350
-50.882133483887 -77.861450195313 -150.378463745117 1.791173934937
-64.495620727539 -77.814559936523 -156.847824096680 1.024109601974
114.187149047852 -79.323509216309 -148.074493408203 3.072730541229
-50.039440155029 -79.045410156250 -155.985260009766 2.665759563446
22.358497619629 -79.070831298828 -155.558441162109 2.440981388092
109.490058898926 -78.033531188965 -158.631790161133 1.328122973442
-66.104598999023 -75.608642578125 -156.696197509766 1.082481384277
-45.976707458496 -77.188003540039 -156.956741333008 0.794911921024
8.744125366211 -74.913375854492 -155.189666748047 1.602621793747
-67.250328063965 -75.741851806641 -158.863159179688 0.349094539881
-61.851970672607 -77.136215209961 -161.213516235352 1.192628622055
-0.418408006430 -76.832183837891 -162.567565917969 2.023059844971
-41.880863189697 -75.202201843262 -167.953186035156 2.788665294647
30.619243621826 -75.425956726074 -165.531433105469 1.693207383156
-62.034297943115 -74.763267517090 -167.155822753906 0.901717126369
-56.591976165771 -76.991050720215 -168.485900878906 1.525072336197
18.376918792725 -78.066871643066 -161.064468383789 2.963365077972
-30.605304718018 -76.250106811523 -169.667190551758 1.681474685669
-29.501258850098 -78.085868835449 -167.637344360352 1.280274868011
16.717796325684 -77.365638732910 -174.911712646484 1.799568653107
-41.055355072021 -77.738449096680 -173.481842041016 1.452252507210
-11.202440261841 -76.857582092285 -173.258911132813 0.637225031853
-61.604911804199 -74.387702941895 -172.938476562500 1.629997014999
-5.581536769867 -74.699951171875 -172.560867309570 1.376326680183
-22.324220657349 -76.833580017090 -180.171829223633 1.790326118469
23.769296646118 -75.457885742188 -182.275253295898 1.486155867577
-38.620403289795 -76.463562011719 -172.715698242188 1.267007946968
19.571018218994 -74.798004150391 -177.718734741211 2.188518047333
-22.464643478394 -73.533927917480 -184.414245605469 1.997741460800
-31.918659210205 -77.513145446777 -181.070785522461 2.095034360886
-147.070388793945 -74.375457763672 -189.320541381836 1.594009995461
-20.203769683838 -78.259834289551 -185.912460327148 1.550127506256
-142.664688110352 -74.557518005371 -189.580780029297 2.952539443970
-150.719940185547 -74.592254638672 -188.288452148438 2.707054376602
-47.687458038330 -74.900939941406 -187.932388305664 2.652441501617
98.774971008301 -76.785728454590 -194.538116455078 3.040330171585
-144.249145507813 -75.716056823730 -193.273880004883 0.979106366634
-150.232040405273 -75.033416748047 -197.379501342773 2.735841989517
22.046773910522 -75.911781311035 -197.682281494141 2.436751127243
-136.138504028320 -74.491134643555 -198.346603393555 1.881944417953
17.551553726196 -74.729682922363 -198.774749755859 2.363910436630
-139.377655029297 -75.337638854980 -199.419921875000 1.205032944679
13.544306755066 -74.764808654785 -197.133239746094 1.748809337616
-134.038909912109 -73.257629394531 -200.318908691406 0.462746024132
7.296647071838 -75.297462463379 -205.682250976563 1.991121172905
-149.687179565430 -74.637794494629 -205.963317871094 0.649455428123
94.484779357910 -76.871368408203 -204.641159057617 1.265314459801
-15.025951385498 -77.637786865234 -204.836151123047 1.748963594437
-29.814350128174 -75.278213500977 -207.977142333984 1.778038620949
-10.079663276672 -74.659225463867 -206.051818847656 1.843684434891
-147.459289550781 -76.525337219238 -212.539566040039 1.181107997894
-34.911987304688 -75.912330627441 -205.622650146484 0.884412407875
-81.847946166992 -77.112617492676 -208.790222167969 2.100521802902
-26.263608932495 -76.902381896973 -209.927078247070 1.834837436676
17.718229293823 -76.359916687012 -211.153030395508 2.457461118698
-146.818466186523 -74.484313964844 -214.637680053711 2.231301546097
-89.904655456543 -75.701919555664 -216.742126464844 1.071750283241
-29.163034439087 -74.869567871094 -215.707580566406 1.631495833397
-25.596132278442 -74.972892761230 -219.548202514648 1.569594502449
-11.751502037048 -76.829521179199 -212.539215087891 1.826698780060
-26.905536651611 -75.285667419434 -211.578155517578 0.655224084854
-81.496994018555 -75.214820861816 -218.975677490234 3.622845888138
-86.938171386719 -77.598518371582 -219.149139404297 1.600026488304
-23.077850341797 -75.680290222168 -220.473754882813 1.431519985199
-1.533488988876 -78.900039672852 -222.998916625977 1.597886085510
-151.240325927734 -75.230674743652 -218.166336059570 2.696996212006
-1.825431942940 -77.359115600586 -219.836669921875 1.071762681007
86.099807739258 -78.498397827148 -224.851547241211 2.641128301620
-140.913436889648 -76.665428161621 -225.330856323242 1.434710264206
-7.134421825409 -76.868171691895 -223.367858886719 1.033428311348
-140.228225708008 -75.838768005371 -227.341674804688 1.390483260155
-146.545227050781 -81.555252075195 -227.528137207031 1.429026603699
-5.878542900085 -74.737068176270 -229.756393432617 1.581550002098
18.464057922363 -76.308341979980 -219.595367431641 0.647469878197
-139.732009887695 -73.944908142090 -230.399642944336 1.574558377266
-15.645285606384 -76.290565490723 -229.262603759766 1.572558999062
76.704162597656 -77.086540222168 -226.840332031250 2.082353830338
76.859779357910 -76.336303710938 -232.136077880859 2.340074539185
9.555448532104 -76.808471679688 -231.220306396484 2.289626598358
-28.620084762573 -76.995254516602 -237.735733032227 2.923363924026
-19.607925415039 -79.403572082520 -241.425521850586 2.011252641678
5.449800014496 -74.579498291016 -243.483566284180 0.957331895828
-46.843929290771 -73.396476745605 -243.004516601563 1.764674544334
-21.829534530640 -75.006286621094 -243.342758178711 2.651181459427
9.443299293518 -74.813575744629 -242.310012817383 1.957863926888
-62.739467620850 -75.473709106445 -246.040939331055 0.844717085361
-32.084808349609 -77.179214477539 -244.223724365234 1.446660161018
-40.799835205078 -73.892639160156 -245.689620971680 1.880267262459
-148.717193603516 -73.839416503906 -247.159088134766 1.951016306877
-45.590728759766 -77.048645019531 -248.020675659180 2.126778602600
-52.570091247559 -72.871810913086 -248.541336059570 3.320327997208
-65.793472290039 -75.379631042480 -250.717086791992 1.996626853943
-10.082104682922 -77.201515197754 -249.711624145508 1.926331400871
-79.693496704102 -75.254653930664 -254.107055664063 1.617141604424
-154.785751342773 -78.484497070313 -256.621551513672 2.176164627075
-140.775070190430 -74.949752807617 -256.637603759766 1.951824426651
-123.332710266113 -75.176856994629 -261.292388916016 1.668543815613
-154.499832153320 -71.527549743652 -263.142395019531 1.958248853683
21.209861755371 -78.802345275879 -264.615539550781 1.998903632164
-12.412766456604 -76.875267028809 -268.768280029297 1.284922480583
-151.256530761719 -76.327888488770 -273.365203857422 1.880180120468
-150.566116333008 -78.104804992676 -278.893768310547 1.103772878647
-143.870437622070 -77.593444824219 -285.954406738281 2.347202777863
-57.098686218262 -72.448806762695 -284.253570556641 3.143719673157
-37.574481964111 -73.219963073730 -286.605010986328 1.644329547882
-22.128932952881 -73.341560363770 -287.981597900391 3.006488561630
-10.542385101318 -74.015205383301 -284.349548339844 2.281749248505
-64.728485107422 -76.156669616699 -287.150543212891 2.609429597855
-78.832466125488 -75.742866516113 -287.444732666016 1.449805855751
-2.303503990173 -76.154579162598 -286.210083007813 1.361950397491
7.398238182068 -76.032562255859 -289.879180908203 1.213260412216
-136.226013183594 -73.504196166992 -289.799041748047 1.174239993095
-77.824234008789 -73.468795776367 -288.655670166016 2.355247735977
-146.428863525391 -73.890472412109 -289.309844970703 2.785405158997
-93.291244506836 -77.324150085449 -288.391387939453 2.756590127945
-77.509925842285 -74.308998107910 -288.820556640625 1.906689524651
-83.459983825684 -72.967124938965 -293.278198242188 2.599050045013
-59.984004974365 -74.434013366699 -291.622833251953 2.573759555817
-26.761676788330 -72.186836242676 -293.454895019531 2.630646228790
-4.362287998199 -74.897064208984 -291.967956542969 2.577886104584
-151.710144042969 -70.683303833008 -297.135467529297 2.019114017487
-149.741119384766 -73.157150268555 -301.203826904297 3.931469917297
-144.253921508789 -74.295249938965 -303.582885742188 1.662894606590
-154.829772949219 -73.796394348145 -307.459075927734 2.253701686859
-57.295364379883 -75.135711669922 -55.886375427246 1.413783431053
-46.509567260742 -75.350860595703 -53.605541229248 1.910446405411
-39.184219360352 -76.539962768555 -55.426456451416 3.065622091293
-76.389976501465 -77.153343200684 -60.709930419922 1.650881886482
-28.933525085449 -75.851699829102 -63.489170074463 2.459859132767
-31.997585296631 -76.309242248535 -79.812751770020 2.154910802841
75.202995300293 -79.017517089844 -80.968223571777 3.929258823395
75.352127075195 -78.408416748047 -80.947952270508 3.354653596878
74.218750000000 -76.970932006836 -83.879615783691 2.525777339935
97.573822021484 -75.856147766113 -89.660995483398 2.027382135391
71.591506958008 -78.549911499023 -89.425247192383 3.447011947632
51.599372863770 -77.869949340820 -91.562850952148 3.653739213943
49.099960327148 -80.116615295410 -100.076835632324 2.907799005508
-67.123847961426 -75.637939453125 -101.113861083984 1.213701486588
-72.556388854980 -70.487648010254 -102.384231567383 2.204056262970
45.062160491943 -77.751998901367 -103.358131408691 1.809458255768
-82.280029296875 -79.404304504395 -109.723243713379 2.596782684326
-93.312919616699 -74.210777282715 -112.501365661621 1.239449977875
51.013858795166 -76.533729553223 -106.578933715820 2.165816545486
107.607971191406 -76.416252136230 -111.671661376953 1.695471405983
32.694683074951 -78.199920654297 -121.896774291992 1.385089755058
44.854358673096 -77.428352355957 -118.840232849121 1.221108555794
41.880546569824 -76.966842651367 -124.907699584961 1.422625660896
29.901670455933 -77.542083740234 -124.422454833984 1.531668543816
109.070213317871 -77.128158569336 -119.315795898438 1.191940784454
39.560916900635 -77.740196228027 -129.508575439453 1.993316888809
31.796438217163 -74.343315124512 -131.259445190430 2.100731372833
-45.891262054443 -75.523902893066 -144.155258178711 2.163930416107
-71.406829833984 -76.487472534180 -145.650924682617 1.421621918678
-53.933460235596 -74.352882385254 -146.193161010742 2.077774763107
-71.819503784180 -76.891532897949 -146.703872680664 1.119544267654
-40.400497436523 -74.531974792480 -147.663131713867 2.130805253983
108.198844909668 -75.836608886719 -152.107421875000 2.308508157730
-71.558433532715 -76.357772827148 -156.063446044922 2.372249603271
24.155294418335 -77.873992919922 -148.626647949219 2.697181463242
31.901247024536 -77.812805175781 -152.063369750977 1.721019387245
113.853363037109 -78.351211547852 -159.834182739258 1.454465389252
9.433369636536 -76.859001159668 -159.482192993164 1.880412817001
32.253379821777 -75.118568420410 -155.462448120117 1.029521822929
-64.164276123047 -75.796615600586 -159.605407714844 1.408406615257
-42.274890899658 -76.452346801758 -170.652236938477 2.390897512436
19.999198913574 -74.961036682129 -163.419982910156 1.465195059776
-63.962554931641 -74.349235534668 -161.970214843750 1.632278203964
-68.461486816406 -75.644943237305 -165.829620361328 3.161655664444
110.144012451172 -77.677940368652 -165.719970703125 1.125443220139
-7.263107776642 -76.024711608887 -167.735641479492 1.563244223595
-62.622253417969 -75.024917602539 -175.544433593750 1.390823006630
-30.127374649048 -76.305343627930 -169.791870117188 1.965681791306
-54.806198120117 -74.284378051758 -173.675155639648 1.296660780907
29.060224533081 -75.953010559082 -171.114974975586 1.931666374207
110.784500122070 -75.605735778809 -172.473358154297 1.625733852386
103.039978027344 -76.267250061035 -183.215072631836 1.175012230873
106.860984802246 -76.776649475098 -188.932052612305 1.757222414017
107.523155212402 -75.457962036133 -177.122253417969 1.617837071419
-52.435314178467 -74.735877990723 -189.613769531250 0.868414402008
-49.882732391357 -73.268783569336 -183.121582031250 2.421957015991
26.584999084473 -76.572822570801 -183.226928710938 0.848994076252
-48.933132171631 -73.847663879395 -188.219970703125 1.646347761154
-19.877376556396 -76.185966491699 -184.798736572266 1.363149046898
-50.414176940918 -76.316665649414 -192.034759521484 1.166836857796
-150.249313354492 -74.170387268066 -194.074523925781 1.955881237984
101.904365539551 -77.118530273438 -192.810684204102 0.451697081327
-44.472625732422 -73.418853759766 -193.792114257813 2.264810323715
-15.130161285400 -76.743965148926 -198.200836181641 2.061985254288
-139.965209960938 -75.291633605957 -196.448959350586 1.042346715927
-43.753242492676 -73.493858337402 -197.415802001953 2.863485336304
103.085815429688 -76.277290344238 -197.063385009766 2.053424596786
106.915084838867 -75.567626953125 -185.711349487305 3.008220911026
-44.820747375488 -75.167282104492 -197.310134887695 1.661041021347
-23.195367813110 -78.903305053711 -197.537322998047 2.183286190033
-148.016784667969 -78.850028991699 -200.628997802734 2.436025619507
-24.579103469849 -76.278770446777 -197.985809326172 1.263505578041
-155.647323608398 -75.505165100098 -199.562850952148 1.712914705276
-152.371444702148 -78.580329895020 -204.360061645508 1.203963875771
-141.908782958984 -76.207130432129 -202.786682128906 1.740260958672
-37.932323455811 -75.610893249512 -199.567779541016 2.144661426544
101.295776367188 -76.555091857910 -200.427246093750 1.775321483612
-39.886116027832 -73.674522399902 -199.966110229492 1.651000618935
-143.359115600586 -77.468055725098 -205.953216552734 1.614029884338
-37.627376556396 -72.850738525391 -206.313400268555 2.164222240448
-19.464185714722 -78.134307861328 -210.216598510742 2.751751899719
97.037773132324 -77.116081237793 -204.578231811523 1.912182688713
92.398773193359 -76.544639587402 -212.095520019531 0.965094327927
-32.361495971680 -74.122909545898 -217.429901123047 1.880280017853
-86.531730651855 -75.401100158691 -212.148178100586 1.195522665977
-75.174728393555 -75.039543151855 -212.293075561523 1.431290626526
-17.788162231445 -75.435241699219 -216.208679199219 2.321132421494
-149.288742065430 -74.446662902832 -209.111724853516 2.833996534348
89.884414672852 -76.496421813965 -212.879425048828 0.657148241997
89.708419799805 -75.406608581543 -218.078811645508 1.494446873665
90.927398681641 -75.735374450684 -219.385437011719 0.816393792629
-101.465362548828 -73.889701843262 -221.909622192383 1.157302498817
-151.614105224609 -76.498413085938 -223.616943359375 1.490327954292
-19.298889160156 -74.581390380859 -222.177932739258 1.665246844292
80.011634826660 -74.580688476563 -224.981307983398 2.011677980423
-148.727630615234 -76.935081481934 -226.258636474609 2.404391765594
-26.850618362427 -75.940048217773 -220.321899414063 2.305832147598
-132.469711303711 -73.181732177734 -231.232177734375 1.697614192963
-11.645067214966 -77.085350036621 -229.297637939453 2.083926677704
18.184583663940 -75.216491699219 -224.398788452148 0.701053082943
19.951936721802 -76.224143981934 -232.387237548828 1.912298560143
-153.860763549805 -77.129661560059 -234.602554321289 2.893502950668
-124.910209655762 -71.917129516602 -233.644378662109 1.188536405563
-7.578455924988 -74.343940734863 -235.186492919922 0.914659202099
0.602016985416 -74.738250732422 -237.082412719727 1.287909269333
69.827400207520 -75.499214172363 -233.724960327148 1.323467969894
72.068161010742 -73.853996276855 -237.021347045898 1.489205241203
0.158892005682 -74.542472839355 -240.433380126953 2.128936052322
17.238574981689 -72.785247802734 -239.540542602539 0.649100422859
-28.859807968140 -71.087356567383 -240.383193969727 3.525992631912
-33.859188079834 -78.081459045410 -241.378677368164 1.887239694595
-45.140369415283 -73.931114196777 -240.700698852539 2.011254549026
-37.908206939697 -73.256271362305 -241.934310913086 1.607253432274
-17.478616714478 -76.096115112305 -242.842483520508 0.996286094189
-52.131931304932 -73.403984069824 -244.008651733398 2.849912881851
2.561954021454 -75.136146545410 -245.113311767578 1.359237074852
-67.432983398438 -74.119110107422 -245.514282226563 2.028070688248
20.837265014648 -75.574142456055 -247.074203491211 1.451549768448
-144.575546264648 -75.759353637695 -246.749771118164 1.981996297836
-71.815971374512 -76.289070129395 -251.091323852539 2.138298511505
15.268118858337 -76.929283142090 -248.749130249023 1.483787655830
-160.841690063477 -72.834960937500 -250.611495971680 2.600608110428
16.872968673706 -77.487884521484 -252.261062622070 0.952170372009
-79.060623168945 -72.241378784180 -251.289016723633 2.228912115097
-74.189399719238 -75.058563232422 -251.682449340820 1.283846497536
20.958633422852 -76.068916320801 -255.577545166016 1.854613661766
-88.352432250977 -73.594108581543 -253.671951293945 1.102866411209
-124.967056274414 -72.322593688965 -256.394073486328 1.712136864662
-133.608306884766 -74.849647521973 -259.906158447266 1.260211229324
-133.752410888672 -75.422561645508 -257.082183837891 0.689208269119
-146.595291137695 -73.388580322266 -261.519317626953 2.067075490952
-142.626098632813 -72.289741516113 -257.767547607422 2.501752376556
-134.572113037109 -72.372642517090 -262.717926025391 1.352970242500
-160.966705322266 -71.886154174805 -262.147247314453 2.728163242340
-125.721839904785 -72.400444030762 -266.426910400391 2.395542383194
-134.017761230469 -71.809616088867 -263.328308105469 1.094835042953
-163.822601318359 -71.616882324219 -266.864868164063 3.837426185608
-156.748092651367 -71.642417907715 -264.973419189453 2.546566963196
-149.439056396484 -72.295677185059 -266.451263427734 2.508857488632
-146.906234741211 -73.630737304688 -266.658874511719 0.772174894810
17.063894271851 -77.169349670410 -278.301849365234 1.860953092575
-165.247894287109 -73.017913818359 -269.040893554688 3.132074594498
-151.481033325195 -73.509155273438 -274.544067382813 0.786872982979
-5.521070957184 -80.446647644043 -273.518676757813 1.837421536446
-157.956527709961 -71.913887023926 -272.092803955078 2.352626800537
13.031374931335 -78.206626892090 -281.120910644531 1.693268656731
-151.269256591797 -73.006217956543 -283.166412353516 1.923596858978
-162.849533081055 -73.525505065918 -288.354278564453 2.730475902557
-153.829605102539 -74.120941162109 -282.800964355469 1.256729245186
-164.718261718750 -72.193504333496 -288.045043945313 1.806833267212
2.603887081146 -76.083854675293 -287.763610839844 1.789254546165
8.065851211548 -77.930213928223 -284.025024414063 1.936031460762
-99.274246215820 -72.611167907715 -290.425689697266 1.826931238174
-151.860656738281 -75.434791564941 -288.741546630859 2.352299690247
-147.716171264648 -72.013351440430 -287.490600585938 3.068302392960
-107.414558410645 -72.720306396484 -290.684082031250 1.602480649948
-150.850082397461 -74.196479797363 -292.214508056641 2.125053167343
-147.835937500000 -74.646232604980 -290.851867675781 1.286841511726
-69.611854553223 -75.098358154297 -292.514587402344 2.340764284134
-163.730529785156 -74.074432373047 -290.994934082031 0.878588140011
-122.727630615234 -71.543746948242 -292.237304687500 1.467717409134
-42.657463073730 -76.318458557129 -289.606018066406 0.984322488308
-153.910476684570 -72.928482055664 -290.086517333984 2.647642135620
-133.458724975586 -70.075263977051 -294.252227783203 1.616697311401
-16.975370407104 -72.781562805176 -293.400390625000 1.963301897049
-126.588531494141 -71.851989746094 -294.542358398438 1.678697943687
6.309136867523 -75.073089599609 -293.969726562500 1.222167968750
16.230556488037 -73.280113220215 -292.613464355469 2.064075469971
-132.998001098633 -71.935043334961 -293.275054931641 1.396268129349
-145.046737670898 -73.811614990234 -297.305358886719 2.132206201553
-155.276062011719 -73.609519958496 -314.037628173828 1.954014658928
-72.599700927734 -72.042953491211 -52.750415802002 2.588885307312
-22.784135818481 -72.213172912598 -62.863300323486 2.736024618149
-20.986227035522 -76.758987426758 -65.421401977539 1.781802058220
73.292991638184 -74.999214172363 -75.738555908203 2.112645864487
91.223754882813 -76.624511718750 -75.264854431152 2.703179597855
-37.668251037598 -74.852989196777 -78.809715270996 1.663423061371
74.576499938965 -76.207557678223 -78.366027832031 1.794466376305
88.875869750977 -79.275230407715 -81.431419372559 2.861465692520
68.804595947266 -76.028640747070 -82.749549865723 2.780348777771
72.149742126465 -76.046676635742 -87.289604187012 2.368427991867
-49.761054992676 -77.019134521484 -87.620834350586 0.591663479805
-92.016891479492 -76.421485900879 -88.486968994141 2.946344614029
58.178661346436 -77.185081481934 -93.566162109375 3.091756820679
49.794322967529 -76.772583007813 -98.155685424805 1.842770934105
94.214767456055 -75.163581848145 -97.379455566406 1.382547259331
-93.153488159180 -72.088348388672 -102.603050231934 2.306346178055
82.922523498535 -74.787254333496 -98.116554260254 0.658902287483
73.793373107910 -76.330848693848 -98.923828125000 3.076337575912
91.804023742676 -77.223579406738 -98.044456481934 3.025841236115
82.766685485840 -75.551269531250 -98.593994140625 0.744758248329
84.323806762695 -78.523033142090 -97.909149169922 2.678344011307
-83.573577880859 -76.318634033203 -103.071556091309 3.712722063065
41.403499603271 -75.580619812012 -107.896850585938 1.455104470253
105.761466979980 -76.825477600098 -110.295265197754 2.799948215485
108.787879943848 -76.586204528809 -110.359268188477 2.165177106857
47.051548004150 -77.262710571289 -117.688827514648 1.265197992325
109.908699035645 -77.443992614746 -121.569488525391 2.741942882538
116.233833312988 -77.935607910156 -134.342590332031 2.543048143387
-51.853561401367 -73.575782775879 -133.072906494141 1.554707407951
27.174701690674 -75.103263854980 -134.337402343750 2.242984294891
40.367183685303 -77.014511108398 -133.461959838867 2.190696001053
25.572763442993 -73.184646606445 -143.293960571289 2.049389839172
113.177108764648 -77.507797241211 -138.837570190430 1.383400321007
112.041046142578 -76.322868347168 -132.400344848633 1.055504083633
-73.487556457520 -74.625053405762 -148.994384765625 1.908256888390
-44.062911987305 -74.506179809570 -144.932708740234 1.409863948822
-70.986015319824 -73.031410217285 -151.270721435547 2.229482173920
20.562341690063 -74.549232482910 -150.846343994141 1.832370042801
112.999374389648 -74.884887695313 -149.926818847656 1.255566477776
-53.184154510498 -75.269340515137 -150.832977294922 1.620885968208
-70.410346984863 -73.171691894531 -150.986251831055 1.959471583366
-38.555992126465 -77.472587585449 -153.720092773438 1.096757411957
32.982833862305 -71.766883850098 -152.866027832031 2.798425912857
111.001586914063 -74.276397705078 -151.380981445313 1.229516506195
114.669265747070 -75.172279357910 -159.422103881836 1.039133071899
-68.026046752930 -71.928489685059 -155.190124511719 1.523489117622
-71.018333435059 -75.147949218750 -162.533050537109 2.522291421890
21.827358245850 -77.207572937012 -163.396438598633 1.468126535416
-59.699634552002 -72.819541931152 -167.404113769531 1.236142635345
-32.787712097168 -74.096778869629 -162.394287109375 2.310007095337
7.643321990967 -75.601440429688 -163.332870483398 1.764873385429
109.880996704102 -74.846740722656 -161.541549682617 1.762946248055
6.714434146881 -76.659004211426 -166.374160766602 2.598184585571
-32.857849121094 -74.925529479980 -166.073654174805 1.362042427063
-0.708501994610 -72.527664184570 -166.751083374023 1.831380724907
108.484199523926 -74.024848937988 -168.636062622070 1.565596818924
-40.893157958984 -72.263648986816 -167.414901733398 0.755846023560
28.768672943115 -72.652008056641 -171.574493408203 1.936408519745
112.333053588867 -77.244415283203 -172.216674804688 2.127940416336
-56.984951019287 -72.053451538086 -177.243881225586 1.832146525383
-28.139493942261 -76.062896728516 -174.550949096680 0.912025868893
104.116767883301 -75.335891723633 -173.732070922852 2.382694005966
29.254123687744 -73.913467407227 -171.061172485352 2.209543466568
109.828544616699 -77.310226440430 -174.524002075195 2.054784059525
-36.605323791504 -72.526664733887 -178.046096801758 2.185471534729
107.835205078125 -76.894775390625 -180.415893554688 1.800106167793
-60.664196014404 -72.819618225098 -178.369247436523 2.882012367249
-25.054592132568 -77.347900390625 -180.076889038086 0.524679660797
-145.370941162109 -70.440139770508 -184.251007080078 3.783210039139
-53.899894714355 -73.518722534180 -182.519042968750 0.916802287102
-146.560943603516 -73.545372009277 -187.788024902344 0.495779544115
-33.101200103760 -72.796905517578 -186.605407714844 1.775051593781
25.804071426392 -76.966468811035 -183.917297363281 1.036336302757
107.280250549316 -75.721633911133 -182.942565917969 0.627204060555
-32.147609710693 -75.134651184082 -185.701232910156 0.965837478638
11.721425056458 -75.291557312012 -191.037124633789 1.064400911331
18.534181594849 -74.320899963379 -202.614425659180 1.552302837372
-147.045410156250 -73.819656372070 -192.129104614258 1.432587265968
104.543609619141 -76.428565979004 -195.151016235352 2.144966125488
-19.575513839722 -72.198112487793 -193.900222778320 2.139764070511
102.226913452148 -75.810791015625 -188.839233398438 2.034124612808
13.916035652161 -73.039703369141 -189.137344360352 2.083142042160
-134.409423828125 -72.836738586426 -203.644882202148 1.698005199432
-139.033416748047 -73.349739074707 -201.459869384766 1.813182234764
99.466705322266 -76.620086669922 -201.064712524414 2.093081235886
-11.506237030029 -77.171424865723 -201.243255615234 2.206671953201
-15.255833625793 -75.389785766602 -202.615936279297 1.226508617401
10.543387413025 -75.925117492676 -207.655899047852 1.206841945648
-149.530181884766 -71.095954895020 -207.025268554688 1.986226558685
-145.557922363281 -74.382217407227 -208.464736938477 3.003843069077
99.981361389160 -72.748771667480 -203.823379516602 0.525902211666
-80.067680358887 -73.186546325684 -209.517227172852 0.725320577621
-36.046306610107 -74.197578430176 -203.017532348633 2.575239658356
18.537229537964 -76.153610229492 -212.532577514648 2.217796564102
-25.032810211182 -74.465705871582 -211.883834838867 0.645421385765
-76.965705871582 -72.473556518555 -210.110351562500 0.945021092892
91.559921264648 -75.100234985352 -210.065795898438 1.791231632233
-80.615150451660 -71.849807739258 -213.413024902344 2.283930540085
-146.331115722656 -73.710304260254 -219.577621459961 1.848827838898
-79.147865295410 -72.903335571289 -214.619750976563 0.672964334488
-13.641896247864 -71.011253356934 -211.846572875977 2.181214332581
-20.153465270996 -72.244056701660 -218.689041137695 1.682169437408
19.159856796265 -73.938087463379 -212.764343261719 1.943985462189
-5.094285011292 -75.348899841309 -218.409957885742 1.305339097977
-87.565689086914 -74.774299621582 -219.578125000000 2.170855760574
92.942802429199 -74.535758972168 -213.417709350586 0.950326085091
-96.713447570801 -73.058097839355 -216.841094970703 1.478513956070
-150.568405151367 -73.024230957031 -224.652420043945 2.054289102554
-22.143386840820 -73.014266967773 -223.659317016602 1.967080354691
17.610502243042 -74.411437988281 -216.579971313477 2.269744634628
-101.295631408691 -73.054901123047 -221.033538818359 1.199298739433
8.073692321777 -72.692016601563 -220.103240966797 1.711814880371
-24.120878219604 -74.272613525391 -216.813354492188 1.013299703598
83.805946350098 -73.910064697266 -223.764831542969 0.997591674328
-145.195892333984 -72.933120727539 -221.611846923828 1.450937747955
8.582606315613 -72.727668762207 -226.126296997070 1.934300780296
-8.874307632446 -76.405685424805 -224.844985961914 1.413123846054
18.013134002686 -70.307395935059 -222.172241210938 1.070076107979
84.050529479980 -75.351951599121 -221.977615356445 1.123371124268
-12.410874366760 -75.182800292969 -228.612808227539 2.227714061737
-129.973312377930 -73.461936950684 -227.477432250977 2.824295520782
-12.493707656860 -74.559341430664 -225.159164428711 0.853369534016
17.452957153320 -75.126991271973 -232.642532348633 1.627418518066
-125.420600891113 -74.323867797852 -228.531585693359 1.703499674797
-149.785446166992 -70.206733703613 -229.914627075195 2.725645303726
-141.279983520508 -72.052726745605 -230.015579223633 1.523366093636
-131.732604980469 -71.588264465332 -230.054397583008 2.612879991531
-13.548283576965 -72.902778625488 -226.399749755859 1.251320123672
72.462196350098 -74.416305541992 -228.871520996094 1.599683046341
-141.857376098633 -70.388816833496 -235.591751098633 1.083295345306
72.785095214844 -75.863372802734 -229.148223876953 2.548169851303
-19.363714218140 -76.363586425781 -229.214370727539 0.791779041290
-141.448913574219 -76.096824645996 -231.359863281250 1.856121301651
78.433425903320 -77.314826965332 -228.625595092773 1.874914169312
10.052208900452 -76.840423583984 -234.778793334961 1.442234754562
