-2.492279529572 -72.904098510742 -217.703796386719 0.300182044506
11.724700927734 -72.378677368164 -209.721939086914 2.423178195953
10.596527099609 -73.342849731445 -216.850143432617 3.058290004730
82.930412292480 -71.106353759766 -216.458923339844 1.938636898994
8.787813186646 -72.221229553223 -212.902465820313 2.369624376297
12.895559310913 -70.366401672363 -214.601806640625 1.803330302238
-15.553968429565 -74.470474243164 -215.765243530273 1.329978108406
-90.195686340332 -71.752601623535 -214.423751831055 1.632417201996
-97.723007202148 -71.499320983887 -216.569656372070 1.132531166077
0.291776657104 -70.233665466309 -218.998077392578 1.634507417679
-166.182418823242 -73.319412231445 -222.030319213867 2.875460624695
15.430297851563 -69.246223449707 -219.471343994141 1.948459982872
-144.347747802734 -70.818229675293 -221.299163818359 0.518709957600
13.268762588501 -71.563400268555 -224.794921875000 2.060426235199
-134.348327636719 -72.791419982910 -224.890426635742 1.213803291321
-115.621955871582 -72.389282226563 -227.194641113281 1.683887600899
17.067087173462 -70.478485107422 -220.728836059570 1.374999046326
78.708023071289 -71.166572570801 -221.124755859375 3.290072202682
7.051823139191 -71.241004943848 -223.327362060547 1.717767834663
-109.571342468262 -70.737937927246 -230.913269042969 2.309101819992
72.685966491699 -72.071121215820 -227.569412231445 1.222289443016
84.340156555176 -72.219001770020 -229.237014770508 2.843138933182
-124.892196655273 -71.253677368164 -235.110885620117 0.689513683319
-116.726135253906 -71.457664489746 -230.464080810547 0.902106225491
-9.726018905640 -68.167518615723 -227.709930419922 1.847787380219
72.318939208984 -71.884536743164 -231.165313720703 2.238330602646
64.984634399414 -71.790718078613 -232.983871459961 3.139022588730
73.613830566406 -70.685089111328 -229.271286010742 1.524871230125
-134.953186035156 -68.216957092285 -234.144622802734 1.563915014267
70.507774353027 -72.278213500977 -232.135604858398 1.561225771904
66.504814147949 -69.061241149902 -235.126235961914 1.425883531570
-165.832183837891 -70.118591308594 -230.622680664063 1.061658978462
1.783909797668 -77.610481262207 -240.807754516602 0.863675475121
19.701290130615 -72.513511657715 -239.348098754883 2.126133203506
-5.693312644958 -68.785720825195 -240.589736938477 2.665914058685
16.087499618530 -66.459068298340 -239.181030273438 3.267634868622
66.568901062012 -72.167144775391 -237.936584472656 1.407702684402
9.253808975220 -69.532241821289 -243.277130126953 1.214552998543
-10.612440109253 -65.454467773438 -240.730484008789 2.126454591751
-0.214417591691 -68.201675415039 -237.374206542969 1.389221191406
65.292938232422 -71.871383666992 -242.245758056641 0.877414762974
3.394959449768 -71.830169677734 -242.461669921875 1.855566024780
-6.656630992889 -72.069946289063 -243.048187255859 1.261382818222
14.618759155273 -73.650459289551 -242.771789550781 2.657991886139
-167.159637451172 -73.116928100586 -241.215118408203 1.396070957184
56.369197845459 -71.577430725098 -247.083953857422 0.770831584930
50.285430908203 -65.807670593262 -250.699676513672 1.504560828209
58.537647247314 -71.959533691406 -242.634597778320 2.109209775925
-11.832057952881 -69.659446716309 -247.838897705078 0.842621803284
57.528072357178 -71.069587707520 -245.516448974609 1.052212595940
-73.565284729004 -70.929595947266 -249.855987548828 1.028006672859
51.117015838623 -71.660766601563 -248.492431640625 1.529557943344
-88.423385620117 -71.230621337891 -252.497253417969 0.578895807266
-122.888313293457 -72.542823791504 -256.703948974609 1.829868793488
-132.083633422852 -71.423812866211 -252.983551025391 1.360399961472
46.459266662598 -72.814323425293 -251.703643798828 2.323102235794
-132.244934082031 -73.948204040527 -253.222259521484 1.987290501595
-108.883522033691 -69.682380676270 -255.117034912109 2.283911943436
-115.763198852539 -69.226753234863 -257.490051269531 1.835447788239
-83.430938720703 -71.809364318848 -254.669647216797 1.221878290176
-110.682815551758 -69.748641967773 -259.168395996094 2.242169380188
-123.756019592285 -74.652191162109 -262.448059082031 0.933558106422
-146.196426391602 -69.006378173828 -267.676452636719 2.101094007492
-14.983268737793 -70.006317138672 -265.549407958984 0.927993178368
-171.021728515625 -73.465995788574 -264.542327880859 4.908172607422
-14.267236709595 -70.776832580566 -273.705139160156 0.867505848408
-158.697692871094 -68.300033569336 -267.360778808594 2.072131872177
-152.390289306641 -71.699806213379 -273.492645263672 1.450399756432
-169.627563476563 -71.436790466309 -277.605865478516 2.243806362152
-13.921733856201 -71.380790710449 -279.262664794922 2.984938621521
-129.890243530273 -73.740653991699 -283.189666748047 1.395145773888
-157.747634887695 -71.203018188477 -286.287841796875 3.041312456131
-143.673889160156 -70.508735656738 -281.015625000000 2.226309061050
-134.589431762695 -74.212020874023 -280.535766601563 4.813190460205
-7.912211418152 -65.669815063477 -284.397155761719 2.871725559235
-125.576629638672 -74.844184875488 -283.444152832031 1.216974973679
-140.755126953125 -69.439605712891 -285.657257080078 2.856927394867
-115.446273803711 -74.256973266602 -285.738372802734 1.974549055099
-78.717094421387 -69.498764038086 -288.031463623047 1.584793567657
-60.426395416260 -71.979225158691 -287.022094726563 1.776107668877
-6.723975181580 -72.229347229004 -287.748260498047 1.581569671631
-53.651233673096 -70.153533935547 -285.674621582031 2.962997436523
-56.942111968994 -69.046890258789 -288.591522216797 2.219078302383
-70.137321472168 -69.620140075684 -290.296691894531 1.680971145630
-87.789871215820 -70.441970825195 -293.772399902344 1.770551681519
-94.778198242188 -69.134361267090 -288.987030029297 0.784764528275
-160.077575683594 -70.556755065918 -291.527252197266 0.733648002148
-160.832855224609 -72.355598449707 -293.770629882813 0.740731477737
-124.363990783691 -74.136695861816 -293.901794433594 1.801084518433
-144.403701782227 -71.607093811035 -295.026428222656 0.792478263378
-152.807128906250 -73.681724548340 -303.774810791016 3.332100391388
-150.230361938477 -73.763626098633 -312.182220458984 0.963807702065
48.144569396973 -69.038108825684 -14.480648040771 2.909716367722
16.975402832031 -72.193763732910 -29.641532897949 3.343513727188
42.165699005127 -67.181198120117 -34.512599945068 2.632496118546
-15.252807617188 -73.732505798340 -66.249572753906 2.509450912476
82.026992797852 -68.640678405762 -64.939529418945 2.276047468185
88.896018981934 -66.498397827148 -65.779869079590 1.793804407120
78.143363952637 -73.455375671387 -65.275955200195 3.790944814682
72.969352722168 -71.630378723145 -69.039794921875 1.758715987206
91.441581726074 -72.705894470215 -74.732131958008 1.843252897263
-95.916152954102 -67.727294921875 -70.218902587891 2.354051113129
68.051994323730 -71.032531738281 -75.216049194336 2.566577434540
-36.322364807129 -71.700256347656 -77.271362304688 1.179809808731
99.152130126953 -70.224456787109 -85.663505554199 2.715888261795
61.694442749023 -67.814964294434 -90.221458435059 1.320886254311
107.354408264160 -74.616142272949 -93.421875000000 5.183755397797
101.778968811035 -73.677200317383 -98.191482543945 1.588834881783
72.527313232422 -70.158721923828 -100.456024169922 0.411377608776
-79.987251281738 -69.575210571289 -101.456481933594 1.267594218254
54.556404113770 -70.265151977539 -104.059844970703 0.820876002312
107.308074951172 -67.599395751953 -105.819168090820 1.277437329292
47.262599945068 -70.979187011719 -112.226745605469 1.982923030853
80.095855712891 -69.140205383301 -105.221824645996 1.603831291199
41.819335937500 -69.958869934082 -107.282066345215 1.312870144844
104.439048767090 -69.766258239746 -103.019477844238 1.061317682266
47.735885620117 -69.733123779297 -107.616744995117 1.036338329315
107.445518493652 -74.785339355469 -109.678237915039 1.705903649330
110.330345153809 -72.912979125977 -111.101501464844 0.594366371632
-79.276794433594 -68.713333129883 -114.095909118652 0.781114459038
-82.814826965332 -68.914779663086 -119.291976928711 2.200627803802
44.096527099609 -73.184776306152 -119.869186401367 2.433426380157
113.971496582031 -71.556106567383 -121.070144653320 1.389187574387
113.844665527344 -69.697273254395 -123.360916137695 2.163551568985
-87.118499755859 -69.736923217773 -126.902786254883 1.867731809616
106.139328002930 -71.790390014648 -125.547943115234 2.865492343903
-59.204692840576 -74.666244506836 -131.691528320313 2.976318597794
-86.044967651367 -70.917594909668 -127.215332031250 1.102994084358
-72.417541503906 -70.725418090820 -127.057220458984 3.008992671967
-59.083866119385 -66.795722961426 -126.673904418945 1.369398355484
31.766557693481 -69.883010864258 -130.000900268555 2.178233146667
42.516082763672 -68.635177612305 -134.527175903320 4.148621082306
-73.009834289551 -70.200210571289 -136.517059326172 1.374105215073
28.868925094604 -68.329528808594 -130.775100708008 2.928149223328
111.840515136719 -69.913795471191 -142.675781250000 1.642146468163
-40.027717590332 -70.458267211914 -148.156936645508 1.707030177116
30.544349670410 -70.993827819824 -148.665130615234 2.101334095001
114.052528381348 -68.306579589844 -147.461105346680 1.426925182343
35.710121154785 -70.709846496582 -142.556411743164 1.406044125557
110.531776428223 -68.714195251465 -140.574279785156 3.044154405594
-52.181575775146 -70.676071166992 -149.272750854492 1.752478003502
-71.129623413086 -68.000312805176 -150.878784179688 1.823073387146
-54.958858489990 -70.915481567383 -152.433486938477 2.372763156891
-41.903892517090 -73.747512817383 -164.825042724609 2.798266410828
4.871336936951 -71.505165100098 -155.690261840820 2.023305177689
110.008110046387 -70.085662841797 -153.257995605469 2.311410427094
109.149436950684 -69.752426147461 -159.367370605469 2.849101543427
10.210388183594 -69.605239868164 -157.266250610352 1.182421922684
3.476246833801 -70.266403198242 -161.132614135742 1.834002256393
19.393390655518 -69.442871093750 -155.064743041992 3.567265510559
25.818721771240 -68.848968505859 -155.467315673828 2.646035671234
108.916580200195 -69.437614440918 -165.367645263672 1.094626784325
109.764495849609 -72.883255004883 -167.451583862305 1.745919466019
24.112234115601 -67.548896789551 -174.195907592773 2.046489953995
25.171588897705 -72.154136657715 -163.619705200195 2.833008050919
112.400840759277 -67.947341918945 -161.726470947266 2.885797262192
-28.927812576294 -69.164161682129 -177.030029296875 0.583756506443
110.398887634277 -70.057991027832 -167.493759155273 2.335903644562
17.716217041016 -70.635704040527 -167.405044555664 1.572119951248
21.809240341187 -70.015586853027 -167.527008056641 1.823537945747
108.734298706055 -70.019195556641 -172.589141845703 1.629854083061
26.927635192871 -69.265014648438 -170.175613403320 2.154316902161
112.497406005859 -69.142120361328 -183.437072753906 2.932255744934
-38.091423034668 -69.666046142578 -177.558532714844 2.417975902557
25.304250717163 -69.714355468750 -170.902206420898 0.772528827190
107.699302673340 -69.678466796875 -183.591064453125 0.709921061993
23.309068679810 -71.077079772949 -178.360183715820 1.343240499496
-151.664535522461 -69.198951721191 -186.427154541016 2.320765733719
-28.017803192139 -67.320510864258 -189.175827026367 1.255972266197
24.794061660767 -68.042449951172 -184.697280883789 2.580696105957
-113.546302795410 -71.882575988770 -191.780731201172 2.705554723740
-110.655693054199 -68.095024108887 -191.235977172852 1.943396091461
23.994518280029 -70.603126525879 -188.326080322266 1.030045151711
11.874496459961 -68.255386352539 -184.835632324219 3.872512578964
-26.688739776611 -67.680618286133 -190.061630249023 1.612333297729
-29.415525436401 -73.973205566406 -189.045364379883 1.394155621529
-27.797136306763 -70.547309875488 -187.025390625000 1.817097544670
15.004848480225 -68.117828369141 -179.788314819336 2.147608518600
-150.639175415039 -70.516609191895 -195.025009155273 0.536424160004
-145.143020629883 -70.188674926758 -192.792098999023 1.661259889603
-144.164062500000 -73.376754760742 -198.264419555664 1.940432429314
-22.707195281982 -69.245086669922 -191.225524902344 0.983788311481
13.863382339478 -67.916160583496 -199.377807617188 0.600784897804
99.075668334961 -68.983161926270 -193.097030639648 2.701910257339
-113.511413574219 -69.311630249023 -198.267913818359 1.476193189621
21.500745773315 -73.241523742676 -198.159011840820 1.230483412743
-15.103624343872 -69.094818115234 -195.390197753906 1.244132637978
-17.499422073364 -69.508033752441 -198.564834594727 2.057480335236
101.187950134277 -68.641952514648 -199.291931152344 3.294626951218
8.161993026733 -71.903938293457 -199.099349975586 1.941285014153
-21.754240036011 -68.453086853027 -196.335342407227 1.276114225388
-121.115135192871 -73.325180053711 -203.014892578125 1.878384113312
-133.959365844727 -70.595840454102 -203.236999511719 1.581981539726
-113.874595642090 -66.052108764648 -204.872299194336 1.966583371162
-141.943572998047 -73.211410522461 -203.332443237305 2.006856203079
17.733001708984 -69.649375915527 -197.573547363281 0.997993290424
94.047157287598 -71.021041870117 -201.625045776367 1.178353786469
-165.725006103516 -66.125671386719 -201.439437866211 0.761323690414
100.227760314941 -69.426124572754 -201.956832885742 2.039148092270
-21.397718429565 -73.691383361816 -205.913452148438 2.315879106522
94.831413269043 -67.774253845215 -210.338485717773 2.437946557999
88.309188842773 -71.204101562500 -211.320053100586 1.011476278305
12.369213104248 -71.683998107910 -205.818710327148 2.524000167847
20.001277923584 -69.428253173828 -211.844726562500 2.525178909302
13.056924819946 -67.234016418457 -207.710601806641 1.900719165802
-10.627441406250 -70.422027587891 -222.280426025391 1.565092921257
-94.186965942383 -72.222282409668 -218.534790039063 2.255328178406
-10.199388504028 -72.104339599609 -212.161361694336 1.090087056160
89.296958923340 -70.030838012695 -216.129028320313 1.855055332184
-93.307563781738 -72.423385620117 -217.611587524414 2.183526277542
-100.917259216309 -68.112861633301 -221.160675048828 1.443148136139
-94.214271545410 -70.946144104004 -219.438705444336 1.549591422081
88.479423522949 -71.395507812500 -221.797805786133 2.416570901871
-135.059570312500 -70.846557617188 -225.131698608398 0.733505725861
-132.201187133789 -74.262901306152 -226.685974121094 0.987995266914
-116.424140930176 -70.275840759277 -224.784759521484 1.171058773994
-112.890609741211 -67.783187866211 -223.154525756836 3.198553085327
-133.118957519531 -69.027427673340 -227.183410644531 2.165643453598
-111.448448181152 -76.905090332031 -227.458068847656 4.595729351044
-111.975036621094 -70.239959716797 -228.021255493164 2.455521106720
-6.617103099823 -73.281150817871 -224.533813476563 2.132503986359
-15.697965621948 -72.351654052734 -223.071151733398 0.938089907169
-0.737042248249 -68.180931091309 -230.352005004883 0.963480055332
-9.929853439331 -67.351768493652 -226.913116455078 1.281093597412
15.641008377075 -70.820007324219 -233.413558959961 1.293066859245
-18.619655609131 -68.517059326172 -229.051177978516 2.747539997101
-166.621658325195 -68.958549499512 -222.284378051758 1.244490981102
-3.860490322113 -70.118026733398 -233.380187988281 1.710251688957
81.052307128906 -67.160140991211 -231.066818237305 3.870755434036
11.222112655640 -71.854934692383 -233.557220458984 1.683310747147
-5.648778438568 -69.442749023438 -234.696365356445 0.884088099003
-156.631927490234 -68.328216552734 -236.505203247070 0.763599753380
-142.053833007813 -69.070587158203 -230.399902343750 3.003786563873
62.843433380127 -68.742401123047 -235.779357910156 1.000262975693
-5.404414653778 -71.074783325195 -234.034286499023 0.995586514473
9.564735412598 -72.123764038086 -230.630249023438 2.785624504089
69.691032409668 -72.118492126465 -230.153793334961 0.676538765430
77.216926574707 -70.357086181641 -234.181488037109 2.363973855972
71.304298400879 -71.101478576660 -241.250213623047 2.295794963837
-1.311514258385 -72.910987854004 -235.606765747070 0.612727701664
58.296833038330 -68.383132934570 -237.848205566406 3.030503034592
-18.753580093384 -72.716224670410 -239.646469116211 2.304750204086
-15.027290344238 -67.925201416016 -240.311477661133 2.290568828583
8.482851028442 -70.037902832031 -239.265655517578 1.756198883057
65.053398132324 -73.131652832031 -237.777236938477 1.280285596848
65.696540832520 -68.552215576172 -240.547378540039 1.467816948891
49.881504058838 -70.267585754395 -246.017089843750 2.290760278702
61.407493591309 -73.080810546875 -242.616348266602 1.096633315086
-15.251361846924 -74.588935852051 -249.569732666016 2.927964925766
-83.351043701172 -67.833137512207 -254.122375488281 1.978028893471
-76.601638793945 -68.382438659668 -252.879455566406 2.417045116425
44.537921905518 -72.819648742676 -247.670898437500 2.828157186508
-148.872283935547 -71.653228759766 -250.627655029297 3.262574434280
36.278411865234 -70.104782104492 -256.125396728516 2.023333549500
-91.773155212402 -73.837562561035 -251.838165283203 0.160609617829
-156.011383056641 -66.912582397461 -254.665466308594 2.242475032806
-140.097229003906 -64.488784790039 -253.282073974609 2.468746423721
45.436996459961 -69.916702270508 -253.408142089844 1.895060300827
-124.744285583496 -66.705230712891 -257.827056884766 1.142493605614
-116.623100280762 -70.706695556641 -255.295928955078 2.242120265961
-92.124336242676 -66.503822326660 -257.025146484375 1.039948225021
-13.449207305908 -67.073165893555 -250.303924560547 2.417064428329
32.143615722656 -69.810012817383 -257.101348876953 1.120080590248
25.208164215088 -67.611930847168 -259.364624023438 1.791663169861
-158.725662231445 -66.228309631348 -260.276336669922 3.081563234329
-114.482162475586 -73.046249389648 -262.612609863281 1.167109489441
-13.660385131836 -69.891723632813 -261.858276367188 0.789780974388
-132.538299560547 -70.262657165527 -265.329681396484 1.963297605515
-13.878803253174 -68.985313415527 -270.217224121094 1.170832037926
-164.647598266602 -69.776557922363 -272.476379394531 2.625317335129
-7.055116653442 -71.124237060547 -279.382629394531 3.029861450195
-160.645996093750 -70.834182739258 -287.752410888672 1.163045406342
-163.625320434570 -72.326988220215 -277.839660644531 3.417715072632
-142.382019042969 -70.689064025879 -285.155242919922 0.881225228310
-169.948562622070 -72.461349487305 -284.609924316406 2.229531526566
14.270614624023 -72.315788269043 -287.877410888672 1.129687190056
-102.945022583008 -71.385589599609 -286.483551025391 2.223286867142
-86.989425659180 -66.326072692871 -285.941955566406 3.051730632782
-167.577819824219 -67.794296264648 -284.536956787109 2.641218900681
-91.805175781250 -74.159118652344 -283.934295654297 3.301903009415
-153.507507324219 -70.950683593750 -288.428405761719 1.911397576332
-75.269622802734 -71.232734680176 -293.553344726563 3.719647169113
-70.437614440918 -69.645446777344 -288.655029296875 1.734523534775
-82.334732055664 -71.347740173340 -291.253814697266 1.993360280991
-3.515740871429 -67.617561340332 -288.860076904297 1.968535065651
-87.834205627441 -70.312850952148 -288.581420898438 1.775352716446
-98.809257507324 -71.761474609375 -290.873626708984 0.969887554646
-116.482688903809 -70.747688293457 -292.614837646484 0.980720460415
-116.413520812988 -67.791488647461 -292.756561279297 1.464359641075
-134.002487182617 -69.850952148438 -292.159454345703 1.656100511551
-142.640747070313 -70.726959228516 -300.757995605469 2.849970340729
-144.063949584961 -71.967933654785 -311.702331542969 0.635389328003
24.154939651489 -67.577980041504 -14.994825363159 3.946551799774
32.600467681885 -68.764236450195 -16.243253707886 1.742601513863
29.642524719238 -71.406494140625 -18.092887878418 0.660141527653
44.436511993408 -67.469970703125 -20.406646728516 3.534452676773
25.195877075195 -69.350753784180 -31.492679595947 2.398490905762
-74.614189147949 -67.835655212402 -46.929901123047 2.061691999435
89.997528076172 -65.059303283691 -65.292549133301 2.518513441086
-17.313564300537 -67.628768920898 -67.386474609375 3.424896478653
102.957489013672 -68.127716064453 -72.653144836426 1.649386048317
95.431739807129 -72.955017089844 -75.363105773926 1.055792093277
68.849723815918 -70.646865844727 -78.264533996582 0.704434394836
70.601867675781 -72.487449645996 -82.382270812988 1.798538327217
-44.340183258057 -72.704406738281 -82.281806945801 1.757489681244
61.505477905273 -72.568931579590 -82.166946411133 3.701439380646
-94.101509094238 -69.956893920898 -88.193237304688 3.114996433258
-48.898422241211 -67.281608581543 -85.103012084961 1.257516741753
-55.551418304443 -76.113296508789 -87.404357910156 3.473841428757
101.350090026855 -74.558464050293 -97.297698974609 1.570573568344
59.555313110352 -72.392074584961 -92.025932312012 1.832129597664
66.212722778320 -68.587646484375 -90.777091979980 2.061277627945
-95.412399291992 -64.307617187500 -96.800559997559 2.878682136536
108.198081970215 -70.617057800293 -92.804931640625 3.592269420624
44.428768157959 -68.063003540039 -98.721672058105 1.557872295380
101.752944946289 -68.958465576172 -97.836860656738 1.753094673157
107.090774536133 -67.169303894043 -105.712440490723 1.066689491272
101.622138977051 -69.554359436035 -104.259521484375 2.649678945541
74.215301513672 -71.477111816406 -100.448654174805 0.784210503101
87.653533935547 -71.297698974609 -106.270393371582 2.145234584808
50.357089996338 -69.129020690918 -110.958847045898 2.556426048279
110.978271484375 -67.074935913086 -103.308799743652 2.592736244202
46.554706573486 -71.886741638184 -105.184127807617 2.885975599289
40.895393371582 -67.511940002441 -101.339065551758 3.205567121506
113.105773925781 -69.594932556152 -110.058303833008 0.871958553791
-78.208724975586 -66.795677185059 -109.497055053711 2.494221210480
46.446239471436 -68.520988464355 -112.628372192383 0.815390467644
35.110958099365 -71.262657165527 -114.817520141602 1.423588752747
105.810729980469 -66.958847045898 -109.806419372559 1.452446460724
39.748538970947 -66.550331115723 -111.268699645996 2.992170572281
-87.725532531738 -68.985969543457 -112.698280334473 1.807188987732
-95.232215881348 -66.521018981934 -114.640625000000 3.284352064133
104.420288085938 -72.335983276367 -118.829772949219 2.072223663330
-94.426582336426 -70.680923461914 -118.451980590820 1.412817358971
39.332199096680 -71.318000793457 -121.017211914063 1.762383222580
37.322963714600 -69.004653930664 -120.516113281250 0.899860739708
-83.065734863281 -68.971832275391 -124.020309448242 2.368928194046
32.765399932861 -67.549194335938 -134.440597534180 2.397212266922
111.240066528320 -70.541847229004 -130.914108276367 1.451225280762
-52.262310028076 -69.016525268555 -135.830322265625 2.219535112381
-87.880500793457 -68.160514831543 -131.442718505859 1.198196411133
38.322391510010 -72.485893249512 -131.385513305664 1.173680663109
-88.731872558594 -65.123611450195 -135.685592651367 1.468652129173
-88.521316528320 -71.342887878418 -139.402893066406 3.839381456375
-49.282806396484 -70.445083618164 -136.570510864258 1.441214561462
-70.474784851074 -67.461029052734 -139.304702758789 1.762177944183
-50.324764251709 -68.316490173340 -133.233871459961 1.804903745651
115.806198120117 -66.612190246582 -137.254058837891 3.058279037476
-72.845222473145 -70.662948608398 -136.577590942383 1.804963588715
36.901367187500 -69.586418151855 -131.032104492188 1.840866327286
-78.309082031250 -68.180763244629 -139.922225952148 0.260298967361
-72.950180053711 -68.929489135742 -135.536056518555 0.984116435051
-91.004058837891 -67.246803283691 -139.929870605469 0.621774792671
-53.479633331299 -67.148002624512 -146.817306518555 1.759562492371
31.831899642944 -65.438659667969 -145.539291381836 3.493731975555
27.925479888916 -67.523765563965 -149.272430419922 1.431831598282
19.535896301270 -64.678878784180 -144.101943969727 2.068859815598
113.226119995117 -68.565185546875 -146.001266479492 0.381410866976
-93.106979370117 -67.713882446289 -152.272552490234 1.403986811638
13.410318374634 -70.681335449219 -152.145355224609 2.415286779404
-71.526046752930 -68.616966247559 -153.096176147461 0.808039426804
23.875432968140 -68.242599487305 -149.521392822266 1.438028812408
-48.753807067871 -68.133628845215 -155.194686889648 2.537506580353
9.976016998291 -67.825553894043 -153.009429931641 0.438264995813
15.525505065918 -71.467002868652 -158.146255493164 0.915560066700
18.223110198975 -73.289634704590 -163.634582519531 1.162896752357
-48.489898681641 -71.042671203613 -162.320251464844 1.867058992386
-38.774154663086 -68.170097351074 -154.616607666016 2.043352603912
-45.959060668945 -69.463142395020 -160.807037353516 1.428688287735
-103.262229919434 -69.629684448242 -171.725723266602 0.983491420746
22.170074462891 -70.134498596191 -173.800415039063 2.925631999969
-34.341274261475 -68.864852905273 -175.736694335938 1.515083789825
15.878332138062 -72.703750610352 -178.056442260742 1.328966259956
-143.218170166016 -69.150604248047 -175.541854858398 1.719930648804
-31.823051452637 -66.201522827148 -172.600509643555 1.465454459190
-154.594223022461 -73.574249267578 -177.609924316406 3.220404386520
23.846302032471 -64.975418090820 -181.589080810547 3.897438287735
-32.506732940674 -70.070037841797 -171.252075195313 1.788981914520
-107.263938903809 -67.499839782715 -177.486907958984 2.315211772919
-106.696556091309 -73.130805969238 -183.312973022461 3.826094865799
-29.587919235229 -64.830955505371 -185.010650634766 3.455187559128
-23.193056106567 -72.930671691895 -181.536712646484 1.747200250626
14.398065567017 -68.126556396484 -189.056457519531 2.220685243607
17.392610549927 -66.715408325195 -197.002197265625 1.797609806061
14.282245635986 -68.945449829102 -186.735458374023 2.365332126617
-142.453735351563 -68.143920898438 -187.280761718750 1.434394717216
21.986255645752 -65.715583801270 -189.728103637695 4.177413463593
7.973092556000 -68.903144836426 -196.526031494141 2.119459152222
-136.685897827148 -67.695793151855 -194.245101928711 2.879692077637
-113.924850463867 -68.786987304688 -195.221572875977 1.713157296181
15.315004348755 -67.464950561523 -200.977157592773 1.358057260513
-115.947120666504 -68.059173583984 -196.601318359375 1.301993012428
-107.367813110352 -64.518424987793 -191.989776611328 3.592220067978
-164.911758422852 -70.447509765625 -199.919326782227 1.004925489426
-23.891197204590 -68.050300598145 -199.815780639648 1.813003182411
13.324991226196 -67.567512512207 -200.039443969727 1.424081802368
-142.569183349609 -69.399482727051 -203.779159545898 1.497413635254
-135.367385864258 -70.968986511230 -206.179611206055 2.411984682083
-19.687871932983 -67.415534973145 -207.099639892578 0.947865843773
-11.482637405396 -70.088989257813 -204.343566894531 1.089333415031
-14.355592727661 -69.633087158203 -205.746719360352 1.471154808998
-140.393280029297 -72.324531555176 -204.263244628906 2.358035802841
-16.107082366943 -69.359024047852 -212.712661743164 0.783170580864
-10.038221359253 -72.607063293457 -214.085098266602 2.177797794342
17.976242065430 -66.550338745117 -210.809417724609 1.890778064728
-14.425880432129 -72.305480957031 -211.295135498047 1.613711476326
10.921009063721 -69.271041870117 -209.856002807617 1.774665713310
-9.951135635376 -69.921493530273 -215.410095214844 2.177248716354
-20.571079254150 -66.557098388672 -211.801834106445 4.095363616943
13.125337600708 -73.335090637207 -220.799682617188 2.336320638657
-1.121576786041 -73.779197692871 -219.589172363281 2.189681768417
11.645225524902 -65.727394104004 -221.014556884766 2.278744697571
-5.584899902344 -71.023719787598 -226.708099365234 0.418631047010
-158.345626831055 -69.843521118164 -225.198623657227 2.573725700378
81.289733886719 -71.181602478027 -219.905151367188 0.969839334488
-134.811294555664 -67.388107299805 -224.258117675781 1.435794591904
-134.574600219727 -70.835449218750 -223.038360595703 1.839961051941
-7.949955463409 -69.805152893066 -225.069625854492 1.820785760880
9.020269393921 -68.919090270996 -233.666824340820 1.930722594261
-156.445144653320 -68.920372009277 -229.462539672852 1.669841289520
88.497009277344 -67.671386718750 -219.817092895508 2.792447090149
-1.696261525154 -67.939208984375 -225.589141845703 0.847292721272
1.089551568031 -69.752700805664 -222.819061279297 1.820545673370
74.491531372070 -71.561111450195 -229.171142578125 1.439501404762
1.091044068336 -66.962356567383 -234.715148925781 0.610757052898
-14.252103805542 -70.957099914551 -226.996185302734 2.560576438904
-126.040092468262 -67.700584411621 -234.233428955078 1.372704505920
-3.791948556900 -68.850379943848 -236.743286132813 1.867340326309
2.932214975357 -66.977813720703 -231.826141357422 1.733153343201
66.508995056152 -67.209892272949 -238.112472534180 1.807017445564
-157.767257690430 -70.476417541504 -238.194000244141 2.315947771072
-12.013587951660 -68.608078002930 -244.565399169922 1.771891117096
-168.613571166992 -71.498695373535 -238.777542114258 0.896036028862
10.334379196167 -66.469665527344 -241.937377929688 1.956610679626
-164.102966308594 -70.004920959473 -238.952026367188 2.470351934433
-160.286483764648 -70.614349365234 -246.066650390625 1.888842940331
57.512653350830 -68.976707458496 -245.091598510742 1.134853720665
62.754184722900 -70.347068786621 -242.509765625000 1.357910752296
56.635753631592 -69.569664001465 -244.339660644531 1.215488791466
52.223838806152 -68.983551025391 -248.795898437500 0.372715651989
-154.968963623047 -70.010040283203 -244.012512207031 1.322286725044
-156.045532226563 -66.995117187500 -248.449768066406 3.409196376801
-12.867645263672 -71.914550781250 -249.297790527344 1.255461812019
-150.919265747070 -68.875679016113 -246.724822998047 1.687296152115
20.128028869629 -70.499015808105 -251.082641601563 2.224763393402
-169.257247924805 -73.798515319824 -251.079437255859 3.271075487137
-167.155181884766 -67.683479309082 -248.351196289063 2.058292627335
-81.668937683105 -70.604034423828 -248.850921630859 0.563173294067
-168.988540649414 -68.937934875488 -259.845489501953 2.125389337540
-84.935096740723 -68.832885742188 -256.691345214844 2.555876970291
42.994781494141 -68.254356384277 -253.108581542969 2.263717174530
22.729457855225 -72.359519958496 -256.166473388672 0.869023084641
-158.226028442383 -70.085884094238 -261.896331787109 1.333771586418
-100.389747619629 -63.898723602295 -259.623168945313 1.685138940811
39.712314605713 -69.311111450195 -255.651184082031 1.759578943253
-104.381729125977 -75.357582092285 -259.045288085938 2.020487308502
-153.666107177734 -65.163894653320 -264.977661132813 0.921264350414
-104.757545471191 -68.225112915039 -258.504333496094 3.181058406830
-167.404556274414 -71.211387634277 -259.694396972656 1.443966746330
-112.668022155762 -70.303512573242 -263.349090576172 2.406037330627
-152.844741821289 -71.380058288574 -265.798828125000 0.884555935860
-158.137054443359 -67.806312561035 -263.617553710938 1.249555826187
-165.618225097656 -68.725723266602 -263.826812744141 1.384224534035
-163.641235351563 -67.690467834473 -262.376220703125 1.670339345932
-165.281250000000 -69.372322082520 -265.786315917969 1.787063002586
-165.279800415039 -69.960212707520 -262.766418457031 2.115993738174
26.235399246216 -70.370788574219 -265.183959960938 1.025842070580
-149.397003173828 -72.547645568848 -263.721252441406 2.500586271286
-149.355758666992 -68.966888427734 -284.267211914063 3.162751913071
25.175861358643 -70.025619506836 -276.351013183594 3.436214685440
-11.221286773682 -70.856201171875 -274.415283203125 1.871572017670
-125.380752563477 -68.135520935059 -284.452697753906 1.471606850624
-135.921615600586 -70.353744506836 -286.141632080078 0.909501731396
-134.037994384766 -68.428749084473 -288.576965332031 1.651709914207
-126.427627563477 -69.962799072266 -285.959442138672 1.247895836830
-113.939247131348 -68.249275207520 -289.948822021484 0.540094792843
-104.910285949707 -66.058792114258 -285.604949951172 2.692624330521
9.733917236328 -72.010337829590 -292.390594482422 3.339617967606
-84.579627990723 -70.052940368652 -289.970214843750 2.613412857056
-148.698532104492 -70.069320678711 -288.412506103516 1.054373145103
-101.299423217773 -69.560577392578 -290.771667480469 1.343483924866
-128.851470947266 -67.003929138184 -291.953918457031 1.343953490257
10.028633117676 -71.702438354492 -288.111206054688 1.972237825394
-111.636627197266 -64.418235778809 -289.150848388672 4.190553665161
3.322817802429 -69.514907836914 -293.121704101563 0.902673661709
-142.795104980469 -68.989036560059 -288.868133544922 1.899225950241
-152.564682006836 -69.987556457520 -296.027618408203 0.753441572189
-157.617248535156 -69.110351562500 -314.221191406250 3.441682338715
-154.827560424805 -68.705375671387 -311.908264160156 2.468152761459
48.271549224854 -70.848564147949 -24.447929382324 2.006687164307
23.720357894897 -68.973999023438 -35.300548553467 1.214379549026
31.228374481201 -69.856422424316 -36.420436859131 1.977212667465
-44.492378234863 -70.806991577148 -47.319587707520 2.283861875534
-12.319599151611 -66.942573547363 -62.056457519531 2.023279905319
94.692771911621 -69.722564697266 -68.187423706055 2.804129123688
69.032180786133 -64.604797363281 -69.402458190918 1.292983531952
-23.837074279785 -68.663681030273 -74.238555908203 2.125602245331
-97.666526794434 -72.604423522949 -86.230674743652 2.103529930115
-42.149955749512 -68.790321350098 -82.393562316895 2.806569099426
61.893577575684 -67.873031616211 -81.244781494141 2.409914970398
62.572757720947 -70.926368713379 -85.753021240234 1.507649660110
53.816089630127 -66.386787414551 -87.377052307129 1.223991036415
-58.570381164551 -67.604766845703 -90.139396667480 1.007633566856
67.144042968750 -64.866142272949 -89.095893859863 1.565780878067
44.019496917725 -71.700416564941 -97.681472778320 1.902916073799
68.817771911621 -70.108337402344 -94.467887878418 1.997685909271
-61.938167572021 -66.888031005859 -95.850585937500 2.752424001694
50.486267089844 -70.361946105957 -92.975341796875 1.548668980598
46.025642395020 -70.139076232910 -98.182693481445 1.839962840080
103.662147521973 -65.759803771973 -100.314453125000 2.440896034241
-66.166610717773 -68.555160522461 -98.692199707031 0.290865063667
110.927467346191 -67.846290588379 -100.120803833008 1.763854146004
-78.690856933594 -70.642608642578 -100.923744201660 0.981860220432
54.840423583984 -71.029747009277 -104.757041931152 0.855038523674
48.330093383789 -66.779067993164 -100.489517211914 1.582729101181
92.161247253418 -66.688232421875 -103.573768615723 2.786210536957
84.825241088867 -66.948272705078 -106.399093627930 1.322531938553
55.136486053467 -68.364898681641 -104.320304870605 2.205749511719
-75.968788146973 -69.192070007324 -110.872245788574 1.861951112747
-76.489456176758 -67.822151184082 -114.728935241699 2.030424356461
-80.046455383301 -69.773345947266 -118.132888793945 1.942196130753
-92.839851379395 -73.202850341797 -118.250976562500 1.691381216049
105.218254089355 -63.439517974854 -116.244224548340 3.728833913803
-88.050605773926 -70.864997863770 -118.795349121094 2.693885803223
-76.355880737305 -65.055656433105 -121.038818359375 2.548737525940
109.881095886230 -67.121200561523 -115.765060424805 1.436944603920
-61.277091979980 -61.319042205811 -117.831443786621 1.866805315018
114.075584411621 -71.561920166016 -131.145477294922 1.261351346970
110.403282165527 -69.645721435547 -129.132232666016 1.346810817719
107.636207580566 -69.293365478516 -125.514755249023 1.608227729797
-93.097564697266 -69.017486572266 -137.545440673828 1.734035253525
-46.679718017578 -68.428611755371 -141.551254272461 2.368523836136
-78.796508789063 -66.561286926270 -144.250457763672 3.397254705429
-68.968643188477 -68.517112731934 -148.737258911133 1.674149632454
-69.908424377441 -67.157951354980 -147.697494506836 1.831457018852
-54.808914184570 -67.836524963379 -143.377288818359 2.062165260315
-46.575641632080 -72.090843200684 -145.739776611328 1.088000059128
16.751502990723 -68.446624755859 -146.118713378906 1.205085277557
-93.797660827637 -65.609642028809 -142.648193359375 1.943390488625
-45.354560852051 -67.089775085449 -147.018508911133 2.570147752762
-51.809879302979 -62.728221893311 -147.415863037109 5.176873207092
-41.737930297852 -66.708740234375 -154.592193603516 2.082572937012
27.905252456665 -70.433219909668 -161.596572875977 1.006831288338
-49.673110961914 -68.778884887695 -150.719421386719 1.171525597572
-100.080322265625 -64.618934631348 -149.230316162109 1.647105813026
-44.973175048828 -65.678970336914 -156.554138183594 2.766548395157
26.084449768066 -70.226745605469 -147.878524780273 1.643640398979
-98.158081054688 -73.246200561523 -162.781646728516 5.089465618134
23.093772888184 -70.319244384766 -157.372985839844 2.216275691986
-107.292266845703 -65.948570251465 -169.618530273438 2.384684324265
-100.703125000000 -68.805290222168 -163.437835693359 1.889222860336
22.574058532715 -68.174758911133 -164.654327392578 2.275671482086
26.564477920532 -66.684555053711 -167.567260742188 2.571150302887
-107.932891845703 -70.611495971680 -173.420074462891 1.147331833839
-141.719207763672 -66.621170043945 -174.405715942383 1.329510331154
-19.423362731934 -68.800666809082 -189.131652832031 2.668898105621
-27.024650573730 -67.633514404297 -181.433105468750 2.408991098404
-114.928421020508 -69.729019165039 -186.782424926758 2.512236118317
-143.397277832031 -64.342796325684 -186.856307983398 1.467890858650
-103.012718200684 -65.940109252930 -181.424972534180 2.621979713440
-157.610168457031 -68.774780273438 -190.369796752930 3.673349380493
-130.814407348633 -72.590263366699 -195.072128295898 1.339327096939
-132.795974731445 -70.438194274902 -196.029006958008 0.930921971798
-19.424840927124 -66.740852355957 -189.181106567383 3.277995109558
-119.904693603516 -69.107940673828 -197.835037231445 1.235459566116
-116.588531494141 -65.355667114258 -198.825347900391 1.945414781570
-26.497856140137 -70.302368164063 -194.335739135742 1.616120934486
-153.912597656250 -66.302940368652 -197.756729125977 1.935396909714
-131.794326782227 -70.348731994629 -204.702987670898 1.196328997612
-124.506835937500 -66.497116088867 -204.376525878906 1.395317912102
18.555812835693 -70.284805297852 -201.579147338867 2.207370281219
-161.568130493164 -68.050811767578 -203.071090698242 1.015117287636
11.658349990845 -67.437477111816 -215.040328979492 1.499256491661
14.371976852417 -69.392257690430 -214.447723388672 0.875855326653
-16.584011077881 -65.023353576660 -208.809677124023 3.632673263550
-4.598802089691 -68.550163269043 -216.159027099609 1.149357914925
-169.601486206055 -66.077384948730 -210.235717773438 4.319471836090
-158.663696289063 -65.308525085449 -212.853683471680 1.932005167007
-94.271659851074 -68.300521850586 -218.334640502930 1.750773191452
-98.180587768555 -70.005722045898 -222.653640747070 1.394702076912
-160.517822265625 -69.032516479492 -225.090637207031 1.724842429161
-106.059951782227 -66.751930236816 -219.197097778320 3.603726387024
-11.640853881836 -66.862998962402 -213.997497558594 0.925661981106
-127.006126403809 -70.114822387695 -222.235229492188 2.158071279526
-141.684555053711 -69.203971862793 -223.993606567383 1.404886245728
-2.682669639587 -69.814506530762 -221.108734130859 0.615876853466
-133.875259399414 -67.006172180176 -224.712951660156 1.010416507721
-123.309440612793 -72.342956542969 -223.128402709961 1.680048704147
-113.907615661621 -70.502159118652 -224.672424316406 2.901758432388
0.764911174774 -63.834934234619 -227.947082519531 4.472455024719
-106.830848693848 -67.074935913086 -230.607894897461 1.907279491425
-160.028839111328 -63.552322387695 -222.906723022461 2.800724029541
-146.238708496094 -67.668510437012 -226.736495971680 1.811597824097
-164.986968994141 -68.005943298340 -225.124938964844 2.476519107819
-7.507292270660 -67.905815124512 -226.511795043945 2.862668275833
-7.974312782288 -68.568397521973 -232.395385742188 1.501482009888
78.889511108398 -70.445800781250 -225.242309570313 1.764315485954
0.318514704704 -70.268356323242 -229.313934326172 2.023401260376
-142.549682617188 -68.363601684570 -236.156448364258 1.417750597000
-13.809814453125 -66.892753601074 -229.011306762695 2.506525278091
74.513404846191 -68.629486083984 -227.812026977539 1.751192092896
75.115493774414 -68.740943908691 -232.863021850586 2.021812677383
-134.153121948242 -67.164001464844 -232.427490234375 0.718345165253
-156.959701538086 -70.961547851563 -228.402801513672 1.528517723083
-113.768745422363 -67.210578918457 -232.887649536133 1.392219662666
-124.296020507813 -64.466087341309 -235.615264892578 1.044612765312
-163.271728515625 -67.295463562012 -234.868240356445 1.680416941643
-159.668869018555 -68.901275634766 -235.699111938477 3.125385522842
-146.309158325195 -65.016273498535 -234.155105590820 2.781168460846
-12.322769165039 -67.448974609375 -235.172561645508 2.771993875504
-4.765748023987 -67.787857055664 -240.298645019531 2.260032892227
-160.298599243164 -67.076240539551 -240.682052612305 1.703489184380
5.905351161957 -69.248619079590 -238.002120971680 2.837895393372
3.281555414200 -69.114784240723 -236.465209960938 0.980924069881
-159.665100097656 -68.232543945313 -238.834426879883 2.396387338638
17.227241516113 -72.096351623535 -242.046371459961 2.024108886719
51.220363616943 -70.660934448242 -245.133483886719 1.786105275154
51.019905090332 -70.608139038086 -244.168487548828 1.123036861420
-15.556388854980 -69.481140136719 -246.776641845703 2.343988180161
48.624954223633 -67.276695251465 -248.946716308594 0.686224400997
-161.118194580078 -65.506042480469 -250.126739501953 3.051320314407
-158.750198364258 -68.746002197266 -247.474151611328 1.478644132614
-160.131713867188 -71.903488159180 -249.547119140625 1.927610278130
55.113342285156 -68.190567016602 -248.495574951172 1.881996273994
-91.872390747070 -67.382331848145 -252.718444824219 1.983503341675
-124.551025390625 -67.722785949707 -254.341949462891 1.272088170052
-105.530799865723 -72.408943176270 -253.589263916016 2.916489124298
26.908645629883 -72.053665161133 -257.235961914063 2.960714101791
41.630268096924 -66.524314880371 -250.958953857422 1.778298854828
-100.499404907227 -66.032470703125 -254.851684570313 2.236398696899
-93.359733581543 -64.564048767090 -251.551605224609 4.504828929901
45.748779296875 -72.089225769043 -254.273223876953 1.739063858986
42.517520904541 -66.902565002441 -256.495025634766 0.646589875221
-154.627517700195 -73.082717895508 -257.915100097656 1.598821520805
30.730978012085 -68.433860778809 -259.038238525391 1.838494181633
-142.644088745117 -71.361373901367 -264.257904052734 1.233938932419
-113.236862182617 -68.061584472656 -262.332672119141 2.054421901703
-136.802917480469 -67.472549438477 -262.477264404297 1.759689688683
31.492532730103 -68.146347045898 -262.551330566406 1.741788148880
-125.978805541992 -67.332557678223 -263.438903808594 0.891594827175
-11.036855697632 -67.281295776367 -257.938598632813 1.797069907188
21.771520614624 -71.517211914063 -270.813873291016 2.437984228134
-5.493718624115 -72.502975463867 -265.123260498047 5.518357276917
19.942409515381 -70.462211608887 -279.666809082031 2.250820159912
-153.117950439453 -70.385574340820 -282.376708984375 1.743284940720
-10.789432525635 -67.309852600098 -280.434844970703 1.130450248718
-152.968719482422 -71.982650756836 -282.437530517578 2.213534832001
-123.652549743652 -70.250671386719 -284.887054443359 2.086137294769
-160.343582153320 -74.284172058105 -286.182189941406 2.682357072830
-114.613975524902 -68.508590698242 -286.936584472656 1.629215121269
-104.324295043945 -68.883483886719 -289.400451660156 2.081151723862
-6.831744670868 -67.093696594238 -285.053466796875 2.076779365540
-108.191635131836 -69.879287719727 -289.052398681641 1.919485807419
-116.374893188477 -66.446731567383 -285.047454833984 4.093440055847
-120.160781860352 -65.715805053711 -291.463745117188 1.203361630440
-137.941162109375 -68.388160705566 -289.681457519531 1.484086871147
-126.123466491699 -66.356071472168 -291.358276367188 1.723599910736
-157.579467773438 -72.981140136719 -289.781280517578 2.298802137375
-146.742065429688 -66.843780517578 -292.654357910156 1.304885506630
-156.402633666992 -66.409736633301 -301.641326904297 2.909215450287
-154.068389892578 -67.085494995117 -310.907043457031 2.471007585526
-158.223342895508 -67.233520507813 -300.936584472656 4.438438892365
-141.652847290039 -69.632629394531 -310.445922851563 2.976268768311
-149.457351684570 -69.922233581543 -313.672241210938 1.469660043716
35.943069458008 -68.990127563477 -8.480903625488 3.089098215103
47.329654693604 -72.037292480469 -15.932592391968 2.114023923874
24.628513336182 -65.236389160156 -23.039489746094 2.869420051575
50.954994201660 -68.922195434570 -26.880451202393 1.437887310982
28.688840866089 -70.629104614258 -33.839416503906 1.901890039444
33.385646820068 -69.500762939453 -34.083000183105 2.746040105820
-57.189464569092 -64.363655090332 -46.970932006836 3.527147531509
80.403213500977 -64.528450012207 -60.663635253906 1.306777000427
81.693572998047 -69.091964721680 -66.327331542969 2.624008893967
-89.815010070801 -69.055557250977 -61.911643981934 0.897019267082
-12.081504821777 -65.660781860352 -60.982307434082 2.227980375290
-91.912445068359 -69.960769653320 -69.645500183105 2.729798555374
97.010887145996 -69.973228454590 -68.152328491211 2.491612672806
-13.176519393921 -65.199165344238 -67.491622924805 1.062517285347
68.207908630371 -70.576179504395 -78.251876831055 1.107934355736
-41.375102996826 -72.158775329590 -78.783622741699 0.654201507568
-26.634834289551 -71.592323303223 -75.294677734375 2.794919490814
56.779556274414 -64.863815307617 -85.671020507813 2.457020998001
-43.488029479980 -77.986976623535 -83.915359497070 0.810064435005
65.412193298340 -60.965576171875 -86.435493469238 2.822048425674
53.462699890137 -72.004180908203 -89.164390563965 1.720270395279
54.227340698242 -68.147094726563 -93.117752075195 2.599441766739
60.141925811768 -72.399734497070 -90.235427856445 1.870928645134
57.391086578369 -65.210792541504 -95.180335998535 2.687142848969
100.287796020508 -65.196006774902 -97.129364013672 1.761610269547
106.522560119629 -64.051742553711 -98.018829345703 1.655804753304
60.343502044678 -70.457107543945 -99.350395202637 1.128011703491
107.455337524414 -64.079559326172 -98.917671203613 2.381934642792
-76.385154724121 -67.629516601563 -98.729843139648 1.736988544464
-72.136489868164 -67.539085388184 -101.490852355957 0.991062939167
100.853691101074 -64.918754577637 -97.881256103516 1.104304790497
53.781570434570 -68.536941528320 -100.248283386230 0.733543455601
70.972694396973 -69.295524597168 -98.077934265137 1.621263742447
-71.950729370117 -68.080230712891 -106.832618713379 1.716845393181
-84.613769531250 -66.706832885742 -106.679809570313 1.688473701477
89.718620300293 -70.618812561035 -103.718467712402 2.208691358566
40.742321014404 -69.057945251465 -103.672836303711 2.046016216278
105.380149841309 -64.582092285156 -105.208984375000 3.034212589264
47.085853576660 -70.016029357910 -112.894958496094 1.307666897774
110.639869689941 -67.968894958496 -102.906913757324 2.306552171707
-78.176559448242 -67.451988220215 -110.521560668945 1.811963677406
105.050529479980 -63.796367645264 -107.938819885254 3.934476852417
-83.781906127930 -65.599143981934 -120.663589477539 1.385376691818
-58.056430816650 -70.105522155762 -127.953765869141 1.086570382118
-55.404750823975 -66.904518127441 -124.300720214844 1.689143896103
-71.984161376953 -69.200027465820 -129.382781982422 2.790868759155
-50.474407196045 -69.160812377930 -130.368072509766 1.933341026306
-83.558273315430 -69.431205749512 -132.356246948242 2.628054618835
-77.037200927734 -64.948249816895 -132.486999511719 1.252544641495
-80.119064331055 -67.956619262695 -130.404510498047 1.604349136353
-59.745365142822 -72.196289062500 -140.957077026367 2.489797592163
-71.156089782715 -67.628768920898 -140.106307983398 1.547112584114
-59.556415557861 -70.974929809570 -134.534057617188 2.640661001205
-58.143486022949 -68.143684387207 -141.285995483398 2.186815261841
17.179136276245 -64.439155578613 -143.223266601563 2.172294378281
