# This PCD file was generated using the MATLAB® pcwrite function
# from Computer Vision Toolbox®.
# .PCD v.7 - Point Cloud Data file format
VERSION .7
FIELDS x y z
SIZE 4 4 4
TYPE F F F
COUNT 1 1 1
WIDTH 1458
HEIGHT 1
VIEWPOINT 0 0 0 1 0 0 0
POINTS 1458
DATA ascii
-90.096161 114.844627 -68.777565
47.396183 122.410172 -72.296425
35.824551 125.572121 -72.045349
32.102566 136.258240 -67.508087
110.791054 133.774506 -67.813171
110.764824 134.315140 -68.571022
108.955040 135.086288 -68.233467
112.798698 139.508240 -70.165413
40.378178 143.458801 -69.422241
41.297977 148.383270 -67.966896
29.434530 145.819214 -68.355461
23.675516 152.710602 -68.510674
110.580452 153.787933 -69.644089
111.900375 158.914749 -69.464752
-47.111252 158.516876 -66.030945
23.213892 156.045898 -67.880554
-66.917107 162.586853 -69.824387
-71.774086 161.121872 -66.313065
109.759521 165.309219 -71.011635
115.548752 166.293793 -69.489464
32.072559 165.951385 -68.814636
-69.795563 164.403061 -69.034081
3.918571 168.595108 -66.991333
3.811748 168.310089 -67.410759
-64.852188 171.546783 -66.178986
-43.717834 174.177277 -69.715477
22.942402 177.438492 -71.053482
108.290321 169.357178 -73.113541
32.122257 172.862534 -67.639320
1.278283 175.836227 -68.237579
19.014654 176.123856 -72.350441
-62.905693 176.383453 -69.869797
-61.235970 178.452499 -69.252045
-42.782551 179.234116 -68.719742
26.991297 181.066742 -68.894226
20.103405 180.419724 -70.880791
28.250668 178.413177 -69.987129
21.930275 182.789368 -66.125641
-28.064926 183.969635 -66.971504
16.813627 185.729721 -69.343903
17.640619 188.672821 -67.369934
-58.775238 185.975357 -69.938599
107.489388 191.060226 -68.792618
14.862481 189.965057 -69.012192
28.094229 187.722565 -67.137329
-30.269335 196.344330 -68.822929
-46.375385 197.852814 -68.025688
15.331479 198.489151 -71.865120
-52.305279 196.890839 -69.749893
103.227715 197.626419 -69.490395
-49.922779 201.985809 -66.155258
-146.974869 199.568924 -68.626137
15.016538 202.499664 -67.960373
-41.057297 209.354935 -69.130173
16.491249 205.167801 -69.216187
-15.731712 205.432327 -67.497833
15.665330 206.691757 -67.852417
-135.893021 204.540756 -67.890923
17.673622 206.821716 -70.242737
-135.354858 210.027649 -67.736839
-140.581772 211.533249 -70.389259
-34.595734 212.945648 -71.425240
98.521141 212.864807 -69.041489
-155.388260 211.249008 -68.241730
-12.971076 215.541626 -71.604309
-32.372002 212.679230 -71.590454
-38.793961 215.065430 -73.579338
8.906528 218.415466 -70.216339
93.616241 216.877029 -67.792694
-74.056602 219.141403 -70.312210
-33.404591 217.827011 -69.931778
-8.187922 224.845337 -68.298599
-70.682655 222.122711 -70.745262
-35.808105 221.989929 -69.670906
-18.541683 224.492004 -72.468437
-25.889284 223.510574 -67.592796
95.167152 225.549881 -70.758316
-75.075005 221.780060 -69.379448
17.399342 230.305420 -70.308167
5.954308 224.576599 -69.310669
-4.964525 229.375443 -67.373955
-92.728752 228.098755 -71.896713
4.458159 234.742844 -67.289902
-17.394672 230.217529 -70.131111
19.424530 230.708908 -69.133568
81.138878 232.253418 -70.722229
-152.934402 233.446030 -72.034027
-13.629455 232.202576 -70.612030
83.674606 235.242233 -68.954300
-141.977463 237.086899 -69.542671
16.972649 236.240784 -64.821396
-6.148200 233.904694 -69.389168
6.991249 234.079590 -71.182159
21.591145 239.660645 -70.228645
69.594727 244.932495 -68.180328
78.104622 245.029037 -69.254227
7.959421 246.029007 -70.753181
2.296843 246.697937 -66.492622
0.039970 248.273560 -68.423752
2.888975 248.376907 -70.552544
-44.340397 246.833252 -72.766022
5.289813 248.750381 -69.513573
-36.163956 255.582520 -66.572250
8.227353 254.405518 -66.581253
9.229991 257.141663 -70.593658
18.504530 259.824219 -69.171135
18.888182 259.469635 -65.518623
-79.304230 259.006073 -71.731010
19.442032 259.726563 -69.803009
-74.264481 264.027588 -69.727173
-143.280151 267.228455 -67.842072
-128.784241 269.562622 -68.415619
-136.453278 271.545197 -68.341660
-133.038284 270.597198 -70.343025
-152.041672 276.079803 -73.789307
-146.793198 283.372406 -72.672478
-148.396713 276.326904 -71.714592
-151.603256 289.649353 -69.361755
-163.835922 294.188934 -66.350334
-130.174469 294.171631 -68.921692
-49.201649 295.220581 -71.103630
-61.825241 291.830566 -68.984070
-73.214775 296.712830 -67.754501
-0.049379 294.108398 -71.549515
-125.601952 295.359436 -68.420586
2.548288 297.103363 -70.996162
-135.369370 296.919952 -70.438431
-93.250389 297.403015 -71.282188
-81.181572 299.782562 -68.518219
-159.071060 299.200714 -70.012833
-139.592239 301.317291 -70.611374
-116.122116 299.522186 -70.061531
-68.376656 297.283356 -71.503075
16.159000 301.607788 -67.975006
-32.540943 301.427277 -71.808182
-18.265162 301.990570 -69.362877
-133.014969 301.858917 -69.297539
-131.701233 304.500793 -68.471130
-144.167114 305.343567 -67.781342
-147.050354 311.389008 -69.308144
-147.246201 319.421722 -67.595520
-57.152859 64.323936 -68.647469
-76.295097 65.419716 -66.237213
-77.659515 65.444069 -67.381264
-25.333996 69.767006 -68.583549
-20.011139 70.450783 -67.223846
-80.444092 76.238251 -68.018692
-86.566757 78.913757 -69.180023
85.727974 82.995781 -67.243958
91.851532 84.275780 -70.539368
-92.275101 85.762482 -67.112198
-28.899101 84.973190 -70.808197
94.775749 89.415535 -67.597023
93.251472 95.850662 -66.994026
-92.290230 86.056419 -64.183197
-48.498352 94.183357 -66.707581
99.535408 98.945503 -66.620049
-55.575874 98.618515 -70.681473
55.172058 103.371468 -70.427811
-58.389378 99.699989 -69.072289
50.768780 102.739258 -67.044044
46.140434 107.963928 -70.776115
54.256535 104.436745 -68.370865
53.338806 108.382980 -68.191994
43.765816 115.436470 -67.611618
109.212280 114.233871 -69.325104
-80.665649 118.986816 -67.009598
-84.125412 117.738762 -67.286133
109.850487 121.634224 -67.974365
46.514259 124.873688 -69.058853
47.692108 130.165726 -67.382950
-87.942444 124.771187 -69.613258
110.922142 123.850914 -69.573914
113.303139 127.924362 -64.437447
43.691948 132.796753 -70.217949
111.560188 135.652588 -69.783096
108.522980 140.357895 -67.787827
28.345228 144.016586 -66.606392
114.819832 147.803635 -68.744759
109.738792 141.564331 -69.359917
-60.591042 145.433762 -67.214127
-55.402657 147.574844 -68.735275
27.152708 152.007034 -66.654945
-53.243404 143.662338 -63.673107
-74.193626 148.906311 -65.709259
-71.290237 153.416611 -67.074791
105.793671 150.279587 -70.138573
-55.025349 155.649887 -68.763206
-72.997108 154.573090 -67.356720
-41.904232 154.875519 -68.447906
112.929634 163.211731 -66.096268
24.962551 163.315292 -67.561333
-74.824959 165.427872 -69.141029
-51.508678 166.270569 -69.195557
-35.773350 163.831604 -71.327477
-38.884884 163.682800 -72.242088
-70.671059 167.474716 -70.362160
10.837914 169.568222 -68.467636
-49.811172 167.886856 -67.535011
-45.941235 167.581497 -68.164001
30.359854 171.567688 -68.543350
-33.756927 175.228745 -69.347168
-69.168816 174.461044 -70.559723
107.841553 170.953644 -68.118401
109.384972 175.012207 -64.863686
30.382923 175.421173 -68.034714
112.623497 176.720810 -65.783653
107.986183 177.682053 -69.569016
18.449528 185.192993 -70.908600
-27.543709 182.442184 -64.991302
-52.759045 186.799026 -70.085228
110.480194 188.242264 -68.596039
-36.638527 187.789841 -69.177963
14.610696 187.354813 -67.652496
-34.183174 186.322311 -65.955910
-54.397141 192.151825 -67.509460
-147.855026 192.526291 -67.564865
-149.091599 192.856583 -66.346451
107.206505 190.349152 -69.822273
20.628473 193.758438 -66.645096
-55.717148 193.384949 -67.244003
-49.234653 202.169647 -70.578354
-47.463421 200.005478 -66.650833
-48.226826 203.244461 -70.399811
15.719715 197.949646 -68.394173
15.526231 197.561829 -68.710045
105.977699 203.523361 -67.267273
-23.984734 205.478745 -67.300865
-44.321590 206.554413 -69.080856
22.727333 206.885834 -67.417084
-42.542038 206.596558 -67.256149
98.775978 209.588257 -69.752144
-36.917938 211.976669 -66.335381
94.518532 211.064041 -71.353050
19.583033 212.754166 -67.112503
-38.154812 215.428299 -66.727753
17.428852 210.536209 -65.730423
-21.651110 217.526550 -69.574348
-39.676338 214.247635 -68.741524
93.260422 217.860489 -69.529686
9.272532 216.812698 -68.078865
89.956482 226.890945 -65.005745
-7.304547 221.539169 -69.878708
-24.267969 219.324966 -68.479073
-79.478226 222.358627 -68.590744
85.080566 228.003815 -68.660576
-19.374538 227.358582 -68.645729
18.421043 227.345825 -66.766541
-25.844688 227.909241 -70.784286
-29.736389 225.581543 -68.090279
-98.904106 228.958145 -69.504921
-9.499226 230.661804 -66.807457
-21.015480 231.160065 -68.200485
0.780659 234.179733 -68.154533
14.801464 231.896988 -70.630020
-14.263144 232.446182 -67.568993
-13.642368 234.822006 -73.132317
17.883617 233.334930 -69.340866
8.418440 231.658798 -69.051285
6.852583 230.606384 -70.218246
-128.904587 239.303818 -69.696106
-12.512730 237.065414 -67.679840
78.614189 238.620255 -68.411003
-16.044243 237.633057 -69.442368
-151.973907 239.306732 -71.504021
-129.020325 242.778473 -69.442261
-10.545826 245.469711 -66.994545
77.042870 238.229721 -70.041237
-7.268882 240.020538 -69.291473
-2.266436 244.384933 -68.884216
67.007706 247.409515 -69.546013
1.622829 250.968689 -69.122444
67.599678 247.602798 -72.208366
-153.810715 254.552109 -67.481575
63.282063 248.597702 -65.941208
-35.599583 250.248993 -67.927681
-37.730953 251.727509 -66.869148
13.479748 248.991959 -69.179611
-45.420361 253.967148 -71.091888
-25.487810 252.546356 -69.117035
6.778091 252.628387 -66.309273
-46.056156 254.652054 -69.527199
-144.647552 255.888062 -65.764458
16.195082 249.806625 -67.752296
-149.928955 251.393234 -71.782135
-71.135208 256.966156 -69.698082
-4.748523 257.846893 -71.060333
-8.534222 259.180695 -67.156311
-81.748100 257.795044 -68.682144
-150.855820 263.330963 -67.550133
-147.630234 262.142426 -73.571556
-87.311195 267.644531 -69.092438
-162.138626 269.205505 -69.098564
-125.418068 265.498535 -71.365135
25.198292 268.355713 -67.194351
-155.090363 267.049561 -67.502625
-145.267303 268.211914 -65.896210
-163.767227 269.607819 -68.074509
-135.647659 270.594788 -64.754425
-122.857811 272.453796 -69.418770
-161.007385 275.922882 -71.356499
-144.362350 270.809021 -69.052284
-166.323593 275.134064 -68.285248
-154.020615 271.511444 -67.496941
-160.591797 276.765350 -66.713890
-167.930481 272.266144 -67.784897
18.649294 282.862976 -73.790825
14.230481 282.882324 -69.791855
-159.111435 284.995575 -67.657982
-157.930786 282.645294 -68.510300
-167.049179 289.577118 -65.159637
-155.257019 281.767426 -68.267578
-152.136948 282.199219 -65.653877
-150.496063 283.561676 -67.566414
-140.898178 289.953064 -67.775024
-161.804459 288.267029 -68.716530
-153.684036 293.159698 -66.612083
18.751490 291.271576 -67.943703
-152.909393 291.837280 -71.092545
-159.947342 293.180847 -70.357391
-161.777618 291.693268 -68.110718
-127.344772 296.592712 -68.156296
-30.648567 295.590118 -69.450821
-43.257195 294.004181 -67.649750
-67.677666 298.793488 -66.646919
-14.701083 296.617004 -66.048470
11.761269 295.309540 -69.740227
-2.009406 298.989349 -70.419052
-111.196083 299.459808 -69.904930
-96.057549 296.708069 -67.664444
-113.295692 301.530182 -68.807846
-102.906441 298.454803 -69.023048
-92.431984 300.458618 -70.558716
-48.028793 297.890991 -68.224007
-118.328125 299.454834 -69.335503
-86.377647 301.502197 -67.590729
-115.953835 302.871063 -68.362717
-134.998962 301.046356 -69.591812
-10.878808 303.145294 -66.948029
11.840867 303.399506 -69.115295
-152.972748 304.922577 -68.793983
-157.713608 320.303436 -71.245491
-65.605057 63.992889 -65.427406
-60.093876 62.790985 -66.658676
-54.585812 66.919434 -70.732735
-73.727478 64.663162 -67.614738
-41.970242 67.038834 -71.135323
-78.226402 67.858170 -67.725761
-81.506889 72.283028 -67.390335
-18.496647 81.455063 -69.613701
-17.587887 81.924171 -69.442902
75.019798 84.592033 -68.073624
-36.823593 89.881821 -67.182892
-35.319927 85.733162 -68.666702
68.804611 90.301254 -64.549576
98.097389 96.321373 -70.236435
-55.284805 101.893387 -67.286926
60.127186 105.901024 -68.253227
48.045696 105.365486 -65.969826
49.577141 108.317162 -67.225479
40.297314 110.882736 -66.100197
109.183754 107.903114 -68.112617
59.693520 102.537689 -64.923302
-95.882233 111.595070 -68.843430
-74.944664 111.321579 -64.597900
56.532932 109.158539 -66.214996
43.728443 112.537628 -63.826427
42.921875 114.926888 -65.742889
-93.630409 122.358910 -66.924080
36.738434 119.330978 -66.556839
51.897572 122.167519 -65.988937
43.513435 127.934189 -67.781982
46.089771 132.315186 -65.971672
115.308441 138.268845 -66.240685
-55.927879 140.879440 -66.642693
38.349197 145.731827 -68.815063
37.678719 144.708847 -67.568993
114.184090 148.148453 -68.761841
-73.904343 143.094437 -66.055481
-55.414219 148.897186 -67.504288
119.764366 146.527390 -65.886574
-73.181480 150.117844 -67.261139
-48.459778 154.821304 -66.129074
-60.716751 153.638321 -64.258194
109.074234 149.330231 -66.986526
21.834738 159.610596 -70.425049
31.308771 155.883621 -66.755676
-43.493885 161.479568 -66.667282
-65.665962 162.175949 -66.904472
25.072758 160.658432 -70.598061
-72.533089 161.615814 -66.771629
31.422661 159.084183 -68.111565
-36.492611 165.490692 -67.511742
23.795698 162.715485 -67.539841
10.412168 165.067383 -68.541428
-70.929314 170.972137 -67.204102
-48.716816 167.448608 -70.619507
-60.572960 168.506653 -69.319687
-49.504112 168.409637 -68.641907
5.519788 171.004440 -67.938087
-34.036110 177.086472 -68.629929
-41.903328 175.435776 -69.447975
20.780355 176.501663 -66.932274
-41.462410 177.332397 -69.820267
26.514725 176.308578 -66.169739
116.253830 175.905869 -65.034454
-31.660332 181.358170 -68.265923
28.015055 181.530930 -70.057518
-66.233299 180.079590 -68.085533
-58.726986 180.405197 -66.414665
-42.599522 180.617386 -64.643402
-60.928154 184.795135 -68.629639
108.746742 184.845184 -68.016663
-147.489853 185.384567 -66.521599
-144.065369 186.966003 -68.603180
-57.068951 187.038361 -67.173538
104.950623 186.458069 -67.993965
109.354462 187.404007 -66.568756
107.254715 190.535721 -66.338615
24.109394 196.994064 -69.197990
-35.249523 190.418793 -68.952209
-138.073090 194.429245 -67.083168
107.145332 193.423752 -65.773941
21.505547 203.669769 -67.071648
106.013710 202.790955 -65.973526
103.817200 202.996323 -63.142921
9.892987 206.444336 -74.331940
-131.031235 207.048538 -67.694298
-123.536682 206.892014 -65.121605
-144.983765 210.273804 -72.150009
-131.414642 209.551712 -66.832039
-122.221123 210.837219 -68.342705
-21.539671 212.204361 -69.062744
-24.570269 211.767410 -68.830521
-129.822830 210.264816 -68.405151
-140.741776 211.567474 -68.845833
-12.833878 219.914337 -67.818085
96.441422 210.479645 -67.045410
-20.005285 213.659073 -69.453972
89.239151 219.984207 -64.311005
17.602877 217.431686 -66.932594
-5.800793 223.725357 -67.479141
18.291706 219.797470 -68.309746
-30.506020 218.824631 -65.586540
-84.777740 225.265106 -70.034340
-92.600266 225.395905 -69.668480
-12.171574 227.174606 -70.509003
-94.618393 226.028748 -67.834396
-95.949928 226.980148 -67.000961
84.659866 229.445221 -65.661461
-24.118427 232.565323 -69.313721
-22.429920 234.352066 -64.542328
-23.053078 229.568863 -67.116989
-19.148352 232.810410 -66.899704
-18.614895 231.535629 -67.092033
14.854350 231.878799 -68.474113
-139.057678 237.045593 -67.404816
76.605171 234.645767 -68.019661
-3.941535 238.726501 -68.991264
10.291501 242.494385 -70.134987
79.599228 239.078659 -66.956818
-124.258636 240.358566 -68.822159
-160.298935 245.069397 -67.515938
-135.819489 241.289536 -69.100708
14.464823 240.276688 -70.120926
7.803705 240.697113 -67.147018
-125.295280 242.735352 -69.754654
-1.556632 246.468765 -70.029900
-147.060959 245.763275 -66.418930
-3.576817 244.305176 -72.268089
10.863836 245.867676 -66.850739
-3.092593 245.797348 -67.511490
-3.372937 252.096191 -69.765457
7.064010 247.622787 -71.044128
-162.066132 250.873077 -70.511055
-155.981155 248.069855 -69.140167
19.505819 251.734283 -66.349327
-2.389238 249.014282 -69.626755
65.535027 251.479935 -68.544693
62.151203 249.695099 -66.131493
-164.802231 253.549194 -66.728729
-160.432617 255.246780 -65.655609
-151.515213 251.847992 -67.965866
-56.777805 251.869995 -67.153419
-7.308498 253.353546 -64.987579
-53.029072 252.753021 -69.272858
-153.852585 259.270935 -70.626427
-58.365433 254.888550 -65.580254
16.743782 256.621338 -63.774277
-9.806136 256.258636 -68.392624
-7.740491 261.047302 -66.747528
-159.302979 259.139862 -66.761147
-164.747818 260.031647 -67.445442
-84.658203 256.716766 -66.284508
-163.819443 262.061615 -68.767433
-146.568420 263.935699 -68.607956
-73.789841 263.211975 -66.774559
-95.477898 266.618835 -67.297951
-85.886818 262.522736 -68.179176
-134.382996 267.058594 -68.676880
21.957718 264.441193 -67.696808
-97.552040 267.128937 -65.105156
-100.969391 269.899719 -65.050415
-102.628387 268.898163 -63.905338
-114.802605 269.854675 -68.246178
-109.058357 270.988495 -68.498657
-115.641075 271.089111 -68.394783
-144.316742 274.502167 -70.020386
-130.563324 272.878174 -67.495415
-152.353317 273.654114 -65.825867
-146.453232 280.707428 -68.155922
-166.276215 285.763397 -68.213875
-9.622600 288.218231 -69.112236
-128.752914 293.858765 -69.504364
-138.733139 296.344086 -69.318535
-44.121395 297.677582 -67.287514
-87.780746 298.346741 -67.139450
-27.635777 298.813599 -68.956017
-33.240959 299.379150 -66.627213
-117.362846 295.312225 -70.431725
-18.181000 298.136017 -68.128563
14.135162 299.867096 -67.132111
-52.728748 297.132813 -67.485947
-117.275070 303.053864 -67.302734
-77.739594 300.058655 -64.911102
-69.521370 300.380310 -64.930176
-30.331156 300.043610 -68.289490
-100.243271 300.214905 -67.538010
-112.609749 301.381287 -67.541809
-10.514239 305.754425 -65.403778
-161.563660 301.830933 -65.508591
-151.259399 310.279022 -69.974701
-152.077484 323.502045 -68.675362
30.690790 26.264727 -67.918091
25.755402 27.404963 -68.698662
27.012753 30.884937 -65.547035
22.263723 35.900608 -64.540794
24.358282 42.684273 -67.640404
32.196037 48.226471 -64.494141
23.706997 50.718353 -68.488838
-55.933212 61.165443 -66.747147
-30.902895 62.386501 -61.872833
86.064903 78.843079 -63.604248
-90.332375 82.875938 -66.918076
72.000305 84.945282 -66.587990
-38.652546 90.372086 -69.992760
-93.484734 92.513321 -65.758484
-48.200359 91.975044 -69.941864
101.433571 98.501404 -67.581642
-93.344826 101.728004 -66.944458
67.766449 102.027512 -66.315887
-96.495201 101.659309 -64.673859
57.342381 104.357224 -70.899399
105.330406 104.991714 -64.111031
-70.295189 110.754776 -67.427521
43.543312 107.748550 -63.962826
78.186165 113.010254 -65.717186
85.207199 110.343658 -66.090401
43.476040 111.268967 -65.199677
108.102219 112.926369 -69.975189
-94.456230 122.774200 -67.666054
106.779236 114.392281 -64.432251
107.443626 120.183533 -65.945381
35.550102 126.764999 -67.132858
46.591354 122.923859 -67.801582
44.953468 129.350830 -69.985786
35.048595 128.791992 -67.414017
43.324886 128.049774 -66.997597
46.425327 131.347153 -65.015388
107.688614 133.168365 -67.699417
113.649986 135.408234 -65.753563
31.670193 139.478317 -68.559669
30.495707 144.053665 -67.664864
-71.705231 145.310257 -66.162941
-53.775574 138.347885 -66.467003
113.093132 149.190781 -67.834854
28.534008 144.100891 -66.115509
37.916950 145.914063 -63.588947
-79.092255 149.826385 -66.379013
27.648466 147.458145 -67.545242
24.327536 151.689056 -69.041229
-45.962955 154.215302 -66.112267
-72.479172 155.176102 -66.025986
-53.876266 156.622986 -67.065460
32.164223 157.038773 -65.535080
-53.820396 163.028992 -67.731094
35.743988 165.336884 -65.950600
29.812302 171.183121 -63.208252
110.551903 163.772339 -65.200043
24.642517 165.508453 -68.140335
15.126986 166.554794 -67.432899
-39.466034 164.338928 -71.649879
-72.449043 165.835968 -64.681267
-46.715378 168.628159 -65.676369
108.957497 168.454117 -65.094078
34.817444 170.458282 -67.344322
112.440125 173.271545 -67.904114
-35.361053 172.007263 -67.284081
18.787891 179.238632 -62.589382
0.813242 174.147995 -65.859901
-31.899073 174.149063 -64.544708
-61.326950 176.273773 -64.740395
-31.259710 175.811951 -67.451416
-58.800247 181.504379 -68.481140
-34.525505 183.759903 -63.782467
24.594435 181.155869 -68.092934
-39.178795 185.414078 -68.069221
-150.686050 187.854218 -67.543404
113.873894 185.191971 -65.428406
-150.000275 193.740860 -65.294754
-144.813538 193.462708 -68.370979
14.990511 193.070648 -65.634567
24.564043 193.039871 -66.556198
-37.504055 196.182953 -65.181313
-150.645599 197.870056 -64.233696
-30.064739 198.032928 -66.311020
-145.120285 200.534698 -64.124435
-18.595188 204.702530 -66.374939
13.729101 202.433990 -69.693230
99.037209 210.181229 -66.688713
7.672806 205.666946 -72.008980
-127.552284 202.598038 -67.914276
-131.996384 206.285233 -66.421410
-140.866043 210.268555 -67.925735
96.395416 209.086655 -63.963226
-132.960815 212.574081 -68.764961
7.395662 214.828049 -67.140915
-24.929338 213.558212 -64.719673
-135.947617 213.038330 -67.759377
-147.166077 215.708176 -67.264931
98.563911 218.432480 -68.917824
-11.593699 213.473572 -67.266289
99.317436 209.806671 -67.209747
-7.321483 218.332642 -65.751549
94.982033 220.430832 -67.308105
-145.248001 217.657288 -66.292717
-14.182697 221.444000 -68.955650
-153.085953 225.365189 -67.482521
-150.098633 218.350891 -65.815987
-16.304537 224.688263 -65.217255
-88.006004 224.173523 -64.276436
-159.275711 226.935211 -65.898026
-160.640671 219.961182 -66.051956
-154.011795 219.334244 -67.120659
-30.413830 225.353760 -67.113258
-27.852665 227.875488 -66.728279
-14.965853 224.501877 -63.343876
-16.645218 226.275223 -70.749710
-147.197357 230.587234 -66.580009
16.993769 232.049683 -70.863075
-151.164627 233.910400 -65.101952
-90.592682 227.213577 -65.450638
-164.501801 235.877945 -68.012283
-25.512285 228.192780 -62.191704
-17.982054 229.000488 -68.196297
-161.264740 225.338577 -66.146561
14.621247 230.337814 -65.378662
-157.497757 228.192200 -67.724670
5.707555 234.463486 -63.640556
-162.287094 232.966248 -64.962074
-151.441391 233.756790 -62.954056
-105.109283 234.342529 -66.926735
6.959105 229.350052 -66.707672
-158.757462 235.338028 -66.245148
-160.760529 234.024002 -65.222954
5.016494 234.088074 -65.440559
-113.905663 238.482040 -65.533951
-156.399139 237.628189 -66.822273
15.419936 236.032898 -66.934090
-111.711945 238.963669 -66.164146
-115.283386 238.325470 -65.191498
-120.843437 237.334320 -66.489616
80.268669 238.865021 -65.929512
-162.126938 237.673950 -68.414383
-157.500397 238.053802 -69.394173
-2.378256 238.356674 -66.604523
-163.294632 242.122482 -64.779121
5.579559 239.522079 -64.117897
-163.877731 242.416885 -66.880417
-162.074600 240.130325 -66.391365
73.604576 241.893021 -65.299522
-165.003067 243.881149 -66.461266
-166.719482 248.195511 -68.120537
6.325902 243.104095 -68.012032
-155.120117 247.617279 -65.024155
71.799698 246.719772 -65.928703
72.297157 244.455093 -65.361656
-146.430695 250.059357 -68.497475
8.397451 250.083008 -63.445641
-11.514979 250.375320 -67.798935
65.317871 251.448212 -68.665352
-166.429504 252.556061 -66.764229
7.725348 254.930054 -68.327766
18.887949 253.964371 -68.442574
65.805084 254.011871 -66.720360
19.892941 257.135956 -69.740959
12.157880 254.709137 -68.331795
-74.111320 256.843903 -65.553558
18.336700 254.433517 -69.207764
-13.400311 259.225677 -63.106411
-146.297623 257.746796 -68.346771
-65.212509 263.841858 -68.370125
-142.981949 264.545471 -66.747688
-127.815010 263.857056 -66.521355
-98.134377 265.227509 -68.591850
-134.115540 265.449860 -66.769051
-110.180504 267.958130 -66.387077
-112.656097 268.655518 -64.935509
-95.483131 268.047729 -69.470200
-102.970345 268.805023 -65.037895
-115.008820 273.973907 -66.684669
23.762056 276.001343 -64.413254
-14.199814 279.142365 -67.919403
-169.703293 282.386902 -66.992676
-145.119598 283.300415 -70.063057
12.217921 295.977234 -63.221264
-128.810333 292.265717 -67.570854
-125.913773 295.874512 -61.537266
-80.647545 296.321289 -66.728233
-52.736187 295.889709 -66.996780
-107.827316 298.697418 -64.776443
-39.169991 296.734039 -67.104546
-29.654972 295.818024 -67.062920
-9.525277 297.520569 -69.216843
-37.400539 301.055908 -63.967548
-59.198112 301.375244 -66.893272
-30.054882 300.412781 -70.348930
-19.623508 300.144745 -65.924675
14.503929 302.428711 -66.774254
-113.885887 300.276886 -68.639915
-120.231773 304.191986 -66.170082
11.244893 301.999878 -67.429977
-137.834702 303.279419 -68.882286
-147.132996 310.158936 -67.761139
-143.913193 313.285858 -68.412971
-153.339142 323.045837 -67.900795
25.978643 25.165020 -66.934410
45.355148 26.443346 -63.002327
41.984104 29.203783 -65.144279
45.936478 33.347755 -66.514709
43.936310 36.506985 -64.327805
47.022263 32.154274 -66.519234
24.649971 35.232731 -67.050941
23.772476 38.644051 -65.116058
46.277447 40.331841 -69.469765
41.120380 44.651257 -66.992950
36.714436 47.785183 -66.621033
37.608803 50.554325 -64.524963
-60.434620 60.604771 -65.230606
-50.241642 59.798161 -66.545868
-78.988945 60.630878 -66.285461
-73.285110 62.047955 -66.431145
-74.053551 67.214653 -66.652122
-24.895046 68.131950 -66.542999
-22.900206 71.222260 -69.367012
-16.593367 74.336052 -65.077980
78.100357 77.986824 -65.769028
78.399239 77.941765 -66.058632
74.612526 81.044861 -64.972725
72.763191 81.749924 -67.432579
-32.427292 85.228386 -63.123375
-48.412685 96.145493 -67.196198
98.707642 97.926407 -67.581673
51.602024 98.004128 -62.522167
-65.809372 101.173790 -62.166725
53.281998 100.580940 -64.745209
-62.736050 104.783623 -64.876358
59.205376 107.586853 -64.796432
105.498589 108.232193 -65.248505
68.464844 106.178101 -68.224312
95.181984 111.293045 -65.836418
106.341927 115.541199 -66.809547
-94.341850 110.579948 -66.208931
55.205631 116.073471 -66.350784
39.438179 115.702400 -64.542862
44.873081 115.152390 -68.696312
-95.484749 117.303078 -64.279129
-83.927856 123.687500 -68.299934
39.420681 125.467194 -64.790199
-96.981667 124.413429 -66.742645
44.536228 127.968880 -63.385155
108.569923 126.508736 -66.894432
113.230209 129.677704 -67.378502
107.727318 131.917969 -63.978615
112.394272 134.435089 -65.971703
42.045368 134.322998 -70.089081
35.382248 135.888290 -63.180305
42.799969 140.545441 -67.772400
35.422222 137.993469 -67.768234
-55.953663 138.805222 -63.619785
-51.948380 142.102890 -67.229332
-57.060928 142.248383 -66.163925
-51.030346 148.077423 -64.803795
31.078369 142.875259 -65.907181
-80.291054 144.435135 -63.823742
117.945351 156.550720 -65.896782
36.025185 148.773743 -67.757721
34.004391 154.491791 -66.702690
-65.383827 154.526993 -62.862766
-68.386627 157.510635 -66.047791
-72.957771 157.506836 -64.364677
108.964546 158.918518 -64.162674
-67.028816 162.063843 -68.631683
-70.856384 156.595306 -66.038116
-38.362015 164.402298 -66.983948
23.656725 164.929565 -65.514297
33.113228 161.243134 -64.971733
7.820083 164.553482 -67.071518
13.705503 166.388306 -65.662636
25.155893 162.889191 -67.681175
-35.366055 162.345642 -66.524635
-67.543694 169.752258 -62.411491
-38.694386 166.943466 -64.811203
29.283100 172.714996 -64.450256
-65.638847 174.889221 -68.028679
-66.038513 174.310013 -66.993279
-45.388084 169.724014 -67.230629
18.029314 173.504150 -64.311630
19.677748 178.792130 -66.442085
112.352196 178.538940 -65.293098
-27.319967 181.608978 -65.472473
112.040062 181.670837 -68.300713
-145.774246 183.206696 -64.282928
17.813366 186.167053 -65.802155
112.224876 183.553101 -64.657425
25.353096 190.474854 -64.160866
102.629601 193.592331 -65.903275
-20.241184 193.144073 -63.602432
-30.871250 193.535309 -70.468246
11.740566 200.595306 -66.502304
-28.460625 200.210495 -69.533318
-148.902252 198.153290 -67.071259
98.328568 202.704498 -68.457253
-132.712769 203.585892 -65.712395
20.543528 206.130707 -66.616783
103.473686 205.295654 -66.568985
-121.753181 209.060516 -65.738754
103.732056 205.912582 -67.847305
12.302097 207.395950 -66.742905
-155.103073 209.773392 -62.439899
18.271053 209.864761 -67.167068
-158.221756 210.651703 -64.660492
8.853549 207.601044 -67.064682
-121.898598 209.669220 -64.361229
7.775674 217.031082 -64.472534
-24.160839 209.017212 -63.307888
-161.819077 213.606522 -65.077843
-157.173477 213.454788 -68.458565
-154.162247 216.631134 -66.710983
-24.180120 217.268188 -65.794403
-153.476151 216.772339 -65.580391
-160.932907 214.448044 -66.789040
-150.563980 215.359283 -67.050308
4.754569 219.986938 -67.559845
19.414360 217.089127 -66.606598
98.834389 219.880844 -66.570816
-150.608017 220.067001 -69.978096
-163.487320 225.203812 -64.359673
84.025696 225.277359 -67.704231
-145.938141 226.709305 -68.007782
-4.886227 227.242081 -63.784985
7.194211 225.002945 -66.094002
16.986031 226.862350 -62.304745
15.389935 231.543015 -64.004349
-143.903137 230.765137 -67.606277
-16.795116 233.265579 -66.365341
-21.909248 231.241257 -65.837021
-98.495911 230.310272 -66.264908
-0.771055 235.459259 -64.056923
81.637360 237.550461 -64.751381
77.554131 232.128815 -66.161644
-99.123398 233.956940 -64.422684
11.583898 240.121002 -64.948654
86.817177 233.606293 -66.933777
-106.864113 236.457901 -68.241150
73.516129 233.144104 -68.651894
-3.429558 237.690521 -68.558693
-19.532696 239.669662 -65.365150
-8.761734 241.948181 -65.444366
71.853241 243.840561 -66.416367
7.978067 246.015930 -65.368843
-124.426636 242.960388 -62.459244
-163.279892 240.595215 -66.814690
74.927994 244.341553 -65.970222
-123.845673 247.591232 -65.367897
-7.233156 246.560287 -65.081711
74.000397 246.980316 -64.919113
10.695024 248.127426 -64.868164
-2.945526 248.772430 -67.036392
-9.565022 251.466614 -64.925827
70.484138 250.495346 -66.415276
14.728830 247.662628 -65.238518
-145.499847 255.924927 -67.669861
52.392445 255.992935 -64.421417
-11.921807 254.806229 -65.368202
-68.682884 258.178894 -65.969078
56.716839 257.582458 -63.703213
-67.060478 261.403473 -67.877045
50.259052 260.720123 -65.939659
-91.037796 263.482208 -65.637726
20.314571 263.258331 -65.681625
45.531013 264.209686 -66.660362
-136.244110 265.582092 -66.213226
-167.890594 269.070129 -68.347443
-108.996208 272.633453 -68.748947
-144.355469 272.092651 -67.863106
-144.596008 274.390625 -66.679672
-14.758586 273.289429 -64.377159
22.017855 282.167786 -63.850441
-9.715205 289.222382 -66.053398
-157.301422 289.724335 -66.823639
-129.971832 292.262817 -67.560326
-155.774750 297.397247 -65.680580
-90.560791 296.370789 -67.806015
-85.255989 295.293304 -65.630547
-47.030910 296.434052 -66.773186
-14.171515 295.098969 -65.221603
-37.406384 299.130554 -66.374802
-13.379178 298.541840 -66.183952
-32.473061 296.243774 -66.611862
-13.579084 300.447174 -63.687019
-47.894699 302.771515 -64.930374
-6.366481 298.754181 -63.882755
-73.042030 302.059479 -66.422035
-87.358437 302.421661 -66.730942
-102.348579 302.876648 -67.775459
-118.000702 302.236084 -67.592979
-133.762207 305.857880 -64.376152
-150.478485 307.023132 -66.297684
-156.473022 316.661438 -65.916336
-148.455963 321.889221 -65.626534
43.565247 23.892239 -64.915154
22.902973 28.640982 -61.503014
43.929916 30.138599 -66.289948
23.854734 32.118664 -62.642525
41.036995 43.712868 -66.967072
24.800755 46.490826 -63.982899
35.040108 49.346779 -66.055878
-61.368572 59.863396 -64.161400
-44.889629 58.628723 -63.553474
-44.031872 63.270821 -62.082737
-42.462872 56.136436 -63.166607
-34.563507 62.484348 -65.657867
-27.588362 64.590416 -63.931732
-18.125666 76.767311 -64.073204
77.246552 80.360970 -66.402130
97.423004 82.543800 -65.617058
-18.515829 85.056702 -64.088303
73.075729 83.613152 -64.336540
-44.658794 91.192589 -64.800804
65.927589 91.997589 -62.011833
58.873837 96.895302 -67.116539
60.801411 98.843559 -63.678989
53.821156 101.954353 -68.544296
-61.868301 100.371262 -64.394302
-98.830894 104.051949 -65.326920
49.117268 104.562538 -65.702301
103.862717 106.429398 -66.785172
62.498070 106.472267 -64.144485
73.650734 109.871834 -64.578087
-73.458229 110.059357 -61.481388
54.548908 115.699646 -63.442574
107.209282 115.154633 -65.179100
75.908966 113.421936 -63.291805
102.744247 112.066010 -67.230026
90.472595 113.565598 -62.746010
105.906387 116.560265 -63.946121
50.300690 113.476089 -67.090248
-88.457085 122.514717 -65.390045
42.322113 125.270172 -63.804588
-94.636848 124.770241 -64.809608
43.749573 126.995483 -63.552734
-78.395706 128.879929 -65.421036
45.385616 124.198509 -62.618095
112.878494 125.037727 -64.640968
37.206158 133.329117 -65.519783
-81.691689 128.460907 -64.165421
-85.002762 131.715591 -66.301727
36.151360 136.238586 -65.745781
-85.716728 138.264755 -65.620476
37.837044 132.934494 -66.282959
-78.365479 136.054245 -64.602234
-49.084835 141.104156 -63.401310
-55.616871 139.279266 -66.467102
-48.478165 142.418381 -65.577499
31.540073 143.938736 -63.407467
-59.388733 146.462280 -64.948837
33.812237 148.319412 -65.459328
-69.758392 147.198502 -63.913582
115.929558 154.587326 -66.496010
27.208981 150.871506 -63.867577
26.383316 151.410797 -66.239433
-70.036964 153.439865 -62.679108
-54.659924 158.985428 -65.204559
30.005890 152.548203 -66.156990
-52.006920 158.036270 -63.994213
25.937387 163.152634 -64.579941
-72.967957 162.102570 -65.051384
-55.614300 162.362869 -64.346420
-46.200123 161.513275 -62.700275
8.740246 159.410339 -64.907349
115.412796 162.801224 -64.659668
-51.075703 164.554306 -64.332001
30.040060 169.589401 -63.344345
-36.082047 165.266754 -66.089745
30.375481 168.472824 -66.476250
-39.052696 168.236038 -66.461327
-35.340397 170.011765 -61.028564
-44.821560 171.032211 -64.935677
-44.121605 167.925766 -66.135109
6.543756 170.567291 -64.788689
-45.377140 173.604050 -63.817497
24.308224 169.446747 -62.921825
-36.827827 172.723495 -66.714157
-32.773724 175.776657 -63.141300
27.071568 177.943100 -66.134239
-32.539028 179.741394 -62.287144
-31.856384 186.816254 -64.743591
114.760185 179.592331 -64.235283
16.969732 185.547028 -66.831703
-34.755093 181.807587 -64.085358
-28.525963 180.149155 -64.479378
-38.356731 183.817978 -62.820278
-140.100006 187.246826 -65.901405
-23.604395 192.410583 -63.493484
16.878433 184.934113 -62.268490
108.545708 191.318466 -64.048843
109.149414 191.045715 -64.909851
-22.194258 188.875717 -66.396751
14.369822 193.640076 -65.920593
-142.367523 193.340744 -63.235641
-27.091480 195.148743 -64.582802
-27.167202 196.307388 -63.066124
24.092791 195.723801 -66.813927
22.340736 201.571899 -69.618927
-112.656250 198.076752 -61.958527
14.128070 201.012924 -63.724838
22.550869 200.851395 -65.691788
-20.679672 200.138474 -64.078819
-113.685120 207.389954 -62.937771
102.616951 202.783997 -60.868034
-120.517532 204.595657 -62.072250
-137.649384 206.324112 -64.677841
-115.126587 210.286377 -65.108459
-112.822075 212.125381 -65.192795
100.346230 212.347855 -67.390800
-11.465189 214.034424 -62.315636
-18.369686 216.228073 -65.002899
99.169777 213.933823 -63.219627
-128.940659 215.314819 -63.140030
-20.236593 214.439194 -64.072311
8.526940 219.664536 -67.121178
-144.691055 215.998169 -65.042488
-8.366289 221.338593 -67.150291
14.647158 218.993011 -63.523045
94.181946 222.109558 -65.863106
98.267601 221.490463 -64.993103
19.823503 219.525101 -63.965145
13.768278 222.735336 -65.685516
-93.028511 223.208328 -66.380295
-90.435959 226.817261 -64.098930
85.428688 230.755768 -65.032799
10.430325 233.677567 -68.332298
-101.923332 228.834961 -66.972481
-13.762298 228.534668 -64.291550
-18.262732 233.472733 -65.054543
9.386485 234.274155 -63.887127
-7.041465 235.065842 -64.645790
-124.289268 234.114975 -60.619759
-8.030228 236.657333 -63.910297
-104.369667 236.415024 -64.134026
-139.661362 233.340759 -66.812584
-115.015022 236.682068 -64.560852
80.126350 237.731857 -61.992100
16.196737 239.737946 -64.421021
-167.579300 235.868210 -66.969604
-108.620331 242.926102 -63.800369
-116.574814 243.381378 -65.587852
76.261032 243.558975 -64.945648
12.215323 246.384781 -65.628334
-1.771909 242.972153 -67.631821
15.754573 247.813766 -65.739960
-0.821270 248.961288 -64.233009
72.168846 245.975922 -64.026680
-4.210265 248.828049 -65.120346
9.538872 246.258362 -64.749519
-2.956571 245.847977 -67.987839
1.169993 249.664536 -67.101685
3.984148 252.800354 -67.033768
63.992546 252.913956 -64.321808
8.886570 254.435043 -62.198154
53.160927 258.329987 -64.865311
-13.399221 257.134827 -66.189644
-13.759411 257.983887 -66.175323
-73.778336 264.205902 -62.688927
35.448200 264.314789 -65.133423
-79.213318 264.079529 -64.862480
-155.120834 264.996094 -64.323051
-83.270340 266.833923 -64.156868
-136.887268 264.222717 -64.050095
38.611130 264.247650 -66.952454
-110.755028 267.564026 -65.892265
-91.775024 266.325958 -63.190727
-153.637451 268.537231 -62.622158
-110.310295 271.808136 -64.039116
-165.919067 271.649933 -66.848320
-153.861465 274.078888 -65.882813
-150.266541 276.825806 -62.567104
-15.999059 273.991638 -64.306252
24.664640 276.684174 -64.298935
-155.423416 278.133057 -66.298973
-13.377942 276.566711 -63.318974
-160.928970 279.418762 -66.595039
-15.800904 283.165619 -61.553909
20.676214 285.899475 -66.627060
-160.939346 292.007568 -63.344727
-162.651627 288.573639 -64.658546
-157.227051 291.523895 -62.589638
-124.841743 292.931580 -62.642879
14.486060 294.308716 -63.528709
-136.939896 296.116028 -60.801800
-91.058907 295.933472 -63.449253
-78.328354 294.016266 -65.349770
-73.738976 296.891144 -62.943245
-70.047127 296.295868 -65.645973
-54.823151 297.934479 -65.806015
-158.673279 294.785400 -63.716076
-69.244957 296.606140 -62.853523
-60.792370 299.305023 -66.801765
4.512147 301.263489 -64.607086
-79.110542 302.747528 -68.387108
-103.965080 300.937927 -64.037888
-122.422005 299.665131 -67.678734
-154.363342 303.805969 -64.800369
-128.250381 305.234314 -62.205410
-145.774261 318.212952 -65.363029
-152.472046 322.171387 -63.424316
41.411938 33.002083 -59.844219
51.029282 35.223221 -62.044701
47.095688 43.359711 -61.998207
-50.343246 60.061192 -61.421535
-72.373924 56.523041 -63.222786
-32.671860 59.778088 -65.617706
-87.712875 73.850990 -65.190384
82.157677 72.888428 -61.368835
87.081985 76.719048 -65.968979
-13.644071 79.409264 -62.333179
95.440216 83.304504 -61.512691
67.738426 80.847931 -66.111763
-39.292736 88.539612 -59.757931
-43.800892 89.477554 -64.604279
61.704212 94.908333 -63.232014
63.612396 100.338753 -64.765770
102.468399 99.874260 -65.526237
-59.276783 97.499702 -63.697186
-96.177216 101.885529 -63.330566
47.322842 107.555504 -67.109543
102.908577 103.990318 -64.574883
107.014320 110.016106 -64.439468
73.453766 110.265335 -62.547359
51.413025 112.869919 -59.333035
-96.411736 113.736252 -63.154469
48.470760 112.348274 -61.175808
53.422104 113.432655 -62.042809
81.376266 113.079132 -61.792240
85.261330 116.382568 -62.958069
-96.757172 114.176445 -64.534546
38.817196 117.090897 -67.824631
48.011559 120.014069 -62.980003
103.982384 115.900261 -63.760544
39.703144 122.108490 -66.163551
37.934250 118.787872 -65.508163
113.018127 120.593277 -64.869186
35.105198 123.915627 -67.968430
108.291206 126.667686 -66.453476
-76.875458 123.339630 -61.891800
-85.067734 131.205994 -64.641304
108.941544 134.499451 -64.945946
36.548126 139.304382 -66.509140
-61.508953 137.463608 -63.368786
-87.698097 135.357391 -60.333805
-58.563587 141.994522 -67.622917
-86.637115 138.035980 -62.389954
-72.184441 141.171265 -63.134434
-48.936554 148.119049 -66.294586
-88.276001 144.792892 -63.540726
-75.703148 145.539337 -63.079639
-76.884727 144.575150 -59.904915
-45.400570 144.028748 -66.509041
-76.974754 149.110840 -64.360825
-77.435738 146.967484 -61.718414
110.005241 153.335922 -65.684021
27.469887 153.803726 -65.877693
-43.011612 157.451752 -62.754173
114.473587 153.697845 -63.217934
-55.474216 156.289230 -64.140228
-53.002750 154.131287 -59.591999
31.913555 160.492554 -64.851387
26.929031 160.312057 -63.718811
116.941422 160.746185 -68.054665
-46.436111 160.290329 -62.402103
9.985380 164.267914 -59.999065
-48.338272 167.677429 -63.268658
29.975521 163.363724 -64.496582
110.169472 162.774460 -62.214142
114.629112 168.088989 -63.971291
32.012039 166.858093 -61.607258
112.036285 167.199371 -65.384018
24.472120 173.796814 -65.951660
111.594055 169.163727 -66.724281
26.084070 172.092865 -63.949596
25.566195 175.004303 -63.702827
111.100822 176.291611 -63.392635
-29.280216 178.156509 -63.584080
-40.291622 180.086319 -62.267776
26.946712 184.315002 -65.177940
-140.913666 185.407043 -62.596935
-35.858891 187.539566 -63.259369
-108.728943 191.879227 -64.206467
26.487104 189.243271 -62.307453
-152.272644 190.642548 -63.963463
-24.417627 188.168396 -63.555714
-33.668583 193.705154 -70.252502
-145.344498 193.762238 -66.068077
-111.958824 194.889954 -63.540524
-33.008507 196.662964 -63.306557
-108.644005 197.616501 -62.901134
106.930679 199.300964 -63.125694
19.213787 196.155579 -63.793690
-26.819252 200.333923 -61.881561
15.220871 195.737335 -61.936588
-20.630516 204.959763 -64.023628
-25.852558 202.108124 -62.603477
15.001176 203.890839 -63.676445
21.029915 202.676743 -66.177765
-21.632132 206.410446 -65.050804
-108.784744 206.650009 -65.455704
-161.375916 209.680496 -63.167267
-13.182349 206.619537 -65.021194
-13.886837 208.637390 -68.212128
20.022156 209.777985 -63.312527
-14.704965 211.407776 -63.056599
14.528784 211.045563 -63.647259
-114.057053 210.483398 -65.271286
-119.934021 213.119125 -61.259682
-23.389412 216.214249 -64.880898
18.204922 214.902023 -65.329849
-128.697922 214.326950 -64.403206
-143.839737 214.551346 -63.528687
13.494060 218.497772 -64.595680
16.640909 219.791504 -61.155048
-16.421207 217.012314 -61.906784
-8.748831 222.640076 -65.429276
7.550796 221.761230 -60.965752
93.542252 218.945160 -62.329861
-13.647798 223.898483 -63.577541
13.788984 221.439743 -62.459152
15.931057 222.425735 -60.741634
-12.867144 226.795288 -59.347984
-101.492729 229.327667 -62.798714
-3.554018 230.652466 -65.572578
-104.004997 233.001968 -66.294167
14.207424 233.672455 -64.174301
-1.157124 234.168167 -64.343040
82.606819 235.375763 -62.577614
-109.332001 234.584229 -64.890121
-133.292099 234.607758 -65.672836
-15.526644 236.017868 -63.816933
5.414551 239.271317 -66.218254
7.266535 242.086212 -67.020691
9.887806 241.345596 -62.300480
-2.729128 243.416229 -63.556515
-125.246498 243.434250 -62.857197
-139.758133 239.242096 -63.978542
17.063593 247.095474 -64.873291
-12.857705 240.890976 -63.761845
-156.334595 244.467209 -63.762733
-151.225830 255.986801 -64.856445
-149.992584 256.244415 -62.501022
1.409544 244.428345 -65.202248
-153.312805 251.430283 -64.603966
56.967152 249.219208 -62.921795
4.954863 251.570297 -65.288383
63.147114 253.080887 -60.816860
52.997868 254.024719 -64.456764
56.937580 254.771729 -63.399254
56.179863 256.913544 -64.161461
-12.179523 255.227798 -61.783997
-152.975906 258.428467 -63.698460
-155.549759 258.790039 -62.263073
-77.033592 260.439667 -62.477596
-88.981819 263.071869 -68.312874
-87.900650 262.117920 -64.711700
-87.889297 263.684509 -61.839714
-161.602692 265.955292 -59.541210
-125.770256 265.646698 -65.098099
45.787216 264.945557 -62.951817
-105.415154 265.744019 -61.212418
-124.566360 265.024750 -62.749863
-154.729401 267.423309 -64.078804
-169.482071 270.807587 -63.166458
36.554905 269.074036 -63.758610
33.169941 270.086853 -66.131691
-160.664597 272.906738 -65.701500
-136.171219 270.803711 -63.683964
-158.256958 276.350281 -60.205463
-167.132431 285.842133 -64.118553
22.626152 278.971191 -61.391087
-163.505219 282.238525 -62.463425
-161.125977 280.098663 -63.602215
-163.963104 286.905884 -63.778896
-9.125344 287.410919 -62.773754
-145.630325 290.080841 -63.127659
-162.329697 294.846893 -64.341217
-133.159409 293.487976 -65.488541
-134.788361 294.429169 -62.622864
-163.008545 294.190582 -61.813194
-94.670593 293.469086 -63.002914
-73.443123 299.517303 -63.625454
-83.942276 299.936249 -60.596661
-71.562569 300.533173 -65.500381
-149.603821 301.606964 -62.522011
-76.292252 299.038483 -63.175068
-126.269577 303.863312 -64.969086
-138.192093 300.762360 -62.791931
-145.262177 305.780243 -61.790211
-144.597168 315.908630 -65.433426
34.592426 22.902843 -62.385696
25.245804 25.598536 -65.503609
47.804192 38.535744 -63.304672
46.399441 42.795391 -62.157066
34.506557 45.900379 -60.013447
31.859882 52.068775 -62.881866
-59.141674 57.775616 -59.015900
-35.843483 59.520981 -62.493977
-82.185417 66.231361 -61.388653
-89.900375 75.258331 -68.063766
82.855072 73.899628 -60.549221
-13.770694 77.993240 -61.503181
-23.638632 82.433929 -62.309185
-25.013773 84.158768 -61.239357
-35.384296 84.617767 -62.852230
70.230957 88.463844 -63.820595
101.599693 94.504440 -62.528950
66.164764 94.372696 -63.087215
60.793293 98.352783 -63.523476
63.213497 98.404793 -63.491039
55.585842 97.407806 -62.648720
101.325798 105.995842 -60.628456
50.494247 104.448532 -63.093437
62.988964 101.202263 -65.843384
-97.256538 105.000229 -62.262032
44.476994 108.580688 -63.618546
100.646759 109.031944 -58.848301
-74.726730 108.211937 -62.299969
44.175888 109.387436 -60.414234
75.639198 115.231400 -60.305725
-79.238892 113.233131 -66.958099
42.711399 116.094940 -64.699982
51.839916 117.007919 -61.909096
-83.631973 120.556244 -61.604679
107.752174 127.519806 -62.261379
35.629852 127.049774 -65.216492
39.539928 126.017593 -61.754551
-91.805443 131.322083 -62.908566
37.143921 130.162399 -65.416672
37.353500 128.922623 -65.855133
111.015503 130.763107 -63.159336
-77.777115 138.850677 -60.786724
-56.551971 137.362579 -62.266525
-57.681915 136.159958 -60.008419
110.804955 135.962570 -62.220482
-78.182541 138.122162 -61.948967
109.585625 146.227097 -63.307159
-73.603813 142.946411 -64.080688
115.199997 141.186386 -63.306984
29.546675 135.909515 -67.118820
112.641792 145.242783 -65.399780
-77.941017 142.862946 -60.801010
-51.568478 144.592484 -61.056995
33.399574 144.331558 -63.844551
-60.180244 146.012634 -63.907761
-57.509407 150.814438 -64.733658
27.291279 153.930557 -62.048111
28.868280 150.283966 -64.081650
112.629494 151.213287 -65.513573
31.073446 152.726334 -63.014694
-79.078346 147.625214 -63.750229
-91.183296 149.701706 -62.319992
-57.532642 152.036575 -62.445625
-59.230015 154.479065 -59.832363
19.837557 155.135117 -63.071362
31.257256 157.957703 -60.566257
-42.790878 157.308975 -63.381332
-72.515617 157.126144 -63.980400
19.570892 158.992172 -65.113670
27.700241 165.270416 -61.418568
-44.668213 164.241089 -62.869019
28.964582 161.699219 -62.358059
-40.964558 163.590912 -61.732868
-97.271042 165.043259 -60.557888
-101.290047 170.531204 -62.941338
19.578730 171.906158 -66.434616
-45.271641 171.099762 -64.812721
-102.594719 172.454163 -63.454433
-100.214096 175.891113 -62.824345
-99.375946 176.473648 -62.625145
-33.800686 173.150833 -61.788700
-103.831329 173.983841 -61.088802
-33.359833 180.164642 -62.096581
-105.155838 183.041580 -63.419125
-32.303413 183.112717 -64.420074
-30.370892 180.060242 -62.446613
-107.616798 186.927185 -64.781967
18.819006 182.700409 -62.039497
-36.298641 185.910751 -61.985985
23.036516 187.719437 -62.673405
-34.245945 183.770294 -62.333267
-29.027655 184.761063 -63.198166
-32.101517 186.429123 -63.176498
-106.180878 189.067261 -62.559132
-26.915377 191.233154 -61.227158
-30.001825 190.790390 -62.712086
-140.194031 188.160645 -61.868000
-112.656540 198.595230 -62.736183
-106.019562 195.996796 -63.002449
-110.376160 199.389359 -62.283089
14.684974 198.625626 -61.586376
-24.236115 198.473938 -60.867146
15.737411 201.778107 -64.265739
-153.083160 203.221451 -60.561848
21.756828 203.568375 -63.699654
15.679229 205.327621 -60.825848
-119.717590 203.201767 -61.153767
-109.980125 206.953201 -66.100388
-19.610918 206.848251 -63.776974
-169.298370 208.915894 -61.842876
-165.227264 216.008606 -63.157871
-111.626976 213.714447 -61.886333
-12.363063 216.837036 -65.535828
-136.808578 213.059967 -63.081955
-8.367197 220.658936 -61.385342
16.800005 218.222977 -60.980400
-158.004486 220.393143 -61.380375
11.813807 224.868057 -65.111519
-159.295044 225.327408 -61.979797
-5.568017 220.922455 -63.415962
12.904919 230.304550 -61.667740
11.143826 229.953018 -64.584656
-1.849788 227.953522 -63.202953
-143.466858 230.553116 -65.066452
-156.863434 229.168655 -63.307495
-159.431564 231.296432 -59.489578
86.561447 227.808121 -65.677017
-3.872071 234.140228 -63.219555
-150.884903 235.253159 -64.155167
-133.160019 232.639587 -59.252972
80.835999 237.280823 -61.923500
