# This PCD file was generated using the MATLAB® pcwrite function
# from Computer Vision Toolbox®.
# .PCD v.7 - Point Cloud Data file format
VERSION .7
FIELDS x y z
SIZE 4 4 4
TYPE F F F
COUNT 1 1 1
WIDTH 1426
HEIGHT 1
VIEWPOINT 0 0 0 1 0 0 0
POINTS 1426
DATA ascii
111.039009 -69.598618 -170.825851
-23.273775 -71.377396 -198.054230
66.100555 -68.145805 -89.727348
48.615387 -64.391953 -20.856321
-141.472534 -78.329468 -231.287521
5.149184 -77.872498 -238.462860
14.136324 -77.405983 -293.463501
-53.710629 -46.649799 -82.079445
-149.915375 -62.506115 -264.550110
24.380350 -54.923515 -279.609100
-59.225140 -27.420952 -65.254852
17.675539 -67.535919 -202.002472
77.716751 -72.425751 -233.323364
-98.794724 -37.914780 -69.208496
-155.110001 -64.106209 -255.965286
-149.920776 -84.911316 -263.392426
10.096115 -77.826996 -202.811356
-12.697547 -49.268024 -52.557388
18.146427 -74.456558 -225.125351
-5.548524 -62.567669 -248.264252
26.619371 -65.435249 -138.095306
21.004959 -56.993366 -248.605606
-85.030975 -70.011383 -57.706554
-155.809189 -70.231094 -261.253479
22.863422 -61.482044 -35.331501
-29.956728 -77.591782 -209.905472
-36.343300 -70.581352 -76.466873
91.092873 -46.715889 -65.340195
-90.520271 -72.566780 -251.884064
57.533092 -56.707069 -101.284866
-95.580917 -75.343430 -289.151154
-65.854149 -64.367447 -120.464584
-63.600140 -59.456089 -105.239075
-1.700797 -73.423637 -238.693771
17.683760 -77.640762 -217.886169
-41.643654 -79.906975 -67.857071
42.842583 -67.436005 -106.329224
86.946037 -43.788578 -79.352753
47.254387 -50.241428 -32.121693
52.771523 -72.579430 -247.938858
12.440342 -53.599426 -237.329376
-29.191063 -80.093643 -184.977203
-147.894455 -60.853046 -193.227554
16.390282 -79.219009 -217.393036
-148.770142 -72.525826 -230.583588
68.032494 -64.978867 -100.124672
-57.579498 -54.967182 -43.448307
47.232616 -68.225693 -254.489899
-140.228531 -72.679848 -200.866440
98.895363 -65.680695 -68.368340
77.245155 -51.899494 -72.698372
-150.041061 -83.469154 -246.285553
-1.197282 -66.926956 -231.040314
-82.017365 -68.278816 -113.307014
89.114571 -44.521072 -55.407673
-70.801918 -74.260506 -286.320984
-79.719498 -66.552887 -134.873169
-13.692982 -69.096664 -227.823380
28.448837 -66.539497 -20.459379
23.224239 -69.797005 -150.987579
7.747553 -52.864014 -240.306198
-4.552362 -79.068253 -172.481094
-152.508377 -74.281631 -273.343689
-12.426302 -69.902122 -274.181793
-79.540619 -81.762512 -82.626434
-32.050472 -74.695503 -78.435722
91.534462 -45.395035 -107.501694
-80.449669 -70.589821 -290.997375
-100.274345 -73.697151 -222.747574
8.234308 -73.255150 -216.843994
-87.484390 -67.560448 -111.486107
-41.547619 -39.042599 -66.289238
-22.767998 -46.123825 -54.185234
101.848335 -51.464508 -81.087929
-80.221710 -68.212372 -133.984650
-142.172729 -78.388901 -289.671783
-58.667759 -72.016136 -141.864578
-151.542953 -79.918289 -282.009857
66.182625 -51.456043 -72.641479
72.775955 -52.430191 -75.868431
10.106703 -69.352859 -227.402298
111.645744 -69.316460 -160.585373
-152.913589 -82.239777 -230.530350
-98.608795 -68.899193 -223.070572
56.686001 -59.116154 -104.905853
97.579826 -66.664673 -104.138802
101.585030 -52.987656 -67.313461
-100.102470 -57.170341 -95.319443
27.662825 -60.275368 -39.755463
21.682632 -61.644699 -245.646622
70.847237 -73.849411 -81.913345
-67.940277 -59.087643 -123.071327
43.004478 -70.661011 -31.706699
-23.206999 -76.290611 -242.872406
-13.174845 -55.734901 -238.343887
-54.807190 -70.339523 -127.801567
-125.392334 -66.261978 -263.276703
75.111031 -55.662163 -58.685638
34.145817 -68.528130 -135.658356
-74.644493 -79.484283 -214.169388
-10.249725 -78.696739 -269.863403
28.316458 -78.129105 -157.168198
-36.744736 -74.511154 -208.578369
-166.660812 -69.144783 -253.444229
22.392494 -56.788963 -250.343781
-52.314613 -65.752335 -135.194443
-136.029770 -73.981400 -292.271637
-130.324203 -63.165882 -197.332077
91.722633 -61.224648 -60.964622
-64.264862 -53.479916 -70.776749
1.284575 -66.117722 -230.090042
-81.907829 -63.574986 -48.312920
44.278912 -66.386436 -25.398460
-148.941650 -81.060982 -290.568054
26.918644 -79.718483 -166.028778
78.984642 -75.267654 -223.967026
64.444946 -53.015511 -69.832054
-117.402138 -65.646805 -262.298584
21.802000 -68.370003 -276.180847
-70.937317 -68.382607 -149.215103
-1.233132 -84.397552 -266.332642
35.230217 -67.122612 -258.488251
93.148659 -69.602371 -211.637787
29.466932 -70.893631 -18.995018
83.352592 -44.830109 -54.162609
-142.123215 -83.229599 -230.122162
98.361069 -59.751678 -64.252235
24.369276 -65.395088 -37.258427
-153.220551 -66.473984 -180.298828
-16.843962 -79.894531 -202.969620
-163.072235 -75.180344 -289.025543
-14.346193 -72.453156 -269.674500
-25.888388 -77.282700 -174.860596
16.957264 -70.889458 -207.384338
-47.405888 -73.073517 -161.662231
45.074535 -71.009682 -26.248232
-82.911255 -26.609022 -57.112072
18.716347 -71.342911 -174.931046
-48.664856 -69.009018 -133.214752
-45.723053 -68.483299 -142.455948
-47.290394 -72.151810 -157.439545
16.447613 -79.236145 -205.491043
32.112690 -71.856110 -12.569536
43.230232 -50.520599 -32.794910
15.597052 -72.821602 -184.639359
85.804497 -44.727631 -63.369827
112.742310 -74.946373 -175.332764
-63.488979 -55.714085 -104.946655
-125.033287 -73.951080 -226.675919
-12.390600 -50.431499 -246.949997
-9.965744 -72.748596 -245.289017
29.220022 -79.073738 -163.430573
-135.445007 -75.522774 -287.442078
-125.219788 -70.283958 -234.949631
40.730591 -56.860069 -115.534386
-18.195866 -57.714096 -269.578552
-13.923030 -68.936417 -247.450882
-35.795219 -79.675423 -200.075485
25.054811 -69.600578 -265.305389
101.091919 -67.853317 -99.260559
25.216488 -68.632416 -148.741791
69.526276 -68.696716 -71.059029
-162.678253 -68.246727 -247.393661
23.935415 -55.537315 -252.539291
-26.177134 -70.311417 -184.963058
-38.240662 -76.731544 -171.583099
-94.990623 -63.682617 -153.718704
64.660904 -54.582001 -88.891342
14.645914 -53.889874 -293.347137
-132.652039 -64.966911 -232.869812
15.276114 -72.893478 -237.652542
-70.443413 -77.739395 -212.619186
-78.111450 -65.203438 -127.608215
-98.593216 -68.712807 -154.340958
87.833939 -44.581352 -68.145737
-6.754657 -57.950932 -283.052216
-103.742897 -70.940010 -260.579376
-69.225517 -72.400108 -246.619781
-22.015108 -83.014908 -179.842834
-62.160183 -79.728424 -165.865601
15.605977 -82.126083 -264.304138
23.804342 -59.388092 -36.614738
-37.774960 -77.690369 -288.491211
26.603893 -72.520149 -32.412197
92.014961 -54.564423 -85.741455
-141.222580 -65.564674 -177.288513
86.096252 -53.863522 -78.493233
-74.541977 -67.805382 -104.257858
97.986366 -46.392063 -65.019135
4.284026 -50.621788 -244.423798
1.838758 -63.332634 -292.443573
-147.636932 -61.953445 -245.066742
-78.461937 -42.106144 -47.335831
-154.247833 -67.652008 -199.353302
-15.805114 -55.976837 -257.957733
-124.860840 -67.931610 -263.681793
-136.848938 -77.219864 -201.795364
-144.848129 -64.968559 -193.281387
-54.488411 -74.229523 -143.650055
-153.987473 -72.487343 -222.418152
-51.863594 -75.730682 -143.169296
-141.168411 -72.740433 -232.065811
-4.497175 -68.968575 -216.435287
-144.411957 -69.243546 -236.139603
-151.096451 -67.319138 -312.488220
95.706619 -45.897705 -59.740231
24.196516 -71.559052 -191.582489
-153.773605 -67.926247 -311.541229
3.052224 -63.829105 -265.121185
32.419407 -67.039963 -254.229721
-47.779594 -54.826630 -78.756630
-52.132904 -83.359726 -77.020775
103.038216 -65.932762 -76.587051
-94.539078 -49.481560 -118.178764
-12.090870 -74.735840 -292.083221
81.195770 -55.992683 -84.918152
46.244740 -71.200630 -248.463028
-149.630798 -81.270164 -209.536514
103.832870 -45.014122 -93.565964
-94.271545 -62.998962 -150.230316
15.079098 -77.660622 -212.256256
27.719620 -53.204540 -255.370163
-12.201102 -67.582878 -238.912231
-124.778244 -74.145523 -291.898712
86.152832 -72.634850 -217.522369
-135.178818 -69.922546 -255.551514
-43.080906 -46.106846 -78.620049
14.218109 -50.706081 -245.800735
-24.620256 -76.695923 -68.670624
-92.417763 -60.278328 -55.672356
-42.157902 -74.837425 -82.621414
-62.883629 -73.113129 -93.198387
-60.586811 -74.895073 -244.263306
-5.148757 -48.576736 -246.444397
29.613731 -56.112392 -12.910485
80.260239 -52.155148 -95.552155
7.749568 -76.246513 -243.082764
-64.657860 -70.431816 -94.220245
-113.601227 -66.676949 -192.420364
70.993652 -45.416351 -58.881947
8.596303 -49.699997 -254.342514
43.879379 -60.331806 -29.270914
-37.932968 -48.456032 -69.281212
62.857906 -49.467098 -77.120323
42.920807 -62.296104 -22.348202
-28.146852 -68.606232 -177.854828
12.496501 -69.983810 -200.511475
-12.140326 -51.404503 -59.693851
112.452942 -73.529228 -131.778809
43.821751 -52.170113 -38.637074
0.869466 -51.141647 -241.068771
26.741745 -75.841301 -173.045212
26.210491 -52.778805 -267.308472
-145.031219 -82.421265 -200.424347
104.821953 -58.419907 -89.289917
113.199417 -75.777908 -171.726181
-148.971466 -85.910080 -285.887207
44.468948 -69.763123 -26.629459
101.442276 -47.275196 -101.113441
-36.794071 -75.541573 -291.248779
102.886154 -43.392616 -100.188889
4.083632 -75.041611 -225.972534
-10.366115 -50.611912 -250.246994
-93.569939 -69.396362 -217.338501
-61.965797 -76.385391 -289.935089
-88.125198 -77.194878 -113.650215
6.744642 -55.615429 -293.397095
-83.780876 -19.299185 -86.583038
77.863747 -73.756348 -72.935760
-61.071892 -22.741291 -71.074760
-5.191138 -69.638870 -290.057739
-46.787647 -59.692265 -44.511559
-21.228153 -81.620583 -178.566589
-50.457893 -67.678383 -150.320831
66.743095 -50.202259 -99.111725
-62.541431 -67.889542 -131.947418
4.389898 -64.231186 -238.840561
31.935961 -78.987663 -138.942017
19.967880 -56.499958 -278.261627
-97.756462 -41.750713 -103.138916
88.157326 -50.961578 -72.474518
-143.339294 -63.360535 -262.977844
-133.975403 -63.977058 -200.359909
20.520473 -60.519390 -242.350800
39.544899 -68.749596 -110.302238
-52.713566 -72.893417 -132.160294
95.668518 -43.906990 -111.067589
10.801391 -52.210377 -286.080322
15.828177 -51.537979 -276.711609
28.565100 -53.090679 -262.438202
49.109447 -58.991432 -113.859230
-29.100657 -49.463345 -52.014507
-29.109844 -68.998024 -52.120281
-13.343800 -51.044701 -252.149994
-132.170914 -66.216003 -287.386261
-64.042686 -58.077644 -107.255745
-88.970886 -32.414948 -107.631630
82.867126 -44.804951 -62.883636
-62.736465 -52.924522 -69.105469
-41.535126 -73.417732 -171.846725
104.592522 -59.367565 -77.347588
-112.840416 -66.378090 -187.169083
-123.876732 -65.555046 -232.502045
-80.384178 -63.979752 -117.202309
20.101400 -58.690453 -24.750647
-40.921654 -78.152702 -62.599010
26.328543 -74.335854 -176.055466
-93.778519 -25.115898 -85.875694
-98.158661 -58.462605 -66.763405
-124.622818 -68.268738 -290.909210
-50.361103 -72.229630 -87.179573
92.448280 -77.379547 -212.149933
45.637623 -79.403709 -114.881393
-150.695221 -66.213486 -301.005768
38.116722 -50.518410 -13.517830
46.289242 -56.878311 -17.596083
7.926803 -85.941505 -263.366669
-93.779396 -67.040680 -137.941406
-26.988157 -78.886665 -210.410309
35.926006 -78.875931 -116.827126
-38.202991 -78.984566 -172.351379
73.285690 -45.231731 -55.979050
-64.879723 -72.163452 -165.778259
-147.419846 -80.475784 -287.990631
-42.287483 -77.205620 -203.581161
-63.486088 -30.443453 -96.959923
-57.849140 -80.748283 -173.629105
-146.591339 -77.810875 -306.370392
-78.040176 -67.932350 -139.753998
-33.720837 -72.415398 -160.941711
13.521044 -62.741035 -240.284348
12.767418 -80.851334 -239.815781
103.100014 -67.054070 -89.264336
-151.011169 -83.990547 -231.272125
110.523453 -70.941505 -123.163246
-114.135101 -66.181007 -197.187164
-146.127945 -72.744156 -192.594803
40.644279 -72.042404 -39.832249
-65.969383 -74.000084 -150.394928
-2.540255 -67.410080 -236.358337
43.992943 -57.412395 -26.652920
30.561039 -61.719486 -35.531124
-146.177704 -81.537811 -196.962158
-35.128761 -51.493412 -66.596397
-100.106636 -43.972202 -91.553925
-122.400047 -71.657646 -198.944717
-16.393736 -69.969269 -224.640274
-167.920120 -71.505005 -269.825897
99.867928 -47.358486 -101.333115
11.166862 -71.041527 -240.068344
71.584984 -58.254383 -61.393608
72.386688 -47.076809 -62.792450
-151.484436 -68.149734 -265.140656
-62.442085 -62.121437 -115.437645
-133.774353 -76.991371 -287.751282
79.038147 -70.071663 -231.495453
-23.648706 -74.519875 -223.720383
111.748779 -70.696968 -175.278671
81.488670 -44.673973 -84.674850
3.050833 -73.804787 -223.949722
-61.143383 -23.697273 -77.158234
-29.085369 -77.595467 -207.249802
-76.531166 -62.723373 -117.076019
40.242065 -56.126045 -123.848351
-45.204140 -78.017860 -156.966461
11.144350 -80.669090 -276.771271
109.884918 -72.153206 -113.432800
-97.793907 -64.407372 -111.287338
-156.014099 -65.873672 -286.063873
65.127678 -65.270081 -89.474922
-150.142761 -75.751236 -240.562744
-36.366669 -72.760597 -290.863312
19.716888 -51.388054 -243.461258
-13.964192 -56.119888 -277.605621
-116.254272 -66.268227 -234.514984
-65.383522 -42.193733 -47.529881
-22.082472 -67.510956 -190.389908
-2.655194 -53.318886 -287.243225
-24.799458 -65.710556 -51.098759
-3.590601 -77.429092 -233.149246
80.385727 -45.546116 -105.140953
-94.426239 -68.926414 -145.148926
60.652275 -68.117775 -96.586906
-155.917603 -79.958572 -289.403137
-142.012848 -67.831512 -290.506104
-143.867691 -72.122742 -304.008331
-137.369415 -77.413963 -260.338257
27.491314 -55.055420 -267.128632
-74.059814 -19.961330 -63.720009
83.867226 -48.627472 -67.322716
-113.373093 -67.096710 -226.731140
-56.887524 -80.470078 -207.372665
6.439146 -67.973755 -234.877625
21.781036 -67.429565 -167.159286
-26.610403 -75.582809 -243.251343
-72.582138 -65.124237 -45.557533
-49.682610 -74.155220 -185.808304
-4.646642 -57.318176 -287.304230
-14.064557 -54.973953 -241.041580
-153.495682 -73.877075 -263.836975
-135.751053 -81.293777 -197.049881
-76.561920 -64.959526 -118.235970
8.237041 -69.642601 -213.499557
-57.661846 -72.760506 -132.400085
-64.177750 -77.473740 -249.470932
58.810238 -58.651413 -103.829102
-20.550449 -72.569038 -183.043625
-54.099987 -74.616814 -243.100281
-165.650299 -74.255814 -262.202271
23.213928 -66.857201 -175.483780
-98.839317 -69.954163 -291.860596
27.786793 -54.859642 -265.157623
75.363167 -57.902313 -105.740707
-91.236832 -51.873066 -51.164101
-124.840347 -67.803413 -287.306641
111.591629 -70.785782 -125.422340
-65.945885 -75.984734 -160.479813
61.401424 -59.563171 -89.975815
12.923175 -64.096962 -242.191818
109.523438 -72.075722 -119.851685
-53.350273 -61.729862 -78.398193
22.036695 -67.306648 -141.348938
69.922470 -55.391567 -60.836773
-94.035881 -24.146593 -73.710419
-150.183075 -81.821518 -217.934052
-57.147255 -78.436325 -168.908493
-148.946182 -75.774757 -206.008316
9.426760 -61.770035 -242.803879
11.879538 -70.163963 -158.068741
98.182808 -43.059895 -63.410618
31.489054 -70.408455 -258.913147
36.144146 -68.015945 -252.443542
89.830002 -76.402992 -78.810455
-150.774689 -63.106590 -265.736908
-43.784187 -79.975311 -241.701157
-111.361565 -63.913460 -198.260284
-20.351490 -75.238266 -68.268784
62.756390 -57.045887 -83.192352
28.437391 -70.879143 -39.989044
36.806168 -72.322235 -40.434261
100.159416 -46.506275 -63.930050
-15.692499 -73.789711 -291.937042
-55.529537 -71.623779 -132.955811
-25.516937 -75.532249 -174.378510
30.946413 -77.763412 -162.260117
69.265968 -53.466709 -101.238678
102.677055 -58.985115 -70.734291
24.010815 -61.801636 -135.294876
22.462376 -60.544353 -139.310104
20.487078 -55.287487 -277.054993
-22.771919 -77.710129 -290.210266
-59.206032 -80.203506 -175.960907
-33.701355 -81.031639 -207.055054
45.571125 -68.614647 -112.839973
58.165287 -66.234306 -95.274239
-73.323769 -71.081474 -50.842232
-73.404366 -62.162937 -44.282452
49.130177 -69.900803 -32.904285
20.651548 -78.005280 -194.524002
-65.376480 -62.974976 -93.288567
25.253660 -60.457291 -256.428528
-58.233276 -29.156710 -67.303627
17.423647 -72.505417 -225.449936
105.586243 -74.027321 -102.425331
-57.950470 -72.570793 -247.916809
-30.206020 -78.796356 -206.389450
-70.034164 -75.406075 -246.723282
92.664261 -56.929043 -109.240639
-25.502110 -64.868530 -69.925591
-39.804768 -76.632965 -201.379059
-64.309265 -79.016830 -167.490555
-102.601982 -66.931702 -157.946350
-157.364288 -73.409988 -245.108902
-24.600193 -76.717499 -194.838379
-106.699646 -70.267418 -286.940430
-11.457400 -50.987499 -250.149994
22.800095 -67.492165 -251.957748
-123.703598 -62.583176 -200.148880
-97.696960 -65.857735 -83.905846
30.677107 -50.732109 -37.282715
79.163643 -52.020233 -96.835045
-153.241257 -74.923248 -294.317535
-151.429276 -61.066376 -204.976501
22.502344 -50.139805 -239.696655
0.783915 -62.520180 -290.646332
2.312788 -63.066334 -280.501373
36.755959 -61.146450 -127.975044
-80.099068 -63.005810 -121.446655
-36.548901 -82.053078 -80.936256
-8.124113 -75.174408 -170.381348
-144.152939 -74.864548 -304.585327
102.938004 -42.858700 -81.750000
8.520001 -69.854095 -242.402679
104.324379 -63.749115 -84.011940
-3.600710 -80.175621 -167.651459
-146.844528 -85.227791 -295.187195
15.560679 -71.959213 -156.421280
-148.780945 -69.176231 -287.253021
2.836112 -51.855560 -294.391235
-52.274956 -78.178925 -190.084885
16.880472 -75.614082 -279.181305
-109.003059 -70.066032 -188.860809
-152.504471 -62.594360 -224.200806
99.149902 -44.081406 -58.504230
4.745054 -62.321140 -261.005432
63.744411 -59.002724 -88.272850
0.240235 -57.273991 -241.928726
-35.440258 -76.608505 -207.231323
-70.277473 -50.325260 -97.413353
-137.265686 -78.369553 -288.062927
95.285530 -55.439331 -107.005730
-13.493282 -53.186840 -239.115067
-149.188156 -86.011444 -276.895905
27.411320 -69.356651 -262.633881
63.700302 -63.956741 -90.734634
-147.710846 -60.597195 -216.916000
25.214664 -53.109955 -38.593834
11.911906 -79.377655 -225.618652
-43.845539 -72.172028 -162.825287
-145.961456 -83.606186 -225.051788
57.376297 -62.763264 -86.901436
-45.057110 -74.362038 -144.864243
-36.102596 -74.128860 -77.648804
-81.762611 -72.424011 -255.005051
92.718277 -43.839283 -57.577003
-96.847206 -68.602356 -149.638519
-144.763916 -74.120682 -186.789124
-27.291338 -80.075386 -213.375092
-144.682785 -77.174065 -283.629791
-124.003654 -71.095528 -204.763428
-59.031151 -60.651363 -132.300323
-109.947586 -70.621872 -199.221436
113.550629 -71.841553 -141.677338
46.841988 -77.761780 -116.401894
-123.802109 -73.778961 -257.505615
-164.405579 -66.812157 -210.911804
-135.797791 -72.075958 -293.035675
-105.750206 -68.672455 -221.768036
8.730533 -83.368988 -252.760956
77.692627 -71.828812 -226.950638
-121.899757 -68.164757 -196.457855
64.570000 -50.057404 -79.520409
-25.292061 -74.779434 -237.963104
29.728371 -51.027748 -247.825317
21.741240 -53.206402 -34.795486
-74.317383 -75.583267 -252.262024
-146.029572 -62.279324 -187.456512
115.611115 -69.631210 -145.544144
-93.168083 -23.765657 -72.394615
-76.614029 -84.337181 -89.479828
25.242487 -64.135536 -143.001236
13.282769 -75.500496 -187.654297
-144.062256 -63.598789 -291.250366
7.438350 -50.624214 -242.834366
-32.177284 -74.650169 -183.692627
-89.151146 -32.851334 -56.122528
-60.649750 -80.065308 -66.025078
-26.971064 -41.943130 -61.582973
103.425163 -52.344952 -71.028549
-93.688385 -69.779930 -258.058594
0.718557 -76.915993 -235.693817
42.179684 -69.721573 -109.675270
-46.227158 -69.881706 -148.027542
35.118423 -50.405041 -15.836602
-8.715157 -72.789665 -291.643555
-13.400900 -52.893700 -256.950012
-147.654205 -81.295860 -197.283539
-39.279488 -70.767487 -160.444397
-142.753235 -79.665070 -262.043854
6.950269 -69.261238 -155.944687
-52.172283 -70.835342 -153.171677
-127.635254 -73.781792 -232.981857
79.142906 -73.915535 -231.562714
60.774208 -50.026611 -85.123245
-94.434677 -71.530701 -118.834007
32.676342 -77.706291 -154.866440
104.124428 -54.559860 -86.695259
-60.923534 -52.804703 -64.109093
-77.963928 -83.030022 -104.484268
-95.994453 -48.694244 -57.118530
18.508059 -62.915272 -146.530899
69.001129 -51.088001 -105.577576
-82.189888 -62.955479 -125.635742
-148.662079 -83.477020 -256.711182
-6.145206 -62.880749 -238.848923
36.355976 -61.232685 -122.680298
-88.387047 -63.029991 -116.390137
-146.363876 -64.195816 -285.911865
20.618311 -70.950867 -30.961994
-159.264069 -68.440308 -251.307388
-50.835487 -52.577129 -82.756287
105.736198 -44.291313 -84.983002
79.331245 -74.057289 -222.026398
-0.848501 -59.803215 -244.805405
-116.593971 -66.941940 -263.392395
-162.145721 -69.277924 -273.193878
-135.294800 -66.431725 -260.614929
58.577225 -71.095879 -98.782097
-24.618067 -75.723915 -215.155228
28.426817 -59.032608 -137.082153
59.866737 -72.361649 -88.835426
101.993324 -43.261375 -62.298801
-68.604752 -77.416901 -59.990631
53.867172 -68.041260 -245.553391
-48.994129 -76.913559 -88.052788
-10.199889 -50.758667 -260.485687
-134.282181 -72.303932 -294.496002
-104.219772 -66.512703 -178.251236
-11.205208 -75.816391 -286.778778
-71.918808 -18.073870 -72.698997
65.077805 -58.016380 -95.488235
-38.143681 -75.781967 -80.511818
-59.052151 -69.161232 -137.526749
96.108818 -46.752724 -68.819099
-40.307606 -72.573517 -153.964645
-24.100340 -76.739639 -217.981171
-80.224152 -60.729782 -113.021652
84.867645 -63.237610 -61.591988
-37.166939 -78.276115 -239.565659
20.967104 -55.825249 -275.830963
-25.273533 -77.555023 -197.153397
-26.695242 -64.244293 -49.515549
-46.143951 -82.976357 -201.978516
-98.651550 -53.674141 -109.181572
72.955650 -56.657482 -103.956993
22.929451 -79.651100 -171.911697
-145.225052 -72.733238 -252.491058
-47.245152 -76.932587 -190.295761
-159.114822 -68.299248 -242.346832
-79.554405 -65.442993 -121.169518
-167.165070 -74.094940 -285.878784
-163.642090 -68.465553 -251.994461
65.752602 -48.128101 -90.150002
-35.655083 -78.911690 -176.889496
104.995636 -60.307854 -82.085945
-14.598259 -65.086731 -56.421341
-21.683222 -71.788338 -187.427200
71.173775 -71.313248 -98.144119
-61.142242 -44.323402 -51.813187
0.545572 -85.211761 -257.076385
16.967024 -74.793152 -289.831299
31.977964 -80.970322 -139.543503
-66.205788 -61.614082 -108.205940
82.248924 -65.328224 -61.863514
-57.705322 -73.742760 -141.391418
26.392414 -50.843769 -277.002563
83.625664 -64.466789 -106.228683
-78.121964 -83.381416 -87.593620
-42.131111 -78.556816 -157.597778
-110.591629 -69.884872 -187.295609
-48.961617 -84.925468 -198.206787
-6.078379 -73.624001 -241.777390
96.940727 -47.844753 -107.206871
4.569638 -85.292572 -260.369446
13.805585 -52.936485 -240.850433
-2.890655 -51.625538 -268.962402
-4.142163 -75.007614 -218.006104
-68.139977 -52.074062 -42.867462
-95.224838 -52.946339 -56.575344
107.212990 -77.570435 -182.337250
-149.696869 -84.900246 -255.868408
-115.057663 -73.646286 -287.026428
108.810570 -71.912827 -158.668106
24.989729 -52.979675 -15.212701
-56.873207 -71.425873 -141.817078
-22.350412 -76.594650 -184.952347
2.864410 -79.399162 -281.140320
-81.312073 -32.068306 -52.949631
-36.149765 -67.840088 -77.369461
-81.078278 -78.130592 -106.532936
-51.851116 -77.610207 -59.461399
-166.068420 -72.300362 -229.769608
85.979462 -56.530289 -105.412674
100.553459 -71.447357 -90.613518
-145.257324 -70.501320 -175.059128
-12.601910 -66.624893 -209.311890
25.467468 -65.386436 -37.981491
111.506165 -72.806526 -168.162857
-82.406113 -78.901520 -215.871780
17.664114 -51.963188 -264.297211
73.557510 -62.069599 -61.309658
31.986135 -66.144234 -259.865631
-19.006207 -75.711754 -291.767975
-108.281120 -65.506973 -194.965195
-90.187233 -73.263725 -219.638168
-146.602554 -72.854851 -227.964722
-143.696930 -72.377525 -294.413635
-97.279053 -43.013237 -105.633736
-38.245529 -76.133286 -286.420776
-75.142471 -76.297791 -101.760979
-155.301483 -72.224518 -216.427521
-71.682152 -71.892166 -252.198517
-59.038151 -77.848793 -173.742142
-70.836464 -61.043976 -102.543633
86.835823 -68.008194 -63.738766
22.867456 -51.989754 -271.184296
-11.859550 -50.371647 -242.628616
-75.210373 -73.617371 -138.564148
-74.473885 -74.027153 -146.714355
-151.146042 -69.432968 -188.186996
44.104225 -51.076473 -26.452703
63.675598 -56.521301 -89.588783
0.892110 -63.771858 -258.511017
21.537136 -72.169563 -31.884186
-60.321411 -25.619143 -80.661392
104.645515 -65.267487 -86.912453
-89.987549 -68.887665 -288.571106
-144.138062 -79.856056 -203.763962
105.029800 -70.934196 -113.199799
41.672840 -67.094513 -254.658432
80.389305 -48.327934 -65.813583
31.186874 -70.764847 -17.902334
-39.246353 -77.916901 -167.235428
-30.588177 -79.882668 -190.616135
8.414009 -66.324097 -235.673737
-149.596130 -64.594841 -188.360779
-104.726982 -68.161591 -177.365311
92.225914 -76.905861 -86.838585
-65.144386 -58.275112 -126.985291
2.560880 -50.646301 -256.336884
-74.235405 -77.775673 -214.099640
98.726135 -54.701210 -103.453346
111.273407 -77.059227 -174.354980
-123.168228 -71.635597 -232.145905
48.758526 -57.671936 -107.770386
87.607887 -62.763809 -60.758434
25.701153 -77.746834 -169.474930
57.482403 -71.486168 -247.946030
-155.966202 -73.001205 -306.252045
-51.808792 -77.683807 -185.818008
-40.804714 -71.412720 -288.561920
23.714178 -72.418350 -153.106781
95.244469 -66.503693 -106.103035
-98.826881 -50.024281 -63.571133
-66.949142 -72.543907 -250.982178
42.788456 -70.806923 -121.682503
82.718361 -68.767174 -224.604233
-67.162384 -79.590775 -66.260628
-32.479683 -77.718811 -210.073151
-143.983215 -65.780693 -193.717209
21.914370 -54.679428 -247.294205
-61.848125 -62.525730 -85.505173
-7.811841 -55.831009 -56.879173
37.562778 -72.487740 -139.570236
-30.454628 -69.678284 -186.166183
-78.044090 -67.122452 -125.477402
87.789719 -76.548569 -78.014709
66.921997 -69.178978 -86.464638
15.999151 -71.512794 -157.798676
100.803566 -53.963387 -66.271263
-143.866714 -62.527294 -261.444122
14.918831 -58.621582 -241.879166
2.260057 -75.032120 -244.559433
96.969994 -45.477940 -66.736191
-125.563278 -64.731270 -259.536926
-99.142792 -41.023903 -68.816200
23.622396 -68.618507 -154.231705
101.784782 -57.903255 -67.704605
25.796944 -52.901199 -259.303040
-64.326950 -62.939564 -119.393074
-31.781055 -80.722229 -186.398758
9.989717 -50.353611 -295.292999
-60.279381 -62.097355 -113.124382
-152.506393 -61.685146 -194.869019
-84.743484 -65.095749 -51.560772
22.537577 -77.487877 -176.438705
-143.172241 -73.823837 -285.422150
17.438145 -79.491882 -239.665344
-110.037987 -69.843140 -183.658661
58.675182 -71.810829 -87.604942
79.625328 -65.051476 -108.355080
42.177818 -63.955097 -251.944733
51.497833 -67.022270 -244.291916
57.187206 -68.240486 -97.219017
-63.788338 -76.767471 -164.973267
-124.582329 -75.666573 -288.094940
105.634750 -45.024094 -94.400757
2.661038 -82.817711 -274.237457
-105.027992 -66.475647 -225.902496
2.934334 -80.661217 -247.969284
-86.722374 -69.207603 -123.722282
-62.940746 -61.167175 -86.721176
-10.637167 -72.185188 -203.202530
9.438107 -75.844322 -200.597076
-14.612974 -70.387398 -254.465500
-151.316650 -84.303276 -283.673676
-44.793411 -74.303680 -141.404480
-145.545731 -82.419838 -292.776398
9.534894 -75.401482 -208.005768
21.412121 -76.445229 -156.697281
-53.575287 -79.160446 -245.815033
-139.625732 -83.990593 -227.862305
-150.160110 -62.274677 -252.639496
-78.598038 -34.666862 -106.005844
-16.498600 -55.157463 -249.740570
49.209560 -59.429909 -22.514793
-77.114586 -72.536079 -99.158134
15.327319 -78.745834 -229.022293
94.278427 -59.591629 -108.833504
-146.267792 -67.046715 -247.281982
107.603378 -72.898903 -182.094147
-99.096260 -36.381191 -80.901390
98.261909 -77.400948 -199.250381
63.243019 -66.258202 -93.410858
-155.947311 -71.106201 -286.506470
-149.638870 -73.002663 -215.870239
-85.576233 -34.931843 -53.177807
-93.810837 -74.006630 -103.957726
-25.004396 -43.328903 -61.794613
-12.179192 -77.876411 -213.550552
-14.556172 -66.768242 -205.134888
19.500259 -82.094963 -246.194717
-143.875595 -62.851448 -183.504807
-82.445244 -61.750248 -112.752151
9.273882 -77.881729 -223.060654
102.057182 -51.569889 -94.294800
65.069595 -56.749149 -93.834846
42.213818 -70.649384 -106.539635
65.195488 -61.716686 -88.697563
-33.275524 -40.735744 -60.525887
66.663612 -47.775723 -73.465164
106.253532 -70.014809 -100.655441
69.817886 -53.624928 -60.719887
9.575377 -78.717659 -230.921265
108.953758 -74.774384 -157.579254
-39.241173 -58.762592 -79.821045
3.937796 -51.120010 -264.503571
84.699333 -67.662773 -63.668739
51.700321 -65.661659 -250.582718
-141.328156 -76.931084 -230.995087
-56.368362 -44.407040 -81.335312
95.350349 -73.836700 -77.845512
-98.631027 -68.508835 -159.755341
15.075158 -72.455887 -159.254623
-164.837112 -72.569389 -219.435318
20.234972 -75.965057 -238.067200
45.970608 -71.827103 -35.474968
-55.388859 -69.309563 -129.197510
5.001172 -51.530594 -296.085297
-86.600060 -72.178436 -291.379211
20.948753 -63.692371 -22.084614
-32.706566 -71.177940 -163.886002
10.986572 -63.939342 -291.139404
34.700386 -74.351006 -150.494919
55.579929 -59.636398 -91.198845
-89.647987 -65.527328 -143.385269
-144.249969 -79.400139 -263.730347
24.388784 -69.911034 -158.229614
22.319130 -76.809654 -183.207916
-17.759886 -56.296043 -254.873596
39.801296 -66.390343 -254.304794
-30.482922 -46.528687 -62.185535
-88.627121 -64.131721 -139.462845
-47.359165 -81.095474 -71.376930
-133.472061 -71.159592 -283.864807
30.616535 -68.432846 -149.395447
-33.123306 -75.717934 -161.045319
69.718079 -62.733341 -103.223228
-1.950938 -72.075943 -291.068420
66.907799 -63.431782 -68.604721
-77.487831 -60.157314 -114.477615
-75.605141 -67.775803 -131.974487
12.849387 -71.661179 -244.692474
-25.822943 -79.635323 -215.541519
67.227432 -67.529068 -235.162643
18.230932 -76.584808 -171.589310
-167.854080 -70.830276 -284.797150
17.355164 -72.530632 -208.651962
-23.272985 -67.911453 -198.276413
-12.390600 -50.498100 -252.149994
62.166599 -49.097916 -80.339355
20.348215 -63.509300 -151.753021
-44.985195 -73.370880 -161.917114
81.687111 -77.876678 -85.446922
102.381577 -43.706352 -83.442894
64.725464 -49.130222 -85.196358
89.095345 -54.989098 -58.349144
12.945019 -50.383251 -240.830109
-70.496208 -21.588940 -90.367599
-90.420898 -62.928864 -138.301117
-55.193653 -36.956642 -56.764942
-46.662140 -83.197678 -83.079720
64.083733 -62.301853 -78.910744
62.583542 -49.335213 -99.011696
-45.268757 -72.978912 -84.113014
83.952980 -44.610119 -88.306496
113.437584 -73.121704 -131.851791
-128.065857 -64.468605 -226.020752
-60.674484 -61.306484 -131.432571
-142.361603 -73.617996 -262.138336
-156.525574 -64.620964 -289.115295
9.945355 -51.514080 -291.307343
-78.379013 -74.735413 -249.052094
-26.366091 -74.315628 -193.197617
115.861382 -72.396469 -127.363792
107.776169 -74.008209 -120.015228
-35.302010 -74.721100 -157.504318
-47.810413 -73.676254 -243.584717
-73.868210 -65.624092 -111.037247
-74.815300 -68.524376 -99.446655
-146.771317 -84.969070 -262.968201
-101.961555 -72.969284 -286.927979
7.624258 -71.550941 -208.191925
-59.663170 -71.666069 -132.734818
-25.221218 -68.805046 -195.732178
-48.925915 -72.825600 -138.239487
-76.525597 -69.026848 -136.301956
-105.693787 -66.640823 -257.385071
99.061783 -51.370308 -82.248581
20.999344 -71.682663 -21.879187
0.200125 -71.326324 -221.022064
-38.643429 -79.139465 -156.349060
-43.142387 -70.173698 -146.104645
-152.036240 -86.016388 -285.770569
-34.476418 -73.647453 -180.029984
-19.402544 -57.668098 -264.107178
-17.213383 -72.746040 -65.202927
-144.781174 -68.289284 -253.679611
85.934723 -69.257141 -66.190620
-117.843185 -71.499367 -224.848785
78.997688 -75.717438 -75.252441
-75.723045 -39.878258 -47.797623
86.394341 -75.079323 -98.664230
13.507145 -73.891182 -245.141968
49.907227 -71.146790 -26.677233
72.252396 -71.625572 -73.115974
74.195580 -72.657143 -99.457191
-19.078808 -68.982430 -209.276703
-54.446758 -78.819756 -244.252396
17.321802 -71.635071 -234.095383
-19.716167 -45.570400 -60.220558
-149.788849 -64.416046 -261.118256
-146.592346 -81.843269 -241.632797
-41.799171 -68.126640 -159.451981
2.802287 -71.789131 -163.638992
18.894463 -70.665054 -165.008545
-68.536400 -59.846828 -98.856377
-129.135498 -64.558449 -204.085632
-61.897182 -50.846462 -64.871780
39.144833 -70.987228 -41.047188
-28.448446 -76.081833 -189.319031
98.602104 -47.375832 -106.606667
-150.067276 -76.393456 -246.239426
-20.046053 -71.616905 -238.953903
-41.908764 -81.480507 -73.287331
30.101168 -66.183525 -257.957428
-152.993271 -67.292107 -186.962204
53.350426 -65.040749 -96.532654
-3.365763 -73.135002 -219.374649
-44.762165 -70.880211 -147.941879
-107.553246 -72.465347 -260.318909
-81.584160 -40.475552 -106.378838
-113.614067 -68.949730 -196.308044
-17.660789 -70.097855 -196.644699
107.081909 -66.531075 -100.319252
-98.259659 -64.560936 -148.136414
91.561394 -43.626991 -86.362572
-70.728760 -59.624352 -116.051582
-75.289093 -64.989273 -101.830292
-60.597580 -31.523247 -91.340523
-16.960331 -54.895214 -241.805557
4.012970 -76.026741 -235.915131
-82.163628 -17.940592 -73.628189
75.992050 -76.346634 -92.489357
-86.161156 -72.838577 -286.514954
7.269270 -63.177334 -292.616058
25.566820 -63.781223 -258.790192
13.904916 -82.943634 -261.631378
24.198132 -67.678932 -179.688950
-81.049904 -55.180885 -45.110527
-14.296900 -52.262798 -256.950012
-67.866928 -68.772278 -99.098862
-11.586559 -78.947426 -218.509430
79.914513 -53.218113 -76.452370
-90.285873 -60.637661 -121.905609
53.930199 -54.757267 -110.082275
65.822456 -47.809483 -78.088837
-146.649490 -62.627445 -259.282349
-9.340348 -71.592186 -222.654678
26.056797 -61.172752 -15.015437
-160.037308 -67.328804 -212.732147
-48.722145 -36.234833 -63.277409
-151.245773 -78.899391 -252.950043
-67.566917 -70.982933 -160.001709
-124.815964 -70.016182 -292.439178
9.280623 -77.915596 -234.561371
47.924503 -75.549057 -111.612045
-38.080669 -73.273598 -153.287643
-146.099747 -74.718704 -299.542419
-148.903961 -62.301769 -187.094498
-149.961090 -63.563702 -230.272003
-62.805618 -71.806259 -49.800217
-140.274002 -64.264282 -200.344528
-148.673874 -84.321686 -238.599838
22.307901 -52.172363 -285.906555
42.273235 -69.674271 -102.070305
106.599335 -44.459942 -89.827324
49.433132 -76.584534 -103.764267
-50.298061 -77.922310 -152.920044
-51.728455 -78.592293 -247.195679
-135.519684 -67.358719 -262.084930
19.449055 -55.693295 -26.589273
-14.229332 -77.291557 -174.228073
-56.241051 -72.993370 -290.849091
-146.217758 -76.770988 -235.962173
-80.547432 -80.036797 -211.757187
10.470679 -68.722557 -223.310471
39.944370 -77.845718 -125.760468
-53.964428 -82.449554 -206.327499
-66.273003 -53.157139 -107.587387
-8.769841 -50.149529 -258.485748
-71.328995 -68.552673 -47.739155
-149.029266 -82.127296 -210.871399
103.588753 -51.605637 -76.900558
-13.605471 -59.543110 -63.897778
94.926460 -52.563541 -60.007092
-66.646347 -86.562469 -98.512558
-145.008514 -78.384415 -223.247925
29.523649 -51.237999 -13.083137
74.147247 -54.663822 -82.758438
-98.711929 -59.767738 -70.251312
-10.195708 -77.068260 -204.978119
-56.683746 -65.743088 -44.479778
-123.920181 -67.660942 -257.015045
-86.289581 -69.080399 -288.829681
-17.749352 -53.198627 -60.097946
-149.060028 -76.722870 -299.512787
39.007492 -70.488579 -35.479794
-43.359238 -81.098106 -199.696808
-75.763336 -63.625492 -122.989365
52.698345 -53.073345 -108.624947
-96.237038 -48.199490 -113.574326
89.823090 -49.488407 -70.536751
97.123268 -60.616394 -62.958939
40.742706 -60.106415 -117.244362
24.271797 -76.858162 -178.043304
98.861061 -73.819237 -203.021500
-77.662163 -70.429138 -112.861847
88.015465 -45.761375 -107.974976
-71.969620 -53.346222 -107.975616
8.205718 -77.865562 -290.853027
9.673705 -71.838203 -227.453766
-54.851162 -67.840843 -125.502937
-37.702084 -81.152695 -204.468262
-19.197262 -55.949711 -250.977859
15.698154 -53.047085 -279.435791
35.684639 -70.486160 -11.735768
9.167125 -74.884354 -159.175903
-80.777779 -27.435938 -55.755390
-145.879318 -84.201843 -270.106812
-130.785919 -70.077156 -264.800171
-80.450729 -22.903404 -98.252808
34.529396 -71.722961 -148.274979
-147.354736 -78.245232 -276.505615
-123.232925 -72.644073 -228.688477
83.208900 -45.994381 -89.823273
-57.503922 -78.111389 -59.943604
83.803513 -56.147232 -59.275871
-72.578888 -70.237442 -133.418411
-75.023499 -22.364466 -59.975315
38.358597 -76.911682 -136.551559
-162.892258 -74.626595 -290.787872
-8.031801 -80.080170 -220.674866
-141.237396 -66.161255 -182.028137
35.510029 -50.432610 -12.865264
70.328598 -69.322121 -99.792824
95.077065 -42.564899 -66.471085
-73.691658 -81.149292 -213.481308
29.631712 -78.673119 -149.371307
-75.323715 -18.615839 -69.505180
-146.327347 -76.580750 -241.525436
-1.356298 -72.392288 -222.309158
65.832573 -71.106003 -237.092438
-154.827179 -74.928818 -292.852203
104.287773 -72.896149 -190.471588
81.423004 -71.171417 -229.753418
-147.181564 -78.676178 -282.277222
36.091702 -58.261776 -120.624207
31.586956 -70.200172 -12.201003
-65.871368 -78.161041 -165.300491
22.906796 -56.459602 -254.670715
-126.753792 -69.414619 -294.692749
-80.009262 -68.851677 -122.770576
-166.565262 -69.189522 -211.698227
-144.456482 -62.473351 -223.931503
-37.121098 -80.169785 -161.261826
-57.890984 -67.910927 -126.242867
80.593353 -45.063271 -95.220428
-58.598175 -54.957436 -117.291855
-145.789063 -80.131210 -197.639832
112.416138 -71.365921 -129.107773
108.850151 -73.846222 -129.159882
-16.958530 -78.090698 -193.645065
53.103645 -70.207466 -247.488739
-151.735489 -62.782269 -259.500519
-154.271133 -71.556984 -198.043854
52.865074 -74.908287 -97.726486
-6.683444 -70.575417 -286.746674
-154.070053 -72.747917 -297.205627
-69.205505 -82.845139 -210.955566
0.427801 -74.473969 -236.713165
20.034866 -61.659977 -27.255730
2.949504 -56.418537 -293.576172
-49.837399 -64.849976 -44.562149
67.185722 -47.742142 -95.403282
103.890999 -43.379799 -84.150002
-134.432556 -65.940132 -288.633118
-57.094311 -85.014526 -92.714149
-150.593109 -62.068810 -193.502884
-101.973404 -64.649025 -156.518478
-31.714005 -77.206741 -286.952972
-78.851181 -57.384090 -44.629894
-47.681076 -72.501266 -139.738708
-10.074259 -50.191250 -58.811676
-132.861496 -68.384209 -204.831436
-7.837905 -71.441040 -241.039688
-89.073334 -50.163181 -49.345364
-126.841736 -67.434204 -285.073517
-106.533981 -73.329659 -259.270660
106.764763 -75.795715 -172.225540
-5.721875 -66.360207 -285.352264
-115.112114 -72.342049 -230.670349
104.758759 -44.938744 -90.167824
75.113098 -75.484436 -232.531540
4.110769 -51.170990 -236.553879
-54.339878 -84.780823 -201.288574
112.489540 -74.441261 -157.017090
-28.494923 -74.817947 -291.678406
-48.544754 -78.816284 -153.983322
-67.270721 -74.615089 -153.857101
-64.975296 -74.546265 -163.252136
-163.684280 -72.552727 -214.415802
-99.478828 -40.168705 -71.345978
26.242109 -80.018158 -150.592438
18.300409 -76.930359 -196.271591
76.484489 -54.000900 -99.633835
-165.767807 -69.263008 -275.511414
76.314201 -75.843788 -79.995163
-94.119194 -63.057545 -142.185623
26.816471 -72.481079 -20.453220
101.319481 -70.249420 -100.732330
-149.673431 -76.525543 -193.259964
110.514610 -75.486992 -130.071899
-39.769779 -77.600609 -172.266632
-97.822334 -66.269867 -94.529434
-3.429535 -77.899353 -279.531616
-76.529243 -78.351280 -209.173004
-147.412277 -84.045624 -241.115479
-60.942070 -77.007889 -161.543015
-58.030979 -71.062592 -136.797836
-145.247513 -72.672218 -242.036133
-110.319725 -65.586975 -176.993668
-42.030575 -81.040649 -193.467667
68.205109 -47.185295 -109.801964
-90.515129 -71.323280 -66.907455
-145.250626 -64.175537 -284.139923
-5.083483 -80.249794 -275.394440
113.181084 -68.763084 -143.273361
-144.037811 -67.397568 -206.392990
-87.331390 -69.332451 -290.506622
-141.361176 -68.974953 -204.789688
-116.616638 -63.799530 -203.977280
-36.413986 -68.187370 -48.953735
-66.830215 -53.648209 -114.462524
103.983704 -73.324493 -103.564026
-152.969086 -78.523430 -232.915375
96.168419 -52.577961 -84.465904
-30.644890 -68.340782 -181.843567
-13.493922 -69.600487 -270.834229
102.028160 -64.373772 -98.714249
-142.303696 -77.947250 -224.946564
-61.049858 -76.877266 -166.352936
-167.120117 -74.222984 -278.134155
12.746446 -80.511131 -235.231140
72.416626 -48.983757 -57.992165
-148.198013 -77.801277 -245.672592
67.591019 -70.677299 -84.157494
-45.570885 -75.182777 -164.840424
-77.096085 -75.689964 -210.003159
-72.582069 -46.206181 -100.932014
-40.840153 -81.491570 -198.702026
-77.351273 -72.209206 -139.606018
-39.608543 -75.653374 -196.007599
78.582199 -75.334518 -230.457886
-48.834541 -74.474808 -246.676224
76.607513 -69.633476 -225.623795
-62.055321 -46.959732 -49.690098
-95.642639 -67.362305 -142.855713
-143.774597 -67.779221 -234.421463
-145.000305 -83.334892 -226.753769
93.543541 -44.532383 -112.793259
26.009493 -74.735847 -136.618225
-150.055222 -73.931351 -258.525787
-97.219131 -31.170584 -84.528328
-32.453083 -73.626244 -286.597321
-125.244125 -68.996429 -284.907166
-49.385288 -60.753998 -80.600975
97.454521 -72.189583 -97.025986
27.305210 -59.632721 -21.772018
-146.194397 -80.486977 -282.623291
100.300652 -66.679955 -100.625710
25.730494 -63.988411 -268.272003
-46.167114 -70.873344 -138.202316
-82.972794 -69.328918 -128.371948
24.447586 -51.706139 -279.458008
-11.855347 -68.698921 -262.949738
56.469513 -55.032482 -101.762794
97.452080 -71.763100 -196.630798
-7.568615 -71.087173 -237.756439
-149.993683 -65.204964 -211.108002
74.331245 -74.788307 -77.041046
-142.869171 -79.508675 -291.018463
105.916580 -69.045349 -114.014648
-54.416924 -37.216618 -61.616653
-125.132446 -62.861469 -202.966690
-155.245529 -68.959679 -225.774399
4.654648 -60.626797 -240.302765
61.274788 -59.614223 -92.241806
44.010975 -71.815483 -19.963903
97.052094 -42.324226 -67.755844
74.646507 -46.879620 -94.910561
107.199600 -74.048744 -192.123947
-4.706899 -70.879311 -213.749268
-144.834351 -64.565254 -175.367462
-41.093948 -77.688828 -61.740192
-110.571709 -66.599724 -259.782837
71.515175 -46.859417 -86.039146
-91.248543 -72.621796 -257.184448
94.497078 -76.126907 -91.073952
-44.765800 -77.605606 -164.103241
-93.933731 -67.435692 -254.940399
-110.366653 -66.705231 -176.855774
97.409042 -55.133846 -99.811310
65.047638 -52.251968 -101.354858
8.484320 -76.124474 -288.153351
21.563513 -79.146164 -182.588699
-1.444679 -58.398575 -238.790436
-141.986008 -66.771164 -257.392883
-145.243103 -59.518742 -194.342880
-152.579346 -79.941185 -199.003906
-94.685432 -38.141415 -107.664604
2.444095 -61.829594 -287.845978
27.685209 -80.230492 -155.646194
-13.975842 -69.614082 -267.423645
29.428530 -60.046452 -19.321402
-113.702316 -67.984474 -257.318481
-51.299225 -63.770580 -82.720779
-145.569916 -82.888123 -217.164841
-19.741146 -70.645966 -73.067703
-54.550194 -72.963058 -244.560089
-86.736206 -79.090225 -111.205261
18.781876 -77.576881 -231.428940
10.281207 -53.544300 -241.199600
-59.958656 -84.097549 -207.884842
-90.008316 -66.107536 -117.678856
-96.142761 -32.580570 -95.455139
-22.238138 -44.959511 -61.048691
-137.631943 -83.232689 -260.901215
-87.720764 -74.710663 -114.839973
-82.134735 -75.647102 -216.751251
-11.692190 -50.832287 -248.573532
100.135750 -69.067223 -73.967834
80.805313 -47.074390 -109.482780
16.056116 -70.368523 -221.276428
16.996845 -78.725601 -207.738495
-156.362946 -70.238312 -289.875885
103.933289 -46.390060 -69.774971
113.031219 -69.472336 -163.711243
-53.008942 -74.317413 -148.152344
-157.193130 -69.118576 -240.317764
-98.768044 -41.776806 -65.476906
-13.540157 -52.896053 -255.062759
-133.504959 -74.437317 -263.061096
99.150482 -74.206970 -191.832474
38.024334 -64.781090 -252.198318
-134.358002 -70.050003 -224.949997
88.733276 -47.995865 -66.820366
-123.187363 -74.082306 -291.208954
89.438431 -53.062107 -78.108612
16.352211 -73.967247 -234.134705
54.137016 -69.077293 -100.564613
-33.184868 -74.810890 -165.229950
-4.041500 -78.405106 -222.695023
81.562119 -50.932968 -70.857407
24.304066 -54.127308 -246.265381
28.133991 -53.005291 -257.752228
73.015976 -71.958595 -234.579987
-59.772060 -86.846352 -91.258492
35.153526 -56.234707 -123.577682
7.640026 -50.833214 -295.158173
-163.031403 -68.136520 -197.279877
-68.287270 -54.461411 -94.101730
15.047640 -70.477638 -179.570374
56.754086 -68.603279 -240.601410
-59.558807 -78.984085 -166.295410
-149.843292 -83.207909 -258.306671
-145.575577 -82.132874 -186.903229
-81.006584 -59.244656 -120.418785
-27.592054 -78.208389 -70.467964
-75.048813 -81.783730 -211.228149
17.543131 -64.329071 -143.320419
31.458023 -69.722672 -41.136517
-125.144341 -66.550529 -290.537659
30.430044 -57.181252 -130.803818
-100.069122 -53.814713 -77.940315
-85.303635 -20.110487 -68.555565
-144.420410 -73.836884 -182.439240
44.007202 -63.537022 -27.753222
-148.865662 -83.837570 -233.179459
55.636791 -75.921326 -98.429039
-152.518158 -71.658310 -203.800003
107.679344 -66.688934 -109.967453
-12.722327 -79.838875 -211.734207
-73.113342 -71.400505 -140.066238
-30.956476 -78.989319 -168.642670
17.241776 -79.245827 -272.128571
-71.333519 -71.630562 -149.468658
38.551537 -68.434662 -117.530930
-14.640955 -76.730217 -176.031616
103.772682 -61.554096 -76.401741
94.176064 -46.613937 -109.795341
-58.521408 -32.278381 -61.110752
75.091026 -45.539818 -92.051399
-12.881857 -81.871292 -178.458878
-57.710716 -36.722492 -71.984482
-74.702858 -71.082352 -139.535110
-62.758183 -73.254601 -170.915939
93.631538 -46.798470 -109.075851
-52.729160 -44.358913 -49.455029
-60.710163 -51.476173 -58.739620
-33.881294 -81.212662 -80.038063
55.004932 -72.096619 -88.778770
-149.710144 -63.288788 -292.006744
-47.683529 -78.876534 -86.584801
-10.262771 -58.248283 -62.536179
-63.028809 -71.097008 -290.559326
102.938004 -42.968498 -84.150002
-9.979423 -64.453323 -247.158966
16.847881 -68.835770 -199.242859
21.329523 -68.815483 -185.047577
81.284477 -45.112988 -102.315948
62.980183 -63.866180 -80.947823
-78.950165 -70.563675 -253.673569
-100.623795 -43.618179 -85.924217
34.894417 -62.506020 -37.648502
-153.767044 -77.187729 -199.148743
-104.172089 -69.058495 -170.422882
63.603779 -49.052952 -90.612274
-146.875824 -74.999931 -277.523682
-22.493299 -76.225090 -68.859871
-149.974747 -61.780014 -231.455078
-69.043938 -81.042938 -70.816788
-78.047882 -59.862434 -119.595329
27.128300 -67.188942 -263.584442
90.630547 -55.797665 -89.138611
-142.544189 -70.113686 -235.032700
-89.772224 -74.410431 -213.430496
57.330452 -60.731915 -84.946381
-31.537926 -76.352524 -168.277756
82.550201 -47.405556 -64.988716
109.663834 -74.818825 -112.916046
-34.254070 -78.467216 -173.009888
-7.950271 -76.839195 -174.822708
33.199261 -52.093376 -37.284161
-46.626064 -78.595146 -63.675030
-82.440659 -59.980755 -112.819130
-15.722877 -68.556290 -206.546082
-72.980057 -73.029701 -291.229858
-32.278831 -80.017319 -211.679153
-12.362309 -77.702339 -289.845001
74.343803 -45.021999 -62.150002
49.628128 -75.371025 -108.383804
-146.172043 -83.293564 -205.442566
-71.350616 -54.250954 -115.045227
83.862473 -75.703156 -94.380844
-49.152740 -71.546227 -157.983597
-159.491211 -70.399300 -266.965057
89.020828 -72.892738 -213.936401
17.202129 -76.867050 -189.845016
27.487608 -52.224808 -20.316566
17.473051 -54.016296 -285.911804
-112.417595 -68.648918 -225.765961
113.953934 -73.837807 -149.591644
-68.133392 -85.063026 -100.027412
-65.058624 -72.690468 -285.957214
-24.958796 -74.003479 -76.914764
6.160075 -76.771812 -220.953552
-63.916180 -65.439079 -93.360390
14.250763 -82.091522 -232.514160
23.071726 -75.493736 -146.701584
44.277603 -50.374535 -23.105099
20.961584 -55.556385 -20.992809
-43.610500 -75.653603 -148.368896
-82.586517 -77.829041 -108.905022
30.821274 -71.245262 -162.907593
-150.551010 -82.858833 -200.601181
-135.985809 -80.183128 -287.582520
13.577309 -69.387962 -156.327255
-73.573318 -45.954304 -101.954292
-147.629532 -83.998795 -289.789825
11.733731 -69.588852 -232.010040
-3.505221 -66.315063 -290.898621
40.921448 -60.300941 -19.783518
-39.971130 -78.206032 -205.986557
68.582405 -74.554535 -238.222977
-136.476791 -75.133018 -200.949554
-93.919403 -27.078285 -91.634956
-14.998023 -74.313202 -217.892212
-66.856407 -73.187416 -155.375153
-4.763802 -75.952057 -213.003326
87.069893 -56.941883 -104.415802
-68.659378 -61.427486 -95.513626
-65.060013 -42.931087 -94.801460
77.027039 -57.989281 -100.138206
9.841653 -51.024445 -235.911911
-56.519562 -65.122192 -86.929588
17.286814 -53.529167 -279.972229
-50.957966 -64.666985 -140.643814
32.397667 -64.713081 -41.231697
26.000511 -67.593758 -169.023438
-149.661118 -68.840149 -257.697601
26.171591 -70.812462 -14.880157
-149.587357 -76.795502 -240.184143
-102.665939 -68.622192 -162.476440
114.190422 -76.522598 -140.869949
-57.296883 -44.608936 -83.543961
