-115.183929443359 -68.364311218262 -286.698547363281 1.884473681450
-102.994689941406 -69.996406555176 -290.518981933594 2.773245573044
-6.920086860657 -66.181602478027 -283.700958251953 2.646464347839
-107.259788513184 -71.885787963867 -287.706817626953 1.024372458458
-117.205688476563 -66.013679504395 -282.038238525391 6.724622249603
-124.087463378906 -64.270011901855 -292.023406982422 2.240185499191
-140.416534423828 -69.829719543457 -290.265411376953 1.363623261452
-127.673194885254 -63.463699340820 -290.595397949219 2.059128284454
-159.016952514648 -76.416389465332 -289.115875244141 2.076759576797
-147.452499389648 -64.346412658691 -290.606445312500 1.362683415413
-161.204071044922 -64.929840087891 -303.649169921875 8.021491050720
-154.718933105469 -66.929374694824 -310.650115966797 3.851948738098
-161.633789062500 -65.490783691406 -301.336608886719 7.437069892883
-138.261367797852 -70.540405273438 -309.809143066406 5.382088184357
-148.364562988281 -73.542633056641 -315.252899169922 1.517881274223
35.096870422363 -67.344619750977 -5.358747482300 6.254397869110
49.635868072510 -73.381050109863 -16.926067352295 3.687867641449
23.246328353882 -65.833961486816 -20.395759582520 2.216993570328
51.356117248535 -67.737892150879 -24.422657012939 3.157301664352
27.356733322144 -69.959884643555 -33.185668945313 1.407139539719
30.959602355957 -67.920608520508 -31.650905609131 2.826148033142
-57.370185852051 -61.959228515625 -48.963165283203 4.558359146118
75.714790344238 -60.906692504883 -57.819156646729 0.497519642115
83.671585083008 -68.769935607910 -67.307205200195 3.487723350525
-89.250976562500 -70.740020751953 -63.273708343506 1.491596221924
-13.160309791565 -63.983703613281 -58.317699432373 2.464339971542
-92.460350036621 -69.684379577637 -72.443145751953 2.293666839600
96.932563781738 -70.677345275879 -65.505348205566 2.871130704880
-11.092604637146 -64.006752014160 -66.364540100098 1.112469196320
67.751655578613 -71.423385620117 -81.884155273438 0.735623776913
-45.146160125732 -72.647537231445 -81.620605468750 2.589030504227
-25.602228164673 -70.458267211914 -72.779914855957 2.316573858261
55.542259216309 -60.272209167480 -86.141532897949 3.119312286377
-42.398967742920 -78.656349182129 -82.827178955078 1.766914010048
65.148277282715 -54.993080139160 -86.986923217773 1.443346381187
52.132545471191 -73.921325683594 -91.275924682617 1.073678493500
56.423652648926 -65.609870910645 -94.207489013672 2.594104528427
57.483425140381 -76.316757202148 -89.624305725098 2.939582824707
55.862934112549 -60.670845031738 -94.896041870117 2.642573356628
98.538337707520 -61.954841613770 -97.819877624512 2.149983644485
107.778503417969 -59.837051391602 -99.460685729980 3.571636676788
61.372100830078 -70.628738403320 -100.497230529785 2.529564857483
108.283721923828 -61.277542114258 -100.285591125488 3.704302072525
-78.236740112305 -66.946548461914 -98.225753784180 2.132480144501
-73.697311401367 -68.606079101563 -103.505332946777 2.307601690292
100.327629089355 -62.163078308105 -97.395484924316 2.105102300644
53.432186126709 -68.679618835449 -100.376884460449 1.000356435776
70.342346191406 -69.748168945313 -95.735656738281 2.770747661591
-70.580741882324 -68.272529602051 -109.429801940918 1.898990988731
-85.959915161133 -66.262008666992 -108.349517822266 3.357274532318
85.844215393066 -72.396888732910 -101.657325744629 2.934218645096
38.368267059326 -70.477546691895 -101.227622985840 3.518950939178
106.808547973633 -61.804077148438 -107.414588928223 4.926850795746
49.215042114258 -71.495468139648 -113.011146545410 1.777151465416
111.495582580566 -68.086708068848 -100.399085998535 1.899952173233
-77.182670593262 -68.484725952148 -112.572135925293 1.521286129951
102.301292419434 -60.691513061523 -108.020675659180 5.804397583008
-82.527076721191 -64.500747680664 -121.774017333984 0.701061904430
-57.997211456299 -71.014205932617 -127.429992675781 1.932594180107
-57.462524414063 -67.619583129883 -123.083618164063 1.068661928177
-70.468727111816 -71.047599792480 -130.608535766602 1.965539932251
-50.038417816162 -69.554763793945 -131.033050537109 1.724413990974
-83.592803955078 -70.120483398438 -134.611618041992 1.976637005806
-77.480720520020 -62.571632385254 -130.891479492188 1.198972582817
-78.366340637207 -69.325096130371 -133.493133544922 2.510595560074
-61.553512573242 -74.352630615234 -142.466323852539 2.723413705826
-69.992622375488 -68.803558349609 -141.675582885742 3.065664529800
-60.585136413574 -75.377677917480 -131.705474853516 3.962423086166
-56.171680450439 -67.466514587402 -143.076843261719 1.877668261528
10.995942115784 -61.830062866211 -145.783386230469 4.440559387207
-91.281211853027 -69.598876953125 -139.736724853516 2.920419216156
-48.620445251465 -75.077461242676 -149.689025878906 1.698143482208
-93.617065429688 -66.459793090820 -149.903152465820 2.401725530624
-102.162307739258 -64.209548950195 -146.507293701172 2.987135648727
20.958686828613 -70.904281616211 -154.735610961914 1.827557802200
15.432280540466 -69.188507080078 -158.821182250977 1.350283026695
-94.619812011719 -71.974769592285 -161.001953125000 4.378281593323
-104.331809997559 -69.446662902832 -150.158523559570 4.417853832245
-99.134506225586 -66.488548278809 -167.090332031250 2.349380970001
21.439802169800 -67.030250549316 -170.155181884766 2.309094190598
-112.710983276367 -68.247352600098 -173.709640502930 3.018883466721
26.049730300903 -67.136970520020 -163.392562866211 1.521213412285
-147.992889404297 -69.263755798340 -177.013092041016 2.501006841660
18.421749114990 -66.766571044922 -175.287063598633 1.205395340919
25.592386245728 -69.095016479492 -185.516815185547 2.131083726883
-151.345626831055 -66.582626342773 -185.691772460938 2.253196001053
21.028903961182 -70.200744628906 -173.499801635742 1.635595440865
19.259035110474 -57.943908691406 -181.169494628906 8.467286109924
-145.971145629883 -73.879730224609 -181.665176391602 2.151533842087
-151.828414916992 -63.993499755859 -189.629455566406 3.091541767120
19.892726898193 -68.763931274414 -186.680603027344 2.281494379044
18.923858642578 -72.132858276367 -189.829956054688 2.858917474747
-141.134979248047 -71.928619384766 -194.549530029297 2.253148794174
-109.763587951660 -68.993904113770 -197.406066894531 1.526073098183
27.453422546387 -68.074409484863 -199.303100585938 6.003446578979
-125.681755065918 -69.778556823730 -194.543991088867 1.333206653595
9.082970619202 -71.923164367676 -201.066558837891 1.465421915054
-127.970977783203 -59.989906311035 -193.650588989258 5.277157783508
-163.627166748047 -65.726745605469 -187.254028320313 8.990436553955
-159.739547729492 -66.495674133301 -196.140274047852 2.610893964767
-155.542556762695 -71.874107360840 -191.925094604492 2.307323932648
-21.850931167603 -69.107818603516 -208.342163085938 1.732163667679
-169.521041870117 -72.090888977051 -198.740737915039 3.918096303940
-28.600715637207 -62.296073913574 -192.651885986328 5.814754486084
-15.836687088013 -69.813850402832 -191.883071899414 3.208743333817
5.053305625916 -59.934532165527 -195.699493408203 8.642688751221
-156.215133666992 -70.081985473633 -207.896865844727 2.802464246750
-105.763328552246 -66.240249633789 -202.880523681641 4.274170875549
-16.223825454712 -63.152252197266 -197.881103515625 5.409382343292
-162.032226562500 -60.397766113281 -200.674392700195 4.460528373718
17.883749008179 -69.013107299805 -202.227630615234 2.505494832993
-172.380172729492 -65.956344604492 -206.658691406250 4.847945213318
-119.122230529785 -71.406333923340 -201.943420410156 1.998598933220
-116.302604675293 -64.952865600586 -209.753509521484 5.328349590302
-122.584648132324 -68.561332702637 -203.214050292969 1.195257306099
-16.524808883667 -66.212417602539 -201.516036987305 3.960021734238
-20.137695312500 -69.291557312012 -202.484405517578 2.326861381531
-163.964233398438 -68.335472106934 -212.157760620117 2.521209955215
-159.608261108398 -65.431594848633 -211.016342163086 3.660240888596
-164.721878051758 -69.851608276367 -219.334762573242 3.110960006714
-138.322372436523 -72.222290039063 -213.260726928711 7.216512680054
-145.603576660156 -67.393486022949 -225.416854858398 1.936556935310
-0.063369631767 -65.459060668945 -217.865295410156 4.518563747406
-8.363253593445 -75.310066223145 -216.596862792969 2.829622507095
-101.514244079590 -64.970939636230 -219.986038208008 3.410644054413
-8.073905944824 -65.264122009277 -236.365661621094 1.613398671150
-169.998092651367 -64.438888549805 -231.572082519531 5.334625720978
-103.810623168945 -65.667747497559 -234.796630859375 6.253070831299
2.861242771149 -68.534629821777 -225.934020996094 1.976903080940
1.590768218040 -67.263130187988 -228.584777832031 2.712561845779
-111.955505371094 -68.079307556152 -234.112228393555 2.159465551376
-1.560544013977 -69.741699218750 -225.787750244141 1.811654567719
-119.183158874512 -63.760139465332 -233.661270141602 0.962964653969
-8.360656738281 -63.030586242676 -230.204269409180 4.357022762299
-1.383233785629 -66.251068115234 -234.462722778320 2.002421855927
-3.049131870270 -66.255485534668 -239.169799804688 0.809997260571
73.006072998047 -62.071777343750 -236.048477172852 5.290258884430
-8.711236953735 -71.720436096191 -237.161712646484 2.038033008575
11.757631301880 -68.665267944336 -234.595901489258 1.265352487564
11.446642875671 -66.666381835938 -236.383102416992 3.425171375275
5.020672321320 -69.819046020508 -238.040863037109 2.503415822983
5.295545101166 -70.390022277832 -241.430740356445 1.905625700951
62.548358917236 -60.072776794434 -239.492279052734 6.548541069031
68.800415039063 -60.999214172363 -240.186538696289 7.289439201355
5.623037338257 -66.471900939941 -249.099014282227 2.594668388367
50.524139404297 -70.064819335938 -242.083145141602 1.557651519775
55.154956817627 -73.447265625000 -239.371994018555 3.922499179840
46.930072784424 -61.537643432617 -251.414291381836 1.813899993896
43.051597595215 -62.433021545410 -251.162979125977 2.700743436813
40.902465820313 -65.686424255371 -259.432556152344 1.474321842194
-129.018493652344 -60.450088500977 -260.922546386719 4.284947872162
-7.918203353882 -66.218559265137 -245.749771118164 2.148375988007
31.826423645020 -64.197067260742 -256.533905029297 2.433612585068
42.901153564453 -65.161918640137 -243.425476074219 5.488518714905
30.740154266357 -71.433784484863 -251.343490600586 3.374283075333
-104.746711730957 -71.807060241699 -259.920623779297 1.063003540039
29.411939620972 -69.205467224121 -255.157028198242 1.050305604935
-143.892776489258 -70.999977111816 -262.397644042969 2.010993957520
-116.721763610840 -72.202621459961 -255.237899780273 2.391599178314
-112.085548400879 -68.464920043945 -258.693725585938 2.045986890793
-0.557490587234 -72.037261962891 -258.067779541016 6.616016864777
-152.981231689453 -70.021865844727 -256.879882812500 2.482956409454
38.203506469727 -68.124092102051 -263.009399414063 3.925848484039
-106.886642456055 -66.410491943359 -254.846389770508 0.990072846413
25.605567932129 -74.075172424316 -257.691284179688 2.683697700500
-134.440002441406 -73.046203613281 -265.711029052734 2.433124303818
-116.792541503906 -67.745674133301 -267.564117431641 2.344705820084
-111.975082397461 -67.843681335449 -263.063537597656 3.210300207138
-113.178306579590 -77.756782531738 -260.593688964844 3.770439386368
-142.681015014648 -71.178627014160 -253.336318969727 2.846179485321
30.249244689941 -68.250228881836 -257.475433349609 1.384871244431
-116.646591186523 -65.555458068848 -261.881896972656 0.730198204517
-144.967269897461 -70.177963256836 -263.433502197266 2.394285678864
-4.825056552887 -64.164062500000 -269.757812500000 1.922038555145
-149.230865478516 -71.484176635742 -279.337249755859 3.780700206757
-9.125897407532 -69.030326843262 -290.134063720703 2.821448326111
-5.567627906799 -64.621589660645 -279.646148681641 2.522263288498
-134.339843750000 -67.436584472656 -290.250061035156 1.398411154747
-130.366928100586 -68.902839660645 -293.103393554688 1.927542448044
-135.379364013672 -67.042068481445 -295.521087646484 3.994293689728
-126.829177856445 -64.248580932617 -288.627990722656 1.515403509140
-156.459381103516 -67.844177246094 -294.077209472656 2.103917598724
-158.862487792969 -69.412719726563 -299.533691406250 2.653005838394
-148.688598632813 -73.526741027832 -301.870208740234 2.281653642654
-148.847000122070 -71.409431457520 -305.479461669922 3.573045253754
-144.818374633789 -67.566955566406 -297.145141601563 2.982736349106
-151.433395385742 -67.997970581055 -306.998107910156 2.233401536942
-145.127975463867 -64.550674438477 -317.375396728516 5.797985076904
19.025966644287 -69.714714050293 -24.134025573730 1.880052924156
51.230823516846 -70.207748413086 -35.925373077393 1.694250702858
23.762088775635 -74.538200378418 -34.888061523438 2.832418203354
31.624362945557 -66.213256835938 -43.717060089111 2.667005062103
-41.381637573242 -58.036964416504 -48.473110198975 1.855714797974
-73.838638305664 -61.933845520020 -49.557819366455 4.268386840820
79.949241638184 -66.336578369141 -60.253757476807 2.396028041840
73.166717529297 -67.672706604004 -60.260059356689 3.659413337708
73.092117309570 -69.995422363281 -62.903438568115 3.429731130600
-101.790870666504 -67.288475036621 -70.643165588379 6.447234153748
98.062927246094 -72.265060424805 -74.172019958496 2.529718399048
-26.727937698364 -70.232765197754 -86.129287719727 6.278628826141
60.624019622803 -63.669090270996 -73.358833312988 4.422727584839
-41.691738128662 -62.138000488281 -83.908821105957 4.172723770142
-57.119667053223 -64.758941650391 -80.206565856934 2.728647232056
51.916683197021 -66.589210510254 -89.555885314941 0.888743877411
102.402206420898 -63.376556396484 -89.635200500488 3.487482786179
62.413894653320 -64.176170349121 -90.994018554688 1.473720431328
55.716049194336 -64.505172729492 -89.579284667969 1.060588240623
47.521564483643 -62.015892028809 -101.514381408691 2.744702816010
55.948024749756 -61.737770080566 -102.137756347656 2.553385972977
102.194953918457 -63.791809082031 -96.426895141602 1.233389735222
68.499015808105 -65.733467102051 -107.718719482422 3.747762441635
52.970073699951 -66.831008911133 -105.198699951172 4.053803920746
75.282577514648 -73.828788757324 -106.914329528809 4.884908676147
100.593788146973 -61.597885131836 -106.158996582031 3.213570833206
-73.464950561523 -63.312828063965 -97.017517089844 3.617974281311
-86.513404846191 -66.942062377930 -109.681457519531 1.783613443375
-81.857810974121 -67.535949707031 -111.291534423828 1.381045579910
-60.841007232666 -67.285888671875 -118.556396484375 2.426735162735
-57.397239685059 -71.681129455566 -126.147552490234 1.503501772881
-94.857513427734 -66.238113403320 -120.886108398438 1.871290206909
-73.323913574219 -70.617744445801 -118.166870117188 4.766671657562
-77.184928894043 -71.923118591309 -132.856628417969 1.296186208725
-60.347904205322 -62.507354736328 -126.853958129883 2.709563970566
-87.827873229980 -62.568511962891 -130.385910034180 1.523630976677
-89.902259826660 -65.389389038086 -130.900100708008 2.469770908356
-48.699001312256 -70.395332336426 -134.382415771484 1.132662892342
-50.341552734375 -69.522262573242 -137.427917480469 2.767225027084
-77.922477722168 -71.909599304199 -137.764862060547 3.142596244812
-55.118133544922 -70.231582641602 -140.734619140625 1.718751549721
-73.182594299316 -73.270484924316 -145.360931396484 1.394936442375
18.547962188721 -63.755783081055 -139.016052246094 3.045013427734
-58.210609436035 -73.053695678711 -143.347686767578 1.191512584686
-56.261070251465 -62.744590759277 -146.017349243164 3.542278528214
8.830895423889 -72.107360839844 -154.584228515625 1.284671187401
17.796232223511 -65.005462646484 -149.798828125000 1.482583284378
-140.990600585938 -69.216392517090 -172.619201660156 3.185726404190
-109.917648315430 -65.247566223145 -177.234375000000 1.440401315689
-112.038894653320 -62.667709350586 -190.326187133789 2.969052076340
-153.261871337891 -70.659797668457 -189.285415649414 2.059851646423
-113.332351684570 -66.927177429199 -186.146789550781 1.792709827423
-150.930252075195 -61.737800598145 -196.826644897461 0.764981627464
-114.158020019531 -66.737953186035 -199.061065673828 2.516843080521
-151.299545288086 -63.719383239746 -201.426574707031 1.934361219406
-149.086288452148 -67.072181701660 -206.747543334961 2.785577535629
-154.063232421875 -73.941200256348 -203.918426513672 3.372017621994
-149.652969360352 -67.959083557129 -224.854522705078 3.014696121216
-148.455581665039 -71.820770263672 -226.798583984375 2.042714118958
-105.293952941895 -63.596939086914 -229.298019409180 3.333376646042
-98.859268188477 -67.768272399902 -219.546371459961 1.908113479614
-122.635955810547 -61.217475891113 -232.997390747070 4.235682487488
-106.431663513184 -68.052879333496 -224.889404296875 2.067001104355
-157.468582153320 -68.157981872559 -230.617141723633 0.895017862320
-3.320003032684 -66.403724670410 -223.261383056641 1.822958588600
-132.508453369141 -72.625205993652 -229.330780029297 1.222175717354
-153.553298950195 -68.303771972656 -235.650665283203 1.068962097168
-139.675079345703 -72.567153930664 -231.817489624023 2.460997104645
-9.892738342285 -64.757392883301 -232.457443237305 2.889088153839
9.232189178467 -66.653686523438 -244.072143554688 2.844465970993
62.995815277100 -59.278686523438 -239.093612670898 7.233818054199
17.917898178101 -72.324295043945 -249.313980102539 2.500308752060
53.476432800293 -66.234481811523 -240.698974609375 3.886029481888
40.397010803223 -70.440612792969 -249.102127075195 1.912254452705
63.475330352783 -61.508956909180 -252.341751098633 8.121822357178
-153.619674682617 -68.148956298828 -247.934494018555 1.615398645401
-145.780334472656 -72.296028137207 -254.811233520508 2.453976631165
44.458805084229 -65.000869750977 -255.375778198242 0.780275523663
27.179130554199 -67.051589965820 -252.778915405273 3.675931453705
49.088745117188 -61.907043457031 -253.554092407227 2.507592916489
-145.249801635742 -71.480331420898 -264.437438964844 1.779219746590
-138.285293579102 -66.224739074707 -253.923995971680 2.788853645325
-123.417671203613 -64.755058288574 -259.790405273438 2.050591468811
-132.707885742188 -67.445785522461 -255.624771118164 2.379941940308
-139.286666870117 -69.513542175293 -258.054046630859 2.364801645279
-122.521560668945 -66.817497253418 -259.964294433594 3.457798242569
-143.185989379883 -65.390022277832 -259.909942626953 2.189575910568
-127.669815063477 -71.439796447754 -257.067169189453 4.007975101471
-118.725357055664 -69.457504272461 -265.269073486328 2.798440694809
-129.843627929688 -68.231201171875 -265.472747802734 3.451725244522
-123.084297180176 -63.031036376953 -264.108123779297 2.090893268585
-4.909628868103 -67.622817993164 -266.244781494141 1.795393466949
30.314605712891 -61.290031433105 -260.246459960938 2.657312631607
-145.287521362305 -60.336906433105 -267.602600097656 3.093310594559
26.508646011353 -69.101425170898 -271.537048339844 3.025900125504
-6.566718578339 -59.345291137695 -276.842041015625 1.631723284721
18.014266967773 -74.085777282715 -282.200836181641 1.580000996590
-140.574081420898 -68.665176391602 -289.529144287109 2.157398939133
-124.025787353516 -71.519943237305 -286.727142333984 0.573864102364
-129.793914794922 -61.849906921387 -290.732086181641 3.871704101563
-160.190429687500 -62.509880065918 -293.344940185547 5.001171588898
-126.968040466309 -60.873069763184 -289.351287841797 4.191480636597
-117.818168640137 -65.615028381348 -288.580474853516 1.447526454926
-123.800567626953 -71.926528930664 -298.445220947266 0.872177779675
-152.968719482422 -72.197502136230 -290.850433349609 2.741576910019
29.308959960938 -69.960884094238 -9.986527442932 2.728125810623
27.795257568359 -71.059837341309 -17.104770660400 1.328489422798
36.733795166016 -64.048400878906 -20.986553192139 1.706977963448
46.749805450439 -60.778350830078 -22.202457427979 2.899071216583
29.118200302124 -73.084907531738 -27.217189788818 2.624374151230
17.850967407227 -69.771469116211 -32.226055145264 1.984479188919
-33.675338745117 -69.308547973633 -44.532855987549 5.439887046814
-80.577293395996 -70.135353088379 -53.519504547119 3.044571876526
-17.858205795288 -66.735870361328 -59.269161224365 0.834687471390
74.548324584961 -63.309303283691 -63.584064483643 2.167690038681
104.693588256836 -64.658348083496 -67.794281005859 4.184896945953
64.187408447266 -62.202766418457 -83.435287475586 0.627708435059
60.620021820068 -59.199470520020 -83.946777343750 2.571198463440
96.365783691406 -67.083320617676 -83.700790405273 3.086783409119
-65.036453247070 -63.481887817383 -90.950569152832 1.976402640343
-66.862976074219 -67.360610961914 -88.386901855469 4.883375167847
51.537296295166 -62.066596984863 -90.307235717773 2.713897943497
-68.494026184082 -71.050323486328 -95.530860900879 2.202780961990
-74.171325683594 -66.296783447266 -102.049316406250 2.260521650314
-94.482200622559 -67.491203308105 -103.196472167969 3.535328626633
-76.739562988281 -61.171295166016 -98.617759704590 3.985429525375
46.709636688232 -60.435890197754 -101.768287658691 4.235742568970
-64.784309387207 -70.146430969238 -103.120407104492 3.974200248718
46.789970397949 -62.909385681152 -104.157890319824 3.587219953537
94.884895324707 -63.991493225098 -104.138610839844 1.655036211014
88.801460266113 -65.860168457031 -114.017265319824 5.558244228363
-71.210151672363 -65.976623535156 -115.954025268555 3.209447860718
-88.126907348633 -69.129180908203 -111.622154235840 1.584118962288
-62.255542755127 -66.086883544922 -118.416198730469 1.539600491524
-95.795722961426 -60.580635070801 -117.903251647949 2.167273998260
-76.205879211426 -69.883522033691 -126.906143188477 1.273281335831
-94.639419555664 -57.060272216797 -127.280975341797 4.777582645416
-64.897552490234 -65.198997497559 -115.941925048828 2.153903007507
-60.591201782227 -58.708320617676 -121.937973022461 1.921513915062
-90.938385009766 -69.255050659180 -130.714111328125 1.931242465973
-64.244255065918 -69.826057434082 -125.681732177734 4.537780284882
-83.987083435059 -65.492332458496 -133.769714355469 2.712237119675
-85.862701416016 -67.114051818848 -135.176971435547 1.995618700981
-60.746208190918 -73.205802917480 -137.558135986328 3.516669750214
-60.295742034912 -62.223381042480 -133.319396972656 1.382052898407
-55.709678649902 -57.716735839844 -132.475265502930 2.513866901398
-100.908805847168 -62.472854614258 -130.239135742188 7.794820308685
-97.916061401367 -60.686683654785 -144.925125122070 4.338988780975
-92.471046447754 -66.697509765625 -136.681396484375 1.133669853210
18.391283035278 -69.199508666992 -151.072525024414 1.439224600792
-50.697578430176 -67.227394104004 -139.226318359375 1.465394854546
20.510942459106 -66.744461059570 -151.622482299805 1.308442354202
-98.028419494629 -67.854621887207 -165.916976928711 2.767674446106
-103.527572631836 -74.038642883301 -170.297088623047 4.716822624207
-102.649032592773 -61.861572265625 -170.998657226563 3.587312698364
-108.927406311035 -57.694122314453 -175.545089721680 3.795620203018
-109.858741760254 -67.321815490723 -178.104232788086 1.818364858627
-110.637351989746 -66.341293334961 -179.229705810547 1.886066436768
-142.827957153320 -63.342750549316 -186.231414794922 2.303482532501
-111.435157775879 -65.238311767578 -185.298461914063 3.308944463730
-134.403961181641 -63.302764892578 -202.892410278320 0.844845473766
-151.570465087891 -70.382377624512 -198.505996704102 1.957095026970
-129.982147216797 -67.325798034668 -198.659866333008 2.588552951813
-159.117874145508 -69.711776733398 -194.847930908203 1.338870882988
-147.186859130859 -72.249458312988 -202.640609741211 1.161883115768
-127.620391845703 -59.367454528809 -196.247192382813 4.472061634064
-134.952392578125 -63.772521972656 -199.032730102539 2.299218416214
-138.504852294922 -75.107757568359 -206.764587402344 4.105285167694
-130.155120849609 -69.075439453125 -222.445419311523 2.149730920792
-107.872512817383 -70.151084899902 -231.129867553711 2.944232702255
-141.184036254883 -67.687744140625 -226.964416503906 2.498775959015
-120.915176391602 -64.991836547852 -232.895690917969 1.764877438545
-117.396423339844 -59.649139404297 -230.535659790039 4.743465423584
-120.776367187500 -68.886634826660 -231.927764892578 2.903911590576
-134.621246337891 -65.834800720215 -233.766311645508 0.840493500233
-114.663940429688 -62.221618652344 -239.520446777344 6.722663402557
6.003007411957 -64.538398742676 -236.567657470703 1.874560236931
-152.866012573242 -69.421676635742 -239.771011352539 2.100414037704
5.696207523346 -65.870185852051 -237.116088867188 0.945293545723
3.214072227478 -60.371398925781 -245.395965576172 2.078284978867
2.708481788635 -69.112205505371 -242.880783081055 1.497911095619
12.557303428650 -61.969253540039 -240.869094848633 2.673305511475
-142.753189086914 -62.899261474609 -234.641586303711 0.824272751808
-6.350636959076 -69.403984069824 -248.863510131836 2.785017490387
19.353412628174 -65.657638549805 -238.073471069336 3.732887744904
52.388786315918 -62.719947814941 -250.555130004883 1.679363608360
50.728134155273 -63.368637084961 -251.965255737305 2.333375930786
-146.700256347656 -69.420310974121 -252.497543334961 2.019584655762
-4.805107593536 -68.087692260742 -250.354141235352 3.360403537750
20.174839019775 -66.983612060547 -253.267501831055 3.702580690384
-130.556884765625 -58.721267700195 -257.722534179688 5.862128257751
-121.100151062012 -65.177337646484 -255.889846801758 4.057675361633
-123.066230773926 -69.861175537109 -258.237945556641 2.862075805664
27.542423248291 -64.787498474121 -256.839538574219 0.525618731976
-133.070816040039 -61.712234497070 -267.306152343750 5.693915367126
34.771659851074 -62.135841369629 -258.288604736328 3.350158452988
35.267688751221 -64.962295532227 -262.504211425781 1.732554316521
-154.526351928711 -69.376403808594 -268.849426269531 3.156036138535
-145.119842529297 -73.444465637207 -286.041564941406 1.288791537285
-147.750839233398 -60.810058593750 -287.110107421875 1.476083874702
-144.074172973633 -65.029495239258 -296.817596435547 2.914799213409
16.016462326050 -69.606727600098 -291.838134765625 3.253941774368
-154.340530395508 -64.400985717773 -306.043426513672 2.249502897263
46.887290954590 -69.865432739258 -25.508388519287 2.677964448929
35.801990509033 -72.446533203125 -39.030990600586 1.250353336334
-58.393474578857 -61.347091674805 -47.057418823242 3.793918848038
-71.439414978027 -62.967185974121 -47.698097229004 2.971688032150
-26.845277786255 -61.411033630371 -51.155582427979 1.795237064362
-23.705835342407 -70.304534912109 -54.624134063721 2.860041856766
-8.980673789978 -61.359024047852 -67.048217773438 2.630154132843
-29.156993865967 -60.008872985840 -70.482444763184 1.627424836159
63.862163543701 -65.193534851074 -74.691612243652 1.159669280052
-95.929977416992 -58.020584106445 -79.958618164063 3.963168382645
-45.869464874268 -66.568641662598 -88.778633117676 4.443005084991
54.127693176270 -66.959335327148 -85.512039184570 0.623520314693
61.457477569580 -65.609924316406 -84.643981933594 1.608665108681
59.012306213379 -65.885543823242 -87.716194152832 2.932130575180
107.534317016602 -63.273612976074 -89.880241394043 3.180869817734
52.102275848389 -62.642501831055 -87.626068115234 2.870953083038
97.303741455078 -55.091110229492 -99.113288879395 1.775753855705
-84.812980651855 -68.614456176758 -104.774635314941 1.167336702347
-90.990440368652 -64.922225952148 -100.656646728516 6.727595329285
73.458198547363 -59.763465881348 -114.299293518066 4.472603797913
-79.781410217285 -66.776550292969 -104.349548339844 1.753829598427
-78.040191650391 -71.761535644531 -111.610198974609 2.086236715317
-84.962089538574 -74.683418273926 -119.991012573242 4.452849388123
-55.658859252930 -67.110404968262 -126.270996093750 1.551878452301
-76.220092773438 -64.749794006348 -130.000991821289 2.007618665695
-64.376792907715 -59.576774597168 -127.618911743164 1.743712902069
-88.020156860352 -68.129203796387 -136.573272705078 1.910241484642
-77.103660583496 -64.118858337402 -133.198776245117 1.242739439011
-79.592895507813 -64.331764221191 -125.396636962891 1.335502624512
-90.999290466309 -64.288642883301 -129.485183715820 3.831986665726
-68.679946899414 -61.743202209473 -136.288406372070 5.510845184326
-90.950706481934 -66.877059936523 -131.166564941406 2.173595666885
-51.080387115479 -68.643127441406 -132.234466552734 1.391982078552
-55.082736968994 -73.055229187012 -139.132568359375 1.445312261581
27.715059280396 -64.805381774902 -142.740219116211 1.843813657761
-56.160495758057 -57.797119140625 -135.948486328125 1.835390448570
15.391194343567 -71.407051086426 -141.938613891602 4.988720893860
12.683330535889 -62.241065979004 -146.939910888672 2.729300260544
17.003290176392 -59.757789611816 -154.671890258789 3.236437797546
-99.663063049316 -64.103996276855 -145.839477539063 3.012177944183
-89.515769958496 -65.804710388184 -148.337005615234 1.956063866615
-97.336540222168 -61.951393127441 -150.021438598633 1.721142411232
-107.289031982422 -66.719779968262 -165.275253295898 1.368807911873
-99.329704284668 -63.808151245117 -160.746917724609 1.540758252144
-153.133941650391 -61.953765869141 -176.432281494141 1.558776497841
-154.589279174805 -66.101058959961 -175.578140258789 4.012248516083
-115.016578674316 -62.885208129883 -182.495941162109 4.410772323608
-141.108230590820 -64.300247192383 -177.011474609375 1.831260204315
-110.105850219727 -61.272201538086 -183.009490966797 1.997327446938
-147.827392578125 -55.691047668457 -187.646209716797 5.615529060364
-111.749610900879 -61.154502868652 -190.267700195313 3.763289690018
-111.564727783203 -67.885414123535 -180.311538696289 1.801975131035
-147.112335205078 -65.188560485840 -201.542022705078 1.798726201057
-127.110992431641 -68.124259948730 -197.104187011719 3.945175409317
-105.356559753418 -66.187988281250 -197.990219116211 3.235367774963
-116.705711364746 -57.685440063477 -198.318374633789 5.545559883118
-114.177795410156 -68.337715148926 -200.556243896484 2.990802526474
-117.514755249023 -58.996513366699 -202.901824951172 3.807446002960
-134.756576538086 -62.539596557617 -196.344619750977 2.321310043335
-143.131881713867 -66.127120971680 -204.135528564453 1.102364659309
-129.626800537109 -63.515037536621 -210.359283447266 5.235945701599
-130.086288452148 -59.084098815918 -199.909912109375 2.685684680939
-121.788780212402 -62.740318298340 -205.019149780273 0.837423384190
-111.047279357910 -65.010543823242 -205.649169921875 2.221820831299
-150.404525756836 -64.301010131836 -212.249710083008 1.780236005783
-153.877548217773 -64.756355285645 -217.495712280273 2.208015680313
-153.711196899414 -66.087142944336 -221.293762207031 2.975860834122
-138.774337768555 -71.787269592285 -224.986663818359 2.348221302032
-131.758773803711 -59.423843383789 -228.255340576172 4.584199905396
-120.108192443848 -68.172698974609 -216.350601196289 8.790652275085
-140.470840454102 -68.814567565918 -230.690963745117 2.937602996826
-152.683090209961 -67.513710021973 -223.871017456055 1.826717376709
-133.448989868164 -67.166244506836 -225.809555053711 0.453014880419
-133.829925537109 -61.764259338379 -228.143905639648 1.917137980461
-147.190292358398 -63.767410278320 -228.304138183594 1.908761620522
-136.707519531250 -56.058876037598 -227.580444335938 7.052734851837
-130.131759643555 -64.843841552734 -233.076477050781 1.806429982185
-13.941465377808 -66.667739868164 -237.013732910156 2.733573198318
5.356487274170 -62.695655822754 -242.307342529297 2.031340837479
14.293231964111 -56.932212829590 -243.654159545898 1.966637730598
9.045214653015 -67.957046508789 -243.230331420898 1.678274393082
-7.224384307861 -68.590126037598 -236.131332397461 1.826061367989
-14.225725173950 -65.441154479980 -246.213455200195 2.882220983505
34.127719879150 -62.135337829590 -248.236709594727 4.535068035126
46.096904754639 -62.976242065430 -254.094192504883 1.537844896317
-148.095413208008 -64.991783142090 -253.939071655273 2.034928560257
42.571155548096 -61.070236206055 -253.733261108398 3.129832029343
40.702754974365 -66.123565673828 -253.387069702148 0.989422738552
-160.901763916016 -72.516334533691 -255.718154907227 2.140585660934
-150.435943603516 -66.660232543945 -256.043365478516 1.646267414093
-153.802703857422 -68.238662719727 -258.405487060547 1.778961539268
2.999733448029 -66.951614379883 -262.549987792969 3.604932308197
-150.883422851563 -67.502189636230 -267.916442871094 1.631538510323
-1.184911489487 -65.107978820801 -273.479949951172 2.463977098465
-145.782012939453 -70.197479248047 -275.644714355469 1.216850519180
-148.260971069336 -67.150146484375 -280.631072998047 2.388458728790
-151.026657104492 -66.044830322266 -287.792541503906 1.588765263557
-150.326339721680 -54.276550292969 -282.723663330078 7.284191131592
-146.440841674805 -63.281829833984 -294.067687988281 1.049427866936
-154.986022949219 -65.071731567383 -284.561035156250 1.198788881302
-151.575180053711 -67.288192749023 -286.294189453125 0.749975442886
-153.975082397461 -61.241157531738 -288.496368408203 1.514143586159
-148.761764526367 -65.327697753906 -289.173492431641 0.681888520718
-144.638671875000 -66.041336059570 -286.710815429688 2.796653747559
9.439232826233 -66.656700134277 -281.001281738281 6.346767425537
-146.416839599609 -64.888450622559 -296.943664550781 2.219026088715
-159.087509155273 -60.042808532715 -293.372558593750 5.688542366028
-158.348129272461 -58.092712402344 -287.785278320313 5.677499771118
-149.540283203125 -62.724311828613 -292.717285156250 2.184701204300
-147.507522583008 -56.157333374023 -287.007598876953 5.407632827759
-147.279251098633 -69.121398925781 -292.373657226563 2.508136987686
7.671281814575 -67.111740112305 -292.031677246094 1.486176967621
-143.835006713867 -61.371307373047 -295.060119628906 3.214060783386
-148.582412719727 -60.866569519043 -292.370880126953 2.172034740448
28.829149246216 -57.329238891602 -13.208939552307 1.819530129433
42.772518157959 -69.594467163086 -21.340061187744 1.760799169540
42.093730926514 -60.780570983887 -20.596057891846 0.716132938862
14.573966979980 -68.271194458008 -31.702270507813 5.383435249329
22.945537567139 -52.857261657715 -34.787136077881 0.926844716072
35.345191955566 -61.938705444336 -36.281288146973 1.756113290787
-55.476055145264 -63.285148620605 -45.722297668457 1.234831690788
-50.713268280029 -64.270774841309 -40.070899963379 5.392687797546
90.734069824219 -63.398323059082 -66.779289245605 4.435921669006
-95.402130126953 -62.596763610840 -65.347564697266 1.422303915024
97.562957763672 -75.569854736328 -59.576541900635 10.308977127075
68.391014099121 -66.890373229980 -72.062149047852 2.545380592346
97.753562927246 -66.119422912598 -78.830192565918 5.147159099579
61.999500274658 -70.923950195313 -76.354911804199 4.933754920959
-43.100814819336 -64.236923217773 -77.372047424316 1.862565636635
58.650558471680 -61.168190002441 -81.717979431152 3.373529911041
-49.318778991699 -60.836090087891 -76.045455932617 3.279503583908
53.572242736816 -63.584312438965 -82.315307617188 4.870655059814
63.017238616943 -58.802772521973 -86.729537963867 2.027004718781
-98.825691223145 -63.812011718750 -84.703132629395 0.594366908073
51.091411590576 -61.366149902344 -82.608657836914 6.978320121765
51.360977172852 -70.712951660156 -92.971038818359 0.969301939011
65.600265502930 -64.586631774902 -91.182113647461 1.330338835716
51.653099060059 -63.012107849121 -96.530120849609 2.865984916687
-80.541069030762 -62.340866088867 -106.886970520020 1.806470751762
82.188743591309 -68.801971435547 -106.022575378418 1.045467495918
-84.694747924805 -70.138748168945 -121.151535034180 3.222529888153
-78.075149536133 -62.027343750000 -103.885032653809 1.399229288101
-80.005371093750 -65.704360961914 -124.361846923828 2.246011972427
-84.901252746582 -62.703247070313 -117.162658691406 2.232645273209
-96.771812438965 -58.458007812500 -119.641555786133 1.530113577843
-82.579254150391 -65.826118469238 -119.793640136719 1.827989101410
-50.231216430664 -62.758239746094 -123.628173828125 3.989798307419
-78.796867370605 -60.913909912109 -135.650024414063 4.195406436920
-57.496612548828 -58.045288085938 -127.790405273438 1.385676622391
-89.127342224121 -60.581420898438 -137.416030883789 2.422082901001
29.439260482788 -62.846839904785 -137.827774047852 2.463361978531
18.987459182739 -63.597160339355 -141.011978149414 1.437037467957
-95.566322326660 -51.109138488770 -145.326736450195 11.676579475403
22.605033874512 -66.651512145996 -147.872879028320 3.450916767120
-89.803161621094 -68.386146545410 -147.657241821289 3.555004596710
-95.042137145996 -58.167778015137 -147.690032958984 4.445556640625
17.689041137695 -64.465698242188 -163.912033081055 5.937372684479
-96.731018066406 -63.260650634766 -148.838256835938 0.722330152988
-100.083488464355 -61.533241271973 -145.816360473633 4.145042896271
-105.168945312500 -63.256576538086 -154.579071044922 4.203293800354
-93.666915893555 -64.259994506836 -162.991287231445 4.438698291779
-102.823814392090 -68.482391357422 -181.457458496094 3.378894090652
-111.138206481934 -73.286445617676 -169.929550170898 5.028755187988
-96.439125061035 -66.035118103027 -165.400299072266 4.717889785767
-104.745170593262 -66.043190002441 -166.794235229492 1.927140593529
-140.258911132813 -65.471961975098 -179.418869018555 3.853681087494
-112.640792846680 -64.265182495117 -177.432662963867 3.620748281479
-139.670516967773 -64.709838867188 -187.929733276367 3.521541595459
-148.748107910156 -59.407196044922 -191.756698608398 3.383828639984
-156.164474487305 -57.394622802734 -186.619094848633 7.545059204102
-121.470848083496 -60.815093994141 -196.722198486328 0.518174111843
-127.735374450684 -69.890159606934 -192.646621704102 1.292183756828
-122.279312133789 -60.847557067871 -201.842651367188 3.006997823715
-145.339523315430 -67.236801147461 -201.169509887695 3.086139678955
-123.141006469727 -69.092735290527 -203.362609863281 0.782440185547
-147.667587280273 -64.636283874512 -202.673126220703 2.695452690125
-153.010208129883 -63.581863403320 -205.120529174805 2.643137454987
-154.482727050781 -62.236572265625 -226.272369384766 1.261753439903
-144.140335083008 -71.703392028809 -231.692977905273 1.082525849342
-129.139739990234 -60.569244384766 -230.931762695313 5.206048965454
-152.883361816406 -62.725646972656 -229.217926025391 0.369164735079
-2.749620676041 -69.599067687988 -240.059509277344 2.419423580170
11.277460098267 -59.515396118164 -237.202728271484 2.959910631180
-0.795365571976 -68.594833374023 -243.584487915039 2.264804840088
-152.203079223633 -62.670059204102 -244.947708129883 2.427629470825
-9.315601348877 -60.978981018066 -239.938079833984 4.796611309052
-155.062072753906 -71.692611694336 -253.836013793945 2.299868822098
-7.473193645477 -70.568107604980 -250.309646606445 3.530129671097
-148.025604248047 -67.228034973145 -255.060043334961 1.864389896393
19.756235122681 -64.080688476563 -250.888351440430 3.592309713364
-152.022109985352 -57.883827209473 -255.412368774414 3.632833003998
-150.320831298828 -63.966941833496 -255.680679321289 0.844639897346
-151.135665893555 -63.832305908203 -253.968215942383 1.308102011681
-149.461837768555 -62.676437377930 -258.903320312500 1.607469797134
31.655326843262 -64.067604064941 -260.011108398438 1.339354276657
32.208671569824 -63.375282287598 -265.070861816406 4.133734703064
-145.069564819336 -64.738883972168 -253.484664916992 1.523406624794
-152.981033325195 -57.560638427734 -259.240051269531 4.910107612610
-153.397171020508 -69.489639282227 -259.775695800781 2.735473394394
-146.686294555664 -60.974494934082 -258.030914306641 1.735569119453
27.728256225586 -61.633895874023 -262.614135742188 1.907721400261
29.595798492432 -62.086158752441 -267.744384765625 4.138363838196
-157.799377441406 -66.120506286621 -262.269317626953 2.870206594467
-143.817810058594 -63.355987548828 -263.929412841797 1.012923955917
-147.711547851563 -59.214721679688 -262.203643798828 1.647537231445
-143.258285522461 -63.261474609375 -265.849517822266 1.233466029167
-142.523605346680 -67.757049560547 -261.667999267578 0.704284131527
-143.597045898438 -71.342758178711 -265.790740966797 2.173192024231
-148.254150390625 -61.022575378418 -266.854553222656 1.785816550255
-150.381378173828 -58.609580993652 -287.518432617188 3.706851482391
-145.455764770508 -63.547225952148 -282.089416503906 1.678605794907
-147.603302001953 -64.350502014160 -278.201965332031 2.309363365173
15.980366706848 -62.048866271973 -280.785186767578 4.202069759369
-154.308319091797 -58.601432800293 -286.390136718750 2.906744956970
-146.763656616211 -62.519760131836 -291.922271728516 1.135170102119
-6.558283329010 -72.424804687500 -285.905242919922 1.555146455765
4.866632938385 -61.740211486816 -291.524444580078 1.337147712708
-153.803848266602 -63.988945007324 -293.921569824219 2.151508331299
26.759262084961 -69.945785522461 -20.967651367188 1.630268692970
46.580242156982 -64.631767272949 -27.212379455566 4.140684604645
49.805633544922 -69.031715393066 -32.716785430908 2.937533855438
38.973155975342 -58.280998229980 -37.749088287354 1.842517614365
26.039173126221 -71.389663696289 -36.691135406494 1.533191323280
45.421474456787 -65.313293457031 -41.197830200195 3.697017192841
77.535346984863 -58.332695007324 -63.797245025635 4.665791034698
77.343902587891 -62.884750366211 -63.438274383545 2.737761974335
-20.514703750610 -63.349098205566 -71.959236145020 4.247032642365
68.464096069336 -59.476974487305 -71.320693969727 3.177798032761
-27.658151626587 -65.008171081543 -71.006904602051 3.542188405991
-37.708187103271 -70.036537170410 -81.474670410156 3.733637332916
-58.736362457275 -62.570327758789 -74.282287597656 5.475124359131
-57.206634521484 -59.126335144043 -78.619483947754 1.985330700874
62.738277435303 -69.446205139160 -81.531661987305 1.868358135223
109.715530395508 -67.580093383789 -91.520172119141 3.827310800552
-59.233787536621 -59.086830139160 -84.837341308594 1.880052924156
58.792884826660 -62.776184082031 -96.231864929199 2.268940210342
66.356636047363 -60.901390075684 -95.855667114258 1.838377475739
103.473510742188 -60.182380676270 -92.975791931152 1.319342732430
-65.839401245117 -68.976448059082 -92.533813476563 2.751508235931
54.760311126709 -57.125648498535 -95.774337768555 4.273727893829
-61.253318786621 -68.273132324219 -104.646369934082 6.633653163910
68.437576293945 -61.865303039551 -94.828208923340 2.624457120895
66.201248168945 -62.514602661133 -103.449790954590 1.899927616119
-77.368576049805 -60.722274780273 -109.211982727051 1.282420873642
-96.888046264648 -61.494041442871 -114.172241210938 1.068976521492
-70.220970153809 -55.572753906250 -113.369949340820 2.029106378555
-83.893585205078 -64.994285583496 -111.223693847656 2.741945505142
-60.441905975342 -66.734352111816 -116.246124267578 1.631935119629
-83.897201538086 -60.499053955078 -106.521453857422 3.659780502319
-73.765998840332 -64.578910827637 -113.591033935547 2.585257053375
-77.168220520020 -67.302719116211 -113.295753479004 1.963631033897
-70.852607727051 -67.669235229492 -118.990936279297 4.608366966248
-86.394325256348 -66.793891906738 -127.696563720703 2.985003471375
35.065345764160 -62.866973876953 -129.500976562500 2.090081214905
-47.091987609863 -62.449806213379 -131.019378662109 3.852010011673
33.763221740723 -61.583549499512 -137.126144409180 3.085824966431
30.622524261475 -63.337280273438 -131.360488891602 2.565917491913
28.790246963501 -67.984901428223 -129.885284423828 3.403498411179
-55.064960479736 -59.962593078613 -127.740173339844 1.933209896088
22.468706130981 -63.566131591797 -146.001556396484 2.414108753204
21.549814224243 -63.633773803711 -144.485748291016 1.370580077171
-146.138916015625 -66.855224609375 -177.796371459961 2.345779180527
-151.590011596680 -58.297882080078 -174.498367309570 3.627848386765
-152.987457275391 -63.052368164063 -184.373245239258 2.502658843994
-146.078002929688 -60.046310424805 -183.724029541016 0.906180560589
-151.206008911133 -65.680465698242 -196.855300903320 2.400851011276
-151.864059448242 -66.799148559570 -193.395050048828 1.465979456902
-137.581100463867 -65.381065368652 -192.695709228516 2.994510412216
-142.754714965820 -61.226310729980 -202.107269287109 1.602636575699
-119.869331359863 -68.543296813965 -200.178573608398 2.964292287827
-135.701797485352 -65.876815795898 -206.177688598633 4.741794586182
-149.541564941406 -66.476333618164 -216.334777832031 2.076524019241
-145.830245971680 -53.950035095215 -220.446365356445 7.189434528351
-151.612670898438 -63.131889343262 -228.247772216797 1.793450355530
-145.746109008789 -65.516761779785 -229.043670654297 2.638538599014
-149.880218505859 -63.059143066406 -230.532669067383 1.408455252647
-150.346755981445 -58.354080200195 -225.370834350586 2.186403036118
-145.387100219727 -65.507698059082 -232.697296142578 2.458145856857
-144.659637451172 -65.711357116699 -233.074478149414 2.146560430527
-141.319900512695 -60.886550903320 -240.003707885742 4.114004611969
-146.096618652344 -66.393402099609 -226.353240966797 1.974616885185
-156.043121337891 -62.326400756836 -234.240158081055 2.212287664413
12.913991928101 -60.077682495117 -239.387817382813 2.240841388702
-7.216039180756 -67.916473388672 -241.250350952148 1.290160536766
-144.505676269531 -58.981025695801 -245.516235351563 4.798049926758
-153.424896240234 -64.504158020020 -237.806060791016 3.218555688858
-155.789291381836 -67.299797058105 -242.185791015625 3.519830226898
8.023628234863 -64.577438354492 -241.533554077148 2.511379957199
-149.169952392578 -61.240943908691 -236.328613281250 1.585685729980
-149.515060424805 -69.199874877930 -252.905410766602 2.110964536667
-5.241160392761 -64.543266296387 -247.719955444336 3.106374025345
-146.161346435547 -62.813034057617 -251.177291870117 1.607539415359
-140.508773803711 -62.371665954590 -255.236068725586 2.998146057129
-139.648696899414 -63.892257690430 -256.399841308594 2.463920116425
-143.021530151367 -63.261230468750 -254.210067749023 1.693868994713
30.191816329956 -67.687011718750 -264.439056396484 2.389780521393
-149.160430908203 -69.758232116699 -263.119049072266 2.295084714890
30.157180786133 -63.744850158691 -273.380310058594 4.436545848846
13.372639656067 -59.564979553223 -288.791473388672 0.868153393269
2.616878509521 -62.187446594238 -285.618133544922 2.357180595398
10.800942420959 -59.447052001953 -294.864288330078 2.672887563705
31.995326995850 -63.366653442383 -21.632942199707 3.908285617828
40.613376617432 -73.507705688477 -38.346580505371 2.835346221924
37.956390380859 -71.332496643066 -38.100170135498 2.159953594208
-44.672767639160 -62.391479492188 -47.710472106934 4.183692932129
-92.109710693359 -66.057441711426 -57.888149261475 2.749883174896
-95.002372741699 -64.416061401367 -61.281848907471 2.998585224152
-23.243606567383 -60.501808166504 -67.012550354004 3.538029909134
101.652328491211 -64.098373413086 -66.496055603027 2.607910156250
108.324493408203 -60.855453491211 -73.532844543457 3.475926160812
107.043495178223 -62.612281799316 -75.169189453125 2.022316932678
-48.957996368408 -64.461311340332 -82.770828247070 1.570641398430
-62.577102661133 -60.802947998047 -85.019950866699 1.644315242767
58.091274261475 -62.172615051270 -89.367958068848 2.199988365173
53.975650787354 -68.671859741211 -91.391128540039 1.363995909691
-58.208190917969 -69.254379272461 -97.201240539551 6.372454643250
-94.045372009277 -57.839286804199 -109.664001464844 4.510072708130
74.282066345215 -60.298355102539 -108.730293273926 1.117872357368
-81.409873962402 -61.013832092285 -104.977958679199 2.912833690643
-68.191291809082 -66.266113281250 -106.134429931641 2.861639022827
-78.834869384766 -69.232749938965 -115.066101074219 0.966349661350
-83.996086120605 -52.932426452637 -117.258186340332 0.778015971184
-83.544715881348 -64.157295227051 -116.167556762695 0.984955012798
-70.782707214355 -50.414329528809 -121.642608642578 4.837692737579
-67.830429077148 -60.699890136719 -114.706069946289 1.455740690231
-82.289642333984 -54.428565979004 -117.058792114258 2.302991390228
-74.495483398438 -62.346130371094 -116.307693481445 1.891222119331
