# This PCD file was generated using the MATLAB® pcwrite function
# from Computer Vision Toolbox®.
# .PCD v.7 - Point Cloud Data file format
VERSION .7
FIELDS x y z
SIZE 8 8 8
TYPE F F F
COUNT 1 1 1
WIDTH 817
HEIGHT 1
VIEWPOINT 0 0 0 1 0 0 0
POINTS 817
DATA ascii
48.591459904636011 68.736142287805279 -60.274182388921076
49.300433069912444 69.748124709533272 -60.946859914888712
49.044812958175271 71.654842884323983 -61.224198704671778
49.543166667991670 72.362743586253487 -60.237655198501017
48.305396375788604 75.784173509573577 -60.532030043719971
49.410567076551686 96.208006297477212 -60.121301994201758
47.993969829205376 -28.666517555450518 -61.790545472060685
50.127657774301710 68.245430337450003 -62.116991998831175
48.052752721260838 69.946731222053259 -61.978900493285451
48.678059253086978 71.539107335381289 -59.899327874090190
47.945047885471915 74.389494693258769 -61.957616717974211
47.610215150653900 76.511098687396142 -59.881520966025036
48.820599054566337 76.500910692273791 -61.583935333072667
48.924105093979513 79.100827145178371 -61.734733484331066
49.766781244868355 96.856971332558516 -61.124581417544952
49.451022524588055 -31.387189247450685 -61.978896043751377
48.236799880632319 66.863893659604813 -61.260628657047377
49.604796039631893 70.346363532528457 -60.930859973953915
48.686544151977877 71.014610561859072 -60.977435262976684
48.318614157657464 74.450469237597432 -61.131414095232756
48.943978629255454 76.513100565927672 -60.497235676743628
48.208814383336509 76.413164848346312 -61.221516330806701
48.808492811783267 96.422151438987811 -60.444381244555913
48.049283404796597 96.632208657095077 -61.190946653985591
49.914809023196987 67.028616471158074 -61.872669218494053
50.583668925601991 67.891863671423010 -62.646670626069358
48.835364509805849 74.274334383680056 -62.845343601848988
47.699246027195741 74.526112722912544 -61.140335292160458
49.915761230369974 69.008782340168437 -62.444396980628262
48.547742485512337 72.945989731802214 -62.186225063679466
49.469890460596332 76.894551375089520 -62.026349594006604
48.653549120630473 78.283736570229209 -63.291534390112034
47.641326089202138 81.425588705723442 -61.372566872771756
49.884729696519543 97.621489259182411 -62.087670289010731
49.403741625410824 -31.865851793344476 -62.328781236648602
49.842255764826746 67.125128507564725 -61.997747763091972
49.138243349666240 70.392029830641178 -62.612412654750962
48.989828401841088 69.043051821657713 -63.439218746806546
49.661933575840457 79.528371455091175 -63.054976434522246
48.147918145189536 79.629095963655743 -61.950320399982758
49.125777033420981 80.818716418192864 -62.842152048278606
47.710946365801917 98.835178723226605 -62.736313268293756
50.040129131295110 -97.544898276553027 -62.653848255814410
50.246542219791124 65.644062755443457 -63.314281376472380
48.633575282209968 68.660223167321121 -62.306534508365999
50.406541705101006 69.770800457401037 -63.819752747905952
48.981603188842094 70.470838431548046 -64.566532697027910
48.344702475100505 78.092241856932716 -63.803986697170586
48.335043106469918 79.618969751666228 -64.429321260888571
47.790734101773594 80.926128963774545 -63.437417257748336
47.851915395672535 82.094333580954341 -64.172511906287085
48.288865776232122 98.876078349649575 -63.273172598539816
47.986410253435814 68.748214831179794 -63.560983558084729
48.508144006649673 69.985195260393994 -63.616884866929936
47.428997979349717 82.534245190034710 -62.415198092020084
48.014892830180635 85.471225978225078 -64.835036683221091
50.152293260599166 99.296105464188230 -63.158362013100756
48.851750929776138 -32.988684708077443 -63.797842376460807
48.397598691189962 65.953322193311621 -62.930310682542391
49.240976549500211 68.027578782047712 -64.110543814750628
47.106953403713966 82.440161057314484 -62.879528106411883
48.589505243292557 83.090426609506721 -63.415395049183587
49.035229976001510 83.388320494465617 -64.443754419178219
48.248359682529141 85.447291986516333 -63.615795688059464
47.947442530180091 86.115823084937901 -63.435094666703890
50.153710386378172 98.700538162987115 -64.459856493643642
48.739462885141641 66.794357123088616 -65.600444203331790
48.820231947585739 67.690502108929934 -64.533088469757843
47.276888757707930 68.867571685268445 -63.917986554308087
47.935383167013278 70.649053392850149 -63.887951625501671
48.727240607427497 100.281044006499968 -64.413553259814407
48.958740177625444 -34.786997574332261 -65.445871234951028
49.267639187283827 66.368211873444167 -65.505811111616666
49.103467195129490 70.540476331083681 -64.518600116032303
49.789764352650892 82.886291967106644 -64.206991401867967
48.981514674889205 84.107631694376124 -64.289454774428492
49.459871920417974 86.112413855285055 -64.687805966620218
49.528280006144236 89.027080893239656 -65.241423499393690
47.203486979695171 88.260261398628913 -64.190102887847502
49.598142514117434 89.997794347107387 -64.516604614324251
49.687328458743870 99.876897778286775 -65.571212702366054
48.951925082044404 -95.877764432330267 -64.710398854106884
50.008395633922525 69.607096746470461 -64.246039812060687
49.149487116940122 69.125578135827837 -64.550722475698677
50.600266636922974 85.186303045132661 -66.273756463073042
48.255198264628653 87.102345903524608 -66.261534130750576
49.163855566569566 88.619982543169755 -65.713005173761061
47.724184391525156 99.933483899854849 -65.454579068156406
49.138076538851656 -35.808864506423866 -65.119658036652524
50.347368510235846 66.028116904320200 -64.171256367358694
48.749281731316678 68.726285323501315 -65.497996931827473
48.944982169037708 69.464988841548220 -63.997389773435430
49.249269666735920 69.508396012808475 -65.819586442862402
48.519398031570333 88.644257401337057 -66.380291033936857
49.327383942769153 91.571777387032128 -65.887229429593049
49.830651540504292 100.113725627991712 -65.204433374589541
47.812262687727241 -99.598396918803289 -64.984042435080511
49.601832195471950 -35.618334153328298 -65.569929907435210
50.623223015902894 64.620409381542629 -65.823044989070524
49.263184008658293 68.192026077678349 -66.302937273039902
48.133720869698763 89.004164014826046 -67.009618545552001
48.807319302019948 90.580987288200276 -67.030598852942887
47.744523355314186 92.198363114476180 -65.276021440138678
49.694720072531759 101.432840748779029 -66.310585811167854
48.614224574515845 -37.352237877285397 -67.339908610477309
49.835581453685734 65.548620362153684 -64.752348453802838
47.870562003208633 65.915775027635618 -67.309475581202875
49.697083983271824 67.353016071939976 -68.538779835276273
48.790892123039384 71.418210614825526 -66.563472517164541
47.751325314874705 71.028840290417904 -64.934435234759562
47.869999887293780 92.283082485681504 -66.227594371815456
47.904343204810601 93.825384976728998 -65.846603894578536
48.798841612621885 95.580648965769569 -66.522542461930371
48.504604553485620 101.379927397568579 -66.902386644916319
49.785502730323003 -35.473603114266218 -66.953308779111268
48.030333566817589 67.539332230763975 -66.939870594550840
49.367254791925596 68.623527088302140 -66.540813892671622
48.712900349850074 70.027551146402701 -67.595178342392629
48.049043192723865 93.666652068543243 -66.555188075731195
49.598132213041787 101.414328303842382 -66.141334248364331
49.253845386625080 67.400295260140453 -67.743706832378408
49.211727969833902 67.809439745279434 -68.240361709861517
48.630811702277583 69.141426550957206 -67.970606397523696
50.281173038814913 92.689484324287733 -66.961871586043856
47.662442384645601 92.532546374232396 -67.599793642863929
49.073224413922041 65.944596758510855 -68.487932823700604
49.579843052951794 69.547714202586960 -67.767260349263807
48.859016187282549 92.558440033279467 -66.804458958795266
48.999038264920749 94.803283834991944 -66.941965491248752
49.219800222796657 63.987970924969680 -67.405195846365402
48.253248323906860 65.030787137756334 -69.745859309121670
49.235004966285956 68.232634858093732 -67.423372133386437
49.690965726771978 68.811060179598059 -67.908522393677941
48.311782872577801 70.243806924457175 -67.846970067669702
47.852990081266952 93.232608899068254 -67.953944117852643
48.616500140769666 97.067212604515873 -67.723996456797209
48.951237430040983 64.419955984727636 -68.415769893852797
48.515181788060012 65.591106520222169 -68.129689123985059
49.699434880948516 67.403667480868748 -67.961402047318359
48.986643815577288 68.399619401019635 -68.889771204314030
47.924326876328017 96.332777071313402 -67.482142277470544
48.330321780266537 102.251272445325839 -68.283521391460297
48.934817656413877 67.797049314051264 -68.604812869255298
48.319982077134206 96.362350081467511 -69.780809618985515
49.104945700682869 95.925638560051411 -68.832678139132753
49.629630423966056 97.436713834718347 -69.408509556751966
49.241361219203590 98.883912623384887 -67.928777125443943
47.341719259868519 101.117998411315128 -68.464279210045589
49.956208610559379 102.104200045776977 -68.956497543677500
48.545358797061276 -99.809933590732030 -68.924760249042649
49.665899758461137 -36.784578936995715 -69.757752872244353
48.950042944633644 63.884152272145279 -68.586289226089463
49.778593219405472 64.857173287704626 -69.016750161947172
48.048864329045429 68.723211060967984 -68.593142900012893
48.239166092594061 95.172101329669914 -69.026127842555454
48.985628151685624 98.083297884450943 -68.844635586144662
49.756512843025966 97.837813875729239 -69.573084228542896
49.556888149178086 104.134537004435657 -69.664363754808790
48.101580648610060 102.690201908417095 -67.672877843531182
48.127506117947611 63.974157037498834 -70.314095651014725
50.399272480874885 64.673542486072904 -71.565759608546657
49.234441229578827 68.022359603729313 -69.811254395982573
48.790078311330035 69.517848615645576 -69.181587569149158
48.503890159417487 96.761245494891782 -69.903337558025655
47.543174625263660 101.306647905756122 -68.786724886426512
48.840560492094546 101.997077873421034 -68.344082662346182
48.359760811081081 101.904262803415790 -70.050317570599560
49.045410374781341 63.651097015098529 -71.069031985055247
48.128033102698879 67.265712081436149 -68.802745749867967
49.193679312727944 99.486320731788652 -70.140076802905000
49.051833330897196 99.108250994619056 -69.712831794436610
48.475843474371473 97.657255950339859 -70.082734727325061
48.026235360253736 100.275297763548167 -68.836709215473391
48.958859231270033 -37.959811424820998 -69.926140045140329
49.781697837420118 62.486635164356400 -69.955475772956234
49.090652995445694 63.239639081603393 -70.761958535199469
49.145260978359829 64.027578650398155 -70.692037889882215
48.860069447517112 66.564464478978778 -70.606092551171741
48.263159310316063 98.346335542348328 -72.030113492148558
48.154742763233180 99.928094959823397 -72.549443793330411
49.832475713989837 100.551834635864097 -72.558332825793741
48.652614197159203 100.700152573860365 -70.142757487203738
47.620479434670891 101.598439914078227 -70.857367443128780
49.050842771916983 -37.582969165295630 -71.043326564302461
50.339950631387261 62.602375976078179 -72.086150880985500
48.197090100204463 63.409297065825093 -71.129742830050034
49.429144837385067 64.114836684697337 -69.402041441690685
47.914165781874530 64.145638731829678 -70.344152120393929
48.919403627325650 65.960658454231222 -71.665550725513924
48.114108808498528 68.172588221125977 -71.304598989825763
48.570049510038650 63.647020008413413 -70.790390171771193
48.232743098907150 68.251555879538998 -70.858421781189463
49.442765238647901 68.540689176106710 -72.970588408732596
48.763375732971092 69.188706604954220 -71.192513891284761
49.677559493356306 -39.322561163354671 -70.631037734718745
48.137745205621073 64.094388080075731 -70.342680331102883
48.271829784954420 67.526572434895840 -72.113322739214354
48.831229556826706 67.649964557048293 -71.312545261473531
48.520252654726946 67.445467142085278 -71.990103656557295
50.044132094265478 -37.874395924433152 -72.495604971018153
48.382267308835530 63.864852731455755 -73.075428180831352
49.089740107221914 67.611091730499908 -72.769147877215900
50.855336410807134 -38.921152898700313 -71.882837233300521
49.256143134334508 63.850400845216193 -71.046478276025979
48.938316073962582 63.614594577647082 -72.182749477542757
48.528687246160125 65.958542129996161 -71.983226922369909
49.744824151743316 67.657646229333579 -71.615696193996300
47.787615197380333 69.446053836879187 -73.354160867839326
48.526082013618598 -99.494565447294676 -71.797213471042568
48.697157695445540 62.775606668664274 -73.412541092595021
49.775728901777292 61.806786916162579 -73.259651712571099
48.588759528751062 63.770479326210676 -71.675608277493367
48.772242744612164 66.393278550694816 -72.656349657508954
49.337501712635756 68.032311492468480 -71.936646165000042
49.571858615188731 67.001929843967446 -72.008644960636133
49.091991565925539 61.864154066727323 -73.798135221282450
49.327148328070457 62.967186563214469 -72.837748614967921
48.510682984789071 62.543299879904993 -73.193191290759202
48.762023697997051 65.457057068603135 -72.314718888529299
49.617055411139319 67.276340506041350 -72.685823982600795
48.577182230759931 -99.003204306190312 -73.880200670640932
48.791568856153951 62.212550123091596 -72.830341267519088
49.268092773082351 62.271580021288692 -73.841252643998160
48.738312961991383 65.836090849298969 -74.497018221618390
49.089535150733255 68.405529630867747 -72.980183813007443
48.436690600496853 68.918910689064077 -73.297046692072684
49.943397925879040 -99.260044690307978 -74.588990882396715
48.294715573433955 61.681538800345912 -74.764257435234029
50.012542055139207 62.209540256734307 -74.846519125442285
48.624502429928341 63.046645358943842 -72.532607654091294
48.117862821442749 64.856071514617085 -74.375394424636994
49.257701953799732 -38.736550509560367 -72.986891268054222
49.077681113673066 60.874452556374436 -73.402235151398969
48.006381046349048 63.892372376026906 -74.443385706670767
49.273605197980750 67.364437856679089 -74.932542051352428
49.120110858364995 67.966966699196846 -74.863379088657112
47.877175147737198 -38.439425450746626 -74.728029951358764
49.357083167866307 62.309851832649940 -74.648982354399877
49.346598362852149 66.421171025675434 -74.148703814520090
48.132946051186266 65.398220376252894 -75.600543927406733
48.151257946888094 -39.361821048754464 -75.629681386908260
49.098488999727458 61.787489578472986 -75.594098600966589
48.851536560665735 63.388627185676825 -75.070324694654047
48.685123214261040 62.758309221205103 -76.819930375169221
48.330299172933238 67.959851305135189 -74.778679386160150
49.183352405518605 67.376286056580852 -76.205321741257777
47.889812434940453 61.566869426875535 -75.042239433041459
49.515179997347161 63.044710029101182 -75.364862689499276
49.452171806971400 65.477275443632522 -76.973774305086664
48.659948900156351 66.395244036799014 -75.768704564951037
49.171470685944676 68.026635470609094 -75.589338393552566
50.287701682684585 -99.011154858755631 -75.917312083514048
49.038391224256259 -38.676862006444431 -76.620624822089127
49.239261713276420 62.068326170126944 -75.078695116426658
48.694791711715929 61.783224823186366 -75.451017852599904
48.992591816349247 66.682342678927469 -76.662570797868653
50.066667689007758 -39.747509345465510 -77.137704069064327
48.448560865202381 61.538555512888664 -76.125748386444755
49.934454822286256 62.510582623573988 -75.402105307604572
48.916548330598239 65.371285009816305 -75.707165534833294
49.152953362227386 -39.680400081270271 -78.131903779934689
48.974749013729017 63.137327465077000 -77.210952321555553
49.123909220920709 65.964517092809444 -77.017824847256193
49.026313277820542 66.146569106087696 -76.406389108594823
49.489561652658807 65.865428478155025 -76.540755917038510
49.198722950447120 67.922400678035515 -76.908185547815634
48.659335320243891 60.643321685132726 -76.716854460938080
48.653419100677581 65.041665277815028 -75.741640356918666
47.501358330856661 67.279111928065703 -76.748366675592806
49.230435632571435 66.173937764706210 -78.139059712229525
49.712217843470683 -98.747047825793928 -77.704830872810135
48.929691034556015 -39.952862156015271 -78.352513405327315
48.178304506676106 60.788283488561724 -77.825356367758232
49.933553759988456 62.302193868537756 -77.776099741419728
50.067284458017909 67.428594089715006 -76.950864825974818
47.266834502342597 68.159345970270834 -78.135620110224593
49.900521601590263 -99.179732943739481 -78.727271236522839
49.018516332110622 -41.774068783381480 -78.493328032501992
48.362421086945716 -41.476920560962625 -77.704662881174173
50.775084318565746 60.758361738806784 -77.213752157578085
49.766132405073201 61.936955732203039 -78.403720472767446
50.331854978918649 64.960601504075754 -77.454901533490400
47.331327366764086 66.923752756718216 -76.491123202945147
48.797105225692562 -99.051920813879576 -78.666645943516315
49.496518646512584 -41.579392676963124 -77.560358854590106
50.189216831889354 -44.079125359132782 -79.101475379546770
49.639748994811953 61.225806048360738 -78.642520382445767
48.520174800374051 62.944507844853121 -77.764247761874202
48.745116833201728 62.175429208869623 -79.324558505697212
47.687885819085579 67.015639668237796 -78.195845519762344
48.440858308311448 68.356687565407427 -77.970669258015789
47.963247092737298 68.752932866594961 -77.775800544929382
48.225275244215617 -42.340995010325159 -78.515598575367861
48.889626388025242 66.920555026690636 -79.022541329019830
48.586893655665875 67.451813729301648 -80.309019878504088
48.079235329620744 69.309298808909958 -78.921513115817689
49.253734054468424 -43.903671198800829 -79.134789382813153
50.002439937036222 61.300115697438152 -79.113129982333604
47.214085164432376 63.092432123994541 -79.629727836153961
48.617619654445434 61.481546542203610 -78.319625654335965
48.544780408454173 66.141144006023453 -78.397636642856327
49.626849005871087 66.355221187663531 -79.971793956342268
48.255577398046910 66.560514697738640 -79.031104615811614
49.098439208589873 -47.077128864746030 -79.116047702915282
48.667387593376397 67.592300374152401 -79.753695418351171
50.162588974784065 -99.744733319466079 -79.200987094376217
49.321999479874854 -43.321786471681889 -77.511348096046888
49.767522864201283 59.479281813246537 -79.121446195584028
48.122663690942517 61.221762148299234 -78.922002872992323
49.665208405189148 62.122767550890408 -79.628476167339713
48.883722793999475 67.336242065945953 -80.223403490469153
49.828081701927779 -45.027364951405183 -80.180018435552057
49.035898139176716 61.567078444401538 -81.024089019148249
49.338682383541993 60.923235422038914 -80.865547886858408
48.671686390369580 63.959407749493515 -78.548601859551326
47.942703063068194 66.713994994757229 -80.847787795916645
49.171090755977907 -47.194992516840777 -79.888301689638766
49.547031603660194 61.677131568003226 -80.337100862350269
49.059967954754107 65.801958743060567 -80.795419042412931
48.117034143562329 69.044356635220169 -80.621195347858404
47.889479336591883 69.715975911388057 -80.034895185015898
49.396252574406425 -48.119401218513936 -80.802244073731131
48.509031829970084 -48.055378985025932 -80.673874257045540
48.010564023397762 61.213229539431339 -80.438045043609620
47.531949656797551 60.830718909125267 -81.217140654509990
50.943935783860745 61.034174396855725 -81.972704125953953
48.768920812254557 65.213493548276602 -80.939434170225212
48.509719563947620 67.411984277505994 -80.917955060026543
50.411665203030680 -50.739216564053038 -80.936469627039202
48.019826042463819 -48.703308625275348 -79.903850786696580
48.391698314328863 -49.629917334085889 -81.754410158444060
48.674641901888194 -49.684664258751660 -81.382156595467649
48.501124508250243 59.913119623142244 -81.361230170668662
47.522502668975910 62.320871193938551 -81.132419303579525
49.130314229736577 64.350358452392499 -82.293914284816623
49.483677242454249 66.595456728829106 -81.352480497306033
48.820662452457917 68.117453861011967 -81.361710539877407
48.948639572987375 69.364064259708897 -81.563949266042840
48.519794777213740 -52.665468851931799 -82.230340716602086
47.123647632349865 -50.879617574217257 -81.801341947981228
49.603863426527752 -52.299667370823101 -83.067315984547406
50.231763829640990 61.429904792041590 -80.298479358298948
49.542496650465779 62.576390595602618 -82.726885876377906
49.659523280114428 66.933399886253881 -82.691416505188528
49.587398433982727 -54.366807880450828 -82.148145834529245
49.486515505925546 65.266332167583883 -81.557022336880095
49.192446581584093 65.027496347001730 -82.171289672554707
47.501229727700029 66.388128916955026 -82.766969915535029
49.920507871916065 68.038941242598270 -81.371921179923859
50.098348639959205 -100.119491268963557 -82.897514789004646
48.512786161275791 60.732568445646670 -82.134784349856872
48.839600774404296 61.366695514087226 -84.189906601978251
48.647643238506326 61.535888700547304 -82.397552014322201
49.095019921965758 66.991852286850431 -83.834328249238709
49.293367019393457 68.172604783761670 -83.372617481525282
48.254785452569912 -99.266133649190863 -82.919156698258661
48.027884177656333 -55.232659523834037 -82.917160644291400
49.364319411122672 59.744456225332335 -82.895843293859741
49.180763030005131 62.014241177021816 -82.591228466856506
49.175128178590285 63.863799499860626 -82.807778324196775
48.768859041994062 65.250473207259617 -82.888935870010442
50.534356069315372 -55.885088993705381 -85.122695032281854
49.461506075893887 61.792341124340126 -83.338278598988182
47.964475797847498 64.798646336964993 -83.485795647537302
47.700615779941693 67.954384583445119 -81.678611299665249
47.287683069242497 70.733631249453936 -83.578138792210339
49.084758036436710 61.451072210918959 -83.357416728670543
49.417598655828158 59.934470042057505 -83.414903226824705
48.240759952614788 61.791410007993427 -82.261177100444343
47.750680786392515 62.163287339455650 -83.680650585676233
48.568479098332006 63.450325491806396 -84.057980487700107
48.734599861647538 67.365546814579531 -84.365969304880096
49.170263194126143 68.277294502961865 -81.975413106522552
48.113125639522174 -56.749928043343928 -83.672449186432303
48.554653285751442 60.481856456241211 -83.617691341600903
48.676759203409240 61.097044205403868 -84.918108328932519
49.733272394027082 62.556840459093614 -82.569480139162565
48.986858899272477 63.556918534090848 -85.079953401340518
49.346218573484414 66.553066349092788 -82.165510214595074
46.521354288715614 68.709148753628014 -82.726684937560861
48.033941198463815 -57.402230723963527 -85.755568800883026
49.958708360571528 60.209506402425312 -84.321921452382639
49.010766248934701 67.138260674173836 -85.032563491846446
48.091386844480752 69.296757512695407 -85.642009579304187
48.531279587686456 -99.306841264713299 -84.948230599797355
49.016008890729822 60.413213183086107 -84.258027286756402
49.218102560432463 65.222801031435182 -84.793658160389739
50.089952790389894 66.286369320687328 -83.317334977365505
50.359528834867973 -100.483767479138393 -86.014090031839615
47.933509622048376 -57.878899904582994 -86.743909411761621
48.127436435562615 61.511965075860040 -84.496051079886712
49.050792125457612 66.344611605740965 -85.241496619264197
48.671285970276976 67.314810909300576 -86.010086159036135
48.264159124666691 68.991046429593695 -84.942179607558060
48.225925514018506 69.615815785669113 -85.727943863688225
48.885897771520483 -58.218103310710063 -86.282966215185724
49.054856538163612 -58.234781502809085 -87.364761670135479
48.623912559814812 61.993881717319475 -86.360551093959529
48.877954215013865 61.030585877579263 -85.176603550970825
49.065629776143680 64.748797009736023 -86.350527180919514
48.892490776730256 65.690341200556148 -85.969864974959918
48.177975284537617 67.594484573792073 -86.438926375603245
49.766227558837898 -99.376909744171869 -86.333166412295782
49.428809776807149 -57.272643609309277 -86.809574960657272
48.479494817795626 61.453777494639766 -86.446882298935648
48.787012643538347 63.009396480746744 -86.574172598880097
48.434614393430202 65.368803451751205 -87.578234878576438
48.352656673858164 64.399945761872431 -85.971514532846356
50.207103254986571 -100.506769150816780 -86.264408184120214
48.844173913401704 -57.911189999652244 -85.965084430447789
48.872282979576575 60.878961639566960 -86.371551146350058
48.274136196198455 62.220562112983473 -86.873691950893502
49.114891445576951 62.426425963958209 -86.807302672135719
49.203191194150207 69.397497232625412 -85.706422916379978
48.632153525791821 71.328316263288173 -86.938398068191020
47.614048971899415 59.638206094906131 -87.458640038709987
50.362064869662994 63.813452320379206 -86.711343876229563
47.722772010870251 66.434578847856713 -86.924215012677521
47.676790061543286 66.951646695008577 -86.166600680555149
49.103936460692992 -100.181923603513042 -88.488335191481099
49.126543953125221 -58.976947531160114 -87.523974396971212
50.221689013975627 61.399965617371613 -87.751332773320485
50.287771224861658 61.949810152056727 -88.672495402421319
48.963628142931121 63.239942370945435 -87.004137983810708
47.967498078291641 61.415360219152952 -86.448667579177268
49.384462077046472 64.493181161146751 -87.982545302344150
49.390537980940692 66.129724313667566 -87.367782057720675
49.033268365709034 68.972621603552440 -87.379214278403950
48.733760740661261 70.537160090780418 -86.412008970758862
47.997196751802782 70.902883982289865 -87.732323933938346
49.315023944067413 -59.464541706538000 -87.307510377804476
48.640914917370509 59.917891204779664 -87.263199272543403
47.615138527659191 62.504566649152231 -87.343722919613754
48.704075087366576 69.302667188797983 -88.980279289246425
48.846201891769013 -99.068652326211421 -88.062670280719630
49.317713774227997 -61.097914579139143 -88.307304494332314
49.602863872543779 61.227906622940502 -87.814998672778358
49.677870524889421 66.967604839327976 -86.817612066749604
49.340157613668907 66.734766851251194 -88.772431710048423
48.059235338559091 67.404843738967088 -87.581037292550079
49.603451672949383 68.628939993824702 -88.393881097085540
48.470930522203474 70.567596046091111 -88.662337301343570
49.400791271903444 71.706379150458815 -90.028490597245749
48.268150468212539 -59.943680908012254 -88.858456725235186
48.823090196983792 60.782141159918439 -88.584195830159956
48.639377311448200 63.099405653513486 -87.536416691907505
49.768680050444033 62.140399063731962 -89.311996621631891
47.854271872754303 66.081773977535661 -87.796959558207732
48.722801417399971 65.845398417326251 -90.121314081215246
48.611365478603751 65.575290472858200 -88.772715400860235
48.403019893078650 67.356297974819597 -89.026653273104131
49.011019814848041 69.917831301874372 -88.066816627490510
48.614225773689789 -99.913570450792690 -88.478502556366024
48.440759964823350 -61.870474304211136 -91.029343138267663
50.372516434563458 61.804929744351888 -89.644758920554111
48.977687112006656 61.493238610264278 -88.750576349630506
50.305775924131396 65.461138896692077 -89.072666132138096
49.820224317292904 68.292952484671801 -89.370518137123227
47.168496655317554 66.058549491076860 -90.237739147799985
48.930954354351954 66.189145456129253 -88.385464978291367
49.266141770355681 67.592879502560521 -88.627624906279550
48.738485992564350 71.382685624940237 -88.892857452223510
50.299085838546027 -61.271227573916754 -89.063065018129564
49.334136855993165 68.478667709828073 -89.417268393184955
48.915622091378623 70.125683147763084 -88.698474527164748
49.097709307871668 71.508955218369564 -89.208600693966645
49.932975073771736 -98.563614428731356 -90.046195252363816
48.980211620634172 -61.417200309988992 -90.462501945764018
50.223025418642358 61.232841697558761 -89.722113373156589
48.933369146602693 60.518474839465554 -89.938619766292405
50.254979130891044 64.410115132136582 -89.265023857293642
49.749791235556486 66.657359496520257 -88.960906189530533
48.163667014053395 68.904577029629792 -90.223835160837197
48.249342882598263 71.608443687535868 -89.990543407203248
48.505622154237436 -62.252841213974691 -90.760231267176110
47.683146346513816 -63.203894412666813 -90.337433414354976
49.015105650079761 63.188485136782667 -90.952521523029390
49.395956011280681 62.608390946344073 -90.845808265820949
50.334028190884162 67.621312545188914 -90.583501484345973
49.506314838404492 70.683148619800178 -90.080740963816240
48.083717972715782 -99.459379297009804 -90.618063536956797
49.825684172035331 60.999869161450682 -90.988504652885666
48.339359359142840 61.957098969082708 -91.390888287064868
49.413553742811800 62.773914944497811 -90.986450421326396
47.936883069818215 65.202556140788118 -90.788415730972119
48.513887627083868 67.082304518454023 -91.264068870532810
48.883707094014099 67.514419895744993 -90.473631367461692
48.513576680766477 67.168501088220296 -90.350990764296782
48.023479696667827 70.260751528811056 -90.382722440527928
49.218006945777972 62.391926066867242 -91.132890586264224
48.170716167256430 64.687032469064718 -91.389398929140853
48.921632659298744 67.189571728339914 -91.792467110428774
49.533607842614117 67.823964688780706 -91.346254985473223
48.552921904628015 72.855008320939376 -90.878820723745051
49.492043314614364 -63.761236434213430 -90.983963137976872
49.549810466843432 60.717985135058271 -90.756488760991289
48.643153037507794 63.697726609248804 -92.782879245881972
50.304631056608876 66.188399767524402 -92.262451303447776
48.901060672297483 69.634224367672047 -91.422309376152270
48.122642970763032 72.213977724554681 -92.580296313312644
49.673346566417699 -65.024673133106518 -91.477153871843200
49.946449747884579 -65.119227000766685 -92.924240059706065
50.312601286041023 60.549844911959262 -92.568819637204655
50.092988349233210 63.084182224026051 -91.401026851755930
48.199780265911421 64.832847696385699 -90.741719797729488
48.493918859095139 68.090141606397012 -91.230758870346790
49.050476103779154 68.564556592898867 -91.936313894333537
47.820705946934382 68.418847028721288 -92.020053926702474
48.396002224148418 70.776914986169629 -92.686956791756643
49.403968258994112 -100.250278116999922 -91.532855409611045
48.882347357740592 62.867010612969572 -92.340104303218922
47.775491457201326 67.634060783593512 -91.832461829443375
49.793748469718381 69.866550219103246 -92.171411170780388
48.287239240361380 71.649710699047318 -92.165210127811136
47.855313435314990 -64.948299216673647 -92.953084220379253
48.594220450582306 64.056582173019478 -92.113705633314041
47.330666058552644 62.543845293537387 -92.558094618224047
49.784899526502791 65.561371661418448 -92.386709636525637
50.151144985993007 67.481093773044648 -92.064700960950873
48.446960818867403 68.343847006358430 -94.183821690952527
48.520367681429377 68.565436210582760 -93.868580848446186
48.360286875899732 73.213800240871521 -91.478528062591039
51.283679049213227 -100.196394382706060 -93.516911108438194
47.734214851894492 -65.167859022322872 -92.756788101311159
48.556166162766800 62.067005844067104 -93.275208787580397
49.851250047105843 62.727799849415049 -91.587637499748553
49.183389727621275 67.374512909507061 -93.353239860140391
48.768847590344116 71.572647001023483 -91.489032160980315
49.590843215761382 -66.538053594903118 -93.419546436277884
48.571776096611373 64.927255998302158 -93.213890426113366
48.757549553240111 68.573358903189941 -93.696282873629428
48.115151820800925 68.181434408974781 -94.113260079583938
48.680280564049468 68.900952181499591 -93.448165693638785
48.695502579850483 70.062355964788125 -92.718328052786347
46.985154119920317 71.467580617824112 -94.083216415885545
49.746066886348309 -66.700280277958328 -93.624449639232253
50.100148850731657 61.203081086156715 -93.472541440794487
48.712018850103732 63.082596313815600 -94.355338562109097
47.931447053891837 68.761697096093272 -93.484140352614261
48.581272191356952 71.079741446220524 -93.179812764027673
48.663526437563391 71.442182942489268 -92.870169777981971
47.364217661754701 67.651377181628376 -95.579096466465145
48.605757153202511 70.781879468253706 -93.929893927881281
48.343648561895165 -99.525418572580122 -94.868127229366280
49.324421480926851 -65.952225498102834 -94.646850520606648
49.013907604491585 61.467901505521063 -94.640682122371558
49.568308043203800 63.569751377032944 -94.764300407856126
49.329533726900770 66.300614634344768 -95.021117408429561
48.682164335403911 66.583244107963040 -94.750479984849832
47.752129952030380 67.988504699264695 -94.770417679045352
48.224287720763144 73.074524457493581 -95.313518621275023
49.646354127194911 61.793174452939652 -94.703302617060132
48.438398147963667 64.529027999471992 -94.616356344875314
47.311813193376324 67.439020672976241 -95.314471887004089
48.172112364557208 67.105443281158628 -94.855530838860673
49.207965939077944 68.429828398497165 -94.793425258196592
47.575286999304282 70.384830941240040 -94.793244509340838
49.099491875338991 73.495151941930985 -96.153397443349974
47.998189222257864 -100.110869236663518 -94.911902593098944
49.096874800650390 -68.989826705282880 -95.182151882623742
50.139774439224098 63.805913064579265 -95.213902290755627
48.565667245325471 64.493180668744259 -94.840942295456955
49.721350363110119 65.548284918818780 -96.513953275289083
49.993877689949464 68.447057424555538 -96.017589750624779
48.826496332554910 67.202069665222936 -95.433887871348531
48.047875774486705 70.454449471569532 -95.288103678520329
49.158161438427214 71.568906433002709 -94.514156522148838
47.909849564725818 72.897598523996450 -96.368444570198790
49.150927198496518 -99.037417402801140 -95.704101844650779
48.148610112152504 -68.440470000209771 -95.563930568876771
49.377947942967666 60.621053732740187 -95.931779794927095
48.520897756408758 67.300288139664772 -95.777415944228139
48.688077249543070 68.408941610218690 -95.595338253459786
48.442052214814467 67.856465612467275 -95.796710851501757
48.364836464116635 68.570061553309529 -95.924797862442077
48.141853292886800 71.668880525415233 -97.047151347816580
49.021389876323930 72.083811930032226 -94.975669039205343
48.826089948257476 63.808721791627718 -96.582854136691765
49.040022460954141 65.027430216488526 -95.576192824548002
47.353152524704285 67.068913236208516 -95.654161669810378
49.351414514787344 67.945906760336484 -96.500390901018449
50.157247936911709 71.332384309582707 -96.095043045590998
49.377463791356369 -68.058561390098220 -98.161002186441053
49.615111792690975 62.173282003367845 -96.218609075991040
49.769304511772425 67.120593522572918 -96.964231410133564
48.843919042344169 68.365546474349429 -97.526062838101296
48.206039989992803 68.525420844563456 -97.114960067939478
48.349077430650297 69.481946989622088 -96.058939995447616
49.410701611412421 70.418221364359994 -94.680407388744499
48.067023567301888 72.362625961131414 -96.202146569274731
49.034109635819277 63.819684718934511 -97.248191995320411
50.488423971251720 65.295487161095480 -95.554305423089559
49.977648949282873 68.310883203940051 -96.723660929557539
48.145820730560246 68.027085399321365 -97.547488199624127
48.240045084810603 68.431563055629766 -97.185072283307548
47.852691427958803 68.107791009392415 -95.976843911926792
48.657792300708316 69.998106573424636 -96.581749470809712
48.357741520312025 68.912910096968318 -96.800023156533854
47.235825259121455 -69.339089177316325 -97.323989956955245
48.923227266419921 62.743828912401476 -97.339179327478178
48.908854392671692 64.189960473792553 -97.627412310470078
49.471242267718956 65.340352037044283 -97.538768773144014
50.124295722966551 68.052542684260473 -97.866811208765355
48.906599687269711 67.245859081915398 -96.473893311666487
47.331451889712966 69.157894533301459 -98.048747428405335
48.028379754005783 68.995151430262013 -97.099560317411232
48.916010943402704 71.540653138297913 -96.701891700065460
47.930095438823244 72.739561641901545 -98.052457608986174
49.749762359517852 62.258529881093231 -98.112511494825981
47.326935721551706 62.429647504774991 -97.732760690009414
48.095266499429407 65.333430406394555 -97.092232099656215
49.374856061457734 70.710255544299329 -97.191971172866744
49.168653605142509 73.465728944883622 -99.131619730492076
48.844261079573002 73.359257405519784 -98.157011969655699
47.424834251253834 102.299371775277280 -98.582574314791984
48.500986798160653 62.761110107078451 -98.380233114353658
49.011554633381458 67.626873938520902 -97.572486557718989
50.207978667860310 68.872170027226502 -98.421409615137605
48.240918357069418 69.349744416844914 -97.431991153712929
50.188913570821455 71.348601782939653 -98.665321767079789
49.175012730237526 71.182905553513095 -97.810899592314442
48.226877554211455 74.882113297758792 -100.051711672284242
48.064364096965100 -69.864019428309646 -98.445983427797046
49.136964272449013 62.583955221176616 -98.153185434314793
49.007280245586635 65.590736344378087 -99.075710319562774
48.709276841414329 67.179770355706907 -100.021475768292703
49.348489890420439 68.228309116294284 -98.985788497282542
48.560809948896292 68.893565759413221 -99.325129062149543
48.681641309328143 69.463235973403826 -98.162200432950655
48.882929924944264 70.800870163827355 -99.751718570603600
49.460387033048249 74.258221470234659 -98.123114794602188
49.308992108998090 100.698745735072308 -98.626507502865380
50.104851414904964 -98.900471332713991 -99.814381380712433
47.787196808775363 -71.659638963365964 -99.488046990184046
49.637184698366411 63.059161324393358 -99.737933811918040
49.207283631018548 64.993317070653291 -99.371591613939160
48.580569933887880 64.558083147603554 -97.652056217772497
47.571412432812728 68.165261062764401 -98.793499612121707
49.778569322853080 69.411416930703524 -99.720931232846539
49.888017772955344 68.194312423859046 -99.945443112722231
49.338959641941251 69.409399833000222 -99.521627589340298
49.108119923780826 102.758987818825503 -99.722314926615852
50.033625989436409 65.062186102972106 -99.800992038900745
48.328739291819957 63.683878770454882 -100.466321749201057
49.550088867276216 65.825934270357280 -100.721078666074433
48.258993548368800 64.787717939136485 -99.321495024997901
49.602771594281087 69.978979101470173 -97.974602231983511
49.511581537324339 68.732334529571901 -98.740062749200717
47.866170178809647 69.874580999236727 -100.046857141394455
48.821280726615328 69.841823625503991 -99.844470553238068
48.409917978007989 73.027513634344217 -100.203642822373766
48.412079053204103 72.949257490750767 -99.709612584147905
49.824694348129370 -71.645017606425185 -99.481429439428680
50.113882899901192 63.494602250155793 -100.516774767668750
49.070154324305776 63.840834580540324 -101.070698356278314
46.868697677232277 64.327874453997225 -99.886669086435390
50.363693392270662 64.363745603801718 -99.611092790308490
48.332798293291866 65.867634525783657 -100.202602049492498
48.588072953392526 68.831527101062548 -100.078334711865011
49.857778454694788 68.919501370037636 -100.599784196649225
47.898873328799986 69.376447665185168 -100.640803192059209
49.095571899379024 72.952954811869944 -99.711147814958068
47.907641627441457 73.116256601455916 -100.263154701807878
49.449467267899493 74.129975194231804 -99.817773414721870
49.529814383410205 102.910504097785136 -100.429287092234944
50.059624168599960 64.590709380530569 -100.526255009695973
48.236600914681134 64.714541521660195 -99.981455485554804
48.963627941034233 67.125095401377422 -99.401615663575242
48.579063484405481 68.556910740467131 -100.106019031292192
48.211335758515069 101.327430675533805 -101.664032230037691
48.639950860037651 -73.033160483604320 -100.116195877189071
48.050079977020658 62.203919668993123 -100.669488551848190
48.933056853075989 64.072744792003192 -100.520580004001644
48.159772511566288 65.120022415785783 -100.408533484330704
49.381008072327873 69.139969252389676 -100.388704144836424
49.174855073433754 69.940858489593680 -101.603633006477182
49.460511171076575 72.370481952799722 -100.768321044299682
49.194219164636756 72.777586248459173 -100.855435108483320
48.567604810660605 100.398659592429084 -100.509462200810148
49.918778475628457 -98.606246227090480 -100.871361222507488
48.791177421233755 63.824438990923419 -100.524129331751936
48.196556819599955 65.831659689637220 -101.196114415069601
48.170241163932843 70.258481189582156 -101.203996693961756
48.992480010634466 70.998256577424485 -101.073347376167007
49.408769593645360 72.424563179660296 -100.221071403927823
48.851459277393054 72.206763819726831 -101.029949784923275
46.962940282289942 73.800856368716481 -99.865946724569980
48.623725086746866 100.661715616065607 -101.545585263054235
48.572932703399999 101.328948002509094 -101.699740875484039
48.833316845804539 -97.975041594390731 -100.258030064352511
49.196260768050173 63.255664635148619 -101.651377312137015
47.987691163550714 64.588473017925111 -101.487663058852618
49.989126857243988 66.808210263179930 -101.164874764820382
48.246294859343529 66.614828932783851 -102.021973684428247
48.975403448036978 70.742198750118916 -103.182920973193205
48.459575897430810 69.037899389609407 -100.828919337310666
48.986319739777962 70.813364036024424 -101.610282530743106
48.291650243141341 73.557408288494955 -102.346118174508618
47.858239483953362 73.637382707927870 -100.853218854028199
50.991453586159302 99.995546298358562 -101.196815665656715
48.445863312661700 -73.342027051836411 -102.755448388627840
49.171547467424723 -74.079448738244778 -102.103177947165761
49.152135297060241 65.065353513144842 -102.593836425984236
48.235251635566392 65.263916198223029 -101.469696893835746
47.498230925351052 72.669707617656115 -101.669671943342053
48.585787415322045 71.566382206760920 -100.658017197106915
48.648004388196725 72.715814269826879 -101.381808021043213
49.530679370888990 99.102072732358209 -102.278912028213966
48.324646060724525 100.117116040651055 -101.230756621502906
48.914671106270099 -97.317352091783036 -102.052271436486677
49.001198854351117 -74.166540473928919 -102.682413111586982
49.050457250578376 64.319246957397951 -102.663796982959255
48.595660281631616 64.311957442617029 -102.966179142703794
48.533939148057875 69.825459500566780 -102.980603118372542
49.302462067754199 69.710676434747626 -101.374122440748863
46.835938091684909 71.045202248499749 -103.391300595512902
48.534972066243562 71.568599627732951 -102.965871275713283
48.761777182576701 71.257744019733849 -102.198692824853751
50.288952965576364 76.126966051619718 -103.567977673060696
49.344143033303489 101.009165425515448 -102.053885094181837
48.673254972359921 -72.937027202959399 -101.965339182443103
49.291248253461035 65.977219156244288 -102.996805105583206
47.959038823808079 65.090874994454637 -101.265074217462342
48.159337704637224 67.192381936500013 -103.176228006293357
48.497389521998528 67.577824756829230 -102.473334280540456
48.360610699127747 70.417968367014566 -102.143098547018411
49.443967142345514 72.992076555549360 -101.779835476546396
48.297261641773694 75.036229880959752 -102.661559451124958
48.406410861491146 98.614714710665183 -103.904735273592195
48.471219699009083 101.283186106802887 -102.073569010461142
48.394561524545097 -97.706628476983383 -104.419214755127314
50.849640244499497 -74.290118847374472 -100.904002016388148
48.683388805912251 66.232587216322912 -102.280603425392286
49.197452952473277 65.274679423874048 -104.006475740403729
49.809658997628354 67.269270674804574 -102.884424075349557
48.038303333191216 66.310155257261627 -102.322823717327381
50.249826858751021 68.387383814372839 -103.486200968249079
50.542836559386245 69.637847573847054 -103.820644632218574
50.686648318748382 72.505546422310942 -103.059649534910761
48.743707506802920 71.421049322119245 -102.967554439673066
47.982353125448327 74.929149435680685 -104.081038342976015
48.015458600814263 98.250383376747806 -103.158146534977575
46.948345498685732 102.089368617957916 -103.959607596631798
49.126613900001765 -74.336170999615888 -103.115096231416601
49.111013345938048 65.200723364740469 -103.976564158363431
48.789388435382854 65.381097908321919 -102.758206821689711
48.463498025032607 66.850688950968916 -104.112530484723649
49.935145454782365 68.730508297247951 -104.690219751206527
49.055718024904273 70.663104283471540 -103.103633382567125
48.971449525336354 74.529388523935822 -104.056569128805833
49.593814281704347 74.034192204479538 -103.519043039077630
47.868764463489192 75.159705900990787 -104.311343633348528
49.711097300634307 99.376655314348781 -101.861692521513731
47.968630120636277 100.202968491638828 -104.565470184569079
49.324310686295526 -96.888929583128800 -103.193421825574617
49.203823015666430 -74.530522652061435 -103.134778920264523
47.577755359705655 -74.271131425698044 -103.632142125419463
49.665527908771850 66.041373637697561 -104.625472838807511
48.616118789261165 68.772243663368698 -105.486073520343623
49.886535932912906 70.246379817240751 -104.630537997559472
49.820115810036548 72.718809697612897 -103.280679341453038
48.291886806871105 72.352706784348584 -102.990733427771744
49.319261660061230 74.245181326116295 -104.351412669904036
48.291608636850981 98.874587146416857 -104.583406538034950
48.922470282028378 -97.912769618912023 -104.629040695447841
49.577052181992798 -74.490739347779780 -104.539991313298316
48.750775763530321 66.887790753663481 -104.824222440431228
47.802259041423383 68.098831944926999 -104.905180828892398
48.357171987483603 71.159514323963705 -103.755567909428478
47.909657664118946 73.557855009408755 -104.540436340427249
49.653929373949012 73.244350982596458 -104.395076092984510
48.980794716592172 74.868360670080918 -104.389904325613813
49.518030576783332 75.899901790494724 -103.929071616247924
49.406191502833948 98.056515201715285 -104.831336696962111
50.006647067671274 99.752623534420096 -103.457341174175198
47.993435056902193 98.895896769173646 -104.688180599514965
49.523342637956723 -76.718539674709220 -104.287127485099433
48.625414233649664 66.437003294536936 -105.541785915659432
48.266100655288639 67.521515264593802 -103.294992036246768
49.221899849317779 67.614452775905363 -104.629685752724910
48.824683909220894 71.432033956516136 -105.378224778582407
49.003181685123081 74.192755455849266 -105.393555707814315
47.973607790997136 75.541180558955688 -104.950707599895139
49.574840492607208 96.517053947055274 -103.704991895074926
47.582441048716689 98.882286602568414 -104.199449547227431
48.776146775992117 98.952944006164543 -105.363953259515924
48.265147620158295 -98.081293332302920 -105.112145208005444
48.569488892104957 -75.752192782562261 -103.728332461503697
48.985424407410335 65.077212622557099 -104.635175319059655
49.952908849919012 70.292605412460944 -105.167142676128080
49.029525339051624 69.117558041127566 -104.400125014152692
49.225344742192142 69.636833752613327 -105.791088352128313
48.010936500755328 75.943395691007026 -105.145151933917447
47.740455235835860 76.914264340756517 -104.616796362772192
47.491321761446670 76.849474959742111 -105.897257530156324
47.883401225278192 78.789246521011151 -103.694711778488625
49.063891563916719 100.187114149583905 -105.165845077423242
48.723086653861010 -77.480060048685758 -104.788982307658557
50.217225747933000 67.081883546536673 -106.193603911096488
48.689417446185708 69.037139138336755 -105.533127847622481
50.728798309756044 71.190584851880303 -105.805295460925208
49.134786287602211 77.205048995557718 -105.560325305073334
48.971589285936858 77.200077863334513 -106.994906225406154
47.813059667935818 77.249807713590144 -104.875144186581082
48.999931446461375 78.194126658112069 -104.970536610328836
49.539220323710971 80.346040456983005 -104.877586210884147
49.409101478835616 81.520883491016917 -106.402346664063742
49.307632553448400 81.390943229715916 -105.716944805700948
50.195011133981112 82.670881923770139 -105.599655944399643
49.030061164512674 96.573193214275591 -105.124337590701884
48.834385324417717 97.820193270896752 -106.033487706296398
49.519489656155088 97.317500088651443 -104.830589637269284
50.261554673138406 99.586928594688857 -104.995439683994732
48.590852063627509 -96.426447193284005 -105.589097858108914
49.605304214452921 -76.206349705347918 -106.604491624199127
49.646370325928473 67.396997564982698 -105.844053159481192
48.821716088414277 69.596577659285401 -104.944402069216991
