# This PCD file was generated using the MATLAB® pcwrite function
# from Computer Vision Toolbox®.
# .PCD v.7 - Point Cloud Data file format
VERSION .7
FIELDS x y z
SIZE 8 8 8
TYPE F F F
COUNT 1 1 1
WIDTH 786
HEIGHT 1
VIEWPOINT 0 0 0 1 0 0 0
POINTS 786
DATA ascii
64.682286419554970 -52.601002286535831 -139.942881771945508
65.239756675120859 -51.413782163663733 -139.962991613919769
65.489887039484501 20.388290486314997 -139.484739538079509
64.775217350553618 -93.949537136139071 -139.799882897176133
64.506953471687240 -93.452041366482092 -140.121444871584544
64.633682359687754 -88.894367122820015 -138.847765683418800
65.782348320756611 -54.264847317970450 -140.014126598330790
65.168511233132350 -52.709698456507198 -140.077874795376516
65.793365287069804 20.274375997749015 -139.856461915672071
64.370844245142337 27.879309537027073 -139.959722000755079
65.222809153868582 -88.056242897777594 -140.590505928467621
64.654398258377711 -88.840259138331191 -140.196338075349871
65.027228791172433 20.016606416678353 -139.974502899320100
64.994743334568312 27.394083299257503 -140.183857669254053
65.582044285636471 -94.043579476838389 -140.384525725014299
64.783331709940953 -89.558628263339671 -140.390615985023260
64.670025504816323 -88.437107285945658 -140.760535539843346
65.266834702843525 -88.291794433988883 -140.540414226944904
65.684306708312320 19.683969943186135 -140.715864674911273
65.172989767894776 27.531483811019594 -140.564859243246929
64.384968561238992 -90.049938278684692 -141.462703536205339
65.367294684849497 19.159947738027679 -140.664173580906294
65.107553072340878 -94.735283932302067 -142.067231527657924
65.004471969890517 -89.137661228955238 -142.091875769965469
65.377510655054579 19.052311389823611 -141.617918461905759
65.415099578425909 26.005655533927300 -141.394243470737507
64.874010688987511 -94.157022131784302 -142.175082448923092
65.094382241968617 18.175420175059323 -141.884685832578896
65.077636044952371 26.055184602609625 -142.004677305423513
64.943440202169754 -94.708541481443305 -141.956518959501238
64.675876150105523 -89.294971903583459 -141.978236224630535
65.364516691479082 18.422465401645091 -142.478451340092079
64.913506505827584 18.869505470125965 -142.011559657626037
65.369679399072183 25.950525198416276 -142.308318300087876
65.068429758425168 -95.585681747150801 -142.594943210479272
63.688588438254442 -94.118261751510133 -143.105449979957797
65.045129397468997 -89.245887456951039 -142.755751954240225
65.685678452796438 18.252158274998486 -142.977825541416252
65.166390336191014 17.803111295767213 -143.642517165656585
65.407269830465154 25.513575504497911 -142.520814101318877
65.380909718263837 -89.505344496167652 -143.359708848138041
65.156560259454537 25.406717065333233 -143.245483882783731
65.315795523863386 -95.602679929024333 -143.555088494357193
64.581920553001879 -90.802192979966620 -143.879264619200484
65.295921364211964 18.306469755593032 -143.549430962458246
65.429326927247843 24.808627629029672 -143.543378768475065
65.360577546485004 -96.141197812692468 -143.743733531037662
65.493451570332113 -89.615482992960565 -144.043378596772982
65.479833905675449 24.591400998857370 -143.725028324451330
64.929158290427324 -90.372753951640874 -144.154545843148554
64.238662986735875 -90.126852359419161 -144.027064056630905
65.030657756259060 16.955104014367933 -144.357483431784658
64.404668377110553 18.350339895737036 -144.340163036076262
65.101203606486706 24.264058897052937 -144.146472459253118
65.131285046871568 -96.149014941852442 -145.360320480720986
64.831941187044634 -90.040513588113555 -144.899821200676541
65.072778214478404 17.072765660024260 -145.075955949746117
64.818181439542656 17.717980382271584 -145.127842408397385
65.418309914265436 24.169050045183159 -144.851227029288793
65.364200758489275 23.123761832049407 -145.319173316436945
64.540985643278887 22.938496006856958 -144.999725264384892
65.335624659160445 -96.168970310038816 -145.493870150973095
65.396239633931728 -90.382152742859446 -145.094005689549419
65.291894105145900 16.996339766183638 -145.907146415963524
64.783958433669099 18.230679685635636 -146.037290151379551
64.823281834143387 22.270372721700330 -146.101856699289414
64.806280759871598 -96.224084783286699 -145.601806161601559
65.263863254321947 -91.093558824480596 -145.605843306086484
65.271940858309264 17.169712046871442 -146.120841127499659
65.633257995472675 22.014434335053274 -146.295118737810697
65.955091466573450 21.670543065120338 -146.630538139123814
64.559088548891424 21.803268038975354 -146.354950824091389
65.432935554737966 16.995960989910788 -145.965678113373599
64.476378066088529 20.053295153814449 -145.935476346639376
64.528900975217226 20.924871928387205 -146.871320655307215
65.388655251160657 -90.589332900637316 -146.636316192899557
65.026147777299414 16.508998890401941 -145.880002800112351
65.032327594664437 17.136006040979968 -146.754208441066112
64.483278657568874 17.842597193862964 -146.363590179079125
65.147703700534123 19.836131020582279 -146.561394906254549
65.058117149987083 21.041133582758043 -146.798799119053825
65.245267905904271 -97.261604936093718 -146.931845046797719
65.005045713739364 -97.628295877305462 -147.619038873481486
65.496812209085476 -91.512879031457501 -146.951809994942181
64.153991791740026 18.911058542003733 -147.357736586263798
64.765797440302833 20.005273536179402 -147.196821451460636
65.616395230969644 16.893916224089942 -146.824232332077230
64.642136227682812 16.983370999297129 -147.568228255045312
64.373531609631726 17.622062174834728 -147.198303343229497
64.496621033319641 19.127776037291973 -147.487072020162685
64.945869423865986 20.326576721847047 -147.237417887507831
65.305794045764287 -97.869471874314243 -148.403961777887389
64.511738873807872 -97.251325013317697 -148.042896442497181
65.092960525033263 -91.741631953006674 -147.763880157374388
65.482486798816481 17.474103129272578 -148.141461947620712
65.533048324600742 16.709861338067952 -147.547037294541639
64.949751382353313 18.036785467251502 -148.042056767703599
64.681136891791255 19.019233834092564 -148.149450173145453
64.711725460854495 20.187893471578715 -147.498850470405614
65.250971117082216 -98.053204353353394 -148.258832663218413
65.085375524341046 19.831788541952115 -148.097131310472093
65.323651003925434 -98.231341619633511 -149.115882074396836
64.520487594190996 -91.846251689074506 -148.528526709302866
64.712412465907050 -92.353723026972872 -148.818777688018486
64.984559219213111 17.727339900241518 -149.008622981059631
64.801563188812551 18.255225249590474 -148.853749567254567
64.701087414015831 19.777624964279944 -148.854010394582872
64.434222124763522 18.878187988110948 -148.495075627768671
65.185124885673176 -98.145577941347241 -149.118402984949597
65.047647191943000 -91.840543137772116 -148.965835065547793
65.145606788740110 18.203919685575602 -149.193230205354553
65.925563089213085 20.262037659821015 -148.895958937940321
64.994627192342932 19.070213613987747 -149.219868227810821
64.808509671176836 -98.487982571985853 -149.366738071899022
65.181325772130535 -92.718905304860428 -149.775406569903510
65.058591318776905 18.065829385213380 -149.660532872257619
64.890603856566472 18.745273038813924 -149.469804457040738
65.330013064555743 20.093576098378129 -149.379526749017515
65.544871322837224 19.838662153050795 -149.573818221998238
65.241148079313689 -98.750064433839725 -150.030930171594491
64.601117107682001 -98.700404826697422 -149.451539471120753
65.254359982989840 17.227155430105615 -150.569792231421161
64.800744467729146 17.990319424288455 -150.335355451930695
65.314829871990923 20.615819139140719 -149.882034246246178
64.550949206044535 20.225960413963943 -150.002107745042593
65.141522881379629 21.060138211253918 -150.442168848543076
65.294640614016657 -92.366947351109189 -149.902513185456627
65.323836251933386 17.758299932206413 -150.260689521639677
65.736263998022849 18.344744039217016 -150.849786335047412
64.957851069754696 17.929696510311878 -150.273422305274295
64.669766363948057 -98.999963254421644 -150.391772537751478
65.219830883214726 -92.392345814692263 -150.838865948083281
65.362970070488387 17.645600500143527 -151.086812601361260
64.910367054706029 20.824577247646623 -150.706621070295455
65.437161054998569 -98.838572150760868 -151.660835218346961
65.216182981583685 18.214705049499489 -151.250598308936276
65.219801570977012 20.935405839782391 -151.160330215083462
65.636577848261112 -99.317512288085268 -151.300546678953054
65.124802555225770 -93.064932543001106 -151.490437311022475
65.434149701573503 19.040726912706887 -151.030398815845700
65.305361420571245 20.227376816364238 -151.961259853338817
65.885824774995044 20.108571480689708 -151.931362340018978
65.018642530978809 -99.498695953768589 -151.705003588647799
65.292393880471209 -99.445203415454642 -152.482315086285269
64.970002846144837 -93.931801280793408 -152.367161791474444
64.400645678082412 -94.123786834781058 -152.259004364413045
65.431881903513556 -99.892388444469901 -153.008679188007278
65.310969151806361 -93.799884737562678 -153.182202788141865
65.807128739967936 -94.190429421953610 -153.140341049003041
65.192449654418155 -100.107067552089873 -153.588390826997937
64.723963207319997 -94.231798986681497 -153.898602556992671
65.405706266463909 -100.901452513738789 -154.640862449122579
65.131677843122517 -100.201920096284482 -154.435711465007074
64.875115033397336 -100.780442483618046 -154.805157532797097
65.211352821335666 -94.097589448326474 -154.904974639348410
65.228997901071509 -100.926059497761827 -155.179221802979129
65.025101301524174 -94.852567447124301 -155.613270560747679
65.361494873481107 -101.067905146583158 -155.762252965605882
65.515917002104743 -95.388005019011416 -156.367714890892984
65.372793125584337 -101.259191710218545 -156.363612743848194
65.097999134621432 -95.388830421877358 -156.257966289328209
65.579734900626576 -101.485827285217368 -156.153161592014442
65.174510723138312 -95.581900488936498 -157.019452418860169
65.198558927340713 -101.686278299232796 -157.182648067831792
65.143228427479286 -101.636701177976065 -157.498288822831313
64.288952094634226 -100.927472015181266 -157.674762970013347
65.292444684001282 -95.328741424103811 -157.299094952753677
65.355167631604402 -102.017407881086683 -158.049559307948329
65.291114175118224 -96.243171556777767 -157.736861988828537
65.217132825099654 -101.900582012956932 -158.067927967514919
65.386882017615918 -96.367917380768546 -158.772744594906783
65.087269577862472 -102.125555818735990 -158.471552932779218
65.351775991740723 -96.444460860308951 -158.600034314871891
65.314043534015610 -102.633800357063166 -159.127183060930150
64.054687163305573 -102.153606655910821 -159.113097486483326
64.899529010274932 -96.406353414626253 -159.665690799716373
65.038503335637444 -97.317454905261329 -159.540446798067080
65.229625267145622 -102.895678163977649 -159.610939371580884
64.058759528913299 -102.165907804723147 -160.222027516292059
65.656613194931410 -96.716111255502071 -160.149526246141505
65.257495938210297 -103.096592024497852 -160.987555384643088
65.469916799786660 -97.244195870245505 -160.999530326821855
65.185472332317289 -103.023666836647990 -160.644900920237745
65.679046941957381 -97.518464311733098 -160.405696297225091
64.914543513901748 -103.143639741572770 -161.140094741990140
65.022394232843894 -97.496967904296952 -161.520717490349796
65.255437477514619 -103.660583679385482 -161.504749242321651
65.664167253043615 -97.729982979519065 -161.981311292376603
65.249355068465377 -104.042568094590365 -162.365032831174545
65.165218113029894 -97.949684224394588 -162.883453600392784
65.035472616553193 -97.798132623607373 -162.445744097164976
64.990896625929921 -104.532498961225571 -163.130248212612713
65.198605498243211 -98.446919127250140 -163.528393169059797
63.880724324989835 -99.090825389011684 -163.398175815198556
65.147909817886045 -104.604470348658737 -163.555259388901135
65.272812385573275 -98.424328431099198 -163.680799348978837
65.212831540340389 -104.610504974025247 -164.767099744119207
65.187659992140084 -98.606101230828827 -163.835804537843813
65.454004169253295 -99.242670864900077 -164.926163888176148
65.874665698490418 -104.827247519892168 -164.835381727098849
64.904072453726926 -99.386802491176724 -165.046267224690752
64.123394468412002 -100.362966345872110 -165.014058559577848
64.743286437659236 -105.170345720416066 -165.421783885874817
65.179157969344573 -105.507278540304938 -166.040331184493652
65.625891899216725 -98.826707740099422 -165.975537070795156
64.809130231158832 -99.528145860828729 -166.151611884211803
65.186072646882636 -105.379818318986011 -166.500072528884260
65.030686472984470 -100.119867726579514 -166.861863282903670
65.082017169100666 -105.831544095276570 -167.546023257381307
65.270771527261260 -99.997213080903464 -166.480941311908879
65.386987324080778 -100.108050529312962 -168.580824365038978
64.361729993883856 -101.200848215689859 -167.084558846177259
65.001591609786743 -106.088233656466002 -168.329781525546025
64.384904914526373 -101.122313471542796 -168.129408228078404
65.369659691421248 -106.312144729864272 -168.551176828865891
64.679490980879450 -105.900655372129279 -168.306301575735091
65.524848167389408 -106.422943675494210 -168.624744461962393
65.038508413345056 -100.960825158511753 -168.806018125336124
65.096266515538431 -106.368658603620446 -169.044606026221373
64.688402079434994 -105.773487147547499 -169.443386779768872
65.589591725451001 -106.765804198068906 -169.638988141080404
65.078483805964282 -106.812821652817675 -170.465163343637784
65.423318179822772 -101.587077070083851 -170.213075949867942
64.612089975360107 -102.032570699942667 -170.474198003969661
65.434864146057222 -101.523394015957138 -171.029041715910751
65.249538239274429 -107.040888876562789 -170.790283156852951
65.035317616070273 -106.689060029386610 -170.397108907435722
64.295877593886843 -103.391549774564552 -171.116234143523343
64.747217987546748 -101.873229687868061 -171.296888413709354
63.879744087834922 -102.632138619711881 -171.483300470978037
65.147962619736148 -107.116626444815523 -171.524325153672720
64.551940824426566 -106.269158431782330 -171.501374589897125
65.084549554957547 -101.722501450941778 -172.010633698768515
64.506193668344878 -103.085646995522254 -171.985096182687300
65.301517549928946 -102.657804567675711 -172.795463426052834
64.763252324824549 -103.082814251134380 -172.421544610480709
65.461679333089123 -108.211592468092618 -172.996434340583193
65.526747919404457 -102.698609738000997 -173.396897882997195
64.742453979073730 -103.218217655188624 -173.115808242923293
64.805579156941846 -103.262908251526781 -173.558095237213990
65.400905543504834 -102.904813235092107 -174.042885358550308
65.446641384547348 -147.651145772869029 -174.306533482984207
64.835866875261956 -107.802494310648541 -173.335948535118149
64.677428671785847 -103.817886860090738 -173.946091348435743
65.131257729926261 -146.971335143358175 -173.939899323268008
65.329460295561674 -146.135885814220330 -174.293995414340770
65.309965963835538 -144.813248460030366 -174.597750109926778
65.068153372285849 -143.602171890315560 -174.524540828251645
65.290708690430762 -108.225343529068496 -173.507010104709622
65.042540949325343 -150.124666937696873 -174.721781723776559
64.489322864139211 -144.459364072856459 -174.773249251017461
65.285985364440052 -141.997545596408344 -174.993051297636669
64.265492194713858 -107.930033174105347 -174.658308949956790
65.358720451694779 -103.339210679741697 -175.096043554230391
64.531964329346579 -103.889478168997059 -174.306874597154859
65.279330623528409 -150.274267580815916 -175.326528371637380
65.343861247059479 -108.802274342888026 -174.692224231951656
64.428545290035316 -107.623723020477570 -176.026612410017691
65.147530776840270 -151.034464375780829 -175.546419835672651
65.289382788972134 -141.386839632719585 -175.671036498506083
65.676185933460232 -103.384220475953427 -175.573150459704863
64.552445214491797 -104.201420313086871 -175.610857222374790
65.428367315131680 -151.108105032411203 -175.720285214095611
65.111533774596509 -108.859777871663070 -175.959673683205551
64.353606968781293 -104.407344622131887 -175.640509313610664
65.378474220814596 -103.485044412941633 -175.628043361146467
65.237541636726064 -151.017725036290841 -176.518815060988175
64.916113235542085 -109.135785586015785 -176.241565866257588
65.290936709112700 -141.797878870355845 -176.937236498594757
65.390841292537530 -108.886283603390879 -177.114640085531448
64.546243582817624 -104.668604603879018 -176.390444478072340
65.016199526196203 -150.962424919768836 -177.367097704599075
64.829348625221016 -108.550986331792572 -177.051126506486128
64.343592434844425 -104.910896838379003 -177.799431424958811
64.961909571067935 -108.929556698912393 -177.600289898025835
65.331005349469081 -151.738455059808359 -177.379593042831402
65.340571720912592 -109.567053166045156 -177.460716598020497
64.152338164604146 -105.708060316704930 -178.164514124305498
64.485275845801894 -105.034425672184426 -178.416116737808778
64.201562986069064 -109.218798174830411 -178.513718330572772
64.354998416391851 -106.226870055201132 -178.430246668744900
65.172642062102369 -104.790144291146490 -177.916126061234024
65.660606950720393 -150.590611963894276 -178.849073311880744
65.303000294423526 -141.297394891529677 -178.672279271661779
64.838118473960620 -109.446324874932429 -178.842909976010333
64.385934360712341 -105.551405567831281 -179.335128935185537
65.130035837456731 -104.687432153103344 -179.065976318386731
65.608110173723105 -104.591178897975610 -179.243003854982476
65.313992265279111 -151.440694647032444 -179.001371671401103
64.713143355516422 -150.812724400690371 -178.944625192663040
64.380884721667385 -108.544865471373726 -179.620186760819053
64.988514112535682 -151.772906431311384 -179.297616414927376
65.372400847836190 -141.194835024959389 -179.527309246759643
64.847984352425001 -109.622733743031930 -179.711993789840392
64.517484933791366 -108.932276896996086 -179.461626582445916
64.920635007866139 -105.049795109419890 -179.797558947999676
64.500312785141091 -105.976153600889702 -179.290755671820733
65.611120339890775 -151.272895735963488 -180.340953015553737
65.457985978765478 -141.265259914368698 -179.850506183815270
64.031067218042054 -141.814734753479968 -179.924534481846052
64.854445271769919 -109.858687151332759 -179.554144818012219
64.110204400930485 -106.496818735836271 -179.853594348670413
65.178275526272841 -141.198776151709382 -180.951978254182194
65.304453944451907 -109.923882706400050 -180.319027546898525
64.620384381114235 -109.663075338433956 -180.234769172040586
64.734920367519095 -108.086147870593337 -180.306474149274464
65.306391234706865 -105.047856558896669 -180.689113716124467
64.537694438041569 -105.880120011696931 -180.122279866720817
65.552846007352542 -150.753225056068430 -180.671094225378482
65.570316280115136 -109.860063448941830 -180.904196962760892
64.408328422873808 -109.520556993357673 -180.558556511212146
64.027682355829128 -108.680300540747652 -180.930402167759581
64.709857670522752 -107.444778007689678 -180.650106904314413
65.118321948293840 -105.732524349664928 -180.828423023198383
64.861684331311409 -151.114058237027734 -181.256070422170012
64.444177245206504 -142.194315005539465 -180.834781135096136
64.749927801811396 -109.342354752542064 -181.540430028267991
64.681370105272805 -108.555998244152249 -181.113350882431348
64.623649481604886 -107.799034722718361 -181.237070900297283
65.378529241706516 -105.634756306717691 -180.933793173958151
65.182475165917950 -150.736572343909359 -181.730960613617270
64.496725560415769 -150.586707366253961 -181.498493779956362
65.210801812827796 -141.402256776343961 -181.459670902364820
65.036662311509332 -109.951306205748580 -180.987289390119315
64.673033902968257 -107.169123966360175 -181.062886709480495
65.405095698226845 -105.732206988034449 -181.642946418651064
65.293706919146189 -150.873514583362180 -181.930705212980598
64.711050809776623 -150.786871895847440 -181.995059734527729
65.433725514654554 -141.503358749898752 -181.701431983651815
64.625324327684694 -142.072367640054864 -181.495465094786852
65.167458557042650 -110.081897828273398 -182.209031320430057
64.964916458904355 -109.575169064317279 -182.103525856312871
64.471278074507040 -108.695200272265069 -181.760734947496161
64.470654623441305 -108.002168637023644 -181.471826540125306
64.846258901053019 -106.926790514159634 -182.118515143581533
65.262410127631000 -150.772936092551419 -182.360231831796028
64.803715980369361 -150.761045727994428 -182.011032873596690
64.596608092123688 -108.581017834689646 -182.981943179543691
65.463206214148855 -105.639615042803669 -182.643181618569457
64.394265790509053 -106.802965285672357 -182.595960855984941
64.711750328666128 -150.938707529907305 -182.897058368837463
64.981192764960127 -141.615886623327270 -182.691940074657651
65.591139391129602 -109.940283620178860 -182.314083704545595
64.497692142167878 -109.650917897997445 -182.497097322045875
64.323931986980497 -107.495712139697034 -182.394004370854930
65.370957595717258 -150.963552200114748 -182.913664960041899
64.691334553837265 -109.481737067229176 -183.856515799073350
64.296541673800760 -108.454363645943744 -183.808727354395955
64.241193990188407 -107.852551044083611 -183.357410270382957
64.383291719455485 -106.657083683300627 -183.420137223052734
64.942830546385352 -150.859468444190668 -183.261301714066207
63.994392761250218 -149.759665089756169 -183.352990351726248
64.801165618470918 -142.282430411532744 -183.058282024762775
65.135592727212554 -151.160622417504953 -184.033020396514274
64.034022860904216 -149.971654014724038 -183.860699810970146
65.246708464894837 -141.108057852176188 -184.505952986684804
64.868611822665486 -109.707599027920040 -183.742406605736022
64.632563067957506 -108.922183077547331 -183.600668373037422
64.872917795927719 -107.553732249771699 -184.157322452658121
65.227419741105820 -106.372018503308283 -183.784631838436212
64.639088714131120 -106.599016464798297 -183.674355323739235
65.534489054874300 -150.704157527123186 -184.220117895725110
64.410945782874364 -151.027256879537958 -183.907417198735288
65.677474132039265 -110.386727769431047 -184.236905895511001
64.471399234562710 -109.400066422090106 -184.170563037414638
64.550618145085338 -108.620636498196376 -184.568616193292627
64.657244359916362 -107.934594174871094 -184.390128827622448
65.196248774404253 -106.554004577003710 -184.244017170891823
65.212862706139703 -150.760242221036521 -184.173700084688647
65.601454968538548 -141.509706106703931 -184.851861231520388
64.991657019462181 -109.366635732487438 -184.797694179085141
64.916785906351095 -150.064768698932710 -185.594276496512606
64.116568539330274 -149.414084665567316 -185.503925760166226
64.585232555860429 -142.165466314928693 -184.571012380717235
64.947308482162214 -108.374744606605233 -184.618655505937596
65.510741501390143 -106.164616051497475 -185.221602191080933
64.413999855339071 -107.943306858312070 -184.734221392289868
65.337247432018685 -150.950244511974944 -185.095633109418486
64.737109942486541 -150.752976645876998 -185.491951830359397
65.110516259604182 -141.375950272849906 -185.229026985401077
64.190651362940514 -109.729776658298277 -185.339699245900391
64.345228326388607 -108.324997262330015 -185.590577256972523
64.500480937020612 -107.596506857251299 -185.029316713792127
65.336227924131151 -150.468756661826973 -186.064112204607994
64.285022199858957 -149.459411453465094 -185.713906360495201
65.169154831368004 -141.777913455745050 -186.019299199478070
64.656832294773622 -141.944050822913169 -185.438288511614331
65.269523641640220 -107.184360038511272 -186.333478344277751
64.369357692094624 -149.742673599958010 -186.405002338265462
65.391255349617367 -142.353497791748708 -186.518107991101800
65.169136312679385 -141.779020399854545 -186.482407430259485
64.804637187802527 -109.186280854943902 -186.613108373340111
64.347055306847068 -108.868072504841720 -186.182731343911968
64.947617802612399 -107.715536812404693 -186.530758900983443
65.426191848709209 -149.824805482477529 -186.754366419026496
65.167278303316280 -143.506313675208759 -187.018622236025493
64.553169848710638 -142.853387287473794 -186.811226378984571
64.794545208582662 -109.688207404239705 -186.954066064779511
64.677363417740565 -108.234829792482699 -186.846993706215159
65.429412405144916 -106.805658623061177 -186.738067642915297
64.646689278541629 -107.895323731019957 -186.461487267412878
65.252783526671209 -143.590236835137546 -186.980147281783729
65.415323480568873 -144.391260175675001 -187.015518381410061
64.740615119773224 -143.924180822685429 -187.021239065734079
64.931398780826882 -109.718797143937522 -187.420931044565776
64.940875599172102 -108.844525847549519 -186.951829274635656
65.255597164265893 -107.798771692675032 -187.120661261841605
65.037323251746614 -147.821409797443636 -188.083802757232917
64.467095947913791 -146.789022890552133 -187.715255768532899
64.917936849805997 -144.985792972912463 -187.406579479395475
65.249886714423496 -110.584541363605837 -187.610965913259321
64.918113615407350 -147.805254208353944 -188.033681396264910
64.680814711566342 -146.768696833308553 -188.283030504534167
64.785287092264582 -145.734310847781785 -187.746393482622892
65.163462291865656 -144.987812099189085 -187.877560491670152
65.336071123307065 -110.789689724401413 -187.843465095361296
64.719345298528737 -108.630696996019367 -188.078412565896372
64.984134003667918 -107.908384788150613 -187.755566721034057
65.350261126523620 -110.311198609334255 -188.431905718595885
64.247903103034503 -109.528616112131246 -188.316189712685912
65.428702361720724 -107.623304354745898 -188.180193131235541
65.064962716584844 -108.565333822039236 -188.381300676809673
65.252125130140257 -147.862270980070548 -188.334890736925644
64.616452429180853 -147.611948265363594 -188.847499182612381
64.770841411273977 -146.960544720759344 -188.309778546872280
65.351861574466000 -144.872212841042199 -188.230952135128803
64.846415338864801 -145.757140548011648 -188.517906513056516
65.680290035400745 -110.760174744056599 -188.865712220386513
64.397542431038275 -109.922281307178409 -189.308492787656036
65.199512843017246 -147.735504622319155 -189.445642870155922
64.753639954508515 -146.518135770508906 -188.833458312616585
64.674872730834664 -145.800043065624465 -188.768668309483502
65.074782677989290 -110.518834769428182 -188.925043823829270
64.861255290754713 -108.298348314683636 -188.912905725473138
64.607563720859531 -108.878019622044150 -188.943514026159420
65.014795932949156 -146.520869712200778 -190.018160408100812
64.555567886157505 -145.606363011746652 -189.720556297638694
64.954790978359767 -110.266087017266472 -189.544676175169002
64.766703358382330 -109.649289178321041 -189.440777432601180
64.787342226330694 -108.809379009311968 -190.029555927356512
65.029155240521447 -147.567039891878665 -189.593920366467160
65.323672371393229 -145.253712909349417 -189.322754105090894
64.986505371137611 -110.384729454588665 -190.342729280194561
65.140361550000208 -108.284999903084852 -190.104958590502349
65.082930308167604 -147.067383075577084 -190.364530839741093
65.306559002619835 -145.972382856840994 -190.424052966778049
64.931816228442528 -109.817842540260386 -190.405824565622055
64.949362374317303 -108.888455925598876 -190.400842007545322
65.244523255260575 -146.529245667155209 -190.817742831616187
65.498704005796895 -145.192175106145868 -190.742574690207704
65.060891751576577 -145.920115017907136 -190.662733839821698
65.424676647832712 -110.654611123139361 -190.468685396908768
64.967697508079894 -108.841172648167415 -190.916862736908911
65.067036257294788 -146.498584161356746 -191.007355267748437
65.523392588883610 -110.453198955212443 -191.027256979480200
64.799804701328284 -110.053660785611683 -191.387184624336498
65.418941384720966 -108.735289370099565 -190.931293781944987
65.300390229302337 -147.510627666268334 -191.805317347395658
65.019849822800552 -147.066914130154430 -191.383533201931499
64.848124323797208 -145.909231087937656 -191.079673405404236
65.207007752877004 -146.449272601983267 -191.468731533263878
64.999755143778003 -110.039127134914509 -191.209671551687592
65.349039335498261 -148.601394090422900 -191.967979626910250
64.675603106200583 -147.534835634998728 -192.073013926201412
64.461507807493717 -145.647163950503057 -192.186559109970574
64.893374783912009 -111.145139973689624 -191.979182116661207
65.051543920544901 -110.610234063096513 -191.852869672330286
64.949027621031405 -109.480965771606449 -192.204693827723787
64.977649222963180 -149.630973000593315 -192.737457295555885
65.092416785063719 -148.569716387501529 -192.552167146426513
64.765997923781526 -109.602412077354046 -192.363010543755450
66.487949000872447 -150.954874345724704 -192.619096639385589
65.137275158485551 -143.298854219526021 -192.405692261932984
65.129037699317522 -110.305291062341723 -192.830625926021412
64.777933955141975 -109.674262648831046 -192.475356545137885
65.404599896167866 -150.948856856318798 -193.219983522574012
64.657207789841721 -143.177090890929975 -193.209576171435089
64.956650666077223 -110.627679937379625 -193.511614394335396
64.991879817561966 -110.680278505091295 -192.870287308798822
65.002748336180289 -108.900984964311547 -193.147150989214424
64.723804762952184 -110.038781933831757 -193.161372907976983
65.207058113222274 -150.873256630552930 -193.389346575902039
65.712650455136455 -141.988299152537877 -193.489809795663945
65.283257743292907 -111.255384233525689 -194.241918560804805
65.454545965259300 -109.313107194086712 -193.799028713441146
66.108444332051945 -151.701084254216966 -194.192419109867700
66.457033068659001 -152.115654995694598 -194.140000473256407
65.098729294829582 -123.924630948323525 -194.156294249357728
65.421685307407898 -111.075044281932762 -193.976861057429488
65.329854530240652 -110.519446178505135 -194.594778498720558
65.265826521942671 -109.695608168703529 -194.579107349764115
66.001313543140085 -140.819917254297792 -194.480924072483589
65.773172866614644 -128.325734982169479 -194.555505234750484
64.945486719707432 -126.781841236892490 -194.138105635181006
65.195716423254808 -125.885201575292257 -194.835689361493564
64.885787028920078 -125.114699797731689 -194.767487996652761
64.811790593865680 -124.154549663638974 -195.000835206991269
65.253049176180198 -122.803268550516989 -194.506772715658258
65.163650299924498 -140.452025847777719 -195.297394189936625
65.522918978066102 -131.739662924360971 -194.693755902620637
64.983536731756459 -131.394770635872646 -195.095661238461759
64.566564874676459 -130.494778888183305 -195.403159334885032
64.944805715626330 -128.814250520285356 -195.668783403306833
64.552629237078094 -127.144788914284163 -195.154597043441527
64.795759730706763 -125.571016662528166 -195.177254935151495
64.783530904169567 -123.837463962853064 -194.843690204193422
64.896186303633741 -122.966732444892685 -195.290232443070209
65.384099437727286 -110.497341779038734 -194.719749777149360
66.211377064012666 -152.670528298418333 -195.457277209350934
66.307387345660942 -140.493142402671509 -195.410539437933892
65.275834245583098 -131.685563026074391 -195.804052815135009
64.859737441978083 -131.678164577917244 -195.515257792216914
64.720965083897738 -130.674241058577735 -195.491014258328761
64.235604882393943 -128.911684740600379 -195.314463867331455
64.129951576588368 -127.513854475793551 -195.709091229106690
64.719797766958933 -125.794044567843386 -196.001416413900813
64.063451847136946 -124.702561944483037 -195.594662466255699
65.424686220366993 -122.628745169024981 -195.034366675346263
64.715355865125204 -110.090317320070596 -195.620339710652985
65.208992275145690 -139.922422210581971 -196.043997627672610
65.397185639346773 -131.854315797113372 -195.867878156930431
65.205590678421629 -131.261530990976070 -195.606645469362718
64.618876711842262 -130.358752217824957 -196.034063822670390
64.134050294940351 -128.465548810091121 -196.086192498400663
64.437466692468234 -126.882655819621604 -196.275112697087565
65.183456823105516 -122.135752011899726 -196.141075594794955
64.636094475760615 -122.512034939220044 -195.594558140956877
65.404542619650513 -110.732861806381521 -195.919017244204667
65.550583058551155 -110.493748616361060 -195.867488474038964
65.371585405868743 -110.623965048094007 -195.917724283309468
65.303941107357161 -152.818682105636412 -195.853385141873275
65.126338674594649 -139.719425623510546 -196.150960850151449
65.494560531377076 -132.050299486516167 -195.832658790813866
65.447186343857155 -111.623889677461960 -196.420620928905265
64.766268627121320 -110.630303720918107 -195.896524771549821
65.349654514083767 -109.776213366320576 -196.272102078066496
64.575111483422873 -153.204964318841235 -196.815261257432752
65.454986758972808 -146.654242926211282 -196.963748253717966
65.483606170154758 -132.171493414772641 -197.370797719651108
65.140545260178669 -122.244238964706440 -196.667043199697531
65.691954957110269 -122.003717212958065 -196.822834856217526
65.299501873580027 -112.818570658042248 -196.884084370657803
64.896644351062861 -111.153173880375491 -196.481727625512747
64.606478970738010 -110.503307703297125 -196.833638355312416
65.203240174471048 -109.523469799350622 -196.683616727831009
65.192446091091639 -147.529403866588694 -197.320064281085166
65.221911882994419 -145.476023381230107 -197.060236346547356
65.293167922270499 -139.779130664273481 -196.913749153130766
65.612088615425492 -135.713199895369229 -197.021907291968461
65.139831938421082 -133.424245275167209 -197.479772480596324
64.793123858521625 -133.618243484322676 -197.399354431077768
65.042378185773217 -133.052969102577634 -197.035031399421598
65.449296173335583 -111.316364078106432 -196.581605994205120
65.211383548265175 -110.742675726165871 -197.408097925850171
65.262338396574862 -110.585994223005642 -196.828127497694027
65.159455069996014 -144.883910908016418 -198.068770410023319
65.634917386961391 -137.668724969178214 -197.599995792442371
65.104387402411220 -135.316016265729161 -197.908533079096742
65.226651976146243 -133.297127132026446 -197.282007357927910
64.966019438087187 -121.515485867588652 -197.696331104902185
65.288082776215902 -112.000928597567807 -197.291036271996234
64.777686203076996 -111.333030565792285 -197.482763004098928
65.049223543014051 -147.759647714484885 -197.997090308178088
64.875441549452717 -139.456327023148191 -197.425759357060883
64.837239312408357 -138.019658142357457 -197.680494379143056
65.074764298662046 -137.400898063696445 -198.034875480522118
64.906031328342408 -135.099885849433235 -197.804955361384430
64.742208697470147 -133.592410462004693 -197.735410018368214
65.276644093176657 -121.790315251538104 -197.741911635161301
65.136405900822837 -113.685936684026018 -198.131862278994475
65.162352675118100 -112.210851933837972 -197.907276744780063
64.829458314779401 -112.137559343188030 -198.211116980370974
64.524109009388695 -111.651721318642714 -197.980834961979696
65.369808887792189 -110.278889034469927 -197.508801563047030
64.746298094187154 -110.746890392022152 -197.902330234385090
65.022662798404340 -153.446645954817143 -198.130926337781318
65.371576169612922 -144.997308796193721 -198.261429903024634
64.865919042945791 -138.780477217488880 -198.323808833254446
65.137061652084910 -137.017256646017216 -198.688976716564213
64.720421255507461 -136.209340480875795 -198.034177588261258
64.605569903633281 -133.519533467990271 -198.511179258279554
64.640989111711718 -132.825285601370609 -198.292259889446711
65.421476538828742 -121.650396641230444 -198.355560444850624
64.910525074320830 -121.823376391429477 -198.658628231273610
65.431717678250664 -116.205214809362488 -198.084085063610786
65.098616445839426 -113.619630850659306 -198.339781359527706
64.371237952129661 -112.629893911380734 -198.536604158801453
64.368487544605813 -111.562713629376873 -198.264644657916733
65.025242558432012 -110.231707857686871 -198.908413153883942
65.214291166103095 -110.552058496621058 -198.237813313626532
65.083142410561308 -145.171811521969460 -198.866345395540463
64.955161582868087 -139.278851556423177 -198.775262103099465
65.167391149359943 -134.535629557115413 -198.597559903234725
64.639619700262273 -133.578371140422263 -198.275973995809750
65.086060050920210 -120.981646776006627 -198.671002615627884
65.005004053956426 -119.531002820026757 -198.763521350825130
64.740766024072997 -118.068348918873681 -199.544250748659721
64.743528413753964 -116.368606811779983 -199.032220183891781
64.696206593221490 -114.416128634270024 -198.862201255912453
64.800721969051295 -113.223052675945823 -198.466505552240534
64.537232877995208 -112.342572489082812 -198.748045321788197
64.778377654943739 -111.178963003611884 -198.576815587260000
65.380800989679173 -110.477881566968293 -198.950744822432171
66.279398405917220 -153.440823640365636 -199.140792051531150
65.337043278034031 -144.830737185562327 -199.348315629565747
65.233963171998568 -138.094968894502585 -198.867465984774810
64.858155561560153 -137.129994565639123 -199.008810064117370
64.930285299477731 -136.107104778468567 -198.931821410447412
64.929431677177661 -133.824366434442169 -199.397333656193979
64.459241638610663 -121.672181886397524 -198.840845429183531
65.350433324602960 -121.099843460602216 -199.159284094684352
64.914504463104493 -119.890141360086204 -199.205906069069897
65.257312404472145 -118.180611312172260 -198.860125797347791
64.553076226137733 -116.329410499560595 -199.222920452689095
64.736395045870097 -113.906354663736010 -199.139752225075540
65.378435834342980 -111.412445450678518 -199.160876327385097
64.844984531657929 -110.719296164977777 -198.738192162301459
64.351118181123312 -153.293286670732613 -199.475931482058627
65.190713841241461 -145.634940778352046 -199.769947039566034
65.303474337810869 -139.100660138816721 -199.465204360747919
65.086082469537203 -138.144489345531724 -199.489901397008651
65.098433351328296 -137.002222673294227 -199.747369575446669
65.136311461479082 -136.625755618154528 -199.542315499515638
65.296198385289969 -134.323916764964821 -199.495507762911245
65.178393336106055 -133.404314842836300 -199.682679672907227
64.421310190526611 -132.701284146507675 -199.394073797673002
64.575667594683210 -121.935028426240223 -199.344336582879947
65.183548150468440 -121.015599545966452 -199.853008945817720
64.952767529139265 -120.663484025547731 -199.910901501327658
64.938040298259622 -118.857662537160138 -199.861840004789656
65.320902484376532 -119.294477212266202 -200.065127053838836
65.053445537865244 -117.135821691633993 -199.652787392652215
64.794195152406701 -114.423893866662539 -199.359629156161361
64.768717715591890 -113.438983837888514 -199.768405526226474
64.891439421541577 -112.568422694762191 -199.105250182406706
65.836580381355702 -110.654075644656388 -199.465908161422647
65.109288067382280 -111.473369573487034 -199.417989880809984
65.095495924789972 -145.399386665170510 -200.016469528164890
65.138200268818593 -145.814741746466552 -200.169234428290480
65.400000410304372 -139.094266336204214 -199.880120405801165
64.607540583208390 -132.396189526599500 -199.710026947770871
65.479440820564918 -122.027695609985415 -200.175444457600918
65.067836813114823 -114.953039276581393 -199.562864818222181
64.921366942773517 -113.791358789836266 -199.693721829202929
65.322944753555035 -111.865496352724946 -200.190662677430481
64.946012026051847 -112.689474931435228 -199.710746152539059
65.490324488745429 -139.581243698134386 -200.409252159482406
64.860008591177859 -133.457139552277624 -200.537350443856781
66.036518135978341 -122.010892921842881 -200.475772123535421
65.331672346247544 -115.375237870020300 -200.548335905345198
65.245227817086388 -114.050106922072914 -200.405960968942537
64.978061090737000 -113.697678921798314 -200.010676400008464
64.687124911062625 -112.406080666671770 -200.267797365001968
65.139822844504550 -140.110782940219281 -201.082945293539495
65.356572471770193 -132.455029685276315 -200.991704402365173
65.082173305769146 -112.575950255398467 -200.734925559404729
65.163686290271897 -113.654834293502560 -201.021892289003233
64.987223579103244 -152.968153179988406 -200.938099650115277
65.403695426924983 -139.857879476472903 -201.334344313731208
63.933813706996141 -131.958573408780779 -200.889116343681621
64.913102459914398 -132.609530843228242 -201.211713567364541
64.309619122222543 -131.934924201139353 -201.614947179572653
64.298086746527588 -128.532327816393604 -201.515540097135442
65.341261793586312 -121.852588925147629 -201.587564547136054
65.205005753238765 -121.909443958511034 -201.818511316838482
64.530082075721879 -152.484735183354360 -202.314670714044610
65.605644164599596 -132.197501436461806 -201.647151501794383
64.497836583035735 -131.797061975858014 -201.754803748166353
64.537593863946910 -131.057422691289759 -202.215823183176667
65.396399650219394 -118.147968258399757 -202.198236420999166
65.108355784871108 -115.113779706916617 -202.350518408267817
65.146391129402431 -114.186660010047419 -202.372916737534382
65.077988291986102 -152.260193437399124 -202.288158336777485
65.053357820631746 -140.911135726268498 -202.504674534273818
65.102739423465948 -131.670047789733843 -202.274510158282709
66.084817658804113 -131.660222255899185 -202.614580081728320
65.081364706626090 -131.600425949029841 -202.558461353103979
64.783478451413146 -130.871666544906248 -202.509731630654983
65.418905050180030 -130.735037476290699 -202.498858126870772
65.470679226463417 -128.902988995666050 -202.864774106604045
64.670672055312679 -127.630854491643618 -202.273705467475054
65.261307659845286 -127.776320955305238 -203.071363529553452
64.390543806141380 -123.928126836408410 -202.162147749959757
65.299980095034201 -122.273790298745340 -202.661285282036630
64.795466788787678 -122.614640667436362 -202.280301122476288
65.074352543241460 -119.577820748330254 -202.217873786680343
65.129976750815473 -118.552808481480128 -202.752150129425729
64.816470980065844 -116.588322362004490 -202.378051550486930
65.274047228002402 -115.315407583102044 -202.334412058978302
65.323394486650457 -151.982046674792002 -203.092347383763070
65.012143747944492 -126.231874439915615 -202.400750525618804
64.692746301608963 -125.489115366091056 -202.812042400280063
64.768489394842703 -123.926857850745819 -203.044807008364700
64.834844578556527 -122.928374338427417 -202.876531600189054
64.871996336217165 -122.395295000959990 -202.597756578400578
64.710385962230475 -120.594267780373954 -202.951831354557157
64.765519071665807 -118.593268988913238 -202.850999445243730
64.815620253465440 -116.865966723557463 -202.963557766102667
64.861310234311546 -115.155526719380930 -202.905901651306863
65.200371208623167 -114.409405536697747 -202.424205990062745
65.300892534190595 -152.554686963521249 -202.254126743400946
65.510655585808905 -141.337592764817970 -202.870638715905216
65.526714100209077 -142.337566384821059 -203.585319659916678
65.009065810118599 -125.971600934761540 -203.189917722384024
65.510059793420510 -125.196448710404766 -203.634160460812438
65.017823635645811 -124.976262431743280 -203.191235794487199
64.642104309121237 -123.624426910226305 -203.309790431238383
65.397686925809211 -122.269290873712876 -203.218706707517867
65.248662071165981 -120.633450268081688 -203.458014881771277
65.163916677773400 -118.876863430831136 -203.556433529384663
65.273340714091418 -117.540023475359078 -203.003644213806155
65.457245306725838 -116.334395929311839 -203.316799942892885
64.697193392027160 -116.152640228721992 -203.201326573722497
65.247410677955628 -114.354372610412227 -203.058464145063454
65.368566782365349 -115.296802633499595 -203.413910965943018
64.806824611526025 -150.592854157851463 -203.596918467956641
65.165437031437733 -149.978146024318164 -204.125502135563579
64.625179957594042 -143.178298726433042 -204.459441417183911
65.268885266142021 -149.471252519759048 -204.688933341538473
65.235992986393612 -144.007959581615523 -204.463232253741523
65.513449793908691 -148.924760310752845 -204.718629722575372
65.055399753366146 -144.534994586034344 -204.920613692486569
65.076173848028319 -144.605010575994555 -205.808379111058571
64.985084565498482 -148.764388819157432 -206.258440987878174
64.902663694723401 -148.649777419529613 -206.510523442920913
65.090205887153004 -144.530671995739965 -206.805608217582289
65.199829199277232 -148.689605911432125 -207.152205426524404
65.112136621182898 -144.716546457894310 -207.546107447479073
65.207425316349273 -148.542835724115577 -207.519053296627646
65.454363485409431 -148.246224718444665 -207.725694687009081
65.159325857079480 -144.528359309293108 -207.610247186399732
65.252347362872840 -148.365712795299771 -208.570582398498573
65.127147513820333 -144.979655299705570 -208.415218894141930
65.209448420848972 -148.811956793782457 -208.985207867891660
65.313153731216772 -148.995229788153551 -208.579494591874976
66.365934142545214 -144.625277498077850 -209.015002496520651
65.321443298921025 -145.370673419917921 -209.192538568952017
65.543120579703256 -148.674146087516363 -209.309647797367205
64.762932340612082 -144.733870363134059 -209.966340180658847
65.299177605647969 -148.799595147067976 -210.371863669307629
65.870317027269763 -144.405114752408707 -210.283785182517789
65.351292973271143 -149.107405183851995 -210.645543397898706
65.485662447535418 -144.993776832509610 -211.075790823097691
65.677515769957495 -149.202688896191233 -211.617794327724511
65.650802494755993 -144.563603473893806 -211.710170845471708
65.367725640229040 -149.237409402424134 -212.096486084164582
65.009738803858056 -148.798899737589352 -212.907436979519304
64.637037615783385 -144.806290380181196 -213.190223255251510
64.900351501240024 -149.077881070460563 -213.071981027954905
64.383673094020764 -144.931951616113878 -213.987754760015747
65.791914354333699 -145.134377523092013 -215.390980442253493
66.403969536582295 -145.053616955489701 -216.366495328208657
66.014794093688963 -149.363887865251854 -216.542799157416312
64.839707687434341 -145.294024754427454 -217.288772760861349
66.419106220625494 -145.148054209311482 -217.422258942302648
64.428500304453792 -144.861764382883109 -218.719951972848776
66.160784537169818 -149.197230310849051 -218.857478392438850
65.814848618089442 -144.959107343591825 -218.932109370468396
65.771645890092373 -149.579850047457910 -219.902812992556818
65.999798908297677 -145.038696866635888 -219.340349616941438
64.477377203184133 -145.025079901109223 -220.346262790611320
64.377774128617062 -149.070472465361263 -220.674752956440528
66.407266788960527 -149.759391891717911 -222.254145814213274
65.795621802269793 -145.007451857307245 -222.023165733947650
64.748708851123666 -145.025632549090119 -222.194908964143934
64.319136958207110 -150.043731975068710 -222.248656552338019
65.161417105282510 -150.675085712611121 -223.258107223561069
64.893167889755034 -143.693949580477124 -222.464799435564174
64.711638978032539 -151.123021321244323 -223.738733533650816
65.011375299975711 -151.714432269920337 -223.238958612257704
65.236754110329230 -142.874337681404825 -223.258024540962140
65.427474012011899 -142.189058258920880 -224.106135375222863
65.248339452874703 -152.297988363672943 -224.571195005396504
65.724961465935706 -141.903711599349691 -224.550214850282146
65.733894330496582 -152.807651801173932 -224.414185300388652
65.260135760610069 -141.681980054345956 -224.896710112888542
65.219291228676852 -126.413057991060043 -225.436717413046352
65.513000416436256 -125.751174214996894 -225.337126269742697
66.502330406082038 -141.473569424827417 -225.693317881684862
64.898868669156968 -127.651901671408439 -225.459833336863767
64.966620856016107 -153.709971021333388 -225.879683900077055
65.633147066444451 -129.260580300743925 -226.105035858039656
65.284251482638368 -128.492958289697867 -225.559325828032456
64.718821638068107 -127.479891745238092 -225.875242442347400
64.998575835453011 -126.502075469515276 -226.427828257877451
65.287976851081851 -124.590358278309637 -225.158257077195088
