# This PCD file was generated using the MATLAB® pcwrite function
# from Computer Vision Toolbox®.
# .PCD v.7 - Point Cloud Data file format
VERSION .7
FIELDS x y z
SIZE 8 8 8
TYPE F F F
COUNT 1 1 1
WIDTH 804
HEIGHT 1
VIEWPOINT 0 0 0 1 0 0 0
POINTS 804
DATA ascii
66.358528720634169 60.563947968459033 -81.688581158397469
65.750529169386937 64.926527357303129 -80.900255677815153
66.090352372012205 65.749109958032165 -82.021079702436452
66.149057653471175 -97.280241024580022 -82.265686743511282
66.277384214536298 -47.237933572677775 -82.322200855857602
65.673810822852559 -45.588256844066244 -82.491636094919670
66.507297583722703 60.412350302993204 -81.448082234014805
66.844317237424690 64.837759944576618 -82.239193159723243
66.435095492855098 63.088820595738866 -81.770938478492511
66.158703830472533 -48.354764786125926 -82.580489242201764
65.423637527464848 -48.156837160999743 -82.501057385119012
67.378892861096389 58.920561971197863 -82.140951645356495
65.671393130772216 63.947103525387668 -82.420657729557021
65.093155972581101 63.506744195152407 -82.603870013323913
65.442736084276561 66.697095750504062 -82.410341033238780
67.071271022689629 104.892522129413763 -82.295996456793134
65.774643747961221 -49.700645598230913 -83.970304081082944
64.937216621273777 -50.765820106218371 -83.280776871409515
66.313026453401548 57.898367337387640 -83.971992023644745
66.056796423339406 58.214428820089758 -82.688289960476141
65.740286241943252 62.160208261228391 -83.154157289600064
66.452693338468293 66.066463516201310 -83.788289858344697
65.780409329390736 104.249420674877484 -83.434814084166618
65.767632638871973 104.358348188674398 -83.034528096306929
65.664809257892486 -96.812862130515484 -83.100575146706959
65.484576042045759 -97.192689517275355 -83.341096796665312
65.908182436048421 58.316863878717200 -83.208609262701316
66.247376705333480 66.448579236958963 -83.747578292766491
65.993072333665339 104.310956269310353 -84.131215166524839
66.102824625173866 -52.862467003162614 -83.646672466988917
65.586757527822314 -51.898429863684740 -84.733077196633118
65.897343066651032 56.662472458479613 -83.895594875316021
67.071561623052844 58.760208091895201 -83.439459169172224
66.096595556917507 65.485030953750567 -84.607729113249064
66.338537680545144 -96.981573094112079 -83.156883623433629
65.452962008795296 -53.862541971926596 -84.121609772002316
66.568918206015695 -52.288466237772667 -84.485449709588636
66.173784480710239 -51.567965543076632 -84.852027105512590
66.683220072038807 56.539810558501912 -84.217995495529848
66.818990557421614 105.181847151331880 -84.381979681966030
65.986898227619477 -52.559725403902377 -84.605425784264241
66.788004612546644 -53.356885871363296 -84.344271190983989
66.831142009164580 56.686513163235674 -84.223973326421117
66.093614707434128 59.422135921419262 -84.197274092741694
66.587861636010388 66.190139564815269 -83.955844166954307
66.581358676164157 65.267438142295333 -85.112824456051612
66.795301420157472 105.149572781006086 -84.328560130330061
66.105791069893527 -54.322022120832834 -85.563903701649110
66.789640288680502 -53.944738181910218 -84.472308218754151
67.060813785754164 55.571624048854964 -84.876775838067800
66.395605635988829 58.636283318232309 -86.605370449154933
66.474545878940845 58.583536762607537 -85.389036616807715
66.477985903433208 65.477348724778949 -85.175459187320030
66.086895265637821 -97.199012375678279 -85.115151322147668
65.885072832903802 -55.409424951070527 -84.761686979847056
66.810275154549757 54.789027006493377 -85.648324237814236
65.964935072746002 104.977029499678267 -84.994000693019458
65.963552442823996 -96.698522108947529 -86.498845095003958
66.475275938285662 54.457486679454256 -85.783363618432872
66.901249200016423 57.176563879977955 -86.873941448069942
66.273990018921339 104.726640157364841 -86.092361233939499
66.794645462693822 -56.819034404321322 -86.846386062309136
65.863226414403655 -56.722838461463247 -87.078657230875223
66.094081408007554 54.473144004745706 -85.819710944018553
67.038173978747366 66.319823583791575 -86.191700947494567
66.011533803339674 -96.894337267152878 -86.914015514977521
65.491822208124162 -58.662614257182632 -87.646714052405244
65.730029699643552 -58.259124522034853 -86.417652515249571
66.545675368517124 53.581584123369211 -86.465568663427916
66.184565883797532 57.424370505532060 -85.576017245815109
65.321371257832894 -97.043423569236978 -87.108315807868635
65.513326524378087 -59.130385508265441 -86.991049668325587
66.267187269064237 -58.929746469768283 -87.627118276156352
66.401261547014357 53.335642890688419 -86.738392463797751
66.743206112621749 66.215474469455430 -86.720678212115772
65.883926615948226 105.522836677637443 -88.185972088295074
66.981246555734231 -58.615393196427327 -87.192524136407371
65.894953141927388 -60.335088495860624 -87.696029614393552
66.521950017472818 53.348216618760283 -87.703617229472712
65.908543744415610 55.172445970621951 -87.913037430759502
66.034199043690435 66.098989126991597 -87.389661360041941
66.320384218095185 105.343811563998642 -87.822903928655194
65.845743145985764 -97.176091293775073 -87.995245208210264
65.126280311791362 -60.941509386681851 -88.711770219583642
66.321161453599018 56.179758506864232 -88.638536931414365
65.861605587914539 55.383700208961301 -88.094580854223850
65.758963726670387 104.647357800981226 -87.740778256959260
65.579331918225833 -97.204277047227677 -88.309074679257250
66.162328453935629 -61.533966575761873 -88.941320882263284
66.306933846516316 -60.873865040256241 -88.857106339592221
66.466940163946447 52.420897194398897 -87.341354971802986
66.283226375746906 51.986755218416512 -89.601679669848252
65.459169154340543 66.316582687201134 -88.582678788328536
66.782765237673317 65.399540955282959 -88.833087133528352
65.698085140813561 104.497202206918843 -87.842138725619833
65.797390628415300 55.930233946748665 -89.328569652544914
67.695813827027607 105.010773586906154 -89.350337212944581
65.437830255434918 -96.610098228962300 -89.125659250721426
66.784923319961734 -62.959730321685825 -88.994596449848970
66.375292907388854 54.967241101509366 -88.342853761841525
66.553208735160339 65.384991512263127 -88.956345153584309
66.472875819722873 -62.133890860510093 -88.960199695941938
66.374301850720570 51.669285697562486 -89.386447829972880
67.054415220169048 53.038833779640122 -89.225294281091635
65.940881809673996 65.633918830209367 -90.420977254799993
66.318593340253997 -62.177252195751379 -89.455844679658355
66.180899250014605 63.166571539183550 -90.490884573326909
66.046025729293120 104.502068122853913 -89.781276025991076
65.771078790667943 -97.444368742885445 -88.652368312276352
66.306994615649074 -62.068959489156683 -91.229869136024092
66.517578292379824 51.125990907610934 -90.016153709877884
66.384244801028927 54.464544361514534 -89.556301962201417
67.233029830177230 63.319348803299739 -91.016335587181999
65.804153555175631 66.546075149602842 -91.297768426463847
67.056422197491642 104.986528265870845 -89.658327879615811
65.822573350276912 -96.884445485428373 -91.027481871872268
67.356015345110080 50.617429648789965 -90.670272162810818
65.920410370483651 53.610270082392702 -90.345428928260006
66.568853300061122 54.327924300421543 -90.181821583783275
66.160408440259246 62.962248152281894 -90.696929397058454
66.405524832072885 65.987932783068146 -90.682204700059572
66.256839682892917 65.442990683250017 -90.987747797098621
65.919717061451024 67.450214091676898 -90.767388646044893
65.856658817429533 -63.355405837687428 -90.953162600644035
66.190207198030620 53.242185202897083 -90.888183133408660
66.472161237485778 63.189715774495120 -91.375400481652406
66.564182682891385 65.826306318105466 -92.270342086327602
66.944704907893950 105.099014000414485 -90.951096948913715
66.696259605403057 -63.125270392317148 -92.333991181796719
67.419166864275994 50.758279602884151 -91.441228702488672
65.575303760904859 61.215013672315571 -91.918288846380818
65.736663251152081 65.010460938503826 -91.817349264732158
66.743717722184655 68.458588793958668 -91.467168632470575
66.300576203692927 -97.452949225905314 -92.138302062335228
66.735708011733081 50.124181127962359 -92.057331127826274
65.917869164073849 53.423495931741769 -91.670685058491657
66.283032030451196 60.905930208355834 -92.437942753383879
65.668026716499014 64.000501644167215 -92.484434513911438
65.981492060370698 -96.579814132481545 -92.809797941364337
66.195549523670579 -62.918491150167348 -92.550915047040561
65.355637613544516 53.958690093739740 -92.131656911228205
65.691706113327115 64.220579315971150 -91.470698885583573
65.716171552502601 67.757648418200503 -91.160330247783861
66.354359326396505 104.469153361085390 -92.458667950098558
66.141389180371817 -63.217586473277777 -93.116493128256977
66.598173708157489 49.904141879619672 -93.134680395705018
65.205197478686031 49.303829358689711 -92.948043789324174
66.395361767345378 53.494473122330774 -92.060939678251913
65.787772174703889 61.332351279193873 -92.983801620493352
66.541144663784578 60.267412744677394 -92.603794701178984
66.510561667326925 63.695934808040228 -92.962784591392122
66.354046415712460 67.333820191925923 -92.951586919660102
66.471597040303919 -96.913094949751695 -94.046428335316165
65.682886936076088 -64.123782875218794 -93.613785460470453
64.974445913743409 -64.633896975837544 -93.455468658181417
65.303608774378006 53.079617217225959 -92.859234731303658
65.962838754862091 59.667271204843829 -93.247011315513276
66.704655713979577 63.151985912318622 -93.161839193218910
65.780696919966772 104.795706575667040 -92.923656200963563
65.953509483781616 -63.535940848049094 -93.295699454117695
67.254227726040185 50.030917328540106 -93.916433643459357
65.174040454093770 57.482107869464237 -94.671198094492041
66.557857435774153 58.747086316172670 -93.248545113296174
66.230331704056454 62.485676050431387 -93.593902333688433
65.646043561618583 67.046011092920153 -94.134550226609591
65.648230261046152 -97.127854778706677 -93.753308465258826
66.032311455371243 53.223486909435969 -94.587971209904310
65.482360713803843 57.425846156505514 -93.955580232365634
66.484735009236147 59.243806991439378 -93.761647822968442
65.649571821999601 58.060408535542500 -93.973338034873692
66.637561959275061 62.116632676174156 -93.465143168228209
66.784944120204386 68.002023087542426 -93.461663207921163
66.039892955823717 -96.786860700518616 -94.669265280269599
66.057004498804204 -64.382069982290162 -95.089218616914835
65.668456793150312 -64.835965159755474 -94.527408303398033
65.580678450313656 53.014030328371817 -94.189479480507913
65.840729496940995 54.778794988003774 -95.575526577351539
65.344697113468854 56.026050283896396 -94.351927985484167
66.450724553600736 57.104763327385839 -94.560501210978771
65.585921476048583 105.180384057312551 -93.778129270733288
66.029454785536814 -97.079796889902397 -94.700974020540741
66.023270701423087 53.006086667472076 -95.304440065377861
65.786751863493052 53.356395403347044 -95.373697982776989
66.440142377331725 54.190297301726524 -94.215090319245448
65.846506926560082 55.734727783226468 -94.695159493525097
66.015980364883603 55.852153679359070 -95.014642755623171
65.966666510974008 60.363045059633571 -94.102917823726386
66.880720514906898 60.810229336142122 -94.615948343766235
65.520130175058270 66.873078505122180 -95.247773673806407
65.715244671837425 104.207835759995774 -94.454978933543984
65.374101176326391 -65.352660298769550 -94.892224571200430
65.021860007297931 49.003549175186215 -94.129447519187934
65.447833176844327 50.223785040689506 -95.368650776497390
65.428678909439796 55.006643053714420 -94.588328326023358
66.277913876732569 56.663819563106742 -94.812795839829676
66.527671748332224 66.988586163748536 -95.458438394220963
65.989434291866189 104.465444010857027 -95.367429244418233
64.978091937595764 -97.242559139607451 -95.853986788050577
66.377780929678465 -65.517619119089758 -96.093056166133209
66.552319528326223 53.105327347340989 -95.405265605609941
65.442064599698028 54.921529120339422 -95.344756512142368
66.354199349758076 55.264305139880001 -94.800402310077146
65.927773649173332 60.250880776382807 -95.302089013837943
66.403858904259366 67.199322828270056 -95.453097106680318
66.966790558198412 104.324551470056065 -95.166599006182210
65.878886012688227 -67.098173531559468 -96.465523544136289
65.741009749911555 49.427378129568623 -94.900032224065185
64.907937809668994 49.025641347349854 -95.400591417060895
66.702239004408355 60.493964639567054 -96.538634871396383
66.518967206069135 103.859747345632982 -95.899452632501905
64.575512531946487 104.544748108484214 -95.825575248047770
66.109223115572121 -96.847083192837914 -95.093568324249205
66.167635523665226 -66.420091162713035 -96.321359270363871
65.714161697277305 -64.873944888308685 -96.326001734690777
66.453906672665298 48.449500330759726 -96.648919978165708
66.091446716598611 59.682909140815198 -96.645557533992076
66.143518243520134 67.392099787304090 -96.741423322437967
65.203101499623529 69.103769084645634 -97.224360544668244
66.088987606004380 103.626297581810803 -96.927479179034961
65.378196524090640 -97.005423735542479 -97.216480617313550
66.404524316085102 -67.238360101820803 -96.711776315946608
65.880179908357377 49.515423724118058 -97.628269763171232
66.441954699873492 57.790407973722907 -96.386120479451904
65.234841145974869 57.955823753753933 -95.588662713150086
66.784488211656736 103.164388651843780 -97.727363207201023
66.229357266280573 -97.213861537038952 -96.894991540056537
65.522657483547817 -66.661394377617242 -97.322818229861753
66.280478595784487 57.032870780043943 -96.807674594725256
65.659944787505523 68.783205899062679 -96.688639722299470
65.956478894131720 103.495411210333089 -97.149474951360446
65.641979631277920 -67.041442917414983 -98.108627902320322
65.507201908774107 50.196130721927638 -97.665142025425709
65.899564212926464 56.284778980196691 -97.553966823061572
65.988509879355718 -97.045262427071279 -97.943758658582809
66.180639291095787 -66.069358377613071 -98.137140456330442
66.099343188429671 -66.932933707979075 -98.019574151652378
65.997604701244086 49.295484573928675 -98.337552617914852
64.660002160418372 49.275700051834086 -98.232541336852449
65.994767738279066 54.996077939224350 -98.363368254326346
65.953669952962855 69.346165585104330 -98.579708791673980
65.938859187161356 101.871965629437128 -97.525365845985476
64.984079901517447 -67.021854095487086 -98.367885951772337
66.505544461851599 48.158874010554435 -97.571994457496359
65.728365242857677 68.108238192200972 -98.203524905816593
66.054458876240460 102.222504464072173 -97.492617793162964
66.215628337997217 -97.366491664658597 -97.988799358384085
65.627498850129442 48.947059865868077 -98.346085096650867
65.666206768866019 50.533566439280570 -98.626216402925735
65.518476039656662 51.699269486204059 -99.223907192449559
65.070681039498595 54.487206972401708 -98.110526563553123
67.015667290873978 54.750328818328562 -99.168497824641847
65.803899956847062 55.277834995422616 -98.386512204717462
66.480050500215924 69.251481885588902 -97.594760064966678
65.200977049169907 103.028604860879042 -98.878339183836985
66.287541618402031 -97.645283273246619 -99.746302666835376
66.460481487324628 -66.736903035023417 -98.724025543044533
65.894145888752760 -65.915292343641866 -98.367333193806957
66.343759155867900 47.560838675351526 -98.655849781612915
66.343334723693928 49.945783683997554 -99.920504573664275
65.685373371517400 53.104518357392486 -98.197898935901591
65.003662996901198 54.697751634023604 -98.831798059995791
65.779299729773186 68.738434637380081 -98.872096189832376
66.315021689199440 102.601392817386397 -99.181306721748967
66.336437307897882 -67.256392107081396 -99.463151971621414
65.788841099421973 49.304988794818108 -99.572517549852520
65.915255591017797 51.438845021509159 -99.895256968039163
65.955509243930507 52.136934560600260 -99.248475166789646
64.983304079131699 52.663459005628575 -99.353607490035699
66.177859222969261 54.383948221416063 -98.828617533067771
65.537805647132785 69.737495882159124 -99.793235727402802
64.778460182038401 69.943327047772542 -99.524419725225215
66.302852652903596 101.529844843116322 -99.123301815023510
65.364996234673768 101.905894709126400 -98.944323070592077
67.285909633306346 -74.783895544787200 -99.700565503377859
66.093263835036964 -67.324607971800688 -100.060409801330010
65.980459581502046 48.262996184905724 -99.739704003317257
66.182091194616234 48.878754717833502 -100.245043724270488
66.053765618105714 50.624150365725725 -99.745361126621077
65.210108826519757 51.433069788178805 -100.149309382387642
66.184025028899924 52.475769427323087 -100.157250163208829
65.543349809084816 53.707364577991086 -99.214546312856015
65.506544069092342 68.625670498415687 -99.144911429739949
66.567348415514886 101.979366641494238 -101.110231252199171
66.985110869583607 -96.964341756286061 -101.108302263097727
66.020711695316237 -75.954304787776906 -100.694624702963850
65.679733186057405 -74.482435271719439 -99.608437773083651
66.223607992956332 49.081028231897655 -99.382649232888568
65.983506405916103 51.256646145685345 -100.577635782778984
65.615395820477772 50.800895435141534 -100.232812721150822
64.994169649859344 52.234226595469281 -100.351920106519501
66.748837304202269 53.923180568385185 -99.952733728954939
66.232057049353912 69.919223386115590 -99.923339114917638
66.946371325066849 100.497051820528057 -101.832442319497346
66.442394898577177 -76.756146595657953 -100.971532175907782
65.300464451312564 -75.207342596798028 -100.850202604479392
65.708486699914090 -73.034561956538781 -100.328653912038973
65.356553622942172 -74.164091073150132 -101.225457928498429
65.147768141040274 -67.375894639800109 -100.169761175107283
65.993010518883011 49.823622438957834 -101.091246951237139
66.016307075838313 50.105241563227885 -101.175545513380499
65.512172302061458 49.791836009157826 -100.675532226889885
65.877790257831919 51.572704569826250 -100.763113677913566
65.791714090598660 70.291410851034215 -100.870713839535583
65.173789385391061 -96.357528774278265 -100.978326812341692
65.738928212006229 -75.421163624139552 -101.474715735581526
66.355357819151010 -74.515716609941563 -101.929427271994555
66.415593779708701 -74.082777415556691 -101.753765967697348
65.230571075685063 -74.450053387187978 -102.057850430769321
66.800106142742422 70.862139175367531 -101.316024538373853
66.738252641022441 100.836817093983683 -101.494924178268718
66.596098437313600 100.213427983985341 -101.462739762435021
65.884931000858870 101.557198342377660 -100.912225022245877
66.437796241156278 -77.698119396398582 -101.719388767093136
65.764162877254932 -77.406483981583534 -101.250182613497088
65.658069794534185 -74.282994410079937 -102.046446860523119
66.275841660561312 -67.824605876201971 -101.324956177166968
66.548483496339756 70.582311168016716 -101.371120714386080
65.854490203360115 101.581527125120971 -101.820416384870569
64.985236549616815 -77.491029624825359 -102.050108695747156
65.775221491622048 -75.425926597251149 -101.710425966887044
66.039012556793523 -67.487873173235855 -102.270910665255641
66.241050073215405 71.065379225762243 -102.022944475013631
66.645819408971889 99.359752114816388 -100.741968984793942
66.191204587852695 -79.700613118777625 -101.969016170570953
66.051596699297306 -79.221741335551826 -101.906126047585914
67.124672187810958 -75.173311384922371 -102.545585484401471
66.302931914661031 71.726671143834892 -102.109367120975179
65.693133462077441 99.165075181755725 -102.325506190011353
66.817354807147083 -97.490614926599591 -102.607753791534208
65.701567350817243 -80.111601346010502 -102.752089560718190
67.268520789581913 -68.763441308798832 -103.044506960727730
66.534902878337135 71.942161271593434 -102.588487926551636
66.095572101265219 99.892856249621630 -102.240105375942022
65.989062856208974 -80.720248883320096 -102.930390155695463
66.445882012730522 -75.673233864962242 -103.440685272235456
67.069119076482323 -68.700963440567605 -103.283191402278476
65.803423622689962 72.236919873688336 -103.646301735776206
65.960366026946730 -80.449748857515786 -103.658398763521490
66.234017156051834 -68.091044878332255 -103.078353008590568
66.115399113470247 73.131185375536290 -103.802067510632952
65.525933197503704 99.255335536631605 -103.492495979803167
66.081710892231129 -96.915577054342990 -103.179178051764396
66.363760307928899 -81.118181281776685 -102.807618847851572
66.087475764026209 -76.316527653200438 -103.360469218614440
66.741203375798932 -68.554527850047748 -103.730710546607881
66.823588011314925 73.237485254197111 -104.671756247150938
66.606722169395610 98.432632963521058 -104.100432322331869
65.544313974750196 97.881193516925535 -104.057920759492561
66.103160559669362 -97.043064782211516 -104.486710036804268
66.254869988604938 -75.196982894930684 -103.728178269895025
65.873990105245383 -69.431616211587723 -104.086983165746759
67.289391593880168 -70.140458135509888 -104.469353168845288
66.601938428863036 74.035657616465997 -104.994292238097486
66.927804390944004 84.811344343172706 -104.690031954535371
67.771069217386838 97.719199313652027 -103.695559216094225
66.262229837137696 -75.870181401275275 -104.218754457580786
64.794486173823188 -75.678189118105379 -104.827153290465333
65.920562272537111 -69.586332553170507 -104.347714141730236
67.003421111632818 73.610867710370783 -103.811037814193185
67.193527744439535 83.390515172167269 -105.193255982693515
66.287202301852446 96.877704788145238 -104.532388626096051
65.559702824515767 -81.742292600179255 -105.171561315014671
66.435553297965598 -69.348024406213810 -105.610931027664108
65.848810259526743 73.867515388858692 -106.216941691723846
65.976980212085465 75.112420950285241 -106.314005714241162
65.408943383954508 84.590609615832591 -105.662931139635589
67.320332004716661 96.382664755789293 -104.509433605282638
65.382086970858936 -97.375234060431467 -105.868776085367742
65.901140501437752 -76.732949033939491 -105.190954354402677
66.308171564921068 -70.544668697356556 -105.511092218339115
66.076664094845171 82.615064283332686 -105.708776990881958
66.670136754522062 85.878430823219190 -105.623404489417297
65.719934814409385 86.259846695403922 -105.205100341939485
65.775966717274358 94.598759442955071 -105.792156693416231
66.753168519764529 -82.633167428688765 -106.172882236534250
65.990799465729566 -76.881613518468356 -105.928444290470239
65.949171109460181 -70.310093082817119 -105.708205628540838
65.993221165325636 76.960199494230110 -105.548950204674497
66.728584858593536 77.251325963086259 -106.696437896785014
65.673327258039691 82.712062925345421 -105.540877379778422
66.260486581845512 94.904131595534693 -105.780802716191943
66.268350516974579 -96.443215255653897 -105.863934682308297
66.051084135733120 -82.892667768722234 -105.895345080038325
65.768274553186231 -77.555444233900829 -106.144538705902235
65.292089939089720 87.997550005668543 -107.397999124009857
66.016366752380506 92.990989233361859 -106.698004894284395
65.971127886364812 -97.416972666091198 -107.120061110720627
66.218198809428912 -83.655431802752702 -106.499103752039559
65.562157182357709 -77.618807741263240 -105.982560419277249
65.002682834267063 -77.204844567497886 -107.700837919811192
65.723049254567357 -70.703896956959568 -106.261828209511165
66.221266518373895 76.428514861284498 -105.903872192327555
66.016770929625736 86.883923339726465 -107.499462098073579
66.983280118093219 92.115696617669244 -106.984414215062046
66.515112535312966 -96.885070718800463 -106.530817758465346
66.591303288419070 -77.266401589306241 -107.186965341653547
65.770012744272492 -70.607851219790078 -107.080211688024917
65.683292883682043 -71.640158813865952 -107.476351835665014
65.992750866364304 77.081319884309764 -107.106716897352342
66.087348551342671 77.437183089298330 -107.701337448771213
67.289512108318931 79.608504798370561 -107.113521910095045
66.752620956332819 88.388330687682071 -106.602042370110766
66.239687070503578 87.589602474140293 -107.047192357286022
66.024932763778821 91.059317015960659 -107.360767365876271
65.738828234579302 92.610332485826049 -107.092399777000736
65.645893425425399 -96.057685579409281 -108.177299358738651
65.710209700031996 -84.456656736902971 -107.050130582343513
66.337887408733422 78.986826339609948 -106.377000885001934
65.914301978326748 90.063269152569347 -106.903846872526444
66.496366258289740 91.437851031283117 -107.911308964185849
65.772855738800473 92.149850008639959 -107.477476530168190
66.732128912230905 93.443326407492791 -107.998700971331758
67.222675459575186 -84.981796655034913 -108.064438923874192
65.246059047532071 -78.971116060329635 -107.519182800559889
66.504577956701155 -71.407142430197169 -107.741483765778071
65.820065865146148 -97.614575028409149 -109.154051231286076
65.868892840816230 -85.243792259937337 -108.347210347543466
66.395310830278319 -84.488418979184928 -108.993229746530773
67.001607515567471 -78.787251913930504 -107.954675691101428
66.346994184855888 -72.276320540128481 -108.337575030091372
64.861809908085505 -71.338504952576983 -109.106002245625447
65.761486475594722 -96.472249182161818 -109.427388451557448
66.067022539995847 -84.979470074847285 -109.703148879907985
66.366003552041803 -79.125044209461805 -108.596429559497494
66.038308375468759 -72.624689068460484 -108.883865203513608
66.063751220175391 -84.775994297368072 -108.876255076520550
66.412955716077619 -79.094533022758739 -109.575977935583353
66.466635272356697 -72.053119517036194 -109.363982870181189
66.924011292590023 -95.654858321170536 -110.267089008778299
66.737419578107492 -86.282979326683304 -109.774699874655155
66.542031261384267 -79.593952393504267 -109.668976526085089
66.099061967953276 -73.663898045630418 -111.436595136980671
66.500022234129787 -72.793987707846242 -110.031062301536224
66.636990095641906 -97.049191761218367 -110.289633671348270
66.066110078441923 -86.096079196585109 -110.376111737623745
66.286433139605606 -79.154504855650458 -110.264732060995371
65.598254155765915 -86.447807679144162 -111.070023325950004
66.527008291243789 -79.187363776257584 -109.924648829612778
66.281190104845678 -73.121040481895676 -109.843412360691076
66.521466983056243 -96.552227873969557 -110.956665853576922
65.028508296194346 -79.976436106452923 -111.370683151627588
66.302766229410736 -79.380968349040174 -111.407805011682839
65.779880776923719 -78.713887324933509 -111.277289284676684
66.394513046333813 -73.917200806475236 -110.865711798918539
64.912548815380205 -75.017668732800743 -111.195909921581787
67.459746133048128 -85.463605977606676 -111.961644306378119
66.205951572818023 -80.329245483438925 -111.293283886830864
66.132468703700809 -80.875346317421673 -112.051787071206931
65.166554800840800 -74.317419402907205 -111.756509410093642
65.509374269061524 -96.731557126591710 -111.980050412265342
66.372778537453598 -80.944933312403862 -111.394769208691571
67.190935117897851 -79.386395206907807 -112.517087367190484
66.057372378860322 -74.266429799282449 -112.456965227455342
66.453425770013723 -75.520148831675499 -111.401973182186680
64.833236105888162 -86.829717892855925 -112.427649404333067
65.828529803388832 -80.929058897769096 -112.317851226115039
65.968903927848245 -80.356569226369515 -112.364539560955194
65.198423219583177 -76.870578646495076 -112.770599074317616
66.090388768552927 -74.950805621516167 -112.227572076620547
66.080294223905526 -75.175718786245014 -112.864348550608995
66.273220769752342 -95.551939501722472 -112.931208904791063
65.434924275446662 -82.324527176029946 -113.608802620907881
66.357140265767370 -80.666196769429561 -113.822315071389994
65.830649714209500 -95.233945115996718 -113.710725697744039
66.141586931513217 -87.281707535904573 -113.408394944439792
66.181550044134070 -82.218294281471614 -112.690316510260359
67.060266424857517 -75.948823430419552 -113.207131172642121
65.878045155310090 -97.059394669246458 -114.349819069612309
66.770960484277992 -88.073040236149083 -113.974522346792241
65.421901434879985 -80.865004020363727 -113.212312719422343
65.960726182441249 -81.903533230553862 -113.606979446628216
66.125374621823823 -75.611350802307129 -113.641897182351272
65.379507186460643 -75.799144837157471 -114.308353654679195
65.946020157665359 -76.111988749984206 -114.199321414031445
66.239597935592627 -82.132903524545029 -114.359636673086086
66.222956345434682 -82.181779127768095 -114.228906525624907
66.761897673789136 -87.318773535275625 -113.931566861994071
65.560947530284892 -77.179252276850661 -115.319591056781988
65.772837094839147 -81.594196583694384 -115.029212239902364
66.509163642422294 -77.263899339135861 -116.074280981276019
65.419041486224316 -62.836249281763912 -115.173142385533794
65.427366530001919 -62.184111687314591 -115.572918876720237
65.214007540664781 -61.294041358605554 -114.274046878321826
66.994531999349732 -88.942797542600999 -115.236020828376397
66.296745641642076 -82.029477197126994 -115.643602954914641
66.728376624893897 -76.938156728191757 -115.439778997146036
65.398530669740808 -60.351540248840770 -115.572835441161189
65.378822629584675 -59.896445396583296 -115.537314414753638
66.140330990174363 -88.358926287205293 -115.075219658903919
66.257637419820711 -82.289713206210052 -114.934795136194367
66.079959580989225 -76.452219246986118 -116.312275195962954
65.473530328152179 -63.871295693421416 -115.934960879494298
65.993762135547200 -62.655012064765884 -115.986853217689969
66.131935010698967 -60.875281329865480 -115.776737104031568
66.350944715966591 -60.454871032624482 -115.899911396834483
65.793226016912499 -58.385421896470696 -116.097625013741180
67.210503092565901 -88.291417805759025 -116.824457477578463
67.307638895849607 -75.809070231056936 -115.421453767672077
65.718429542598571 -60.420046690661025 -116.477189015201134
65.194307064839151 -58.431654040925736 -116.904034781067566
66.412957268558145 -82.832100216516039 -116.675801707179247
65.995553834861155 -76.579193502688241 -116.838189345087613
65.891960308204361 -59.147903806418235 -116.857267561720917
66.822283348644035 -96.217694739550979 -117.136988240247547
65.168819844786611 -82.734297852568062 -116.592212351867474
65.947345786462535 -61.669938717770023 -117.336527467265242
66.202565443741960 -63.042319607043169 -116.896527420066676
65.576967322565409 -58.475285192147354 -116.924628921132381
67.137111467678821 -57.933681054346486 -117.131358953767986
65.904776739046412 -59.014620784780966 -117.812318680248637
65.841911426427970 -96.129415372290822 -117.233974800126148
66.020684455843124 -89.428460986253910 -117.688439883801621
66.187521282324155 -79.824186006500241 -118.000177710937393
66.252808512395205 -75.988621360660673 -117.255574668725188
65.905981296672721 -64.470353043520859 -116.810939643080772
66.617958987222622 -57.999858622062646 -117.886865899537113
66.560041061977756 -57.397781739027650 -116.778746868399381
66.485541695441555 -82.817307443914004 -117.038952371607138
66.236112974572691 -75.337576396101795 -117.530053662180578
65.745342794998152 -63.334410785282671 -118.316271938253891
65.819289939933824 -64.285005278691060 -117.529882329197974
65.329263686914743 -57.303424666221517 -118.460240569020328
65.703709385511473 -95.104759519893349 -118.309289244393966
65.053461191247976 -90.537689389163205 -118.277620161530123
65.956610238712756 -82.655964588073928 -118.441105676287833
65.079673615113506 -79.033238793313444 -118.536861133474233
65.434224228781630 -75.854554182518470 -118.090799696091835
64.763884215055754 -64.460296986391327 -118.874533151611359
66.551217515736937 -56.666945621503423 -118.251940577380438
66.163046367012072 -89.745907069746579 -118.155917293408876
65.904535861386535 -79.135359222217659 -118.792752110956712
65.520202566638005 -77.954139042986924 -119.086264004311801
66.509559819898385 -75.450407059236028 -118.789907168469341
65.798380139945380 -64.910561608199473 -118.767119786911891
65.901762203073133 -56.160082085663163 -119.143874733320956
66.027698029544894 -95.378549614077940 -119.446436847053079
65.923295217617436 -83.096483091883215 -119.238376295731129
66.229401158359764 -78.452982009487513 -120.068053557172163
65.479616028575805 -78.563596588298708 -118.851888406244086
67.090109171375076 -74.706487444260588 -119.354382922022097
66.536436919314852 -64.389699865027737 -118.976583574057955
65.761113868838947 -56.230693953679229 -119.333576530786260
65.715397605295152 -95.563617365683072 -119.237443357577135
65.886339307188535 -90.603581403930306 -119.566696682763038
66.733684458376530 -83.350649438041131 -119.954206274619111
65.781720700220291 -79.605752045401644 -119.252705810964798
65.375285462331505 -78.380913669596680 -120.428062159407830
66.076784394993865 -64.018633713036039 -120.331853826352102
65.623899580123762 -59.436688350703214 -118.771674781924133
66.107625528340762 -55.475746730925792 -119.326601057443071
65.966318338534649 -91.621401147583200 -119.798125067222202
65.682154593131571 -82.095408531667573 -120.248981302289835
67.133328135073882 -78.227740303581783 -120.526781788549854
66.106636635606321 -63.693732874634051 -119.065409907992517
65.804159364353026 -61.610855621036059 -120.171755732368069
65.711071016692742 -59.147596292908126 -119.361038173596896
66.223855670459912 -58.929581330564737 -119.475383700482638
66.519822370294165 -56.221600700219547 -120.258882307789136
65.066759894057540 -95.435290673721838 -120.348348776415506
65.857683826407708 -89.717991396960770 -120.066176755121546
65.269287276710813 -83.140266037882967 -120.549686652818721
65.923638743751567 -74.964419726829618 -120.037468991718640
66.437140451787101 -64.348733293215730 -120.690528976100680
64.370661044218366 -62.161856917741190 -121.147595693362788
65.062829208873723 -61.238233855657128 -119.487793912346035
65.211857987771069 -59.927756663045116 -120.401168891795294
67.204925603249379 -55.667570226189447 -120.756694540954072
66.374206718171479 -95.060422103594348 -121.233170794296157
66.136045883743364 -90.857660591476147 -120.828966326338573
66.917478439594376 -84.346502588117829 -121.063846332631442
65.203764820038970 -83.034956516534109 -120.432493507577732
66.141877070530342 -79.227586547656287 -120.565034091544931
66.673767996835593 -75.726234635720033 -119.863014960255313
64.945111902969956 -64.836913590654603 -120.700334352354787
65.411162760423522 -61.309463290162242 -119.774439636334748
66.245050708762179 -61.309851164509141 -121.168563671703467
66.153629760909865 -60.157019171243547 -120.553147730544396
66.507650587351847 -59.712357758378388 -120.418398493026714
65.127571216361986 -58.122457186124279 -120.798758111561540
65.949573197292153 -94.294474453287165 -120.888234139739183
65.583660173718613 -91.327391995883588 -121.507194033057431
66.590563327983133 -84.315313366958506 -121.048551422181532
66.378104617067848 -83.053892069939039 -121.534466847967565
66.471808026660938 -79.900340887569826 -121.242367097424605
65.809609967820947 -76.758360481360327 -121.186520999061827
66.125109482764486 -74.372457316811079 -121.374608207302188
66.001451828404925 -60.468455558048774 -120.896910516176874
66.138299307050218 -55.532884266228891 -121.521500939761538
65.986486067509233 -94.308457733311215 -121.553193818104944
66.062842636079708 -91.224927030451170 -122.191555199393662
65.597754849172247 -83.704180767428198 -121.617096903655394
66.364093246557303 -78.993847195021900 -121.619862348632154
66.636519702727142 -77.572462333126367 -121.722828894600582
66.458482620078669 -64.175284023540684 -120.997113973114537
66.922272382242241 -60.811812424918642 -121.050669116207658
65.145879376502819 -57.752035184663441 -122.068487808106553
65.836945671651407 -54.419229608892771 -121.724151862317001
66.884470300278707 -92.598242198943339 -122.021611617687824
66.193701873420935 -83.861091029150629 -122.006818514751274
65.111241286537123 -82.351158475797078 -122.793993544035530
67.209734255419761 -78.051004842917663 -122.128359402213931
66.464780622038717 -76.667499472835090 -121.971205895826969
64.920540066022113 -77.181424753408734 -121.750882800010615
66.489858859459432 -75.127498911254150 -121.785094440338227
65.821687173026334 -63.488883206009277 -121.575379250583595
66.345901973153232 -61.315864328146723 -121.904835868935393
65.582975612738110 -83.429520192764713 -122.981750174037671
65.543449044899631 -82.807076538836853 -123.380398247600212
66.950587108372446 -75.326930314336565 -122.527993989411172
66.022447033415744 -63.645900260134283 -121.870826162212836
66.935962408607196 -60.587444743991021 -122.509354796824397
65.917805155656964 -61.541397146140042 -122.693598352357640
66.154068152265921 -56.449806210892952 -122.637571307406915
65.111857214579985 -83.540803144006546 -122.119125410638958
65.276088866151895 -83.049294727662939 -122.977660816555456
66.387589955093603 -79.309297705100903 -123.211766974161790
66.108455479225768 -77.634273980221209 -122.210732267568289
66.818836458674042 -73.779024872055587 -123.769518275272048
66.613707389088759 -64.457512632664248 -122.434278589414021
66.242216550836773 -54.008097180396490 -122.161278015656478
66.977382811936195 -84.481030571106942 -122.625113685142836
65.851487223678362 -84.268149458302247 -123.262660857598704
65.284619219266190 -83.619119966475807 -123.265957543080745
65.321003232552656 -82.536176818212496 -122.874130401749568
66.331905439774516 -76.247914651498817 -122.696678534040444
65.652838857335908 -73.703280471250366 -123.838296126632954
66.186408287355860 -63.693885234611287 -122.896593199753539
66.537448989390754 -61.451564360007588 -122.161418131822487
65.519350040433977 -52.510201756748359 -123.785803895339626
65.887371964317680 -53.225131468622386 -122.597462809562501
66.903118870320839 -84.707738300427536 -124.097991876790473
65.676592252343184 -82.376167629022305 -123.595220675543644
65.250735366461754 -81.851258318319168 -123.176791382745947
65.513719355141575 -79.213690551166110 -123.591259558796565
66.189456287627962 -77.090048658721969 -123.696632102587714
65.263619913139976 -77.274442610427613 -123.706742986366677
66.090601355089518 -74.456367899913076 -123.159253749558275
65.140896331632248 -62.022913792906564 -124.162142990869967
64.136926815088856 -84.973866448375517 -124.747233021307650
65.612327526507855 -84.561376350734989 -122.948080915446823
65.688281116441658 -82.265748489968189 -122.923631222556821
64.963693173999616 -81.979054150666556 -123.772221342193760
65.985288363969332 -78.349264886009280 -123.917315409571188
66.503403606296530 -76.600142585671122 -124.216095978518908
65.003799985408648 -77.857935763591556 -124.526308945085688
66.094326772576864 -55.317046347383155 -123.941976244707888
65.865561881171232 -53.193849214630497 -123.606835773334069
65.063955652039169 -85.190197403289744 -123.612614583177887
64.733541359215280 -83.408000934671122 -124.076996738707066
66.445722601055948 -81.869271229900690 -123.866745090422043
66.945591197260839 -78.568277449392312 -124.415463928966659
66.443376459167425 -78.131576772908232 -124.591510607899849
65.744325365014490 -77.091839762337599 -124.832191121959497
66.550973736332026 -77.077878537513712 -124.220627534244315
66.178308116983018 -73.740182691837063 -123.948932638683601
66.818164036468303 -63.640098948274641 -124.633491968664856
66.435322214408686 -61.620951635522452 -124.335424305472756
65.799317880036469 -51.737479199614192 -124.703513245397588
66.154246501925527 -85.354526901135827 -125.004752923348676
65.849571786100299 -84.453334747205957 -124.769156449625797
65.680050958588396 -82.275597041534013 -124.374799948103643
65.045516816417035 -81.682960548307619 -125.478434367901201
66.211067643227949 -78.292398608610824 -125.286332345076246
66.091156253885984 -78.824310201004153 -125.008634126230646
65.767619936152215 -76.069962888910609 -124.411506031566532
65.362616503069972 -77.358544400163495 -125.521262562057871
64.398736249139233 -74.167569001773174 -125.391880237918869
66.636819017311353 -61.800632720777344 -124.741943132072763
66.546917676789676 -55.038331934863280 -124.945801736479609
66.025194962780873 -52.375803898137342 -125.751080376745961
66.573555788068262 -52.081817279287478 -124.236256371443275
65.897967656061667 -86.041990612175880 -124.963447838378769
65.661951454400224 -85.827065157331546 -124.795153740213763
64.921474376749003 -83.578323372412612 -124.708139830685923
66.045307266747088 -84.131942952566376 -125.290013856258071
66.165410715943452 -78.414481655786304 -125.470746411862208
66.020377840387809 -77.202505440658001 -125.296935178425002
67.055843632290532 -77.305998905385039 -125.901158644792517
66.274571575368043 -63.678906750664865 -124.795391016193804
66.577975268701152 -54.759830651941392 -124.725159747597871
66.132901621464939 -86.284961603872830 -125.333356774926344
65.668706410194901 -84.646973615775408 -125.923722069820627
64.800741278595154 -82.996561316007501 -125.819044849983612
66.520803944853171 -81.659764224570992 -125.586083741871789
65.234073055664894 -82.275949825693530 -125.325628443445623
65.946504443993476 -77.342953086812159 -125.651236986176912
67.283462953462077 -76.812320850129112 -125.075686403078080
66.381629483797511 -73.263766393236267 -125.335600944220062
66.276982438390121 -63.291955346448148 -126.337707292620095
66.476333575576120 -60.673489669066647 -125.332452606268859
65.856383631182837 -62.176946383912757 -125.094700234873869
66.461074725856633 -51.353659442553656 -125.429872667693900
65.867829502870180 -85.575823664310477 -125.583321472898845
65.584196275066461 -85.900797398299289 -125.732979444056539
65.870946924462515 -81.233217633840056 -126.250781112927086
66.218826405675642 -78.454000417277570 -125.652018560572984
65.850662700616965 -76.706507818870762 -125.206015526493402
65.852370998542824 -63.110387667073184 -125.561341240773814
66.026363223430764 -86.875886352691325 -127.086907359952932
65.428472282114527 -84.267491725009975 -126.842205707225787
65.726595211428176 -84.158208961151146 -125.844378850727907
66.282784620584138 -82.384990694749831 -126.343814485608831
65.860630849247968 -83.315514551478032 -126.379882404587363
65.832593686716237 -81.487807670153103 -126.278446940632307
66.496825527197018 -73.202793505281647 -125.060198669839082
66.087426629634550 -61.044964021063088 -125.260855678203271
66.462780091270048 -54.679488092552681 -126.119454095976408
65.743144099178807 -51.880856772020913 -126.077215963697000
66.592008526683784 -52.353607611761355 -126.699248309885192
65.687859440368385 -86.665511209375339 -126.586366579198398
64.987390261658788 -85.396379830793222 -126.646964409718180
64.921884711952117 -83.729555792655603 -126.532727964931254
65.967363648338491 -83.367354939655840 -126.187519108525805
65.570383137079077 -80.856717476838369 -126.675832452809757
66.125272400994902 -78.216548237572638 -126.326360480544253
65.766975448724182 -77.220294674056888 -125.408069033003642
66.393278128323757 -73.536020122405034 -126.503272297790431
66.155088714678044 -62.540050071043432 -126.994927450435668
66.123238728141402 -61.449384765577548 -126.400428168274829
65.755336620348373 -54.113517573452214 -126.711085289639698
66.821356078414695 -86.801758029181272 -126.591866123043388
64.820803086888475 -87.734402496087867 -126.812691480494451
65.994823989197926 -86.361763064327349 -127.474709233079267
65.476963467638981 -85.060814764620858 -126.937666462708535
64.709805980604855 -84.467090463379677 -126.900254908073094
66.172662563863227 -82.161340054598597 -127.271257429302011
65.315822548824528 -82.905694274633689 -126.629604648573320
65.544731371561937 -54.019185629366213 -126.918494702941487
66.301850228961953 -51.787568037853369 -127.492766859936893
65.801978600599654 -87.948378221742971 -127.029465051483385
65.008735665493546 -88.210182554099589 -127.986844584144080
65.621021327507705 -86.740139006285261 -127.507571194217689
65.423259481404372 -83.127504594244243 -127.795550688140992
65.197350326876631 -80.931612948305457 -127.106791611470214
66.193430029998268 -62.759654122486914 -127.256271963064421
66.184695349795305 -60.729019369686661 -128.292863154288170
66.764745990046023 -53.979553783095454 -127.312908503069394
65.639114133449993 -50.624164778934968 -127.723092121735704
65.323884134340844 -84.403093543009078 -127.041102500235127
65.820691860457956 -82.518166324146151 -127.761754398250957
66.174410148747313 -80.742110996162012 -127.656908035961152
65.655349789667142 -80.147788391163303 -127.600932369798585
65.928938110098954 -73.446743529596162 -128.103135268689613
65.985896093257750 -62.839970436909731 -128.304822114548841
66.503097409305184 -88.319982691286640 -128.144703063421673
65.534709544205938 -87.614334980231632 -127.577602954074422
65.788746632917054 -82.114894224619817 -127.279474294362927
66.345868835373764 -84.566527817577906 -127.968185354553668
65.884645568176737 -80.107370980920635 -129.415324426225823
65.696798263316907 -61.604672827830470 -126.944015104161650
66.407661571990445 -52.600546028812204 -127.781235204453196
66.495400849886153 -50.797234149296287 -127.583719288381531
66.852181511648965 -74.575995685455680 -129.329567006557141
66.392189812126333 -62.286126174688000 -128.497882155106424
65.774943061997476 -60.470015522750870 -128.853025651410348
65.008812318705438 -60.698401726127663 -129.098980549548173
66.664763206281577 -52.471559245276076 -128.812971177058415
66.630401612366583 -50.778664027281636 -129.059377384991990
66.280268394347388 -88.724771317839426 -129.074390052691200
65.532797171405704 -87.918369833776026 -128.795302914460649
65.781181569472537 -83.528930853273678 -129.215659945425784
65.497006244291853 -83.995847689626245 -128.788919992684612
65.887130118322503 -79.715875922224086 -129.736593943859248
67.052798648669253 -52.304375587414157 -129.996748732615544
66.375900537979604 -50.519735953096117 -129.109729364444775
66.954832311487209 -79.611558865796837 -129.932689364448891
65.910542140064862 -62.600307140971005 -129.217990378752944
65.795399504772533 -60.567483805072243 -129.735296663253422
67.031017633728908 -51.705564989675189 -130.707690573092066
65.829925675055179 -49.814423847481208 -129.453020996584144
66.026660222227534 -88.662635134644020 -130.058528164774970
65.692708003693312 -83.597084997814861 -130.183030804881696
66.317875191221191 -83.220956721553208 -129.442564364519029
65.277903976013803 -74.233537971356810 -129.799426385211888
65.175173946458798 -62.183777609403080 -129.670059825534565
66.752895216274226 -89.249969773963713 -130.306467683222024
65.482095745660743 -88.593753926232310 -130.783924837633805
64.540010157917379 -85.203055453309318 -130.360290442218883
65.669937069777319 -82.780485435559598 -130.200166816890061
66.408050028845153 -80.521435556337707 -129.912538851585253
66.655527122770636 -60.208767310504157 -130.274417947596788
66.216792164230085 -48.909075779391202 -130.535650629587451
65.327329749284729 -78.703338135680227 -130.299950692401410
66.062952802994758 -72.652233034282617 -130.493129767555445
66.052388924790762 -62.218593792739554 -131.243009077859341
66.269022284032104 -60.085868402597178 -131.092591165588857
65.216020672707174 -52.443718519082964 -131.079767580084734
66.396528335963055 -88.603467881683343 -132.126502137858097
65.128721183420609 -89.106038797924057 -131.300948830326917
65.784036648053956 -84.471466004072326 -130.539707344330651
65.861581829746669 -79.486975865207327 -130.550494656545368
65.200753921606221 -75.056698659810635 -131.038483504160183
65.832690131591860 -61.690153819497958 -130.622399104847773
66.161298698374452 -61.614730454303370 -130.706135652257814
65.501626602436048 -52.521387677339597 -131.590419508960366
66.729084797390271 -89.892366390982488 -131.530160306073554
65.357524598982010 -74.262197495661695 -132.236705053731782
66.052003498968716 -74.418423845146592 -130.813215862392866
66.278320949591546 -59.797054249248177 -131.600478509213701
66.592286865572589 -49.890427435158387 -131.832288490274607
65.452488431545049 -85.092414166551492 -132.051319126755430
66.352488725461583 -78.956254147292043 -130.587014272939768
65.602442013512729 -72.924988753184181 -131.937565437728807
66.772232193971107 -61.584975667510399 -131.503296419969615
