# This PCD file was generated using the MATLAB® pcwrite function
# from Computer Vision Toolbox®.
# .PCD v.7 - Point Cloud Data file format
VERSION .7
FIELDS x y z
SIZE 4 4 4
TYPE F F F
COUNT 1 1 1
WIDTH 1431
HEIGHT 1
VIEWPOINT 0 0 0 1 0 0 0
POINTS 1431
DATA ascii
52.157818 -42.130573 -243.184647
56.336758 -42.511635 -242.871887
37.345428 -61.385818 -241.114441
39.790997 -60.187408 -240.289703
89.404198 -9.116269 -242.705994
54.827621 -41.687096 -241.281403
-66.728271 -167.959900 -242.625854
-52.519455 -152.807861 -240.339828
50.670647 -49.725079 -240.528030
49.453186 -54.516445 -241.973190
94.732971 -5.126810 -241.651962
40.833809 -55.025528 -242.669083
46.250008 -52.325695 -248.379181
90.615997 -12.211641 -245.294556
5.087847 -93.782135 -243.493607
11.855476 -89.630188 -249.214905
46.277092 -51.746101 -245.053162
84.763596 -13.250030 -247.215546
-2.846472 -103.406502 -247.039581
89.395569 -13.016106 -245.324570
7.679331 -91.385414 -246.543671
44.172821 -54.906536 -242.984497
86.012924 -12.765131 -248.860168
-4.372610 -105.869537 -249.921997
39.812798 -61.043247 -249.624008
6.700525 -94.843002 -248.939056
64.212357 -32.446342 -254.595016
-49.440063 -149.940750 -251.914642
43.697613 -59.430573 -253.756882
43.132206 -56.340214 -252.589600
66.748398 -32.419437 -256.039124
-15.838202 -116.689842 -251.329346
-49.903843 -150.535538 -256.993134
-35.720112 -139.885529 -254.422470
-20.997421 -121.178642 -253.139053
-7.367079 -107.007965 -254.414154
-51.209526 -148.687973 -253.796387
-24.301954 -124.693146 -257.887756
-24.307447 -121.665520 -253.473755
-12.713956 -110.629204 -259.050018
-31.061230 -131.805649 -254.525650
-26.591827 -127.270432 -255.117630
-17.195425 -120.658188 -262.771759
-22.774904 -125.776360 -259.061646
-26.493162 -127.828369 -257.569641
-23.260502 -125.353271 -260.774170
-50.589535 -146.956467 -261.121002
-29.396692 -131.764587 -260.658386
-44.015926 -144.535248 -260.709595
68.324944 -32.094807 -259.932434
-66.177261 -167.671661 -261.750458
-36.895771 -137.537125 -263.400604
-53.720001 -152.823242 -265.030090
69.852066 -32.257164 -266.751160
40.239563 -62.640099 -268.256195
-49.443253 -150.506134 -270.479279
-64.010674 -167.041367 -271.340027
67.941048 -35.874977 -276.999390
44.895348 -55.369434 -279.834259
67.606773 -37.190979 -282.336670
-51.750008 -151.383133 -283.018890
47.144825 -56.748344 -280.730103
-40.621742 -142.524719 -283.808228
-50.614025 -151.581863 -285.332764
-39.685184 -138.984680 -284.282776
60.731991 -41.113186 -285.853699
-43.381424 -144.845230 -282.308105
7.324816 -94.483971 -285.186676
17.264120 -83.465225 -285.992523
-34.050667 -134.550598 -285.443604
2.280283 -97.400925 -285.920380
-18.342773 -119.225937 -284.262482
-13.922315 -114.607567 -284.772522
19.005873 -79.707924 -286.188202
30.060427 -72.422539 -287.032867
32.841339 -67.683220 -284.442566
-65.129570 -169.201828 -288.227417
-28.813774 -132.724854 -284.423248
-27.780266 -128.775406 -282.504211
28.376423 -74.016144 -285.069427
33.418766 -69.979912 -286.989380
43.404259 -60.979275 -287.434357
61.119118 -40.782955 -289.547852
58.538631 -43.012783 -287.103119
15.777802 -88.367287 -289.264313
17.157894 -85.734497 -290.422607
25.494257 -77.258171 -286.166718
24.252979 -73.075752 -287.551819
35.107677 -63.907963 -288.673553
34.433388 -60.138748 -292.798981
40.621059 -62.809292 -290.483734
42.597267 -56.303715 -289.277832
61.978333 -35.514172 -290.460480
-9.317472 -111.382568 -288.873291
-62.536167 -165.849533 -290.868561
-14.762682 -115.264984 -287.351990
50.662720 -50.372627 -293.190155
53.475727 -46.311535 -290.085999
-48.912838 -152.423813 -291.828491
61.285358 -37.626404 -291.636414
-42.783310 -145.353790 -291.748199
-54.484688 -153.405441 -295.700531
-59.095284 -156.589081 -293.084808
-55.992096 -159.164108 -297.611725
-60.788292 -159.737946 -299.844147
-58.544617 -158.028641 -304.393402
-57.116730 -161.841095 -310.692627
-52.837185 -156.310989 -311.466095
-52.593857 -154.001373 -311.501587
74.325073 -27.670446 -12.529680
78.761627 -20.495790 -9.995876
72.115097 -32.207836 -11.169084
82.770950 -16.929409 -15.017606
77.485687 -23.807705 -18.941637
77.439697 -19.996666 -12.191845
67.356903 -33.083633 -15.312223
85.566872 -17.133286 -19.668552
78.941109 -19.231247 -18.722301
84.021423 -16.845215 -20.426481
80.909172 -15.104035 -20.487238
79.616943 -15.947154 -25.485901
82.930725 -17.195225 -22.636719
83.888199 -14.188740 -22.698669
66.082985 -33.359684 -22.647160
83.826164 -15.651078 -32.316376
84.850624 -15.929101 -28.035707
67.998558 -34.544064 -29.142315
81.354042 -13.929005 -31.642031
79.342682 -18.389088 -36.079445
84.686440 -16.907213 -33.938129
69.444916 -30.427040 -34.570923
84.674171 -17.555042 -40.297302
82.836418 -19.700657 -40.011280
76.508720 -24.097574 -38.770287
9.545383 -93.491318 -47.249653
9.173060 -87.011879 -48.636055
18.548676 -79.630127 -46.187561
5.006921 -98.663284 -46.156960
-2.790953 -97.719315 -51.322769
20.487411 -80.641907 -49.931217
113.464554 13.438508 -65.437683
116.264297 18.365009 -62.504509
112.423698 12.144096 -66.754646
113.437874 19.328447 -68.295921
38.600513 -62.049828 -70.555534
24.762579 -76.841057 -75.407890
31.441242 -66.569252 -75.740662
31.736330 -65.684448 -76.436295
20.055424 -76.296585 -78.691788
121.644043 22.079451 -78.634224
15.519780 -85.554726 -87.431511
94.711205 -7.499132 -87.244324
90.567200 -9.273920 -89.617073
93.682030 -7.358982 -84.566132
97.637726 2.586101 -87.807770
10.824039 -89.667831 -89.758492
91.030281 -12.433436 -90.438019
5.106440 -91.721024 -94.467789
-14.454706 -119.344894 -93.084167
87.222267 -20.441011 -94.447151
125.792976 27.497986 -93.418701
6.666398 -93.260735 -95.372887
128.003860 24.289948 -96.546890
122.295158 22.921568 -96.874374
83.631668 -14.065393 -99.465347
121.716728 19.863134 -97.715843
88.137054 -7.406215 -98.884140
102.047028 2.922942 -97.729301
129.517426 27.598763 -100.744553
81.184570 -19.694771 -101.523819
102.380363 10.032180 -101.816551
116.319946 17.664883 -101.007080
123.303543 22.279127 -105.011551
87.287651 -11.954000 -104.488228
81.304230 -15.334172 -102.760132
82.726173 -14.486358 -103.259201
130.424911 28.883318 -104.526993
127.674400 27.636158 -108.408394
76.662964 -21.231611 -105.791962
85.703941 -13.857139 -109.742897
122.111008 21.776880 -108.772369
125.179504 30.272451 -110.295952
131.337738 31.675150 -113.477974
81.322731 -15.829758 -111.372986
72.669914 -24.166039 -116.475136
-14.771902 -112.193222 -114.727295
82.879692 -16.867975 -120.499535
129.224014 29.446810 -118.804031
82.530838 -20.415531 -116.722176
129.776932 28.827509 -121.501190
131.288422 28.849783 -121.582092
72.530937 -27.252174 -124.795753
76.554115 -20.946880 -123.612541
73.782654 -27.773409 -126.544106
82.151978 -17.909134 -125.833466
129.308411 29.672092 -123.794571
129.909027 33.248539 -124.601166
130.505981 30.575769 -128.954941
11.866814 -88.581276 -126.979408
76.619705 -21.476807 -129.015976
-0.629854 -99.266083 -127.519272
132.498672 30.513885 -128.937363
128.084961 32.423191 -130.221176
8.286793 -91.613632 -131.284317
79.674583 -22.548065 -131.102585
72.410149 -27.790890 -131.985886
8.670869 -91.820686 -129.627304
71.481499 -32.236500 -131.343765
13.165332 -86.045944 -133.949127
74.841087 -24.830006 -133.962326
131.854935 31.789846 -136.158234
2.634373 -97.858093 -136.934723
129.251266 27.974617 -135.587433
18.680931 -82.355576 -137.326462
-2.959424 -103.683266 -135.264053
11.966919 -88.422264 -136.315796
72.441422 -28.323378 -135.392746
-3.534823 -100.172966 -138.772247
66.768677 -30.352411 -139.215561
74.029427 -22.602676 -138.984360
18.552063 -79.729988 -139.514954
130.766342 31.489147 -141.620972
130.294891 33.905468 -139.064316
16.972773 -83.303207 -144.608292
77.635338 -21.348476 -140.912979
-1.839182 -104.608612 -141.940643
-3.110457 -101.342293 -144.617386
19.494120 -77.352287 -146.008286
20.461275 -78.392799 -144.732315
75.688080 -24.643452 -149.824127
134.724075 35.035263 -143.222809
-3.034060 -99.316093 -146.275299
0.743501 -98.987030 -148.129715
0.760919 -101.480194 -147.477829
-2.040417 -101.931953 -147.015747
15.776147 -85.006119 -149.145813
62.125404 -37.309052 -148.151367
61.456871 -39.812099 -144.592926
69.159607 -30.246979 -149.737793
67.734100 -32.366211 -151.050568
63.020084 -37.870785 -154.341034
-0.266429 -102.423370 -151.679581
21.823994 -76.788155 -153.646240
68.851990 -30.800667 -151.587265
133.971558 36.746502 -153.859787
56.199043 -45.935669 -152.626617
6.307140 -95.530685 -155.164017
11.589445 -85.033890 -153.935211
58.820183 -37.624554 -154.674744
74.319794 -24.722549 -152.856598
51.882320 -48.302143 -160.473389
72.519821 -26.851679 -161.633957
71.086937 -28.660742 -160.462891
7.055472 -93.315102 -157.224930
21.649477 -74.544472 -156.697708
126.689705 26.694124 -161.213028
55.021679 -41.675896 -160.499435
53.383575 -47.532291 -159.142471
1.989344 -95.088631 -161.519684
6.049505 -96.016769 -163.894836
53.400352 -47.333450 -158.459885
16.584044 -79.739639 -161.792358
29.831673 -71.845291 -162.800095
129.033524 31.370552 -160.099930
73.569801 -28.702421 -167.594604
63.363876 -35.053448 -167.671143
21.898937 -76.794510 -170.243942
73.518547 -26.737919 -167.974274
27.976564 -71.800179 -171.286896
130.979370 31.167288 -169.147705
64.435898 -35.648769 -168.925888
125.931084 27.405024 -172.607254
20.736370 -77.437141 -174.456528
62.410458 -39.099838 -171.550446
133.000381 27.953959 -173.278336
27.423773 -70.042236 -177.048248
26.212015 -73.586372 -173.476746
-54.527988 -156.806152 -176.713409
-49.491192 -152.147095 -180.669968
29.297264 -68.609131 -177.612595
121.345467 24.626211 -180.907364
70.054619 -32.041576 -177.841888
128.009674 27.340590 -178.362213
-47.174648 -148.428177 -182.966385
-50.047478 -151.695541 -181.873932
29.176720 -75.594933 -180.423569
34.495155 -65.606544 -182.181290
63.137516 -32.026817 -185.013107
26.080826 -69.458366 -182.470749
30.506300 -71.571487 -180.589523
69.960999 -31.228687 -184.822250
121.639847 19.970373 -185.463562
-50.677814 -149.142944 -185.442505
28.849216 -71.053223 -184.830200
67.842484 -32.558136 -186.266113
35.612247 -59.007107 -184.613297
129.947449 27.241173 -189.279327
35.472244 -67.098999 -190.618912
69.972168 -31.970911 -190.210052
-51.756748 -146.876709 -190.866043
59.592140 -43.283478 -188.848602
60.421844 -40.214809 -189.540405
31.468769 -69.539627 -189.992966
67.571396 -32.217804 -194.129028
-57.818806 -157.831024 -195.867859
-55.656540 -155.358047 -194.421600
-35.485123 -135.674530 -194.849655
-34.895294 -129.515381 -193.821991
-49.334080 -143.791397 -192.957382
-50.811825 -147.028320 -195.895706
116.665421 22.562313 -195.500671
-63.711399 -162.846558 -194.928406
-30.033970 -132.943222 -193.300079
-30.002337 -129.722366 -196.735641
-54.190590 -153.194061 -194.674515
-39.114922 -135.336243 -197.745682
123.488838 26.502674 -195.626587
-64.050369 -160.304047 -198.210556
-60.533134 -159.139526 -195.480072
64.934425 -39.240780 -196.993378
-54.445099 -156.022232 -199.086472
-52.621296 -154.682510 -198.777679
56.975937 -43.705891 -196.371460
-55.197327 -149.648315 -198.093384
-36.707115 -130.935226 -200.832550
-28.462042 -129.435440 -197.751419
-65.372498 -169.983612 -199.300598
-57.842937 -157.122437 -197.606903
119.496773 15.241535 -196.928604
-51.197193 -152.099533 -199.878891
-27.540976 -128.778168 -201.032944
41.053268 -59.392948 -199.902313
-58.380192 -158.172348 -203.059814
-48.111580 -144.436417 -200.683197
36.430374 -64.384636 -204.250473
124.104050 23.284382 -201.492783
-64.755959 -167.065552 -202.366196
-66.822746 -165.080215 -200.729080
-34.144997 -133.323166 -202.361359
-56.712749 -159.633179 -203.957062
56.091976 -38.921455 -202.985565
-64.586922 -165.096741 -202.151596
-53.463844 -153.391434 -201.780533
120.189316 19.246996 -203.565247
-55.542393 -156.078445 -208.220215
36.323280 -62.937134 -205.147247
114.561462 17.173834 -203.866516
-63.732998 -162.188858 -205.486877
62.378727 -38.339638 -208.209900
-5.070642 -105.423485 -211.031433
-3.370186 -102.560425 -213.911972
56.301018 -46.027191 -210.040909
-56.704479 -153.908249 -212.512497
-4.949426 -105.346016 -211.621994
120.747124 17.816114 -209.072586
55.553837 -43.972736 -211.807373
64.777565 -37.778408 -210.119339
-58.446491 -156.092560 -211.800232
111.543671 7.945383 -207.118301
-16.649082 -115.020538 -212.606552
36.788738 -61.426250 -215.512665
47.159794 -50.698708 -214.727997
62.545979 -38.110027 -214.775909
-11.093589 -111.490341 -214.912750
118.946236 16.581043 -212.994370
109.436142 13.692385 -216.606873
-17.119129 -115.034576 -212.048294
-13.023931 -111.520630 -216.694580
33.028854 -62.311993 -216.909500
-18.684357 -120.173744 -218.410751
42.316174 -59.185783 -215.409760
59.318188 -40.759274 -218.081970
107.247993 6.436026 -218.806564
114.574249 15.625407 -218.405075
57.146645 -46.429749 -219.759094
109.773582 9.350858 -222.670334
36.793690 -62.443882 -220.355453
49.324566 -48.826191 -219.648819
36.191727 -60.926434 -219.346100
56.659740 -43.337406 -222.341125
58.846806 -40.792774 -219.520065
52.594204 -53.756451 -220.495773
108.791367 8.354709 -220.198563
-18.897224 -117.989952 -224.341736
-49.769810 -153.488129 -223.587662
33.008987 -64.896156 -216.924194
39.552620 -60.179493 -223.124390
-50.777870 -150.958466 -226.605057
-36.245571 -135.440582 -224.168472
41.767231 -58.329689 -224.148544
45.013210 -57.144360 -228.435547
-51.897312 -148.325897 -222.518326
36.205074 -66.190453 -225.851700
-21.820175 -120.147285 -227.221603
53.137951 -42.885918 -226.500961
61.786266 -38.268627 -223.108963
-30.880871 -126.137764 -226.172714
57.505470 -38.076660 -223.886200
-30.832375 -128.550278 -225.957977
-30.073021 -128.711304 -225.473083
57.116325 -47.355988 -225.246353
105.558395 7.882246 -226.269318
-22.464203 -122.045868 -225.410446
107.406319 4.711791 -226.428589
43.623657 -54.592960 -228.365707
41.422184 -56.773994 -228.946487
55.191063 -40.602924 -228.925018
100.369102 -0.536801 -229.059555
54.957726 -47.052982 -233.051468
42.980427 -62.366543 -233.535873
-26.339029 -128.123322 -231.821304
103.806694 2.643533 -229.840851
-37.200748 -135.124725 -231.148193
-54.190041 -148.220764 -230.360794
46.320107 -53.261219 -232.603424
-49.585789 -149.610291 -232.488449
51.518589 -50.572224 -231.056519
62.202812 -38.414745 -235.232086
42.471115 -60.587673 -231.796936
98.079559 -2.591146 -233.296448
-39.000340 -140.379456 -233.334213
60.300526 -36.927933 -232.860931
-44.456699 -141.032028 -234.354370
-57.483089 -152.846115 -237.255859
97.354637 -2.391429 -233.637375
101.132210 2.890054 -234.510651
-64.566772 -163.739532 -232.518494
41.610947 -56.052380 -239.723297
44.182415 -53.148338 -234.239136
45.910419 -46.518520 -241.655930
46.787899 -50.758869 -235.621277
55.400146 -42.478760 -236.560165
95.031914 -5.522363 -236.876907
-66.246513 -163.876770 -236.752243
49.319759 -45.605698 -238.181610
99.682907 0.259844 -242.084824
63.315784 -38.220932 -239.075668
97.754898 -4.226640 -240.826996
44.165787 -51.890060 -241.489822
36.480423 -63.746040 -239.315308
37.893440 -59.425045 -241.005585
55.136181 -46.466892 -240.049744
56.639992 -41.182198 -239.694626
54.564056 -48.165527 -242.582825
44.670486 -54.323727 -239.090958
54.532166 -42.988667 -241.227417
57.172764 -37.742332 -241.535828
61.011467 -41.938656 -247.936447
64.411171 -34.732761 -243.988846
64.114029 -38.607494 -244.632004
1.860650 -94.362152 -250.223740
40.367195 -55.601402 -244.737091
1.493050 -97.034401 -247.048965
7.373147 -94.319817 -244.803467
-51.875721 -152.027481 -247.908356
64.728432 -40.674656 -248.380661
83.421783 -16.706066 -247.274857
-5.471969 -105.640526 -250.907303
87.333069 -10.587950 -248.069031
1.935796 -99.704094 -244.167786
-64.933609 -166.563614 -254.371689
86.721764 -13.997884 -249.270203
-14.698302 -111.533615 -249.486282
-0.171723 -98.628471 -250.436478
86.570267 -13.320582 -250.920212
-15.470637 -114.684891 -247.489212
-0.202629 -98.691452 -253.096359
-0.049756 -99.637695 -252.663971
80.892548 -20.353292 -253.316376
-4.905521 -105.010239 -253.822968
-41.887352 -144.692596 -254.210190
-48.423714 -149.141418 -252.729233
-34.419838 -133.335846 -254.872757
-30.558802 -128.787949 -251.216629
67.055214 -31.645590 -256.976532
-28.156595 -127.609879 -253.847076
-17.541718 -115.530197 -256.562958
-36.416897 -138.791412 -264.327454
-68.456207 -168.838760 -261.660370
-42.668068 -146.299530 -265.465790
-39.537186 -138.471802 -261.937408
-69.474968 -170.641647 -266.194489
-67.974258 -165.717438 -269.072174
-52.660709 -152.706314 -273.650879
-70.551849 -165.975204 -271.381500
66.639572 -33.549904 -272.114838
43.196690 -55.632710 -280.724426
-49.449413 -151.928497 -278.464691
-38.066437 -139.673782 -282.785889
-69.983322 -169.065887 -282.511993
-62.504436 -163.840530 -284.375031
-6.669690 -108.184700 -286.452118
4.846981 -98.225662 -285.603699
-16.236174 -119.280746 -284.576141
0.402675 -95.956665 -286.973511
8.685881 -91.408409 -285.511353
-62.485325 -162.015060 -287.878754
19.916042 -81.368225 -288.335297
18.904957 -81.100082 -286.058228
-66.343979 -167.513855 -285.267334
48.887970 -51.790874 -285.289124
31.479872 -66.978638 -288.139404
40.433834 -61.261776 -287.523285
23.701696 -75.658318 -289.039307
-68.081505 -165.853363 -288.549713
32.750130 -68.400467 -287.246094
37.871025 -57.259903 -290.133972
47.478706 -53.285358 -286.542023
11.994809 -86.394104 -287.240295
14.952866 -82.280212 -289.673431
29.095612 -69.664444 -288.107056
31.228697 -67.315697 -289.456757
55.649704 -38.485306 -285.829315
19.529068 -76.744904 -292.720978
33.470493 -65.004555 -289.437378
38.855564 -59.951633 -287.283752
40.211426 -56.266926 -292.214813
8.550922 -89.626793 -286.805603
0.886250 -94.963989 -289.037109
45.147213 -52.878727 -291.112335
46.246490 -52.632298 -289.838776
-2.983025 -102.911194 -288.876038
-0.782414 -101.217606 -289.211792
38.128689 -57.194763 -290.029083
51.042320 -48.237354 -288.563416
-13.511062 -115.971611 -293.359497
-9.267195 -107.388016 -289.310974
-25.148943 -123.631897 -288.038391
-18.868849 -115.282547 -291.483246
-50.409645 -150.763062 -292.591370
-35.996845 -134.549484 -291.000763
-47.982758 -151.909470 -291.547516
-30.653034 -132.299622 -291.415802
-47.502430 -145.627838 -293.252167
-40.548649 -137.895782 -292.401031
-40.101612 -139.252274 -293.988831
-49.498894 -151.039505 -301.989471
-54.137928 -155.040802 -310.116791
-51.100349 -150.203751 -314.329315
78.757248 -16.661922 -10.508573
71.228836 -28.083717 -15.334969
68.599556 -28.239275 -14.702650
66.870979 -33.543285 -18.687361
76.754913 -22.178236 -19.126657
70.827103 -26.724604 -16.897472
67.257362 -32.309975 -18.230118
76.233376 -21.240408 -15.140132
68.816231 -29.868893 -15.049180
64.537468 -31.033365 -17.769398
68.300972 -33.414181 -17.640614
62.165142 -34.764992 -17.698132
66.219910 -33.101532 -21.206493
65.387253 -29.664518 -25.633726
86.499397 -13.150476 -20.188002
65.012421 -33.319691 -23.264952
66.721115 -29.617317 -26.558348
80.905098 -16.627815 -23.886383
67.639984 -36.436352 -25.448997
70.076675 -29.540438 -27.380953
84.193573 -10.442691 -24.085413
65.280922 -35.047333 -27.992744
67.544464 -29.326973 -31.416161
69.482483 -27.815147 -33.578442
85.371613 -11.835414 -29.943111
64.916245 -30.341118 -33.971748
71.017189 -26.026043 -31.817379
64.872711 -31.439577 -30.429272
65.484627 -30.358135 -35.087467
65.376808 -30.684042 -32.839264
70.414291 -25.413973 -33.914867
73.784950 -25.582493 -36.979671
68.122894 -28.170448 -39.868767
70.173248 -25.717690 -40.055260
79.080414 -22.720613 -39.285976
79.258934 -22.443249 -41.058037
12.415185 -88.229729 -45.511276
23.221674 -71.897789 -51.603546
30.260983 -65.335831 -51.277454
-9.275813 -105.807426 -50.444717
-8.150565 -106.411484 -57.577148
37.744839 -62.401882 -60.059074
-10.532452 -108.246712 -56.914268
34.829948 -58.295582 -60.025620
41.754761 -58.506104 -63.380836
107.288223 11.792239 -63.798374
-16.046192 -114.697182 -68.847893
104.247421 4.406197 -66.482841
100.700584 1.949726 -68.348740
116.488152 16.493448 -70.573700
38.261475 -63.379852 -73.521454
95.725960 -0.278203 -75.024620
120.895935 21.840178 -73.718239
28.590038 -65.056267 -74.301804
117.755707 23.759529 -72.926949
25.465378 -76.768150 -76.176460
25.177799 -73.071922 -75.884933
123.082809 26.459494 -75.349083
98.503410 3.261987 -78.685776
117.647919 21.698097 -82.105446
-15.642241 -114.637695 -85.486977
17.231606 -85.170631 -83.998802
94.002884 -3.022618 -85.611069
87.399582 -12.912542 -84.677132
12.741009 -89.274216 -87.802269
92.505676 -7.184845 -87.690414
90.635857 -6.005287 -89.005356
119.075905 23.089951 -86.322365
88.634689 -8.400705 -92.509514
97.873520 -1.922949 -91.586304
93.563217 -4.338400 -93.129555
123.758972 24.505217 -94.581253
125.751770 25.751120 -96.761627
99.221848 -1.109727 -95.602470
122.211159 27.656990 -96.419403
-0.449950 -96.259804 -95.440125
79.466454 -18.524654 -97.011322
89.843147 -8.538602 -99.213402
80.159889 -16.231611 -102.851082
109.014870 13.158727 -101.969955
85.910469 -12.109197 -99.752289
108.428528 15.059877 -102.718193
128.902588 29.035076 -102.419479
-13.859273 -116.262459 -103.766327
126.825478 29.042269 -105.910744
124.195786 27.259909 -110.025009
128.060364 27.656569 -106.302597
126.899277 33.329933 -107.598236
87.418091 -15.191767 -109.600266
77.595909 -23.617771 -113.203590
125.525063 27.219074 -113.979599
78.734383 -16.342520 -110.827988
-7.403304 -103.376434 -112.538994
76.628944 -16.613659 -112.438583
78.845154 -17.007143 -115.542976
-8.354599 -107.043442 -113.723549
-5.617718 -105.249817 -113.241676
125.651932 27.024591 -113.142937
79.036415 -22.792612 -115.054222
124.646400 28.119482 -115.078636
83.287491 -15.184072 -119.079308
128.337906 32.116852 -116.078598
-15.492630 -115.099258 -114.069916
-9.509865 -117.367699 -117.119453
-13.572396 -104.806404 -114.237503
-10.780689 -108.423676 -116.075203
-13.760157 -111.024788 -119.736412
127.339226 26.942625 -119.227196
-7.628625 -105.649780 -116.065140
75.474464 -25.434153 -119.149963
78.901367 -17.298651 -120.020378
-8.667924 -107.778900 -122.422462
131.048187 30.876764 -120.059311
125.421242 27.137800 -122.391151
129.755188 29.955692 -123.929321
-5.834568 -105.900803 -123.130852
77.778381 -21.097042 -123.716789
-10.254816 -108.525414 -126.505859
-9.337974 -103.755310 -126.978569
12.795918 -84.065117 -125.510773
74.184814 -24.329964 -129.307053
76.577591 -20.960281 -130.612671
-11.454461 -108.884644 -129.241409
71.504440 -29.220755 -128.510574
73.718559 -24.183292 -133.653992
127.084373 29.624933 -131.770538
135.816422 33.031639 -130.703873
8.908231 -90.912666 -129.415588
0.899298 -101.371010 -133.076874
14.335210 -84.178162 -135.665619
76.015907 -21.559118 -136.260330
8.364151 -91.169098 -137.776169
133.328171 34.445240 -134.918884
68.533073 -28.423162 -137.058640
72.246796 -27.436371 -137.247498
70.774063 -22.992447 -138.629379
-3.050539 -99.571030 -138.006332
8.494240 -91.730156 -139.025787
76.059799 -23.035671 -139.995285
71.106071 -26.997066 -139.852661
-4.967044 -102.619789 -140.285477
9.688479 -88.317223 -146.594040
125.462479 32.414108 -141.963898
-3.171863 -99.499977 -142.912506
71.872314 -28.876118 -146.912720
75.098312 -23.982052 -146.712067
67.839996 -28.427895 -144.801453
134.811722 33.311287 -144.592911
18.916142 -80.727516 -146.429703
64.389725 -33.938198 -147.630264
75.518768 -26.538916 -146.106613
69.801018 -25.761433 -150.021072
69.935379 -29.924944 -147.818802
72.710617 -22.213419 -152.463837
0.496624 -95.987282 -149.996384
18.017654 -77.991951 -152.527786
128.257813 32.418530 -150.786407
65.425461 -29.956224 -148.647461
20.484650 -76.389313 -152.199097
13.558508 -84.151169 -149.494629
-1.401646 -96.227165 -154.848312
0.882097 -97.685013 -153.564499
1.636798 -94.601921 -153.855392
20.032175 -78.351646 -157.094315
0.788702 -96.489037 -157.054031
55.832787 -40.236641 -158.588120
60.896969 -36.470085 -158.683441
132.176315 32.757820 -157.359940
18.901789 -79.239822 -159.852234
67.562630 -34.771313 -156.490463
20.333418 -73.954391 -157.270111
51.716526 -42.934635 -162.508591
26.963053 -71.509132 -160.087479
74.901543 -27.611168 -160.152191
125.689232 27.072765 -162.778030
129.165024 32.054363 -161.581909
70.225075 -28.423887 -163.850021
23.700901 -76.912834 -161.211182
29.153326 -71.251808 -165.070679
21.090816 -77.639000 -166.186447
70.328529 -27.838505 -166.383545
21.828653 -75.639381 -165.752853
61.053730 -36.110001 -167.565781
21.004091 -78.365921 -171.153793
23.820017 -75.675652 -169.327789
73.535088 -23.713705 -169.575363
125.856781 30.054005 -168.474167
29.059647 -68.873642 -170.811966
131.973770 29.630754 -172.576935
25.448616 -69.689255 -170.410309
66.832466 -30.218853 -173.234619
68.621918 -29.704769 -171.875046
130.388519 31.706690 -177.045959
28.826981 -64.659821 -174.905029
25.584146 -72.537178 -174.694397
26.289974 -69.689247 -177.793427
126.122261 23.634920 -178.832642
32.433239 -66.753891 -181.840973
67.960495 -28.687227 -177.094254
128.092117 28.741930 -175.618271
59.848755 -39.329502 -179.062851
29.825146 -68.627922 -179.711563
127.213707 25.282988 -179.040512
27.032124 -71.946198 -178.939667
121.841759 27.602318 -179.970505
130.327744 29.963177 -181.609558
-57.666199 -156.323944 -180.826157
32.299850 -68.328804 -180.909485
33.763355 -64.995316 -185.006653
68.588135 -28.805399 -186.017990
62.036819 -35.449203 -181.740616
59.110374 -41.925358 -184.027618
125.410233 26.362318 -185.353043
-57.494251 -157.031143 -185.173782
32.620678 -64.810356 -185.160492
36.924595 -61.841179 -183.757629
123.060295 28.339405 -189.135056
-55.392597 -153.599884 -186.356705
-54.369228 -149.359039 -187.325851
32.742722 -69.602310 -189.131989
119.519051 22.836285 -187.039017
30.575909 -66.297630 -192.208649
40.353603 -58.847176 -189.207001
-54.232052 -158.710663 -193.960815
-54.744541 -155.432953 -191.986908
-61.090595 -156.718933 -193.240280
-49.855339 -147.665924 -196.973022
-64.061531 -157.292389 -193.891098
124.270363 24.979067 -193.662003
39.077423 -62.544651 -193.932434
118.794037 24.437050 -195.808456
-31.442337 -126.995132 -195.209183
57.665550 -40.374058 -193.150650
-64.903145 -161.194366 -196.666473
-27.477701 -127.476685 -195.407959
-32.014744 -127.468918 -201.362076
-29.213245 -125.478203 -194.754654
-33.561424 -129.633133 -197.996292
40.545181 -57.415409 -196.915573
32.273853 -66.070847 -196.766022
120.061104 19.078722 -196.961609
59.325047 -38.880947 -201.907852
62.560802 -41.378742 -197.926437
-34.842842 -134.937546 -199.024200
-47.628101 -150.167191 -204.087402
-65.479744 -167.682007 -200.436234
34.141472 -66.871033 -202.989944
122.148636 24.110842 -203.172592
-51.961815 -148.414154 -200.082642
114.865746 17.193113 -203.426285
44.678734 -56.385330 -203.358749
59.809547 -36.552643 -202.712357
54.889008 -39.186401 -204.280197
-55.308262 -151.482758 -204.139008
112.746361 18.721651 -206.537003
34.935589 -59.657253 -207.005615
61.721275 -35.664539 -204.617752
118.411072 22.187525 -204.755630
44.617390 -54.183037 -207.576324
120.313316 22.771454 -207.481766
43.305237 -58.058945 -209.737671
63.909725 -34.412708 -208.642166
-51.093967 -150.883667 -213.650955
47.179832 -51.009789 -211.994019
112.023102 13.119601 -209.617401
53.772087 -42.520855 -213.856735
116.730927 18.381483 -215.562073
57.450912 -41.663303 -213.348373
62.096985 -38.195419 -214.677750
62.745628 -40.000065 -215.658646
-16.817610 -115.059258 -216.681503
-13.405438 -110.605873 -217.380295
46.804787 -53.203999 -218.989166
-19.183744 -120.472458 -216.922653
40.757854 -61.177532 -216.138184
-13.082022 -113.541084 -217.248260
-15.019401 -111.703957 -216.981354
50.606819 -48.626190 -217.079254
-66.451813 -163.434753 -218.470032
40.475323 -60.670082 -218.257080
-21.130009 -124.232826 -220.494415
110.501595 11.481071 -219.092453
-50.096016 -149.674911 -219.807343
-16.414450 -113.054268 -215.603836
57.106495 -42.575634 -219.377365
60.448418 -41.013187 -220.997696
114.388672 16.645546 -221.276703
42.811188 -52.624920 -219.542587
59.967693 -37.385914 -223.191147
59.274479 -40.852440 -221.271851
-26.403399 -124.037773 -221.219513
105.543770 8.333383 -220.535248
-36.101376 -136.892197 -221.833633
-37.937813 -136.393021 -221.717468
36.767979 -62.374554 -226.485840
111.937614 12.046087 -219.525101
55.905357 -40.686363 -223.207504
-30.357933 -131.965988 -223.227386
38.057720 -57.149170 -225.445053
43.180141 -51.640831 -225.310516
-45.462009 -143.955414 -226.400528
39.690277 -57.063190 -229.131943
57.674770 -37.482533 -226.412033
-27.324123 -128.699448 -226.712677
-68.294167 -166.841949 -230.549713
39.157120 -56.328201 -229.029984
48.044430 -51.825012 -228.025787
98.414337 4.946657 -226.560074
104.807953 4.267191 -229.586212
107.588791 8.387489 -232.091248
39.468666 -59.497448 -229.452057
43.040569 -56.690895 -230.588760
-31.296730 -129.622070 -231.277573
47.015625 -56.915089 -230.123642
59.589607 -39.962162 -232.304749
101.167198 2.170169 -232.999100
55.743492 -44.820015 -231.375259
103.061493 2.659159 -234.656769
98.147797 1.431197 -234.367645
49.102112 -47.737553 -232.583511
58.005817 -42.176392 -235.424225
-46.999653 -149.200058 -235.689941
49.228474 -53.032497 -237.970810
40.521423 -59.709377 -234.431412
49.734715 -46.975300 -236.870178
98.009598 -1.117903 -234.311905
97.917366 2.710208 -240.138214
53.460278 -41.563549 -237.254547
100.020317 3.519863 -236.383377
45.542202 -49.964500 -239.217636
48.049431 -47.285152 -241.742432
58.069302 -38.537128 -238.619019
59.936371 -39.358612 -241.787811
60.513412 -40.575211 -238.996811
90.059341 -6.379552 -242.489746
97.543045 -0.952636 -243.337372
60.108875 -42.570370 -241.672516
44.060421 -56.567245 -244.332306
93.436646 -6.478019 -239.964630
45.957474 -55.163998 -243.647583
95.572189 -2.577093 -241.229782
93.580154 -6.913205 -243.497177
61.876217 -33.340332 -244.532562
-68.297867 -165.794724 -246.824005
65.087059 -37.918064 -245.883514
88.745132 -7.296921 -245.042786
94.387024 -7.789494 -244.541153
85.658112 -14.704930 -248.253326
-3.987887 -97.510773 -248.909973
2.064857 -97.601555 -248.340195
-4.590178 -98.252312 -247.389938
-3.754751 -103.771889 -253.905411
79.060997 -14.754615 -248.801514
-0.696515 -96.882469 -249.957886
-53.321129 -151.737396 -252.833954
39.278400 -59.896397 -249.462387
-67.869637 -167.431946 -252.727585
75.960213 -21.011845 -251.940613
83.875275 -15.612761 -251.663803
-48.786388 -151.812668 -250.737549
-43.256313 -139.701309 -251.861649
-4.438173 -100.213524 -251.004700
-45.821636 -142.284515 -251.292496
43.266106 -58.359982 -251.198395
75.518539 -20.824291 -254.610428
-48.008373 -143.251266 -255.978226
-39.368977 -136.135727 -259.010132
-11.040103 -108.425484 -257.115631
78.668137 -16.316597 -257.083984
-25.395390 -127.908653 -255.896942
74.802773 -24.589882 -261.102417
74.139755 -24.002146 -257.498444
-60.589912 -160.138382 -258.199036
-29.298889 -123.809669 -259.982391
38.648476 -59.276218 -259.415527
-33.567463 -127.129898 -262.554840
-48.947098 -151.415161 -264.190552
-52.390217 -145.858566 -260.924713
-31.524632 -129.422729 -263.967438
-58.760273 -154.462875 -259.951263
-38.858334 -137.513519 -261.550659
-64.557800 -159.977448 -265.644714
-53.080746 -151.581802 -265.659271
-60.812336 -157.799042 -264.642914
-61.731342 -160.140106 -265.063995
67.904991 -31.248835 -269.334259
41.672222 -57.404346 -267.104553
-58.835701 -154.465759 -273.999695
64.828346 -30.940264 -270.619110
-67.437088 -167.160934 -273.543945
-65.140175 -163.455841 -274.053680
-63.676079 -161.783203 -273.017761
-49.906071 -150.639969 -276.606384
-59.703331 -156.464294 -274.950836
40.282936 -60.773846 -275.975403
-63.719696 -162.523026 -273.775085
-57.588211 -155.197281 -278.827942
-55.836273 -151.992020 -283.323273
-71.059601 -163.845383 -283.350342
-41.861057 -139.371567 -283.008026
-59.679108 -157.300079 -286.045715
-51.793285 -148.056839 -285.097046
-43.111694 -146.491760 -287.642609
-31.753632 -131.164215 -285.652039
-60.325893 -158.007004 -288.107147
-25.930359 -124.590698 -285.950378
-11.016923 -107.628395 -287.324524
57.436550 -40.143730 -285.798401
-65.080688 -161.854462 -285.641541
-11.177980 -110.520210 -285.194000
6.953734 -89.940842 -287.398560
-4.983696 -98.928940 -285.582520
5.485859 -91.976486 -285.804138
48.039978 -53.825039 -284.236359
-55.739021 -153.050064 -288.599670
8.335259 -89.378441 -281.879211
13.459065 -88.176216 -290.565674
57.982334 -43.310680 -289.952362
-66.422569 -164.664978 -290.646912
15.173826 -87.077820 -287.072784
56.066250 -41.090401 -288.305298
-4.752451 -97.664795 -290.203583
3.268395 -91.461617 -290.904297
45.499985 -51.511982 -290.425659
-64.453583 -163.686813 -289.744049
-19.015783 -117.124214 -292.272980
47.107418 -50.444580 -289.654083
52.176197 -44.897102 -289.301025
-15.244873 -114.639587 -290.771210
-30.346420 -128.797028 -291.576447
-48.991241 -144.848831 -291.197083
-34.056568 -133.310028 -293.367920
-58.896809 -161.990891 -294.858612
-64.385834 -164.044296 -291.112335
-61.165482 -159.588745 -296.418213
-61.881184 -158.918701 -294.399536
-59.096668 -159.711990 -295.631104
-48.899181 -150.537781 -309.314880
-61.684940 -158.002640 -312.906189
73.744743 -22.420170 -10.503967
69.864944 -25.963440 -14.671541
81.852921 -18.311377 -10.030341
64.788025 -30.014240 -15.288897
84.876175 -11.686255 -16.235664
77.125290 -17.920128 -17.683924
82.468613 -12.548144 -18.415607
68.912575 -27.547941 -16.055008
68.824432 -29.889153 -22.785316
81.570511 -15.093846 -26.616117
84.714684 -13.043091 -25.636467
85.321449 -11.208441 -27.030731
78.033913 -15.251316 -26.968378
82.665184 -10.088764 -28.690292
82.738228 -9.636432 -31.948952
75.527214 -18.600904 -34.733864
82.906448 -9.967039 -29.925695
77.687523 -16.721880 -35.856281
83.311752 -14.785619 -33.627441
77.135590 -23.554945 -36.730988
83.180397 -16.656088 -32.900795
73.807892 -19.911062 -35.341785
81.688080 -18.728868 -37.060207
79.041840 -17.410896 -38.409893
79.681129 -13.344095 -37.393242
71.998627 -23.916653 -38.024769
76.595451 -22.616625 -40.900921
74.741798 -23.015274 -38.578014
74.463379 -23.684349 -38.271847
79.118614 -19.794163 -42.217503
78.434586 -21.591183 -41.966125
7.217770 -91.725204 -47.246498
15.068583 -85.125885 -46.472488
16.001625 -79.756981 -43.071426
-0.287776 -100.234840 -47.032223
16.160326 -78.134964 -46.545864
22.332773 -79.457619 -46.113804
34.849987 -64.002510 -54.074127
-12.051518 -107.262085 -56.217392
104.356339 9.841422 -64.692657
102.248680 8.173265 -62.849949
112.734070 16.420595 -63.470264
99.878723 2.203526 -68.587410
-17.704605 -113.797974 -70.386955
37.308990 -58.523682 -68.730080
94.534294 -0.543844 -68.483620
34.215111 -61.808659 -71.872581
99.050529 -1.228554 -73.486008
-17.873060 -116.922905 -77.562630
98.948143 2.502848 -80.651634
93.112823 -6.086421 -84.500854
97.075775 -0.377489 -84.177673
91.907661 -6.395783 -85.020950
94.674545 -2.803725 -89.179626
121.598770 26.174326 -91.437317
94.975410 -3.044456 -90.976341
93.570259 -8.428565 -89.881638
2.506835 -92.345367 -92.882278
97.887413 -1.068967 -93.809013
121.137596 24.805143 -93.184448
84.043182 -14.282810 -93.234581
95.237335 -6.249627 -96.406837
97.454414 0.420622 -94.911331
128.230896 30.202602 -95.554626
-19.831930 -116.165306 -94.161636
125.933228 24.450869 -98.991951
118.936546 25.553877 -99.631256
-6.183445 -98.159294 -97.155869
-8.172997 -103.834030 -95.764618
86.824150 -10.881449 -95.702271
99.242081 6.520943 -99.501984
-5.750101 -99.017502 -100.923134
122.331215 21.720560 -101.256134
120.801666 23.402212 -102.818024
-8.946818 -107.459030 -101.299492
124.476807 28.907604 -101.254105
127.834801 25.559750 -100.306381
104.796371 6.615781 -99.764481
126.765465 29.256866 -100.507095
79.777313 -16.996731 -103.362274
78.971466 -18.278282 -104.482948
114.688156 20.557121 -102.703918
121.235748 26.877380 -106.826431
87.746178 -11.197161 -104.257225
105.301323 7.869315 -103.881989
110.348396 16.244604 -101.705956
-12.502289 -107.352730 -102.759422
81.210587 -15.345310 -105.744553
83.417740 -15.763442 -104.685410
84.596619 -10.561327 -107.242188
-4.210293 -104.323326 -108.478249
126.897339 30.564123 -109.505661
-17.293221 -115.236748 -109.088074
-3.905646 -103.909027 -111.673630
123.505951 31.135279 -111.529968
-11.961286 -106.053947 -112.647827
-4.261521 -97.880928 -111.916847
130.799942 31.269659 -113.055817
81.163414 -14.733044 -115.375206
-18.177753 -111.737930 -113.575546
73.981911 -23.948841 -118.764282
80.938530 -17.616297 -119.121399
70.699371 -20.680359 -119.347343
129.180969 32.553696 -120.127815
-7.252548 -102.123955 -123.318550
8.351923 -86.652695 -122.979980
124.733299 32.150955 -124.177284
78.300354 -18.710920 -124.414246
68.764122 -24.996908 -129.087723
6.433958 -87.839668 -128.632736
129.789795 30.741669 -125.016060
130.732468 34.607033 -125.756004
-3.756679 -100.722130 -128.674286
11.602658 -88.310143 -129.625641
71.373596 -26.646700 -130.585556
-12.165084 -108.065445 -131.127518
-17.195602 -108.618858 -130.138245
133.070007 34.671501 -133.421570
-7.321081 -105.189857 -129.159561
-7.467348 -103.612183 -130.550552
16.247005 -81.466156 -133.543961
74.740799 -18.264572 -128.301132
-4.994806 -101.491249 -135.325027
-0.627786 -97.629326 -135.842117
126.967949 28.476658 -134.708984
-1.728843 -101.412231 -135.854172
-14.550138 -111.922203 -134.358231
8.249170 -89.173325 -136.675446
18.537695 -78.423248 -137.444244
71.112137 -27.600264 -137.997650
-3.304234 -98.492172 -139.508621
-4.489636 -96.167831 -141.607590
-5.232900 -98.486526 -143.927689
75.553612 -22.844707 -139.152649
9.449890 -85.476883 -139.694839
131.548294 31.810381 -143.171051
3.492659 -98.455101 -141.301300
-2.472501 -97.281395 -142.387009
57.730770 -33.976753 -145.141647
126.982506 30.217062 -142.516525
1.929112 -94.142982 -145.718628
68.069206 -28.988974 -144.535675
71.861038 -24.237318 -145.811691
57.313187 -37.551498 -144.200546
129.622284 34.112453 -148.258041
20.715448 -80.254959 -145.795197
133.806320 34.986614 -146.269791
0.229037 -101.006378 -145.197495
10.666780 -86.191093 -145.674026
19.178408 -80.200562 -147.294235
11.731308 -79.529373 -147.267899
52.797379 -40.192410 -147.615631
-2.036117 -101.183281 -147.146698
11.417819 -86.888481 -149.617981
58.267517 -32.778702 -155.264420
128.833237 26.873268 -153.633682
133.824646 36.764057 -152.049789
18.980457 -73.633995 -156.069534
69.436996 -29.021217 -151.914627
13.957522 -81.522293 -151.764206
59.798588 -36.934025 -155.127426
68.387550 -32.305176 -153.901718
56.382694 -38.007092 -156.025742
15.178577 -80.772568 -153.675522
57.775368 -41.981426 -156.650574
70.759239 -28.334404 -155.201553
56.957752 -37.772320 -156.335617
56.006901 -41.297119 -158.007889
59.923717 -36.627750 -156.764709
61.461037 -30.424324 -159.981201
131.398560 31.790668 -158.635956
72.009445 -29.600767 -158.049820
69.975822 -28.715136 -162.214584
15.252962 -79.040535 -161.447906
70.397469 -29.282803 -158.739975
129.599518 33.141834 -159.719391
127.689056 32.388950 -161.414551
19.693405 -77.466209 -158.398941
65.612953 -25.987413 -162.163818
28.100227 -68.612785 -162.724625
125.800400 33.028553 -161.691315
63.506992 -32.180946 -164.964645
125.456314 33.801785 -166.721756
20.163898 -77.285271 -168.059082
67.958580 -25.131002 -165.763733
65.093811 -29.264637 -169.407440
28.885376 -71.635666 -167.144653
59.795280 -37.808422 -171.687027
128.361404 27.486244 -170.574249
127.993080 28.959230 -172.230515
66.120613 -34.355797 -174.236328
22.504841 -73.971237 -169.712616
-60.039268 -154.136047 -173.245361
64.889328 -29.501642 -176.527756
127.938347 30.578934 -178.768372
-52.415302 -146.837723 -175.135468
59.369328 -31.496227 -179.170563
29.478344 -67.661850 -174.776627
63.219357 -34.958820 -178.429367
68.310036 -32.224430 -178.400650
-49.800774 -148.496078 -179.445892
23.482447 -69.663025 -181.223221
127.042130 27.359901 -177.805099
-24.827503 -125.187111 -179.925980
68.300926 -28.930317 -180.526154
32.597767 -60.895935 -184.674133
125.964157 25.187929 -184.883820
-29.729151 -126.844231 -181.766876
-26.878944 -127.245529 -184.518204
27.074799 -67.745964 -186.502060
-53.894054 -148.768921 -185.490417
-52.393547 -146.873474 -187.004395
64.809464 -31.159546 -190.674515
67.683022 -31.210176 -187.583588
33.287926 -64.913094 -185.260086
120.867378 26.372345 -186.817123
56.445541 -37.323349 -192.314117
-29.954674 -125.895355 -190.752792
35.865555 -62.015926 -192.732941
34.309093 -64.732071 -195.205109
35.975174 -60.529469 -189.231995
59.582096 -40.590317 -193.045288
-51.855690 -151.931763 -196.490585
-45.104362 -142.470154 -197.617462
-39.230457 -137.261032 -195.029861
65.374886 -30.218414 -192.533661
-37.326542 -132.834335 -194.314468
36.506321 -57.005306 -193.668961
-45.884800 -150.854980 -193.278000
-44.953125 -141.416824 -195.970566
31.732399 -63.831200 -195.661804
-32.027664 -126.725296 -196.419937
63.972843 -31.662991 -195.373566
-64.627876 -160.027023 -197.531494
116.326363 24.192705 -195.436722
-26.493687 -126.958588 -197.389526
52.940224 -41.216930 -199.319061
63.308781 -32.707870 -196.630295
35.436707 -60.581413 -196.816360
-27.426401 -123.767593 -200.543427
39.030605 -59.605762 -199.797211
59.781044 -34.820004 -202.062927
-66.611542 -162.523636 -199.345078
60.478622 -35.770592 -202.719604
-50.638771 -146.835175 -203.651657
-32.785370 -131.747818 -199.298111
116.582657 23.017406 -202.775391
-43.793743 -138.990463 -200.135483
44.239422 -56.567257 -201.598648
-43.571007 -144.454865 -205.741562
114.826279 17.608723 -204.879059
-44.217506 -141.613556 -203.736069
-42.814354 -134.788498 -203.089966
66.114342 -35.672241 -202.429520
35.043640 -60.364853 -207.882553
41.123238 -53.569603 -207.371811
116.478004 19.328091 -204.873123
58.749004 -38.100494 -209.000931
57.064655 -39.503189 -209.034927
37.828430 -63.711754 -208.394257
-70.334496 -166.976425 -211.608200
40.510113 -53.068001 -210.904404
113.894997 17.089659 -209.849274
57.826500 -38.812199 -209.253738
56.319572 -40.257610 -214.089630
33.689198 -62.692921 -210.385971
38.197044 -55.430313 -214.147736
115.865288 18.425102 -214.975357
43.260143 -51.856972 -214.074493
110.452454 12.886520 -216.265381
108.207840 16.409924 -216.514587
-55.851616 -149.724579 -217.606537
113.963051 13.868136 -216.874496
-18.581039 -112.351440 -220.818253
44.040401 -54.949871 -221.301544
49.002274 -50.353184 -220.549118
60.443085 -36.190544 -221.033325
-27.023708 -122.587944 -219.556641
-53.921543 -148.661270 -222.941147
51.155991 -49.866894 -222.142105
112.968925 12.794018 -223.953659
107.770683 10.835693 -219.397705
-47.456913 -137.522751 -225.075027
-21.010414 -120.997185 -220.746399
57.397564 -40.924690 -221.514267
44.216446 -53.946156 -224.990433
-51.742519 -148.440430 -224.400421
-45.593578 -141.855576 -224.579300
-44.905579 -139.649704 -224.572678
-37.073524 -137.141174 -218.742737
-35.877983 -126.888161 -228.171570
-26.743576 -122.919052 -222.584808
59.342625 -38.151970 -226.403458
47.157475 -46.985516 -223.173798
33.853825 -58.934742 -225.293411
38.771980 -56.356434 -225.704819
60.463963 -39.219761 -226.374191
45.494457 -53.076935 -222.536316
103.824341 8.989037 -227.202011
-25.812607 -120.872490 -228.986664
51.886719 -49.207970 -227.307861
56.347794 -41.448807 -228.603226
40.865398 -59.427849 -227.935608
47.928120 -48.548622 -232.016174
-60.395428 -156.959091 -230.447266
104.241783 9.000628 -228.975067
-26.613407 -127.395073 -227.362106
47.141663 -49.430931 -228.858948
59.095036 -39.671207 -231.852921
60.183323 -35.029507 -229.800034
95.249535 0.733410 -229.894806
46.125107 -51.176888 -229.472916
54.259895 -43.004162 -228.961502
-31.214325 -128.012955 -228.642868
-47.779320 -144.337646 -233.615692
-71.114845 -166.619049 -231.669983
48.144226 -51.865665 -232.744553
-44.755302 -141.952377 -235.469482
-61.291397 -156.362000 -232.038025
-58.217255 -155.448898 -234.399658
-40.112671 -133.178040 -235.079849
92.379623 -2.536953 -229.631241
103.519020 6.552234 -233.769226
-52.225967 -148.461090 -232.903824
45.593155 -50.319595 -235.441833
47.164410 -47.440746 -234.435272
100.897720 -0.418989 -235.126190
44.270885 -55.506004 -236.410980
-52.342979 -150.613937 -238.440628
41.654648 -53.286388 -233.333298
97.644012 3.913356 -236.426422
94.779106 -4.009916 -238.752045
-61.920544 -156.593613 -234.565689
35.724255 -54.362282 -239.957260
56.073044 -40.627789 -237.635483
39.780827 -60.201988 -238.399445
100.237320 2.114672 -237.673767
53.913269 -42.129230 -240.791611
92.919327 -3.499227 -240.066055
90.914619 -0.239485 -240.227234
93.163498 -2.964246 -238.299042
54.927040 -38.554085 -241.823898
89.558090 -7.182231 -239.286179
-68.711830 -168.921341 -240.114624
-62.594913 -159.737061 -245.219254
95.213211 -4.072948 -242.554871
40.874104 -58.292233 -243.475082
83.248177 -14.701033 -245.372986
-56.522396 -153.545593 -247.469513
85.583961 -9.604479 -245.816147
81.653564 -11.094367 -246.443893
85.349197 -10.570573 -249.743240
-70.227615 -166.887100 -248.065430
-61.241940 -157.077774 -248.678467
-59.589825 -154.954529 -250.577682
63.994820 -31.840508 -250.807388
84.617767 -11.424873 -252.764877
-11.231151 -106.422829 -252.929764
-6.270887 -102.987457 -249.738190
39.320171 -58.643829 -251.496216
-17.191454 -110.726418 -254.282745
-17.154825 -114.750923 -250.657608
-7.243733 -104.410461 -253.078415
65.167336 -29.279200 -251.705994
-59.025421 -154.875839 -254.737366
-62.728596 -157.567444 -250.826050
-58.255749 -160.007874 -254.868362
-23.438807 -121.830269 -255.259995
-10.512102 -105.057297 -254.871170
41.015186 -57.203468 -251.766907
-49.024223 -143.713181 -254.244766
-25.164766 -125.700531 -253.750809
68.306000 -33.028748 -252.764374
-70.023453 -164.262451 -254.113907
72.948708 -26.311852 -254.280060
-12.563525 -110.440247 -253.929916
-60.396580 -158.641907 -258.033203
71.070602 -28.471359 -260.593353
-19.246675 -119.315948 -255.778809
69.125366 -29.058718 -254.480286
-22.564795 -120.010422 -259.543060
65.357300 -27.266399 -258.609924
76.111595 -20.265757 -257.759460
-23.964180 -122.579353 -259.846527
40.731701 -59.283051 -259.437286
67.154160 -30.047186 -260.448730
71.816078 -24.625250 -259.079254
38.907734 -60.816235 -260.509033
68.071556 -29.588758 -262.779816
-34.778561 -134.049072 -262.589905
-50.656620 -145.518280 -261.858093
-46.153877 -141.403168 -262.366638
-71.175987 -167.257919 -262.940582
-69.639969 -165.306198 -264.388306
-45.421532 -141.880295 -264.658661
-58.155544 -157.743546 -265.931824
-66.503616 -161.059036 -267.705841
-54.288597 -149.049103 -260.890442
-66.496620 -161.977295 -267.417206
-69.243782 -165.442123 -264.438538
69.371696 -29.099018 -268.892639
-69.508568 -166.145752 -266.575592
-65.919800 -159.673813 -268.208832
-50.780437 -154.192612 -270.902618
35.965816 -57.915371 -269.458618
-63.932526 -158.054138 -273.428925
-68.223587 -163.190659 -273.045441
43.709915 -55.607315 -273.488129
-68.864899 -164.244049 -275.311523
67.603722 -34.249035 -275.574738
-67.393333 -162.893570 -276.985199
-67.999855 -164.186356 -280.335907
43.099651 -55.310459 -277.375671
61.247047 -37.183456 -281.201263
-68.248131 -166.549606 -284.385925
-56.323357 -156.813141 -282.386169
-40.452202 -135.495789 -282.716125
-63.661434 -162.156799 -284.031189
-60.809536 -158.554138 -286.370514
43.415829 -54.367630 -283.597290
-36.906517 -137.419617 -285.626343
-36.845898 -133.703140 -284.075836
-67.140381 -164.388000 -281.190613
-61.135101 -160.417984 -286.839478
-33.866863 -129.471085 -285.929779
-32.643425 -126.772087 -287.287231
-26.156355 -124.966820 -283.117950
-17.589914 -115.089890 -284.245270
-55.330299 -150.057770 -286.866028
-15.187524 -110.305435 -286.301666
-1.908660 -97.360550 -285.928589
-6.703402 -102.600586 -291.078491
-2.891421 -98.803444 -290.869843
-63.943233 -162.872742 -288.487427
-3.799429 -104.215088 -286.491211
-19.804758 -116.696320 -288.941742
-6.710245 -107.024277 -292.181030
-1.691506 -100.997566 -289.771393
-16.650822 -109.814987 -285.862366
-61.195747 -159.903961 -292.338043
-26.657440 -125.071663 -289.132019
-22.144913 -118.585487 -290.083893
-53.464283 -148.965668 -288.935486
-27.398241 -126.143517 -291.717987
52.306969 -44.940998 -293.723450
-62.145470 -157.504135 -290.652435
-54.614056 -148.133575 -292.634705
-43.950096 -143.419830 -291.906433
-52.545086 -152.311844 -295.551239
-53.494278 -154.714127 -297.333557
-59.824631 -159.158585 -302.006622
-54.535683 -147.532654 -301.229523
-62.214359 -156.402191 -306.557312
