# This PCD file was generated using the MATLAB® pcwrite function
# from Computer Vision Toolbox®.
# .PCD v.7 - Point Cloud Data file format
VERSION .7
FIELDS x y z
SIZE 4 4 4
TYPE F F F
COUNT 1 1 1
WIDTH 1435
HEIGHT 1
VIEWPOINT 0 0 0 1 0 0 0
POINTS 1435
DATA ascii
83.665939 -11.862533 -113.794296
76.993248 -26.335392 -114.132874
-7.609508 -110.830383 -113.696053
126.705734 20.690731 -116.686317
85.272141 -24.090775 -113.178940
-17.933350 -115.444412 -116.468178
138.191711 38.305717 -117.482697
134.260742 25.923168 -120.213852
82.835991 -18.238270 -125.221451
131.369781 34.660805 -126.175133
85.984245 -20.753260 -121.373962
82.514771 -19.057531 -128.669662
126.487610 26.558413 -125.398491
71.875366 -28.122805 -129.723389
130.025650 30.646597 -127.202065
9.975526 -89.009422 -128.669144
10.003293 -90.070625 -126.727570
131.882706 23.484913 -132.554871
132.059128 28.127991 -132.338593
-4.301336 -105.083199 -135.157990
-4.728340 -101.191299 -132.876602
139.623444 36.254025 -131.711197
10.566891 -95.779488 -137.155334
15.944791 -81.768646 -134.830429
130.333618 28.427757 -130.573059
83.895576 -22.349243 -140.250748
128.622787 29.695156 -141.675079
11.215405 -93.324883 -140.401749
2.597939 -100.370369 -142.392441
132.373795 34.966686 -141.821396
23.457115 -79.800110 -140.524750
3.591327 -99.188538 -140.383789
130.455856 29.893322 -144.508423
7.397571 -97.758553 -143.800461
70.331741 -26.523438 -142.384018
12.142734 -88.871529 -143.145508
2.402935 -100.976524 -145.176086
14.719481 -80.394234 -149.005676
125.196167 32.701004 -140.710648
73.492409 -26.660128 -144.384430
69.507866 -32.504326 -152.516800
127.388496 31.210596 -153.063522
132.791092 25.788393 -152.352005
2.950674 -98.466484 -148.104156
5.663388 -96.793922 -152.181290
52.602367 -39.476154 -154.678909
61.559704 -37.264580 -157.668549
130.471176 34.971275 -155.616440
1.939907 -100.470711 -153.098206
5.876520 -93.571228 -154.986908
128.147125 26.327539 -155.812012
17.855385 -82.008530 -152.346848
25.043926 -79.950638 -154.148956
64.714027 -32.457581 -157.492493
14.511091 -79.102287 -155.943024
64.249199 -37.212887 -151.632614
64.615471 -41.535633 -159.569733
5.846919 -95.785767 -154.657501
60.353817 -40.496922 -155.294510
129.704285 34.359169 -154.873779
130.396667 30.207005 -156.463303
61.489662 -39.662415 -156.380493
60.932888 -39.166847 -161.819168
0.984682 -95.400024 -155.555283
28.722818 -73.836319 -157.816727
20.453295 -78.027390 -161.313553
68.705521 -37.175606 -157.154160
129.661026 30.433992 -155.772003
15.068369 -80.071342 -160.780441
134.764282 31.540756 -163.780289
54.276081 -49.686928 -160.555038
132.788879 31.845781 -163.957275
10.582799 -96.816872 -162.438507
30.547459 -72.873337 -162.275360
12.527946 -92.171478 -160.596329
131.946442 29.844851 -163.530304
22.097183 -81.545204 -160.405182
53.406826 -49.009007 -163.017456
50.300804 -48.094112 -168.861465
1.612049 -100.516113 -164.312393
6.180929 -98.251633 -165.449646
23.136801 -74.997566 -169.066238
74.025307 -30.920134 -165.865417
129.972946 26.221014 -165.054153
129.400360 33.165134 -166.648529
6.961207 -89.938919 -166.813965
29.457691 -70.333229 -167.809113
131.853714 25.282026 -165.754959
9.766726 -95.645813 -167.499634
25.490576 -79.005768 -163.413773
22.497551 -78.424126 -164.743546
127.504646 26.334604 -168.893219
12.159442 -91.659859 -167.096115
32.598709 -66.991020 -166.813370
130.596344 32.472183 -172.461685
131.163956 28.229425 -174.338852
-58.173538 -157.493668 -167.099228
-55.793541 -151.006668 -175.363235
125.540512 24.824181 -179.505814
128.363190 28.724287 -177.634460
29.086391 -64.824799 -182.954971
64.472450 -41.193050 -180.362183
64.129257 -40.108822 -179.147919
128.271606 23.267185 -177.831772
26.083479 -75.644455 -178.166870
28.735832 -73.559486 -182.644424
65.243217 -32.643913 -180.660873
130.128448 31.118584 -175.621475
-50.784344 -151.262573 -178.817413
69.900108 -29.784657 -180.185638
76.548813 -34.835209 -184.421295
44.146755 -67.588486 -185.863113
30.417805 -72.705757 -189.209427
-53.134895 -155.840714 -187.387573
63.221939 -36.721661 -191.071686
131.622818 28.700275 -184.392273
-49.367123 -152.963104 -187.819077
125.450867 20.343588 -187.119568
31.693989 -71.023849 -190.535492
128.584610 25.077959 -185.635529
-52.916424 -149.343750 -186.769913
-50.509914 -150.344940 -191.832779
64.622231 -36.960007 -191.338181
118.576828 20.635929 -191.489410
123.592072 23.741911 -197.645905
30.276873 -68.081314 -200.516510
-36.743759 -142.426331 -193.132172
-39.311737 -140.002670 -193.240540
-37.306885 -138.302963 -192.815414
64.709816 -33.565834 -196.600296
-50.204868 -152.394226 -198.133698
60.459610 -43.230690 -199.130096
-46.950809 -148.594345 -193.464447
41.259224 -59.879551 -196.422943
-42.021645 -142.220566 -195.260101
124.087479 21.581530 -190.188751
-44.843079 -144.542206 -200.332703
123.199966 16.541656 -197.119568
-45.562145 -149.044632 -200.062836
44.174049 -57.722755 -201.588547
34.116585 -62.912632 -200.416061
-47.759548 -140.495468 -200.996155
-36.097462 -133.494873 -201.393417
120.715897 17.741125 -207.035629
70.662849 -33.326042 -202.610260
-60.012634 -157.178680 -208.371170
-51.234989 -155.633408 -206.764694
43.749561 -52.396645 -206.899567
63.198624 -39.249405 -204.455643
-68.732048 -166.872055 -206.321320
58.187553 -40.677040 -206.102997
36.174835 -62.369141 -205.479965
-66.738190 -167.178116 -206.616638
66.081757 -41.426769 -209.673080
121.380516 14.554221 -211.141159
-3.424042 -103.213120 -215.253189
113.770355 11.390472 -208.794601
-6.376518 -101.399918 -209.434326
46.655422 -52.619576 -209.964493
113.893776 13.615934 -209.542023
-63.838680 -159.127655 -210.826019
117.874924 19.544823 -212.790558
28.053623 -62.495781 -210.975372
-12.744768 -108.962486 -207.342697
35.885715 -72.441185 -212.378082
108.968422 10.581647 -210.547455
-12.563680 -117.272224 -214.673096
64.499329 -38.792435 -213.307251
-64.561508 -164.345917 -215.268021
43.607998 -61.009632 -210.713074
-53.823761 -151.940842 -214.878250
-56.965908 -160.348434 -215.268204
116.075935 12.151459 -215.517883
-51.537235 -156.160309 -212.329819
-68.734428 -164.589157 -218.207672
32.131477 -69.468056 -215.038757
-10.911161 -116.485138 -213.118637
54.915829 -48.369644 -214.464355
-56.816040 -158.258057 -215.936310
109.790192 13.066485 -217.319626
31.962725 -72.231697 -212.398575
48.462463 -61.258430 -219.772064
63.800194 -37.904060 -219.199966
108.577377 13.799989 -220.451111
110.791931 7.750324 -219.623199
111.945282 6.780584 -221.437561
-61.213535 -166.821121 -224.108734
-21.810410 -121.575859 -221.850647
-17.196295 -116.407394 -218.933090
-47.869892 -157.603012 -221.406281
112.552879 13.483953 -219.710236
-66.661163 -162.016510 -217.170898
-57.964199 -157.694351 -221.955353
-62.324959 -154.000351 -223.613785
38.343132 -59.146339 -218.814514
45.851490 -46.976448 -221.564713
103.600746 1.799743 -218.077667
104.616966 8.695470 -225.222107
-53.450626 -155.725586 -223.671310
-26.896107 -128.786179 -225.441406
-20.309750 -119.160172 -224.436111
-68.591972 -167.074539 -224.073349
-42.048138 -143.098007 -223.148499
38.956333 -58.362347 -227.248688
37.998314 -52.594536 -224.665421
-37.356136 -139.393463 -228.030350
-32.101105 -131.920502 -222.928207
-23.438276 -127.152298 -221.622452
36.827263 -60.421249 -223.683899
110.605103 8.093851 -228.676620
116.454666 9.927005 -225.689529
-56.454067 -157.679733 -227.157852
-49.029896 -151.749756 -223.636978
-63.197220 -161.914429 -227.862885
-50.008137 -151.918243 -227.983963
-21.099987 -120.033318 -226.645859
42.356010 -61.168247 -223.311478
61.787357 -33.919544 -225.605209
-63.157978 -159.294769 -222.824478
-54.559864 -155.680740 -229.997025
54.074539 -48.372375 -223.532135
57.162140 -45.435352 -224.662567
-35.486511 -136.550095 -226.746506
-67.048218 -164.144730 -225.764664
108.011696 2.589853 -229.949417
-63.876884 -160.574753 -227.739258
-34.899281 -133.534195 -231.402023
47.328724 -55.203522 -228.053925
59.892109 -38.222111 -230.070129
-30.809105 -133.529526 -228.132553
41.740177 -56.404240 -229.781052
49.684654 -57.371712 -229.679077
-53.599003 -150.850403 -231.030487
-35.543762 -135.968933 -225.696335
-56.630730 -151.095963 -225.450516
-55.423355 -156.804047 -233.135818
53.188046 -40.114292 -231.166656
-38.751461 -136.970200 -230.858017
41.946388 -60.697945 -227.397141
111.241325 9.697292 -226.240646
47.021221 -56.210979 -231.430008
-49.890232 -147.755630 -228.533676
-36.955711 -134.654388 -233.129395
40.935810 -60.615784 -226.246460
-44.646427 -139.699524 -228.573273
-71.067039 -168.445618 -233.591751
-57.345913 -159.625763 -230.475082
-53.935471 -156.033401 -231.497543
-50.482231 -148.059494 -233.818802
104.687759 -7.194784 -229.911621
102.296829 1.411843 -239.627243
49.215233 -47.749809 -230.619370
57.523712 -41.242161 -234.999695
68.123985 -37.554546 -229.095413
-54.323246 -156.879822 -233.864014
108.813980 2.073253 -234.523514
57.598335 -45.720665 -232.708237
37.629517 -63.830574 -239.853043
61.991848 -37.362892 -236.948166
98.617432 -4.030043 -238.784592
96.314842 -4.766410 -235.574966
43.452724 -53.943916 -236.775604
54.316059 -55.228268 -241.280075
39.325729 -68.881531 -231.173889
50.339867 -50.201733 -239.762924
57.618927 -38.418125 -241.345505
30.134640 -64.533394 -241.230530
52.742722 -51.506420 -235.138611
56.010506 -48.127632 -243.371643
56.033092 -40.459385 -239.847549
39.000038 -64.672089 -244.836792
40.558567 -58.750492 -239.297745
93.720810 -11.562483 -242.564316
59.023548 -42.386505 -245.583054
-68.026070 -169.057907 -246.093628
-52.806904 -152.386154 -236.985596
49.630959 -46.622925 -240.275436
48.968681 -52.752567 -243.398865
99.818336 -6.086032 -240.163208
44.146763 -56.896969 -246.823578
49.061676 -51.420105 -248.167221
89.761520 -14.561255 -242.608490
8.055308 -98.645073 -242.375793
8.275793 -87.670891 -241.805817
45.845627 -54.026905 -244.005478
86.724281 -9.642949 -242.149994
-0.645658 -109.430061 -246.264069
90.659782 -10.996771 -243.133102
8.358549 -92.132072 -241.424393
38.741707 -59.560543 -246.867447
85.289917 -15.122064 -255.225464
-4.042925 -107.933273 -250.621368
44.255489 -57.706955 -247.186646
2.462856 -93.807571 -252.341843
67.433418 -32.812248 -257.466187
-48.723843 -153.550339 -248.153763
37.237358 -62.455204 -249.998871
43.396580 -59.925747 -252.050858
65.984406 -34.487640 -254.486237
-14.747254 -116.747101 -250.958023
-53.361172 -150.791946 -251.811188
-37.312969 -135.471817 -251.309586
-22.536522 -116.223999 -252.343643
-8.629358 -108.889427 -253.796906
-47.781937 -149.066559 -253.548279
-22.569725 -123.600533 -253.069321
-21.603388 -115.331528 -256.225494
-16.915840 -113.721298 -260.291229
-34.771198 -129.667816 -254.026764
-23.067717 -123.437798 -254.982376
-19.110733 -117.931374 -253.840149
-23.724485 -119.674156 -262.533356
-28.162434 -128.427734 -257.910095
-23.293787 -127.436539 -263.723907
-52.383678 -150.546646 -262.057434
-28.682983 -135.604324 -263.045654
-43.249104 -145.812042 -263.964569
64.337494 -36.308491 -255.821594
-68.390503 -164.353210 -262.676331
-36.174786 -138.958588 -261.050354
-54.899273 -153.082581 -262.106079
65.506271 -35.615913 -266.249023
34.815948 -57.142750 -264.809967
-48.116203 -151.235886 -271.841949
-66.255127 -160.970093 -273.075073
67.304047 -36.323669 -279.659912
51.493855 -57.824478 -279.657379
64.422562 -37.967548 -274.268829
-50.146935 -154.333572 -280.273651
46.381550 -54.587955 -280.136353
-38.681683 -143.057480 -282.783691
-49.877029 -149.361633 -287.355560
-39.588005 -138.032532 -281.785065
65.298409 -37.981380 -284.584412
-38.883492 -143.137634 -284.474121
7.123563 -89.808006 -290.052643
17.625551 -85.758675 -286.733032
-38.695133 -136.499313 -286.478333
1.271518 -94.727066 -282.961609
-17.240705 -122.663345 -284.458557
-13.266747 -111.425140 -286.897552
21.896965 -82.089546 -279.414764
29.911268 -71.892792 -283.025299
29.485338 -71.750580 -285.495941
-65.469772 -164.626877 -286.667969
-29.923450 -130.884445 -289.884827
-27.381357 -124.088165 -287.093872
33.627132 -72.607536 -284.136688
30.867310 -64.629646 -288.514313
40.315197 -57.212059 -284.798706
57.953911 -43.069214 -285.337097
57.092148 -44.365635 -289.213287
12.924022 -85.436363 -290.771515
21.275383 -85.451180 -292.056885
22.556570 -74.834045 -289.531189
28.614290 -74.828545 -292.517059
37.332222 -66.849762 -291.008820
32.406876 -66.090454 -286.052338
37.462009 -61.275219 -286.005615
39.595531 -57.567451 -290.876251
64.852081 -39.979240 -287.489410
-10.985296 -114.750519 -288.534790
-61.278927 -167.739944 -290.106232
-8.668170 -117.030312 -290.510803
50.955753 -53.098732 -288.392395
53.474205 -47.857944 -290.596863
-46.549690 -149.302551 -289.330170
62.616722 -42.239948 -293.624054
-40.306183 -140.101410 -291.288849
-51.358662 -148.927505 -295.003296
-60.588154 -160.387024 -301.168060
-56.720535 -161.264542 -299.008911
-53.405529 -159.314285 -297.919800
-56.695339 -157.968735 -307.760773
-59.184254 -160.191101 -309.940826
-54.255772 -157.508713 -306.802155
-57.651184 -159.558792 -308.715942
73.634338 -26.086353 -14.704016
80.552338 -22.829136 -12.456282
68.255531 -29.951027 -11.277471
81.405869 -16.358282 -14.025711
71.057518 -30.720007 -16.764830
79.092606 -23.163778 -15.818002
69.845436 -29.410433 -15.014400
78.658653 -19.516409 -14.705413
78.629349 -16.807894 -14.081602
84.712738 -17.762682 -17.217968
78.987549 -17.521917 -22.637537
80.132507 -15.530100 -16.145653
82.006157 -13.384012 -19.724436
85.136795 -15.331318 -19.915216
67.001854 -35.912933 -24.244034
81.520889 -18.711748 -29.593964
87.076653 -14.907281 -28.836613
60.828602 -37.381542 -26.590137
85.361015 -18.110422 -28.798607
78.740738 -17.659218 -31.227947
87.741493 -15.807513 -31.886820
68.866135 -36.350883 -34.053673
82.059738 -16.979385 -35.107300
80.679710 -19.485609 -42.674305
73.493263 -24.456530 -39.392673
7.630373 -88.907997 -49.490612
12.748530 -91.629639 -45.448425
14.675767 -85.000702 -51.252697
-1.293516 -96.252838 -47.167946
-1.459199 -103.033997 -48.702045
24.912502 -80.561111 -52.602585
113.456985 13.086177 -65.764046
115.232788 13.192028 -73.118416
109.489891 6.251728 -66.822792
116.426483 18.017302 -68.930634
39.403545 -61.726311 -72.980927
26.049784 -79.618080 -79.103729
32.403053 -65.525429 -78.413834
29.541380 -65.812851 -76.189125
21.483204 -74.689980 -78.923897
119.059074 21.245796 -76.786270
13.344596 -90.136093 -85.176117
95.494255 -4.892093 -83.583099
92.922180 -9.042032 -88.878014
92.985245 -8.598500 -88.193031
103.922607 -0.691129 -94.345352
8.441852 -91.789589 -91.264946
89.772598 -11.789433 -92.885445
5.288406 -90.287643 -86.085159
-15.677552 -115.150818 -92.774887
85.080627 -16.608446 -94.342789
125.244881 20.490532 -95.390968
4.618371 -95.570450 -97.329079
128.754669 24.786886 -94.453346
125.621468 20.528681 -95.990532
88.356827 -14.259680 -97.914093
124.221275 19.534491 -98.599373
86.927536 -10.462667 -95.883835
105.504356 1.952912 -97.159164
129.213577 27.811655 -103.242485
83.443352 -17.549307 -104.689659
103.546402 7.395773 -103.879524
119.435150 15.965293 -105.536507
124.600853 22.782511 -97.865349
90.407913 -11.407454 -101.779388
76.281975 -17.890715 -104.720459
88.301598 -10.156231 -108.903885
129.742920 32.288074 -105.465744
124.103821 30.852671 -111.349709
78.877312 -21.584877 -105.296455
83.642860 -15.843623 -110.459290
123.218391 27.744925 -114.100800
127.650299 30.782345 -110.866608
127.093330 33.899040 -108.058113
79.643417 -15.381708 -118.010292
74.517067 -27.438810 -116.139320
-15.190913 -117.167526 -115.614136
81.044647 -15.869229 -119.515190
132.420090 27.610415 -116.073692
77.387444 -14.434299 -117.848518
128.367615 24.479733 -120.228691
129.200150 32.923512 -126.416275
71.002357 -26.079926 -127.643585
83.709816 -19.621424 -121.695961
70.579430 -24.608652 -131.416885
81.922073 -21.624819 -124.548836
126.569313 29.198895 -124.506531
127.607582 29.536282 -128.535812
129.200470 29.537167 -129.428955
12.228372 -90.451172 -128.305435
78.053322 -23.229486 -134.264969
-0.128251 -101.970161 -129.285187
132.451508 28.050100 -124.079620
131.222458 28.892078 -130.202042
8.550413 -89.655083 -134.352325
77.843826 -21.639240 -134.109528
71.522537 -29.445560 -132.317337
11.414552 -89.723663 -139.559113
70.171120 -30.984415 -135.348770
19.509005 -86.807762 -130.806198
75.864471 -23.920362 -131.060928
130.734299 33.486015 -136.192261
0.527725 -104.148651 -137.752579
136.501694 27.254812 -135.553680
21.741562 -78.753349 -138.886505
-5.673424 -101.890823 -140.714081
11.921900 -88.812019 -142.459106
69.702965 -28.772694 -139.021652
-4.401238 -104.516739 -142.464432
67.620598 -30.751335 -135.079208
76.565567 -27.563419 -141.083221
21.732557 -79.047607 -147.153641
130.917770 30.983242 -135.912399
136.221878 32.283077 -140.853043
19.335762 -82.497459 -136.551620
76.716957 -23.731609 -147.173737
-4.325547 -102.183662 -141.116684
2.288470 -100.068932 -142.666260
21.486517 -79.933800 -145.960037
20.140045 -80.628014 -142.461487
76.331848 -23.121622 -146.183334
130.847626 34.763123 -145.289642
-0.742210 -102.406525 -145.987701
6.282979 -100.215698 -146.379196
2.940049 -102.963112 -151.235596
4.762887 -103.774040 -145.396484
20.827518 -83.184906 -144.111755
65.261307 -40.815689 -153.673218
61.031090 -41.514313 -147.672638
66.595100 -31.912405 -146.124649
66.247131 -32.346352 -155.734650
62.784954 -39.794411 -152.945511
0.394237 -104.236954 -154.552505
22.499918 -78.488007 -151.183640
65.700340 -33.334816 -152.544266
134.884857 30.314947 -155.642838
55.207756 -41.142586 -155.935287
6.523362 -97.789818 -153.560257
14.823678 -80.537231 -153.669083
62.301704 -34.981312 -150.638474
75.797241 -25.092808 -158.723251
58.499123 -46.111824 -160.833450
74.428490 -26.632729 -160.308884
70.197533 -26.201809 -156.399124
6.446144 -94.881691 -155.264618
26.864594 -80.011894 -165.991653
129.883133 28.338572 -167.021957
56.512375 -43.066261 -155.668701
51.830082 -38.674412 -163.473679
5.765124 -96.811409 -164.277573
3.312533 -90.478027 -166.488510
52.276730 -44.990685 -161.279892
23.840801 -78.560165 -160.678955
25.728222 -71.511475 -166.187195
133.700089 29.721983 -161.506897
76.268356 -29.576307 -163.837830
63.832806 -31.907526 -173.603592
25.180195 -79.853363 -170.788162
71.930244 -24.941145 -164.895493
32.233284 -75.155914 -171.332260
133.201675 38.411854 -165.960358
63.875938 -38.360882 -173.062225
128.477066 22.443295 -169.296631
19.956959 -78.808800 -175.557907
62.164963 -38.280685 -175.441345
134.540619 31.744045 -172.622284
29.870190 -72.713303 -176.026886
27.400320 -71.197533 -171.836319
-52.879692 -152.896042 -182.407867
-51.249344 -151.615234 -174.122299
30.853481 -66.547600 -177.896057
125.449677 19.437929 -178.338638
70.593185 -26.463087 -178.442795
125.372452 28.768297 -174.148071
-53.028446 -155.740082 -183.498383
-52.782383 -149.252441 -179.173080
23.158894 -75.094917 -185.046021
35.667950 -64.819748 -178.858887
64.329514 -38.337254 -178.638977
30.965191 -70.954803 -180.818878
30.470329 -68.322090 -180.895721
68.028755 -39.202309 -184.031967
121.002029 25.170692 -185.398758
-48.036285 -145.347580 -181.955521
24.621201 -70.058578 -188.283676
70.663574 -29.712048 -185.101379
42.395954 -63.139664 -186.996292
122.897995 24.236128 -190.334946
38.430744 -65.277954 -193.457733
66.130157 -33.469418 -188.596802
-52.227226 -148.970444 -188.106781
58.586601 -38.982079 -193.807663
57.331535 -39.992706 -191.778061
33.704811 -68.591492 -189.262421
67.740753 -26.687134 -192.335403
-60.194824 -158.082291 -193.822540
-54.190369 -156.330627 -196.548157
-35.408112 -138.123901 -193.626129
-34.102604 -131.916183 -194.512634
-44.086647 -148.474091 -199.606033
-49.167206 -147.872360 -196.692566
121.013779 17.658615 -200.430893
-60.250237 -162.053955 -198.077942
-36.993450 -129.715622 -198.008163
-31.133482 -130.747711 -193.517059
-52.560394 -150.792053 -197.241623
-35.233032 -133.682098 -198.632187
120.158966 26.136343 -196.740921
-65.946060 -163.941452 -193.551254
-54.065300 -158.662643 -196.441711
65.571373 -38.437355 -195.842026
-50.497829 -153.004272 -200.106415
-51.602406 -151.365143 -195.804810
55.279350 -43.359612 -200.879883
-52.938938 -154.253540 -200.008072
-37.086781 -137.878632 -198.780182
-26.624285 -122.596512 -205.069916
-66.323524 -160.981796 -200.632248
-57.635567 -152.932846 -198.476181
120.975632 18.958244 -198.268509
-52.502998 -146.779251 -195.122574
-31.100504 -130.513931 -201.229385
41.081997 -60.775692 -198.286926
-60.295715 -156.038513 -204.042206
-46.816669 -149.308762 -201.467484
33.934452 -62.373924 -198.729630
124.059441 21.116884 -201.836975
-67.858070 -165.308212 -204.320389
-61.631523 -162.702805 -204.808640
-37.318253 -136.441574 -203.445679
-53.488308 -157.158920 -205.905014
58.755585 -44.264580 -200.644791
-63.349545 -161.528793 -206.579727
-56.320877 -153.291672 -203.709625
123.350983 17.305943 -206.819122
-58.133400 -154.483139 -210.518478
37.439857 -64.408867 -205.427658
112.769768 17.194426 -207.153259
-62.992821 -166.238571 -208.776978
60.511631 -39.250340 -206.908630
-2.435342 -103.208344 -209.917099
-3.090581 -104.556328 -208.221542
53.051586 -43.808849 -211.586441
-57.402855 -152.790909 -212.207901
-4.969957 -105.210030 -210.602188
118.358841 22.549900 -215.297379
55.477406 -43.849922 -215.104324
63.824757 -38.760677 -215.776978
-60.169102 -156.216980 -209.434830
112.353836 10.302305 -211.599152
-14.392436 -113.891205 -211.894211
38.233414 -63.681683 -215.341675
44.945393 -53.551331 -213.672134
61.433167 -35.668259 -213.465622
-14.031049 -108.336647 -211.477325
115.715302 17.058025 -210.664734
115.767624 10.654079 -216.007126
-17.157175 -116.872238 -211.626678
-14.054142 -111.656403 -216.704880
32.215488 -65.881264 -215.110779
-25.873634 -115.944931 -218.383118
39.365597 -55.285400 -211.992294
56.656635 -40.494450 -216.151520
107.966858 7.039892 -218.944977
118.469337 16.981548 -220.822296
56.527374 -44.008564 -219.329025
111.441078 10.323243 -217.710876
34.103817 -67.915794 -217.177612
56.228840 -47.484852 -217.975494
35.053467 -63.120293 -221.112091
54.069714 -43.446331 -220.166290
55.041737 -39.855671 -222.663895
49.662491 -49.830479 -225.694733
110.733879 14.658051 -220.059021
-18.762096 -119.073166 -220.985474
-50.905365 -150.667099 -222.974060
36.065674 -64.613434 -220.993042
42.505165 -57.950050 -224.753571
-45.567070 -148.530685 -225.171677
-34.042152 -134.458939 -223.366104
47.735603 -55.467255 -229.045227
43.808197 -57.050674 -224.790024
-46.858410 -149.305008 -228.523712
37.200222 -66.931068 -225.758820
-23.355486 -121.254166 -224.215164
51.046898 -47.038071 -226.812927
57.693798 -43.248913 -223.759735
-28.005169 -128.892746 -220.933304
53.072563 -44.555851 -224.280426
-32.863728 -124.887115 -222.862885
-29.416918 -123.266060 -226.942627
57.791447 -44.062363 -223.763214
105.833717 2.816113 -226.573120
-25.969593 -119.533371 -232.665253
110.577065 5.747434 -225.085617
45.470924 -55.940964 -232.675232
39.170021 -62.166252 -228.678284
59.164280 -42.876144 -228.134735
103.651428 -0.574057 -226.929871
56.760010 -42.679714 -230.274841
38.215843 -59.301086 -228.578796
-34.390034 -129.440063 -229.781631
98.686951 3.845693 -229.077438
-30.866047 -137.912216 -232.387650
-46.757931 -154.046875 -230.455276
45.054474 -53.509609 -228.410294
-51.846539 -143.694016 -234.468353
45.746986 -47.466747 -231.418762
57.259647 -40.829292 -235.250290
43.044426 -54.776066 -232.127304
95.690201 1.252192 -231.571548
-36.865417 -137.689774 -236.107925
63.050316 -37.126625 -231.955307
-44.659962 -144.416733 -233.637726
-46.815182 -153.381241 -236.014252
96.072472 -5.214027 -236.199905
99.902306 5.022117 -237.371750
-71.113358 -170.585312 -235.366440
40.652103 -59.741096 -239.784317
45.022488 -56.002232 -240.345795
46.773163 -45.190128 -234.550690
46.401554 -58.354591 -232.598495
59.506573 -40.681648 -238.017502
91.998383 -7.430941 -238.294601
-67.434074 -169.322662 -238.981705
53.129375 -45.590385 -238.633728
96.914543 2.380798 -239.788040
56.927109 -35.330193 -238.244171
92.448448 -5.005213 -236.657715
47.312008 -53.397354 -237.878250
35.852631 -60.793926 -239.163498
46.564087 -59.449009 -240.452438
54.124477 -42.403683 -242.983917
63.396381 -42.547176 -241.185074
50.685383 -44.666798 -238.895020
45.587875 -56.404343 -242.119598
57.419765 -41.995674 -239.383392
53.980335 -42.883820 -245.618912
55.857548 -35.932758 -247.231339
65.233429 -36.803120 -246.964752
65.480690 -38.961395 -247.472641
0.612702 -96.213104 -244.480164
35.787842 -59.132610 -249.596405
-2.192095 -99.492676 -246.742706
3.016621 -93.665482 -246.028046
-52.082672 -151.301590 -247.605469
67.744240 -36.902733 -245.118240
80.086243 -10.990544 -246.148422
-8.167722 -109.273796 -244.634705
89.551048 -9.056575 -245.350571
5.540643 -98.601654 -245.835846
-66.144241 -167.339859 -250.553253
82.229889 -9.885201 -249.672638
-13.545387 -111.189636 -244.994217
-0.199527 -94.475563 -249.026871
83.390984 -13.522894 -253.760651
-14.623495 -115.825394 -249.216049
1.194920 -100.543488 -250.880920
3.697454 -100.336014 -247.092636
81.824455 -22.656118 -251.817810
-5.004833 -106.031281 -251.725052
-45.178947 -145.222198 -246.898285
-49.537914 -147.261230 -256.709198
-34.360233 -134.326157 -255.509811
-34.494072 -127.078339 -251.888718
69.100723 -33.386318 -259.098694
-25.542719 -129.999405 -258.399506
-20.711054 -115.850571 -257.416931
-39.206718 -132.712677 -262.230682
-67.410095 -171.490387 -267.894440
-40.819111 -145.056030 -264.230072
-40.500935 -130.132736 -266.366455
-72.006317 -166.782257 -270.279785
-70.123001 -173.652328 -267.701080
-49.966183 -149.437424 -276.707703
-60.929585 -167.836655 -278.373657
65.731255 -31.091860 -273.388824
42.176888 -57.805157 -279.691895
-50.893433 -148.166611 -283.716736
-37.358940 -139.731598 -281.964233
-70.302383 -165.694916 -280.473480
-63.695679 -162.340073 -286.284424
-5.656881 -103.636208 -282.201080
1.667030 -96.372337 -283.834564
-17.648203 -122.388557 -285.109039
-0.070993 -96.321388 -280.784821
14.136621 -94.410149 -286.325928
-57.771458 -162.232986 -289.107819
17.819334 -79.605568 -286.475861
18.853806 -81.711723 -282.662415
-69.105347 -166.456451 -287.431854
46.105240 -51.804768 -291.330170
27.488008 -70.319679 -289.011780
41.881874 -59.179295 -289.128510
23.726496 -74.810997 -287.151581
-68.127800 -167.346344 -286.101654
38.748325 -70.031021 -286.495911
41.504261 -60.278042 -287.637146
43.841125 -55.875000 -292.641968
11.566036 -84.123680 -285.296478
18.227350 -80.950142 -289.195465
32.719341 -76.569061 -284.559509
34.423824 -67.730347 -289.510284
61.245270 -40.460114 -285.929779
23.986715 -78.131844 -289.056335
35.007744 -60.726093 -289.201416
39.647808 -60.718281 -293.462311
39.419117 -60.963757 -287.875336
5.697330 -90.781441 -283.614044
4.776758 -98.478867 -290.724792
44.136982 -53.805122 -293.688751
46.107826 -48.035934 -292.144623
-1.633032 -101.389954 -288.705566
-3.520106 -102.495682 -291.809509
37.984440 -59.512943 -289.920258
53.035240 -47.563473 -287.721649
-15.772610 -112.379509 -291.420288
-7.975863 -106.767860 -295.990784
-27.614498 -124.505623 -292.899078
-13.019794 -114.482803 -287.690918
-48.910168 -148.859177 -288.892151
-37.063049 -135.590302 -289.104736
-49.339985 -151.533508 -290.258850
-35.523682 -136.199997 -289.302887
-49.297028 -146.330460 -289.085907
-37.979763 -135.013504 -294.930359
-37.271225 -139.886230 -295.971802
-49.035534 -151.414566 -304.062561
-49.067108 -152.758698 -309.084930
-52.305359 -150.553513 -319.103058
81.828125 -17.928267 -12.452151
74.391136 -35.415943 -11.890764
65.974503 -31.053812 -15.499487
66.379250 -35.168095 -15.896363
75.831314 -21.060623 -14.702516
75.978615 -20.067438 -15.674267
69.539063 -30.198931 -18.739710
77.798470 -14.329844 -14.797688
71.951736 -28.472279 -20.460886
64.503273 -31.408373 -21.379662
68.396339 -33.151688 -21.329922
63.739101 -33.088264 -16.949478
67.233276 -32.175430 -19.453526
71.678429 -32.693493 -19.091089
83.749092 -11.143092 -22.096716
67.409348 -35.994255 -21.038527
72.585098 -27.961279 -24.459377
80.086845 -18.444799 -23.101234
65.093567 -30.566170 -24.921347
72.321114 -29.179880 -26.304089
88.277222 -15.400834 -26.005756
68.336555 -32.618504 -29.494892
71.824425 -29.667906 -28.119955
74.751320 -25.486748 -29.163971
83.404579 -16.077938 -30.725353
68.105431 -34.055603 -35.302490
75.428185 -24.892185 -34.275337
67.668716 -32.262756 -34.264275
68.254822 -34.961323 -35.915474
68.415276 -33.773300 -33.204033
75.278992 -28.317755 -38.310959
74.284874 -30.202465 -37.690285
66.085823 -26.065054 -40.546204
66.787354 -32.562145 -38.579433
76.135132 -23.348093 -40.399910
73.041153 -20.742659 -43.673012
13.408983 -86.458481 -51.992836
23.324696 -73.019318 -48.903191
29.755426 -69.882538 -50.166798
-7.964335 -103.819824 -57.642002
-6.737976 -106.158936 -54.624214
34.553574 -59.143841 -59.692036
-9.210844 -110.913910 -58.445724
38.609383 -57.925102 -62.084053
44.689857 -56.776428 -60.514668
106.904968 7.849394 -64.038177
-16.675108 -107.759789 -63.694962
102.315903 7.295521 -66.151802
101.163696 8.339634 -72.634384
115.064484 25.118729 -71.535583
34.891102 -60.466190 -71.110016
97.964867 4.788979 -72.346581
116.797646 25.595898 -73.484375
33.316727 -66.451118 -75.314468
118.613365 22.745676 -75.405586
22.178329 -77.847618 -78.055229
22.946335 -71.927132 -72.820335
113.615479 19.621597 -78.847710
96.352898 -0.327030 -77.086945
124.438263 22.126850 -81.331345
-20.436829 -118.105164 -82.417473
11.686770 -75.242554 -84.867416
92.732124 -0.917395 -90.495224
86.833008 -12.679620 -87.913422
7.843679 -90.823799 -86.325241
93.823715 -4.455015 -89.596779
86.649055 -6.530397 -91.479240
122.889648 20.824791 -92.132660
83.960823 -11.709109 -91.992722
96.106300 -3.031446 -93.498436
96.323685 -1.689579 -95.816711
118.882187 27.676678 -98.942490
125.354614 26.689577 -93.925545
98.367348 2.944214 -100.751839
122.183876 27.210964 -97.798195
0.089270 -91.503014 -97.088089
75.482140 -14.829357 -90.247971
90.199738 -8.762470 -100.819183
84.951965 -14.662055 -98.614822
108.417480 10.081480 -95.069420
82.061180 -14.388655 -102.329796
110.032455 11.771108 -101.779747
131.778900 30.646744 -100.519493
-20.012836 -119.751785 -103.051811
125.859879 31.067667 -108.315651
128.780884 22.300905 -109.618568
123.774887 29.008335 -108.917755
126.041191 29.639294 -106.745583
89.108711 -14.576926 -106.252533
77.482010 -27.223400 -110.155624
122.620193 24.034180 -115.020737
80.207985 -13.121648 -110.190308
-4.296422 -105.488800 -110.795990
80.778336 -18.816200 -115.406990
76.870842 -19.213970 -113.170845
-6.217244 -102.519295 -116.178291
-5.891088 -103.116501 -112.246826
119.990883 24.768084 -113.499153
77.685799 -18.374157 -117.090462
129.948074 32.822361 -117.677940
80.590775 -20.651030 -115.579193
126.756386 25.323708 -112.650917
-16.663244 -112.796204 -111.060135
-12.367103 -115.779350 -116.511620
-10.989749 -111.844849 -114.305603
-9.740519 -103.647659 -119.368813
-16.536180 -115.122841 -116.518425
124.690392 29.824505 -120.319504
-6.077229 -104.629265 -118.294983
75.962158 -23.369276 -125.858459
78.874504 -20.900419 -118.236153
-8.322979 -108.602028 -120.066231
127.479431 23.635565 -120.275162
129.205963 26.805189 -123.560928
131.662857 26.924097 -126.899834
-8.679925 -107.814697 -128.837006
75.562279 -23.513166 -122.382874
-8.240300 -109.022720 -123.368004
-6.528648 -106.165642 -125.733543
8.545169 -87.297783 -126.590752
73.842514 -22.587288 -126.913101
76.616508 -23.017363 -129.611145
-10.163684 -109.006805 -126.214783
71.343079 -29.313566 -129.256882
73.699730 -23.768934 -130.203232
130.500473 26.549757 -132.148468
130.492416 34.806679 -130.628799
6.768338 -94.605469 -134.793121
-0.535464 -98.444466 -130.484604
11.248641 -81.602310 -131.752609
75.287323 -24.657812 -135.562561
9.550829 -89.274956 -135.518906
132.584473 37.186359 -136.372391
69.936295 -30.458830 -133.302597
70.207977 -27.035324 -135.263397
74.779633 -27.591368 -136.983597
-1.909131 -101.907043 -136.588303
5.937426 -91.762726 -136.748367
69.181152 -24.006493 -138.599350
74.152756 -28.721027 -141.223694
0.361199 -100.298218 -140.917984
8.351793 -86.013817 -143.097595
125.739136 29.291658 -139.273544
-5.271946 -98.472313 -142.160706
69.276672 -24.006529 -142.019547
76.279861 -24.544983 -144.871857
71.812668 -30.962656 -146.164780
135.065445 37.739166 -148.807434
17.961414 -82.841705 -145.834686
64.258308 -30.595861 -145.671906
68.406631 -26.123941 -148.394089
71.267914 -25.432817 -145.042847
71.378670 -29.353819 -150.152512
75.906357 -27.097980 -150.803925
1.475373 -96.944077 -149.027084
18.208242 -82.699516 -150.551300
126.588135 28.402830 -152.530670
63.519386 -31.097281 -147.245590
20.978008 -76.669617 -153.023529
20.465284 -82.027321 -155.219818
-6.360056 -97.856445 -155.855560
-1.318817 -96.427773 -150.224304
-1.075932 -98.788918 -160.123459
24.656898 -75.432320 -154.746811
1.672819 -101.060097 -158.907410
57.031685 -37.182194 -155.178513
61.724518 -40.272499 -156.402634
131.688461 38.700592 -160.471588
18.271658 -82.629387 -155.341873
63.681026 -32.204754 -158.141251
19.159479 -75.260048 -159.205917
51.957085 -40.146832 -160.672485
24.672663 -77.482674 -159.957779
69.756271 -24.785051 -162.695282
124.594398 24.596050 -160.641266
126.746407 39.134460 -166.331482
71.600998 -31.023281 -160.994400
25.081347 -73.056358 -164.181198
23.730745 -67.232239 -164.397629
21.253496 -79.697876 -165.845230
68.800964 -26.074915 -165.255295
24.826069 -74.918945 -164.953506
60.253494 -32.350903 -167.518082
20.617369 -78.646065 -161.658371
22.947081 -74.934265 -172.621399
74.536522 -26.575146 -167.813538
124.613853 22.152969 -170.518372
26.523348 -69.442894 -171.769287
128.724777 30.617012 -170.535217
25.123407 -76.604790 -170.028183
67.556839 -29.800444 -176.393280
66.598511 -25.762793 -175.315079
127.310616 31.354481 -177.518570
27.090904 -67.299133 -178.350601
27.632069 -69.329880 -175.880539
22.456083 -67.497795 -180.231003
121.690002 23.114813 -180.989883
33.822445 -63.370159 -179.389038
68.469612 -29.180586 -175.373917
129.043335 31.714094 -178.064926
58.886566 -33.354931 -179.390076
31.610699 -71.273315 -176.043350
124.059380 30.378477 -178.790024
27.680466 -73.722214 -179.423828
128.853592 30.964973 -177.127167
124.058487 33.335766 -186.222900
-52.460224 -153.880478 -178.192154
33.035862 -67.761726 -185.035660
37.658070 -69.451073 -182.028015
72.040718 -32.177994 -180.993042
63.414955 -37.362659 -181.610947
62.754490 -40.062313 -186.985840
121.366417 26.522972 -186.619766
-61.468082 -153.085144 -188.520599
31.772047 -69.260399 -189.172470
38.530575 -67.911888 -189.977570
127.238647 23.512161 -190.304153
-56.731731 -153.789291 -186.123505
-49.884174 -152.981628 -184.225540
31.920652 -64.184570 -187.296356
123.294838 20.095821 -185.743057
31.245584 -70.039551 -189.460739
36.143780 -63.190319 -190.446274
-57.109112 -154.912964 -193.674789
-57.514843 -155.568481 -189.812820
-60.950279 -155.144379 -190.755722
-47.650845 -146.281921 -199.097321
-64.497597 -159.096191 -193.973602
121.974724 24.877779 -196.477020
38.578491 -56.335323 -194.980026
120.747765 22.083141 -196.458862
-25.906124 -123.217216 -194.060272
59.260094 -40.787125 -195.805359
-61.178089 -159.523727 -195.273178
-28.281740 -125.577347 -199.849045
-32.843796 -131.055038 -198.640274
-31.578106 -129.971085 -198.702667
-32.427620 -123.862244 -197.481796
37.445908 -57.618462 -199.531906
34.734047 -66.781609 -196.163803
113.670578 21.773859 -198.111328
57.655285 -39.075306 -200.199677
56.915672 -39.237633 -201.725861
-39.130814 -133.811783 -197.252441
-53.249413 -143.674057 -201.563324
-67.619095 -162.120270 -199.210098
30.710178 -61.076614 -201.749573
117.777908 21.153616 -199.128494
-47.984039 -148.005096 -204.902664
119.924240 16.261103 -203.499100
43.539577 -52.890827 -209.723862
60.195435 -37.139305 -205.186356
53.990589 -44.036903 -206.196564
-49.464237 -149.808823 -203.954697
120.041039 17.369806 -210.067780
37.977592 -63.485703 -212.075256
63.103741 -36.582718 -210.769272
116.231163 26.076725 -204.906219
43.473843 -54.797016 -205.649323
118.789886 21.370773 -207.011032
42.162949 -53.408703 -211.862183
65.945465 -37.368130 -208.508621
-49.468491 -147.864151 -209.925522
41.890137 -52.861355 -212.800781
111.894547 12.590492 -210.283890
51.307652 -42.370480 -216.859512
113.828529 17.010546 -210.598297
53.250732 -43.551174 -209.772903
57.871159 -37.173725 -213.646896
58.752316 -34.390717 -214.834656
-18.816795 -114.611656 -213.132446
-14.219659 -114.216217 -219.704529
48.033440 -54.168545 -217.311020
-21.329422 -120.495895 -219.380890
36.501064 -54.440594 -217.112320
-14.051445 -117.607933 -217.617554
-11.530290 -113.015976 -224.088623
47.337940 -44.173752 -215.838104
-64.395668 -167.544846 -221.750931
40.131393 -61.029736 -219.809875
-21.619484 -121.674393 -222.122086
111.411888 5.214450 -219.935089
-57.849083 -146.491150 -224.614578
-13.541579 -111.683937 -222.608963
53.306561 -39.257339 -224.584595
52.310375 -42.839828 -220.309341
107.657433 14.856860 -219.231247
43.572498 -53.234558 -220.192337
64.919968 -40.455906 -222.649521
57.125664 -37.319649 -219.524368
-19.797352 -124.512665 -222.290817
105.009781 3.033782 -222.924149
-36.048233 -136.268494 -228.088791
-43.299648 -135.291992 -222.338272
38.419460 -61.731106 -223.629608
106.168190 13.372578 -224.105743
51.973015 -40.303440 -224.204865
-27.834234 -132.832123 -224.254745
40.354259 -58.044117 -223.083664
44.267998 -56.229282 -223.076614
-49.433487 -142.847000 -226.329498
44.400715 -54.987686 -220.540939
60.775463 -40.731834 -228.867493
-32.778873 -129.749817 -226.000397
-68.536568 -167.547989 -224.432907
32.007671 -60.439499 -230.130875
45.778034 -51.792065 -227.681229
103.228699 3.651503 -231.301559
104.983566 1.488075 -232.036545
108.545082 9.114377 -230.033966
38.655212 -61.417347 -230.096497
43.912075 -51.131886 -233.226288
-31.746126 -129.995453 -230.472534
44.152943 -55.285553 -232.163803
65.811401 -34.442219 -233.986832
104.845169 1.446936 -229.239685
54.704708 -48.656494 -231.833466
101.849678 3.593434 -232.494965
102.858139 -1.213730 -229.569595
50.340939 -47.576546 -238.682495
55.816521 -37.542126 -232.789261
-54.025532 -148.145615 -230.911591
45.773403 -55.375469 -237.314606
38.509377 -57.249306 -233.706375
50.388813 -46.891842 -236.511353
99.199692 0.689338 -235.843857
96.875679 1.125943 -238.774429
56.859135 -38.974445 -239.472382
95.820732 3.831866 -240.479507
48.080139 -56.093712 -236.809494
46.563904 -49.200676 -235.500565
64.677170 -39.528847 -243.131927
62.476173 -37.038170 -237.285965
55.768158 -45.897442 -243.466843
87.910667 -8.914804 -244.422104
95.347923 0.396328 -238.605698
53.972839 -43.102570 -239.886475
43.142105 -55.483109 -238.106186
95.385536 -6.964227 -241.360367
44.072666 -55.961159 -248.726273
96.074669 -7.949796 -244.101990
96.438530 -6.328964 -245.121826
61.594646 -34.503662 -246.156448
-69.143410 -167.534073 -242.019928
64.700882 -33.382381 -244.036713
95.734238 -8.104273 -245.639526
93.334023 -6.746914 -250.093597
87.781281 -8.652255 -247.095596
-0.194641 -98.278473 -248.606552
1.806353 -94.686562 -244.611755
-5.978999 -100.594795 -253.762360
-6.133173 -101.669563 -248.514771
78.174683 -13.425827 -248.314316
0.300932 -94.680466 -252.017227
-53.409855 -152.979004 -253.200439
40.196297 -59.072140 -257.299133
-64.806679 -163.733124 -252.912338
80.483727 -24.382029 -251.133606
84.973030 -10.897284 -252.940277
-51.169029 -147.155228 -252.852463
-43.024998 -139.316849 -253.543518
-4.256432 -103.703873 -251.056061
-45.221737 -141.487915 -248.840271
38.479706 -57.082298 -254.788330
80.008430 -22.033707 -253.356247
-43.514721 -142.333694 -257.410095
-34.342571 -135.060501 -258.681122
-14.919413 -107.274925 -253.807373
80.762321 -16.783699 -252.404419
-29.654997 -132.253906 -256.132690
67.901398 -26.098421 -256.995239
72.335587 -22.576578 -257.396912
-62.951443 -161.760040 -256.772339
-24.117590 -120.644730 -257.970062
35.884068 -57.275375 -260.620544
-24.764805 -127.472740 -254.568893
-50.056980 -149.956482 -259.923157
-46.155315 -151.860458 -258.368439
-27.034685 -131.495422 -261.157928
-59.943932 -157.208694 -264.229523
-39.173347 -139.441940 -263.350006
-62.910603 -161.582733 -267.221619
-54.530323 -147.894089 -266.333862
-62.974598 -156.831253 -265.890045
-61.899780 -160.899139 -264.298065
68.063606 -33.104614 -267.495300
42.113869 -57.510849 -271.657074
-57.597202 -156.975754 -271.823059
65.120323 -33.422356 -274.383240
-63.766552 -161.573547 -276.240143
-64.910339 -164.853485 -270.958160
-60.011284 -160.126419 -275.000702
-50.813766 -150.427963 -275.433929
-54.820633 -156.823593 -277.794525
43.557007 -58.073952 -274.656219
-58.425076 -159.470993 -280.178802
-56.267231 -159.467224 -274.412231
-52.979790 -153.831238 -279.848114
-71.033844 -167.101364 -280.920959
-43.513397 -148.057404 -280.227356
-61.947315 -157.340439 -280.322266
-54.174118 -148.295135 -286.521088
-44.387497 -138.881638 -282.610138
-26.746016 -126.612610 -283.760559
-63.313465 -157.038727 -284.519775
-30.284277 -129.466415 -285.123993
-6.548358 -108.279015 -289.478149
59.527733 -41.557571 -281.893463
-62.557957 -163.417130 -290.655609
-5.182077 -113.176102 -285.071533
9.513190 -86.704765 -286.951477
-3.619870 -101.269371 -287.662201
6.077477 -94.206566 -286.066040
41.855354 -49.354885 -284.820862
-50.691471 -154.163818 -288.254364
7.250538 -85.361015 -289.462311
13.075134 -83.079079 -284.251587
55.507538 -44.222439 -280.742004
-64.798744 -166.952789 -285.592346
16.226334 -86.664597 -288.030823
55.635124 -43.034313 -288.765137
-0.925328 -97.635338 -292.959167
3.997218 -92.100517 -286.282013
47.414738 -50.139282 -291.636444
-62.696030 -159.017624 -284.818237
-15.443550 -115.231010 -288.326233
47.669434 -49.590309 -289.734619
50.685154 -44.367626 -292.490326
-18.397629 -116.096344 -293.048798
-30.861916 -130.588425 -290.810181
-49.673676 -141.477463 -285.782379
-32.825386 -131.436707 -291.684387
-64.995377 -165.043243 -290.561951
-60.818104 -157.563995 -294.512848
-64.455177 -159.538284 -296.262024
-58.288307 -156.420853 -296.683197
-59.538639 -158.513092 -298.238861
-54.128220 -152.125153 -310.411835
-59.970657 -155.983536 -311.281769
73.458618 -25.025154 -11.081408
71.265968 -25.683203 -8.380464
79.561127 -13.307775 -14.661637
69.037102 -26.729986 -15.279208
80.416702 -16.156946 -21.847216
75.088417 -21.727537 -17.987381
80.641846 -10.917318 -10.897556
70.270393 -28.643635 -19.047342
65.438515 -28.155264 -22.741539
86.152573 -11.691946 -26.390125
79.948151 -13.405294 -22.628624
84.071686 -7.243721 -26.066523
85.760834 -19.301346 -27.033270
79.444092 -18.782957 -28.153189
84.072952 -13.932681 -36.246464
71.273651 -17.240309 -34.801907
83.069504 -15.633427 -33.157650
75.667252 -18.642204 -32.034760
86.348213 -15.183784 -31.237326
76.199043 -24.401081 -35.542347
78.905174 -19.427454 -40.122787
77.999954 -24.995598 -37.958012
84.338074 -16.758595 -35.713875
78.529312 -18.531748 -39.215054
78.163879 -13.767861 -37.525234
72.831146 -22.900406 -41.859184
75.315094 -23.988823 -40.585728
71.584198 -23.584906 -42.031952
73.803337 -23.073462 -40.404106
76.519630 -17.503422 -41.439331
78.190041 -17.957451 -40.798714
6.855839 -92.490845 -44.408695
11.040772 -85.542664 -42.216366
18.750298 -79.486374 -43.914154
0.702601 -99.409309 -54.241482
19.622650 -77.409897 -50.536037
20.408264 -74.303429 -46.477444
30.257074 -62.206161 -56.633057
-8.718502 -107.670784 -61.092175
102.387680 3.873829 -64.587479
107.197685 2.404259 -63.371807
112.391884 18.568846 -66.619080
99.394508 4.469110 -72.442451
-8.927334 -117.943382 -70.338913
40.428944 -58.481918 -63.991398
99.499039 -0.751957 -69.797394
30.751657 -62.852238 -73.713844
95.492813 5.127794 -73.241669
-14.684968 -109.528709 -79.385475
98.163719 1.451203 -76.444366
96.433586 -0.283811 -84.167679
102.246246 -3.035439 -83.927383
89.223221 -9.051159 -85.224358
91.168282 -2.507929 -86.960938
119.231842 22.365486 -84.928337
96.430923 -1.280482 -87.336624
95.948509 -6.541488 -92.362625
0.132300 -91.316826 -94.873543
96.281319 -2.550658 -95.648582
124.108170 19.545168 -92.344856
81.915581 -15.980099 -94.030495
94.385269 -9.386113 -98.766167
98.161118 4.847826 -98.487579
124.685555 32.414276 -95.703560
-18.584845 -117.238434 -96.372849
122.553200 20.185331 -102.963615
121.086914 19.009977 -97.490715
-1.714488 -102.380592 -100.871170
-8.556359 -105.040741 -96.939331
88.670334 -3.851130 -97.735611
100.757095 6.051205 -103.540619
-1.615468 -98.790184 -102.593246
121.022095 23.837324 -101.534264
125.478630 23.662838 -96.705849
-8.900359 -102.256805 -100.506599
122.791580 27.683083 -103.333282
120.852058 27.812874 -97.944313
102.998032 7.465915 -104.539558
130.261276 28.551056 -103.258331
82.777275 -15.330457 -107.015060
77.113106 -12.507143 -101.001892
112.004524 22.858208 -102.177399
123.747192 22.901262 -103.828186
89.438347 -10.273856 -105.408592
101.418846 4.007295 -101.310371
111.798347 15.196838 -102.591888
-9.424829 -106.145363 -104.079460
80.293701 -15.589844 -106.294479
81.569061 -16.500540 -110.084747
82.563644 -14.932952 -106.994621
-4.212801 -98.449753 -110.231514
120.418312 32.388233 -106.941910
-18.582726 -115.895744 -107.394608
-6.504753 -98.374695 -110.925285
124.098007 29.575979 -109.850883
-12.659134 -107.209465 -108.659332
-2.379162 -106.781044 -115.880669
129.332489 33.272926 -114.529099
82.604401 -18.431475 -112.850182
-15.707200 -115.580917 -115.956886
79.735306 -23.381947 -115.669418
73.993446 -20.059223 -120.861519
72.435799 -18.810438 -116.303047
131.900665 34.060852 -122.197243
-10.597991 -103.136444 -126.521599
8.292709 -87.290169 -121.143829
127.228798 30.053272 -125.462761
74.665901 -22.955658 -122.868736
67.982155 -27.665857 -125.595207
9.504475 -88.675003 -123.266502
124.955887 27.561773 -129.951004
130.102478 30.960430 -124.785194
-2.774318 -100.240166 -130.025787
13.054942 -84.886909 -135.530777
68.238953 -26.359379 -131.691467
-10.159433 -107.667412 -130.793900
-10.285824 -108.347916 -129.260345
129.745819 36.256737 -128.274643
-7.088418 -100.644592 -132.488342
-4.690601 -98.806557 -136.684036
17.369427 -83.047859 -133.423538
71.747589 -25.154749 -133.437332
-5.604070 -99.787170 -133.599106
-3.559976 -100.104492 -139.559616
127.472672 31.749016 -140.894562
-0.378182 -95.412949 -141.375397
-16.285318 -109.457245 -139.347702
9.335732 -85.313782 -135.074921
17.913683 -84.448410 -138.340454
68.892914 -22.812374 -134.763626
-4.076203 -99.127914 -142.470032
-3.810465 -100.017540 -141.765884
-2.676359 -100.594437 -137.490021
74.945602 -24.775562 -136.987686
10.605097 -85.994743 -136.312027
132.073105 34.690525 -143.306519
-0.176339 -95.202805 -144.410706
0.034970 -95.769920 -140.053986
61.950600 -34.468178 -146.593201
126.548363 34.697250 -151.164474
-0.156781 -94.713341 -143.771149
68.319832 -32.607029 -146.892502
76.196785 -18.924980 -145.829071
62.031940 -40.219154 -148.043503
131.256638 31.595741 -142.342133
21.263132 -77.722015 -144.906784
132.010468 31.284788 -147.406143
-5.833028 -101.559059 -151.387772
16.026104 -82.965355 -148.813034
15.479430 -77.589119 -145.810272
13.128443 -84.222481 -151.932312
57.760849 -36.618336 -151.025620
-3.169027 -99.549591 -147.440994
7.634361 -87.501503 -148.963745
60.017338 -36.469627 -148.990250
127.244682 30.651346 -162.308334
130.148224 35.265858 -149.653442
21.660536 -81.871643 -151.098907
72.265533 -23.461168 -151.219543
16.936075 -80.384308 -153.537125
62.058258 -35.234058 -159.074631
62.803631 -28.816254 -152.696320
58.510487 -36.196796 -150.564789
20.888605 -90.064720 -154.483414
51.845932 -42.564285 -157.110748
69.596504 -27.458031 -154.485199
62.256222 -38.078373 -155.323349
53.908520 -37.633644 -159.371887
58.985737 -40.099831 -156.594894
64.871193 -26.754063 -162.934021
127.455406 33.982719 -159.605331
61.999016 -33.743633 -157.752487
68.937157 -25.941177 -158.352798
15.326581 -83.338257 -160.372421
70.993301 -28.202215 -160.043167
129.849182 33.627289 -161.146759
135.104996 31.280355 -157.397980
18.558962 -75.806816 -157.208344
66.862373 -27.123346 -161.757050
28.717682 -77.595222 -167.617188
125.867172 34.520111 -168.404404
65.729965 -29.568371 -168.243637
133.317871 30.894709 -167.883621
19.351925 -81.222061 -167.979736
69.663177 -29.424419 -167.395111
66.564835 -27.809706 -169.361649
24.187725 -65.890434 -169.848190
60.894238 -32.981373 -171.860199
127.345444 32.525856 -175.325714
