# This PCD file was generated using the MATLAB® pcwrite function
# from Computer Vision Toolbox®.
# .PCD v.7 - Point Cloud Data file format
VERSION .7
FIELDS x y z
SIZE 8 8 8
TYPE F F F
COUNT 1 1 1
WIDTH 803
HEIGHT 1
VIEWPOINT 0 0 0 1 0 0 0
POINTS 803
DATA ascii
27.266930214484546 -46.215469512630442 -252.864741460275411
60.390781186149987 -16.854841460870187 -248.849620020092914
58.244651813263964 -15.910312600859481 -256.496720920514633
45.544411741869446 -24.972296255241101 -255.548005825060955
31.100732659162492 -45.922466861924704 -253.614901654347449
55.706612884204517 -18.564401336771478 -254.960834493822375
54.931895429355670 -21.043051455274217 -260.222937176511152
27.920628792290447 -43.957351197368901 -255.382999256434175
28.078765313854632 -45.832806805437620 -258.949135437041548
56.773496025096328 -18.402511270894511 -259.445904502855171
57.963673762928295 -15.167825247527816 -265.938450205995423
59.317933340438188 -15.454256291799503 -262.539002811219120
28.576748810483089 -43.132593059288993 -261.872804702446615
25.146217192063673 -44.631395502616122 -262.585069169279222
57.794987333671635 -14.310780447533226 -265.211489002455210
59.805225404460650 -20.636893502074543 -265.106327078613674
53.299525422219666 -19.849246226158915 -266.822728752782098
56.243274432093635 -14.295405757212791 -269.656354044491934
53.548057375065305 -15.438986167060630 -271.904647122616325
30.573672886625697 -41.199168870410588 -270.755863102241165
31.486634074419687 -43.325085818007544 -272.594462815108557
54.156597924508098 -18.018714861355573 -275.679449800631573
52.241401453243284 -21.555823839361537 -276.638855288545017
32.733631208921054 -39.984579339097408 -277.856750951941819
32.723968863862389 -41.747026716239972 -279.367714216869956
51.341666880075287 -19.406074150228793 -278.255727260409060
34.852774380532558 -38.249583387873848 -279.350797559817067
37.175329841167049 -39.105589414098553 -281.157281996938821
51.762307397442548 -23.649681189740875 -283.093160371448846
33.956921127717969 -37.668328172831202 -284.318646434606990
49.819560367243490 -22.340107008936716 -282.279559289651843
56.151358478134718 -20.252867631409927 -286.540604729896927
33.530855911413745 -38.978132050738203 -283.043376974791158
38.948916205183508 -32.088162418759154 -285.901397387707391
35.946138721160992 -36.369658691260661 -285.601473476686124
54.561163306017804 -22.097701529938853 -285.580220991638214
47.791095521051034 -24.214757514316997 -290.430535276067758
39.061782301630785 -34.127584012768793 -293.119056624329232
47.796681080922738 -26.098804736454856 -286.945116477403644
35.678536274606046 -41.264777365116700 -289.426591720833358
51.606551208525453 -21.952132900527928 -287.441537861643326
47.056739490103247 -28.450689658554410 -292.223620328693812
38.207850491179933 -35.227793513414092 -291.192525250241715
48.208246682627866 -24.250204146008493 -290.868540689623728
48.521361032189340 -27.043065298805512 -295.566326122965336
40.937285940292611 -36.292871340929857 -291.908430095260428
42.872926084841247 -29.291880726646252 -293.947021266118668
45.503806564430789 -26.696271881023954 -294.871053731243819
62.205223716802138 -9.651143341367989 -14.043444791639450
67.109523305080529 -5.409735479010865 -13.311813954755873
54.557228371200104 -21.037136282387443 -13.403225338102319
51.409098846673729 -18.185500264268953 -17.331734377791296
52.272398401211518 -21.523829676424675 -15.976793349298958
54.604049271604730 -17.669086041193356 -22.314902428830369
50.752417342176265 -23.445025474776717 -16.442356680901511
50.848187565670237 -24.254692795902461 -21.771571994433891
73.789892297248485 -2.307385427894736 -17.456509485007736
54.919948903473717 -16.831587422015563 -22.419163702255062
50.017125569090901 -21.649520453704508 -26.402414722567126
53.865299230773772 -17.947937264569429 -27.328136541934491
49.104203702253663 -23.022153034250358 -25.954867586940196
55.096055413054813 -17.512389578071922 -31.497280324404429
52.950895600817475 -23.527956187636772 -30.539890191937431
67.483713385822867 -6.703705300439962 -31.277932249365307
53.073722485878932 -21.064356300376748 -36.772893983330562
60.148064507380866 -16.808131696125113 -32.038222297619619
50.531717284599615 -19.374268417726313 -34.189325744195862
64.402803179952400 -12.416996744870751 -39.046818842581580
52.801293236909203 -14.892397651418040 -34.515106739825448
60.852724045526962 -11.057961832734659 -37.632937026121446
58.000564716741820 -18.420649243830251 -37.111225876088106
57.047394119067079 -10.646851505214096 -41.395299388404382
67.654593577477641 -5.396345118456489 -40.132429198738926
60.573729048404196 -13.633664794816012 -39.780733948055108
63.783499967191112 -13.102203924262522 -39.987432487820463
58.663774427804292 -13.748427152895387 -39.714520490162485
65.211571972343634 -8.439105271028394 -39.725899547838516
61.136020605781198 -10.396504301093506 -40.023888228121855
63.281772774329468 -11.640739187239394 -39.626600432601400
-18.667580470717038 -86.788228095910313 -45.357112496408433
-18.545795667025928 -96.386788985327726 -47.133369699930022
18.269825119030770 -48.869597825646331 -48.453610218928986
27.596401572310661 -42.911919841604934 -50.379252909176792
29.803912712303312 -39.633189163898777 -52.660053676508966
-24.993300223002127 -100.509040797835738 -56.115738843816366
-30.286310758346751 -102.314478454948286 -55.923410977513882
106.295760139276510 33.187813686210099 -60.190375659270863
28.044909760017831 -45.743673409570668 -56.893194041874487
84.670670055802191 13.493721644207652 -58.135567893765717
-5.419161768062902 -82.050819562351890 -62.422140232629623
-30.721451541178265 -104.480693929041749 -62.819293893578198
84.910887553546928 9.051547902085252 -67.734284707922740
-6.593467624950512 -78.496160805063994 -69.607460634039043
110.502447637641126 37.266164190752633 -65.903367624103041
81.852359301686548 10.599971048256174 -72.818945146892659
110.570423063237342 36.525196656194687 -74.636279953535919
80.796443622816938 9.407505046984085 -70.678076614946278
87.682245430403967 14.890563150101114 -71.603142243691309
81.494840575907503 13.105244474557779 -72.382263579838124
88.554361685429797 19.234871929094172 -74.465692381243713
95.726454930780264 22.956118885541215 -72.112231156284921
88.899120883370699 17.585220474697330 -73.301062338484371
-36.034588070316047 -103.619584619605902 -75.259746842497464
88.199242199701132 13.507940838784728 -75.862954187231111
98.361997648230258 23.162028585667411 -76.070344236305957
83.603317654747968 9.930297195744078 -72.274169420897721
113.240129433322338 40.648461641260766 -77.671771907044672
90.569794205181566 15.339513749792761 -78.494311943038085
85.126759062903787 12.460439276631574 -80.295982641345034
111.143893374672473 38.182472697958858 -82.273806865653597
1.913643522414542 -68.620769806435320 -81.737294290193958
103.609495235460798 31.280043487605461 -78.636503131609047
1.454693756557805 -68.623279131257902 -88.313801707045897
-4.261908043697460 -74.331439740667548 -85.503275664781242
112.104715876188791 38.834447652723107 -83.113946970759557
107.198540816700955 31.780238363062338 -84.777843071332867
-8.987667771635499 -78.940579386321090 -90.093749803371793
98.241878240878322 22.808693438827472 -94.324464177718056
-31.325429575031247 -105.404564007120314 -93.093199251536873
89.154044872669161 21.441819308598760 -94.526404572207682
111.401903658451374 39.040584254748261 -95.100044412891165
98.554673370937763 25.225107862854831 -95.403212967104736
87.877031550760236 19.692834473128698 -95.604522555861649
92.376857078103740 21.435725318445474 -96.389404510210397
-13.589002186887083 -86.098825539836326 -98.534314163306021
86.339258635830262 15.417601812544266 -95.476441161511502
90.375834101072158 20.960342457378964 -98.239720802749659
93.576875352349390 20.197493800335309 -96.085619638298780
82.064049979240679 12.357662375667083 -97.582762226965869
82.174622874190959 8.249561110569116 -99.121080132591146
83.122409495699188 9.549675762475820 -103.626217246619163
-16.065074651676145 -88.656802489773384 -102.837855125684328
-8.311230585990478 -82.870012676477259 -104.610733082641858
-4.619551001942994 -81.373246676370456 -108.166671556659210
-12.822743447228508 -87.714819627980717 -108.828330945911148
-12.497063239917953 -86.752231980250272 -114.301760937712203
-31.122098740281839 -102.561968689771703 -115.174530964683498
-6.943506511416328 -78.735643201744011 -114.303976700857049
-11.036133622762884 -82.181123849716968 -115.306493571004168
-7.367965163860790 -77.250002573839708 -115.652981776637759
-24.895613743458590 -100.761548730086673 -119.561548653053180
39.308121152057204 -38.793830891453709 -239.202308253048670
39.421982036735137 -37.556345436830803 -237.351045462717138
49.813817434448616 -24.366206457449412 -238.870432193088988
32.831491090379636 -40.805140893913233 -237.732380894707831
46.076462865524640 -29.450429269862465 -239.419289749880704
48.393680729097817 -26.282959940514168 -243.399568021050584
33.750616424092335 -38.073096804108303 -236.829153046773257
49.087486406295000 -21.668802600340449 -235.893042278656083
46.505176078504192 -20.514382590300620 -234.355805872733953
47.751434153793426 -23.964141671059114 -236.930941453841200
49.446058733188494 -22.320479218622641 -241.383282690585105
44.391732952999945 -28.115433703079109 -239.558069290563196
40.050436311624779 -36.596172135563933 -239.686135290752219
50.077505648920919 -25.277636496718515 -239.926262310440251
28.353127703908381 -43.471702877704786 -240.897519741694225
33.833665017123472 -36.313556597202457 -240.254748763756709
39.256035941592437 -30.654024842739524 -243.364794706044989
43.312084989186225 -30.320354513706818 -243.698258578827307
30.075232227201280 -41.603606906935489 -241.724236515627439
39.617391424669762 -34.230283895060850 -243.207303107512672
39.594129865151451 -32.372400678736916 -245.117469983655525
47.871457779804260 -22.548063060758516 -245.092790903850954
51.977757841075636 -16.947455897685838 -247.652548611040231
27.614137736473108 -43.639356200041000 -244.228694827507638
45.992889782781461 -29.192558755775131 -246.582519386951958
55.065871595805440 -19.427778655293913 -246.795560013918134
32.260355808011234 -44.005068063756667 -254.578420931797922
55.517998866777326 -14.876906141941351 -248.513995207105609
27.254553731857495 -41.676845171342542 -257.096981995611202
29.567247945913021 -46.397163963185619 -252.399484327210729
25.870969684594314 -49.422066709356017 -254.262771472254030
27.055386244070636 -44.168659114763919 -254.062701660885239
28.624887205095863 -45.462784747155467 -257.607378313088418
26.505447302620112 -44.216156177751579 -256.989113717702310
29.240327058809363 -45.452053435872720 -255.817540477813679
53.911212873893994 -16.375417419898852 -253.835192178837360
28.288879101563349 -44.703125691134879 -260.443347266592355
54.462760708304735 -15.643857929365861 -262.521207529771345
27.549856877806221 -42.818065563577335 -262.068140300523908
29.745325101779997 -42.763623335205423 -262.091692505529693
59.256647360925882 -15.254194058681446 -264.133897686202317
60.264607151340364 -13.808932488283300 -262.836010924050356
55.303404379314493 -13.679064289005188 -265.404357612243075
53.712236446894821 -15.498525508508326 -264.833538538995867
30.462632078991565 -44.773452445618901 -269.339505575768158
54.657805464909686 -18.816058770945840 -270.469875147723599
54.994484175349953 -19.260384188777113 -268.088826212375068
52.185606354405024 -24.437872855179396 -271.086862843686959
53.181879540851810 -17.731182285289528 -268.031035118472005
28.519682019556317 -37.213186191771712 -272.086179029604693
49.588371038708523 -23.197811227472620 -273.828432886745759
60.675882393646077 -16.958061591258684 -273.236429862964428
50.430111986781220 -21.765333632413292 -272.358167979856773
53.584398936727411 -18.662932086272814 -273.860540904117272
34.614145325172878 -35.570484857167024 -275.540644261794171
50.968123150608740 -17.407609416133837 -275.187554865789991
49.098614068221963 -21.987936519063084 -276.373047930609459
47.690538372645129 -25.662870805483308 -277.930975281273959
57.377282077852442 -16.483167864195757 -277.793297252228228
54.798434775099139 -18.635936215752981 -278.575922713129046
52.765521693686757 -24.545792846363746 -276.192760965504135
52.906549473131527 -22.499036179324229 -275.294015505771938
51.572949254148803 -18.275717773583089 -275.684613766230086
32.722366287918938 -40.451276050502088 -277.417997187382639
33.423259913814164 -39.654347376832916 -278.682032072361949
38.986607231610051 -36.515119421866196 -278.391858458891306
55.945495427927888 -19.187466042369511 -279.800786892879444
32.596016202348473 -40.923738597975145 -277.539765567460734
32.284941297914152 -42.436363220294552 -280.003897541607500
48.323579645396336 -21.528043351253579 -280.175269102527409
39.243925297874149 -37.208761797327583 -279.872884448050399
50.684514295581650 -24.459549562633150 -281.593848918950698
48.156861055145669 -25.323823297706117 -283.207371740823419
53.800314376330313 -18.771191698919747 -280.332935012745111
37.646727802037255 -35.128756969790963 -285.774477045099616
44.960092460029763 -27.782322936718970 -285.686006217987995
33.136051758436274 -36.748634671921970 -286.233767211311260
49.409132835711063 -25.577021367450246 -290.925631405671368
41.177547298236050 -32.932856320738765 -291.276890451109239
46.837853541133100 -25.762541449311883 -286.246035537197713
47.532828268878006 -27.315255082965880 -289.601555367882952
46.846789365112009 -28.471154454207081 -288.542605528773379
37.869088635131988 -35.114817193916970 -287.452600963159455
37.113778560198362 -30.375394376821461 -286.208515684103475
43.828519555485002 -30.217254221091927 -292.211865915391854
37.746711204291103 -32.047167592870302 -290.754939216367632
35.902601276052799 -33.987057271294013 -291.651057488879417
40.107053599173291 -33.702875546781890 -295.013787464583061
65.575629359631776 -9.043980454932948 -13.247544021904352
56.269008544578107 -10.822360165309989 -14.416096794435447
61.327769804738011 -5.026401417351420 -15.010863047497818
55.124743229415962 -14.580915020466009 -14.691354973733317
67.999597282950020 -3.376686657497319 -11.305333821620200
52.849262449534137 -17.982816425164788 -17.182596844704751
59.533657179912737 -11.092455102262209 -16.252596893348461
62.443253934657228 -7.364815036223407 -16.295483913019151
67.501822727385530 -3.554795607274555 -16.356246753559549
50.844044938553679 -15.836759973176513 -17.513240944252320
60.670400900669662 -14.090874486256126 -11.893380431337874
52.305689444984850 -19.036995172502991 -18.501727609841144
70.358512664344900 -3.984961306044970 -17.116526168386788
65.889909727284888 -3.572753807330886 -16.998581796924061
55.308770365624731 -12.633688277626574 -18.124027404194916
71.994269507027170 -2.114839309484725 -18.654881333601320
66.803543142656224 -6.190358493809192 -20.616504550833735
56.099503713541907 -19.371672886850298 -20.349554378082992
55.028309640173617 -16.735458416795893 -19.005341618761381
51.450174988027548 -19.563210836577621 -24.055093995708027
65.923609471100178 -3.406663398922031 -19.153995266582683
67.165153539710104 -3.102746776689118 -23.259174839431292
54.107664434201133 -17.690689133252953 -21.236804421089452
72.046928824818878 1.547280860799720 -21.866531355511334
48.387796163946213 -20.306208872066826 -26.130761179361016
69.579284370413475 -4.673378370699217 -25.437835614059967
50.748877266545584 -18.721755855921916 -24.722835224851305
55.865430286716283 -12.846341279387550 -24.652388486905938
66.867860286864982 -3.858856584698030 -28.963469841763395
49.623803599000397 -22.526676563358951 -29.855586597681672
53.375362079485200 -17.666727702683374 -31.187143221321641
73.670214782863837 2.055116074495424 -27.167703988557847
55.949917757402744 -18.563300245780123 -29.418545845885546
66.067468066458730 -6.232684091971805 -33.196164110763526
51.088973770881118 -15.676179486216199 -35.518383735047770
56.268099729920550 -18.117828206010973 -31.029575116614907
49.683156843467657 -20.938623825968943 -33.244236433020085
56.878214694388163 -16.303037734862748 -33.973646983883661
71.259415655883203 0.381799638660091 -34.163246796277484
66.180430418361922 -8.063080474256550 -34.531543507301521
69.632160704807958 -2.879510197296007 -37.774361732067987
58.655423208409893 -11.470599189378831 -37.622933680384243
61.597387643426700 -5.082388365255136 -34.437138783036964
66.260366602226298 -2.197120718997324 -35.624772490996904
59.786560506812307 -13.252066796221062 -35.709313410612140
51.587223455829282 -15.442955322934491 -35.247747566765575
52.447207129148104 -15.468398684774687 -35.729580316269619
62.279495051489768 -9.299087528230029 -35.221666525162931
68.654209278835836 -4.246138167152200 -35.377393451619831
57.083100805070153 -11.670464963925541 -37.719159212973153
60.024259564599618 -7.968729929334254 -34.858008819988235
69.652763633953498 -3.836306239690715 -37.133110079767860
58.022346555553334 -14.943325606097300 -40.172414203946389
58.848587616261320 -10.438034220542079 -40.024744148913761
57.724065391155023 -14.194730736457014 -39.002402964079209
63.515310833581488 -6.827580401241597 -39.304900335848693
-11.971531977191866 -83.738642644515281 -42.759696629834053
-11.718681542348101 -82.146933357244791 -39.724728910771645
-19.757456027147526 -90.873612058241235 -44.187534847258760
9.048206023946053 -59.979031806622260 -48.268775578896324
18.910988372295677 -56.224284125401070 -50.528739027482530
31.128058298250160 -43.136466054969731 -57.752509979525371
31.621299788781421 -40.360100334931587 -55.802198473179381
94.061217856849680 26.107564831676981 -57.960108584714327
23.377678312285518 -45.360048185937558 -58.295392185772812
106.477763642201907 33.831395067142502 -60.664902982002040
19.825993674402607 -55.533505959225245 -60.089745835384051
16.537674837448098 -53.390723443195498 -60.658628240601040
-6.299672114004695 -76.855905783607852 -58.965523403639921
-7.690080379717111 -83.785485800893269 -62.458756811663150
-10.611485823116935 -77.032010880562552 -64.242282784939803
-10.773765344064602 -76.088527232349051 -66.018621232506248
93.761717254014968 21.147732343214415 -75.206711098979710
97.362423256128650 20.686169969179034 -70.116724529376000
97.035204766288089 25.780160441289578 -74.254798937682480
85.239952951406806 8.390843457765868 -72.767860458251192
100.972012566696606 28.609659958513728 -75.516720305146848
102.204607287717749 31.398602274243792 -77.184918807805829
80.558474659691228 10.542290531398622 -75.259709867112107
102.272062158784891 33.128443883783440 -76.440114208494322
79.146991350652044 9.690127550685336 -75.970337716132676
3.609326384154810 -63.289109006071726 -83.308552493347037
105.867456954181819 35.615801946375605 -80.599914908410170
107.413587536247661 38.142529690868457 -80.372121879175950
80.803378776556428 9.819857709416461 -78.753706389159021
82.986064047164390 8.327460508399707 -84.707854110363627
105.503529506357367 35.301387318861480 -80.327680394808240
109.147500187696608 37.525232759201437 -82.623186176187801
112.126653341337885 40.737525885923809 -84.550613198957620
-6.680602437153143 -76.235716653834245 -86.751618019784914
81.610074715346840 9.010502331585929 -88.656776986717773
110.745445299983132 41.131919161311451 -87.946433885074043
80.829555453043511 10.907308071862024 -88.264263814819259
84.767626368825347 7.515321665230950 -88.462430690309560
103.561695211550173 36.565800115502086 -87.162271441354065
111.950285818841849 36.859826200079112 -95.120300982228287
80.251090966069540 9.365123898455909 -95.612107407452029
107.859539251854557 38.044181042941496 -92.266912356604607
-11.877744714195412 -85.882598875317910 -96.552465566133023
84.226297271413088 8.665911667848594 -95.933292253857189
-33.858661407205133 -104.451986215993244 -101.131641985505624
81.281357731121858 11.937864360289463 -98.844584695099527
-34.624725935586547 -107.717465905028774 -104.793588219637883
-5.934255099827633 -80.416443054041949 -105.865656199152127
-16.573675661732242 -89.438940689920855 -108.933858770131422
-14.306055363024623 -82.785271864999388 -107.020474398469730
-36.136364423185526 -104.989413127869909 -109.665757903146300
-12.902591484880274 -82.089118351688271 -109.933424243058766
-6.968775827348573 -79.589671059809334 -109.331847873605014
-18.941933213050753 -87.888482276930915 -111.049710427555638
-13.062250653377191 -85.027306581600584 -109.067776808426871
-12.604311899859914 -79.714929513713827 -115.088129180180118
-6.562453226613156 -81.143585126317078 -113.781171474535000
-29.360076002628382 -104.313926071566016 -114.430374930920294
-25.412513873171559 -95.015077210629599 -116.574020644250268
-30.314140157658986 -102.499470564517935 -119.668400366374755
-28.994547714213624 -96.911468615184674 -121.994131617719731
38.282579090511298 -31.835798871222153 -235.096869577745338
33.621635730407640 -35.406170145226916 -229.715202417331795
41.485337190798333 -29.127995472369445 -233.711920538655590
43.249153394770673 -26.927072247794559 -233.421840659435247
35.765019712917493 -34.012384764883222 -237.790003638641025
41.818646211253899 -32.371841015294393 -238.717644918514139
39.973523708029305 -31.409039231961437 -237.612384000225745
41.526724218052919 -29.847346537685031 -237.731234908189180
40.767445974522595 -32.595930240043188 -240.272735255939011
39.506621765758723 -30.274430211197902 -234.716626437691474
42.643069406117483 -25.005905603308431 -242.383573324085120
48.370328973238472 -23.002041226781749 -237.925587013341726
53.696760187387866 -19.796019173236701 -241.167970220934251
30.374914566851999 -40.712151993992805 -239.333933244868263
28.491359596414387 -42.334671455008866 -238.511303994768213
48.775873561455136 -20.566921930676678 -241.715322019803381
50.267189614200383 -22.344407110813922 -243.763048112371536
51.609481209933840 -21.065470679616940 -243.258211525962452
44.114634643588580 -23.424001155362159 -245.952580707485453
56.101006292764389 -17.358459773699469 -242.852837249719784
57.107801249008453 -15.148568980742361 -245.789115379705748
28.541554901766872 -42.076846515365894 -243.942382255600933
23.825178241318238 -41.037760677987720 -247.152527071534138
53.817899310057534 -14.074639314443235 -247.892998888027563
57.931859645257312 -14.688145130589213 -250.471117337122166
28.399333920535064 -42.192160656858348 -249.166724178998180
29.440583819445258 -42.285679979461968 -249.250264100260324
27.924529311714142 -44.888581427260441 -249.965196681896600
26.075218618338429 -44.887585645152818 -247.931828713994804
54.003234566475783 -18.568550991126756 -246.011028953143125
26.859850198870209 -43.004145350988487 -249.625271288315673
25.491900415820599 -40.457420269982180 -249.749427213632060
45.274647899109389 -24.353709477859613 -249.896391614625060
26.581854205412291 -40.667738936826183 -247.972861649391206
27.908763662257684 -41.070777939719754 -249.857330717420666
41.797301324300179 -25.279098079175867 -244.177323994208876
58.019220021041235 -14.817149126037847 -251.149477019759843
27.947624712665718 -43.020971832887525 -250.328014170272041
28.144438944478321 -42.074096438080254 -249.731554251509749
55.717082035670700 -13.533806308298306 -251.392893056938561
26.646864984627502 -43.840952852122122 -251.414066759819065
27.223701879470642 -40.649321486717945 -253.131496981845260
40.333418880355921 -29.218975767931450 -252.252547519986450
27.845955177649675 -44.706522875612066 -251.482854184111687
26.279433397735367 -45.783659960338817 -251.890314090075350
26.444391081265398 -44.162485670823465 -253.408124869212145
46.359501455988607 -21.487515093647101 -250.775544367317366
23.117518241366859 -46.433393093915527 -251.266139728472695
57.505482896141082 -17.078913195951436 -251.186361470646744
59.775993477764871 -13.392927893510358 -256.726108180831375
44.574294096110052 -21.016482900755737 -252.107304339965367
26.245178119925399 -44.019441194234105 -257.339617400706800
50.965506519142387 -22.313154331734605 -256.531606523632604
42.728430257585877 -26.288513221209222 -257.621437205403538
54.386584654146027 -14.929069066941373 -258.189674270288776
30.404548068393357 -42.517836648867458 -257.289167299017151
55.798756295981441 -14.741074733874978 -257.733565126724955
31.958706995747669 -41.169944781670310 -261.587536757731414
48.793277867024841 -21.452968186567869 -259.606727987705881
48.349700258722962 -23.277163509297008 -263.477486889672434
58.077056740807407 -16.754099894464620 -261.826886677506820
41.088835664792136 -30.974681026695507 -261.053091393725992
54.594343342490156 -14.979402685913261 -262.700527133637422
27.435395737642505 -43.948913052750505 -262.906057723311221
58.453625244534756 -14.859597979242963 -265.515661236800838
46.151547265244083 -25.672664732659872 -260.958515553110658
30.974853281168535 -38.011500915571659 -263.366444923677932
36.009725257883787 -37.438240384010030 -266.401693027599833
39.837125263397276 -27.282469523433544 -266.980721741169930
52.882209937485833 -16.644617871565824 -266.360189806778919
38.656921313066732 -31.806634667404474 -269.677651514372371
30.758819023944795 -38.153122353469641 -267.497170410694821
55.544472942302413 -14.009999051453505 -264.878631929919948
40.003053066749935 -28.213491800614644 -269.139282888074320
44.164610610630596 -20.799333015391738 -271.685477291544260
54.344245103062313 -19.765252462144076 -271.174378365688028
57.231482073276332 -10.881676925985179 -270.081789528682350
37.608630250936415 -35.563893236935805 -272.005862173926573
53.110661110873572 -12.410813049663307 -273.307832243659561
59.036566350390025 -14.432792536437489 -275.052575406848916
32.205795569301635 -38.922476966136600 -275.296124190978389
48.955989011271846 -18.603740849387641 -276.052204524793524
39.616663734045744 -31.980471731963384 -276.044616870667710
46.026606443773325 -24.428338285052895 -275.059002306313744
51.828558235470254 -19.432263509480588 -280.057470501112732
55.815451274007714 -16.241413832265973 -273.956540647390625
31.828848128947289 -37.924019387026163 -276.512602819022504
55.051288583613783 -17.822498801507091 -275.932001408512292
43.071211887651515 -25.476168451044639 -280.201879496666777
57.007738692691838 -16.290192034842971 -273.334069838922346
45.885814711230339 -24.800081316419305 -281.384580678517182
51.631262894952066 -21.861281903074719 -281.417148588044199
35.632635669780043 -36.268301369311310 -282.703476934460241
45.370776166755455 -24.844470751264701 -286.345179018511942
44.603859634745596 -22.869741529375869 -285.422674325605328
37.447793973038472 -33.343605097824920 -289.342788004990723
36.691192635868617 -28.601551374974157 -287.634400484162597
48.989759165104395 -21.217833654352823 -287.139357270669109
44.080781800986713 -24.856578956843965 -290.127500759014538
40.155354217323683 -28.013619083773598 -292.440326903342680
43.041228524297658 -27.818789521580520 -292.220851150465649
43.579040061753908 -25.870289520327983 -296.550094976678679
40.046914846105977 -29.264087306403230 -295.829718520226947
43.937249182378203 -31.146663061921430 -293.609593265449917
62.029320291312217 -10.614962981203846 -13.036764682861305
64.800077938666789 -6.227901691727968 -16.009021193679285
68.859694744225962 -1.895939905981626 -14.380910663720005
53.604843132175091 -14.914262001046684 -12.882612773865057
62.767495726017444 -7.517788252277683 -17.606613235398410
66.225828886739038 -4.951259145135244 -14.024416430716450
65.280998417689773 0.519491505730896 -14.346347075743699
56.853026647437552 -13.557385571576795 -15.806405970660570
62.125549756108420 -8.589426911617887 -16.305132146094831
67.702280894352270 -3.980610705373599 -18.375167258701438
54.029698882782114 -14.985062792218542 -19.748243959762043
68.691989823518739 -2.008085613422101 -18.292999702437282
67.540486946342909 -1.454077208631096 -22.260722946997241
70.209110289732905 1.944633962575276 -23.317759931799095
71.507962815739930 0.764755188148716 -19.330236905754774
67.494095363425870 -2.572439830705762 -25.097438113634539
68.414983126912858 -0.308286327803089 -26.458578908089493
70.724553879900199 -0.109556790212920 -25.568970355054230
71.063402720302051 -1.766846034548225 -29.032571402097130
70.350398926837499 1.653205119495103 -32.878060576563882
71.708205700558381 -1.292367819419031 -35.446840237754095
65.046740502681402 -4.859828422208945 -34.549814681093906
64.459784459370496 -2.330402692386738 -37.293311798478399
60.332084099742076 -8.856756529069811 -38.349956078735325
57.362921657175932 -12.772380309400759 -35.222657464092165
66.579833824120769 -4.742296450682137 -41.445280565694524
62.151884859181678 -5.284022092119872 -40.214119167167404
-16.644951057531713 -85.759795568343762 -42.738321108243440
10.464075744600009 -64.142504380059009 -46.981025728396567
22.330977745384246 -48.823310322146696 -47.732267786419861
28.319276537096144 -39.270196768841416 -52.940147539389308
-7.127610330812819 -74.336084937313260 -56.949665971246858
-34.041210416069170 -102.801737233103267 -55.752232409705336
-6.460172508361970 -81.549901155622834 -57.534653332271169
89.126141042797258 18.461186048217968 -56.736255243189717
90.433702720995996 22.277969768701212 -57.330141439697520
-6.383800630922423 -77.697059394417508 -57.050449149050081
98.454781358541865 26.121809429090096 -58.136545371183693
98.950196254014784 29.896444696173543 -55.511158577007116
-6.756439244751194 -79.958318296463432 -60.528016062195803
86.418379641919131 19.083696653284303 -55.642591562480142
95.157772110946823 22.747142023902512 -57.257154583611893
-10.878762085958513 -80.903330479769068 -61.739404977434667
18.074250334294714 -53.626480344644833 -60.238337798389885
83.047090106186246 13.269560066245040 -59.390477926250412
83.031343074128699 12.292981212777468 -61.404439120274795
107.474044444859729 36.501098975358296 -67.200713893624510
-32.543176735250000 -102.316813440227875 -66.232889495659109
82.165679855408314 10.909088142306965 -66.209864251210448
82.263809449083325 11.086084281592816 -67.877807014694639
89.647796189678473 17.091152329807851 -69.671430793868495
90.113328808646642 21.428758827817688 -68.506566926090670
90.768720115275784 17.515362337451478 -65.366650641711303
96.701565559044610 21.859915932315772 -71.787480462424753
9.067417465846262 -61.518260558528624 -70.673388374511063
81.186766635967032 8.980039732505833 -72.924420503126143
97.966837436146506 28.699981488225383 -71.082781539567279
6.472279494833203 -62.283028519665265 -70.602791528543747
98.286321160614577 29.148076453711404 -74.236083381973430
80.052227545841149 12.220926004262919 -76.701279147708362
105.797712050296909 34.095126434197397 -73.233470738982419
107.677628780984804 36.291251986355903 -75.640812013453171
80.046206857879710 9.999100098444952 -76.212494150180788
104.583357099451604 34.755683699213527 -77.468880631282815
107.988283701366200 39.194321323075094 -78.311180732009262
8.575191835406660 -63.867866668379392 -79.214351280534487
-35.757377100865106 -105.420817013993144 -81.305123410994781
80.858005958072610 8.416046174992548 -84.095011279926140
-4.299370775803636 -75.610744113177574 -83.759902162911061
109.672288085850496 38.380470051794930 -87.071336030031574
109.252970081105772 39.325400917094349 -90.795664179406359
81.164990260516007 10.367851056488380 -89.330158682576339
108.018201978003049 39.033785016202557 -90.310548735739403
-10.982444409150848 -82.597488631764506 -90.314511129254313
80.790000165285406 10.620444534925253 -97.751534426670162
81.389631336748138 11.977074737849820 -95.143473722053955
-14.507278770912347 -85.661700496437348 -95.986049407860648
85.154350651859474 12.166641595626162 -96.140491057810408
81.397294032684300 9.210290785992289 -101.264646712863311
-14.803935344515317 -84.600715933897177 -99.487911919560190
83.601273705865438 11.059097756100234 -101.076592293598850
83.794026423786022 15.443680501712295 -103.014901351160191
83.562606420955674 13.439445081879732 -107.960392763051658
86.860743918976993 16.492604929809410 -109.036735664683007
86.045492847497400 17.407486665266674 -109.538190526947929
-12.637052238067543 -79.006984591058114 -108.310704219929590
89.205280895193482 18.735648811545687 -108.044880373513308
84.769823008759559 20.788864483179360 -111.043897839809688
-29.733758508730933 -101.582890348953939 -118.553779966620155
43.230788803082284 -25.007912475185591 -231.729935794543678
44.620468321165234 -31.077973384765386 -237.407442981085779
39.661062045333338 -33.237529311830038 -238.173682577388462
43.990460663064411 -28.106725799367805 -236.674575034157300
46.091131548646445 -29.077806844866618 -236.158500415832066
40.936865901405362 -27.355873454612663 -239.169302280434181
51.978509710494279 -17.266522901072690 -239.913812021999831
51.553288112114402 -17.765864907658823 -241.586989950037463
42.871868573333671 -24.351362693398663 -240.954063325425267
27.041284967984389 -42.126934089789707 -241.011304935865184
35.655806333026320 -36.178316202059456 -242.679080254302619
31.907482849951954 -38.020659054529702 -241.031966480728812
40.611960349349552 -33.222884154267334 -246.199662585803509
28.953204781844828 -39.547667272761764 -244.516090237229861
32.922320996289663 -36.088633751593505 -242.785036711275779
42.436021230347556 -27.384463467214072 -241.214800606938951
51.136899800772227 -16.020695542824399 -242.455645236368724
26.139030085226675 -39.880560402203294 -240.439978165989004
46.934719043592274 -22.006193646831388 -246.912106754164768
51.204070659814548 -20.848901791255237 -242.084666519567918
49.045505010532786 -19.831177502483786 -242.944155277372261
39.037980476281028 -29.049544117413376 -244.234418265268573
25.421280098413913 -40.313132482106248 -247.206536115842852
37.772495137010509 -30.680362619203237 -243.132665723430534
42.695830444577616 -28.460908676239512 -244.123295466770514
44.577518040476747 -21.613318999499992 -248.229725539505154
49.618428883569266 -18.064292402056758 -243.344110676954898
50.958633793830813 -17.622932484764924 -241.826779758532211
27.687992476374919 -42.269350379461365 -245.722207501268088
47.798509166261333 -24.341606659188553 -246.341158620987528
29.834319235353298 -42.731174964786142 -242.972861874843659
29.575324646865031 -41.977803170889217 -242.389883428459768
34.954893741178509 -38.293316387932563 -245.583206568216724
33.812138091688759 -37.774790102830984 -249.636426619742934
47.810014670050393 -23.745480239503188 -245.790171604690556
58.185238535103871 -14.207478858168876 -247.759351655904993
26.432442849513219 -41.522906454387019 -246.238496160058332
55.852473855486217 -10.255099383694205 -249.481117532464822
29.494628141188841 -39.740867669103594 -248.511009307820359
28.018041722057788 -40.567957531287362 -247.637392575888640
51.554192503616228 -17.478948444538830 -249.533095816197715
27.252879776437307 -43.390646103616568 -250.899928864271004
30.154065955607674 -41.743431909424274 -247.559555015996551
27.713950296090971 -40.860291719326689 -248.751429417802370
44.666501746196857 -28.478672804722535 -248.254901887090796
52.587297285851463 -12.960799117248397 -248.967324142952407
25.229599304629730 -43.797711093291213 -250.179089693765746
38.134336837917274 -36.016212208143841 -252.151215519801497
30.046266440604029 -38.195533913514559 -253.119211979952468
33.675721634088973 -38.431635079282707 -253.011336936497173
56.585453363443044 -14.510531184107780 -252.690207718035424
26.116530236431835 -41.381175639122574 -254.832106118824839
53.830125189268124 -15.100887398218877 -251.048911519739875
38.963774226507773 -28.695229874728241 -258.665673130471021
52.840978895333315 -15.787678997330065 -258.156780142518585
56.502067140558260 -12.594350749371404 -255.843481699880385
53.045316691607475 -15.827621268084222 -256.145124590583805
27.915971499254898 -41.790095191409065 -258.638870135504476
36.370943778100148 -34.247180466616499 -261.151271538408253
50.970073937557828 -16.106765115107997 -263.574967530208141
33.744895373993046 -35.243475177921013 -259.585844424540369
53.460927149044792 -15.162727981957197 -260.692607903635974
56.274964033441719 -14.086864941446262 -263.454899338950440
52.711220345063417 -17.498974186770784 -264.824762838459662
32.763571712685284 -37.520315936463760 -270.068807960408492
53.147637013946685 -17.843941778571921 -270.363977162787819
37.324702744333969 -34.783378631668683 -270.993555686816080
47.277923590369149 -18.230421910635027 -271.096898315424369
52.210669971331278 -18.765408740682133 -272.914521992217999
36.487329696209990 -35.590829854724014 -274.730165490277727
56.726140115693958 -16.213496597933922 -278.207146354792826
44.006158463299890 -23.251662911094023 -274.426910705547641
37.165404886274160 -32.540842990917589 -276.401093386726870
39.968556718800734 -32.468219551702987 -278.143596225742499
45.008757070637095 -23.544600392253901 -279.108192183259234
49.446474994529424 -20.426041931982930 -277.698308550001286
38.384704282135623 -29.049866924995502 -283.219309702595979
54.191253197136987 -17.621892144295380 -278.342408157847956
53.115837464160165 -13.654042354826082 -281.055567524234561
43.011448367361979 -24.486868061374253 -283.423076522005488
49.041423941399003 -23.252808413577540 -280.828390545754530
51.793587949817457 -18.464797320125811 -285.643105427504111
52.732752235047229 -17.884079278695015 -284.770396251658099
41.346559305294022 -25.722090900695843 -286.214638454403541
49.829224502580075 -19.960754356266442 -285.787144329466230
48.274880550542171 -21.279990351518887 -286.774872587747780
48.147312819882714 -20.966784819287234 -290.642022001390899
46.596660841421539 -23.972531334949178 -292.441694509855438
46.491167660557423 -23.460895747802574 -293.979206086399074
45.176419212572064 -23.589793315110569 -294.683241446459022
41.286873169878696 -31.491182466019964 -295.053776850390477
43.534820993290673 -27.998898158992539 -295.972930386509461
-13.278815064121359 -79.261362275349924 -39.905119245462771
-19.849885167504816 -84.109069839811397 -41.418746608824129
-8.058509169953574 -78.627139597841605 -42.723590560766816
-6.345798311842914 -72.226137471285952 -45.507638446161231
-0.542151067239732 -67.571444013142013 -46.505082944133179
-24.901822550459897 -96.110320152572342 -47.255767483880689
0.499807265265229 -66.403652085447320 -46.407364539809706
10.638871429187887 -53.618675149908377 -50.378915255075228
-28.370773354768030 -97.116993845237118 -51.953315371184331
17.404340140623990 -48.544935504764787 -48.342578332557423
14.848734155226362 -51.485514272537749 -52.168425425528078
-9.369789229682253 -75.305479950865887 -52.649560044858696
-9.904129341850211 -76.595533993201371 -50.948577562404353
89.825624227188925 20.707523049524220 -58.062275737152120
29.138775698929482 -39.058102553285231 -60.785088762122577
23.709484311266451 -44.403035715863517 -56.843183359305897
-9.957840130994049 -77.577687245491319 -60.609583534521121
104.905870848090132 36.734863203728509 -62.853722318244174
-7.989415780776680 -78.629322025574780 -64.561197337463440
84.326491263758498 18.501325732089487 -63.975935551431732
7.444557040538538 -57.735301372665333 -67.213292444899963
84.883466205389368 15.834423117945427 -65.805355341051722
87.403801449448309 20.062468940806070 -63.465749072378557
86.831851716239271 13.254545738680434 -69.598105586752183
9.184741584477608 -59.715965434146256 -66.107503452655209
80.106738798406994 12.492357004215508 -63.823406991394492
94.768985116737355 26.435058587566608 -69.425952588603778
82.574923472234630 15.225835418917649 -70.265121451523015
98.665957441672560 29.361936948217579 -72.676108875861019
105.632938598760077 39.242535175656492 -73.552462808658788
111.203388655645284 39.760980386135429 -73.291583614996668
80.652961588723571 11.523638236364938 -74.009445307255604
80.550539437271865 12.743431176752996 -75.075285302222383
79.588513275266919 4.973969436939852 -77.250779204102940
78.233082754501083 10.559197470421392 -78.752058113902407
82.117465592957672 15.021550263350054 -77.295471331280254
-2.481660660590979 -71.296066431481123 -81.863053014588075
78.540120493668837 11.993666745889023 -82.209638421713279
79.182107397376953 13.081594347901342 -85.564482675380859
78.561548330712981 8.271662176956866 -95.005763499903523
76.643579157990501 12.047112307669648 -94.407116064562175
82.479733741428163 14.179039885693697 -96.406241060512528
80.974240120592469 13.189947382049736 -97.887635348194081
80.411019973286884 11.911379415086722 -99.589140405103265
-34.165108842554531 -109.150452629333813 -101.364835509423969
81.380069078270992 14.845608414279734 -100.264550371219983
80.696664128819563 15.018887684196482 -102.008492055395507
-18.011828126176898 -82.235171894420830 -102.421147046107663
83.008194714866548 14.637290579864748 -103.083451997149211
84.958176217881018 12.289981060963738 -105.239073077081812
89.301747953173120 19.661647065589314 -107.688663031801241
90.971344409483194 24.035687222832355 -107.767016945996943
-32.522662741105272 -100.651220862989618 -105.769329540209597
92.854409177228746 28.084985527022042 -107.606993779679527
90.152778036091789 24.839704396008212 -107.935837385680088
86.470304108220915 17.132688047539041 -110.272746510759106
94.082795215994167 23.073511993865409 -108.575474250829046
92.961594379438921 26.773647544500371 -108.622439803205808
-22.373157132210167 -89.535843875696528 -111.890906586313278
-28.295371871783843 -99.747087138159628 -117.930921031836661
42.530291708263405 -25.582594317961931 -238.387237741182702
44.109806241095853 -20.352628446078242 -235.913837829077210
45.861766775183050 -21.247237126781606 -239.616706530158098
47.362155653814334 -18.137721919539931 -234.130880167856361
50.270922676007125 -19.522137248317204 -236.802338504859733
48.088948585538603 -16.622048025274449 -237.087137182944730
49.582871987156516 -17.826729050122836 -238.792557676167803
45.493001050818258 -19.346626259236611 -238.584341242134656
34.792694318468961 -36.420322470315021 -240.853511558732947
34.282950643638635 -35.041462304782421 -239.460258049725070
42.476956716229438 -27.237890702180501 -243.816945863874196
47.211248111409795 -23.181801634050000 -243.205860997970746
42.542599509314918 -28.113892129564913 -241.188935925005211
32.888912317297468 -36.521292397456634 -243.278897010193106
44.969713419619708 -23.898789060637554 -245.250619312368002
53.488863188245013 -21.757951142884373 -242.891220668800088
29.185404669696251 -38.656914657600552 -248.295952977063337
42.932389116024844 -27.719001151752309 -242.496723746721187
48.294405462884640 -20.741591149227048 -244.289189718320188
27.164813036131740 -41.708063766620150 -243.604381226638310
37.738725587907496 -31.476876402047267 -246.306275344353480
44.605485861338209 -21.233182309189040 -246.862475372727289
27.889295704666303 -40.182717410191273 -249.917465011078576
24.040383665224461 -40.593511335554410 -250.178180828380874
45.868265679075002 -21.530329410586404 -249.227987345142424
27.507211243755012 -39.736155875701257 -247.559670056743471
39.317050009127598 -26.151227332333015 -249.770790744358550
35.933304662199816 -32.379485185257124 -250.564446088025676
51.495281496594622 -16.225837637627460 -253.060083781692214
49.468043064627174 -20.868430860088246 -254.464607230170458
44.266723261288114 -25.352711948698879 -256.306251379075377
34.781807606754633 -32.267861231834914 -253.452185907747150
29.758476092143962 -36.826965679752334 -255.123859394475119
34.600406476771973 -35.205056606716902 -256.471917612543393
42.430730864624273 -29.673796471501507 -258.716077730613620
49.667165292006530 -18.087015247623729 -258.028691956085652
38.583557296011243 -29.559561939241725 -260.919124253168150
49.426986255931581 -19.027129199858077 -262.244546284654064
45.959876794579806 -27.462842058625125 -261.200183568549960
31.023987959062833 -35.816632499757439 -263.054159113444825
33.985292071564317 -34.844455081028563 -263.847337747186089
37.161672577103730 -29.235018153577588 -263.810998875091173
46.515509312137510 -25.149171735364853 -270.101912191788188
37.354952033473651 -28.214795809476325 -272.649950128282114
28.204943984014150 -41.182031498524239 -54.105412685258706
-8.582738280656585 -74.923250513751626 -54.066855589066336
-13.369128724654963 -77.854053356577040 -53.556967868772141
90.816316508756827 25.012550868279362 -54.829919194012248
86.017798870488349 17.269358091364907 -57.779086242569406
89.489563143569271 26.940343741856111 -57.827917657415860
97.241125953069954 29.599928113192334 -60.325992067044638
-34.253365783187355 -101.923762512436923 -57.484131874831021
84.565788845773014 15.498429657211105 -54.269857289205689
94.746860475333932 28.876041738773928 -57.382718273142260
102.825758335679396 33.603520053496993 -62.851848915145354
-10.139915188657474 -76.155736983828220 -64.117801896511210
12.482904092256042 -55.195223275644238 -56.604601004248927
80.842868342083833 15.484202163008858 -59.468214531216546
82.294137478402689 18.559565579558001 -60.419159324590922
82.958936157557176 21.608781904570243 -63.391938237578046
81.199218662036060 17.185137124280871 -64.757058026532533
-35.635284062183437 -103.742709953491300 -61.731423972658185
89.577492271471698 23.656247803074731 -63.649965138567978
90.051800880514961 25.113583669134936 -65.630009199939721
79.574460123107372 13.505044430418923 -68.326651234056541
99.115457458384540 27.713919916392282 -67.098122259634934
80.532199304474645 14.510962483214152 -70.292608280834784
104.309124470333686 36.154181052299272 -71.420728990834164
6.021776290427908 -59.385948831028280 -77.112842093571786
-39.589904796163154 -104.369556903035658 -78.086162278513413
78.585721214571393 11.117304273728680 -75.197160205389750
0.721193502363252 -65.623080939283184 -81.520776231348179
78.604469964588759 11.884579854076083 -84.336941031348701
77.082177939613189 10.314088170847977 -86.146189471728690
82.446136137649702 11.971637341627336 -90.334966966496808
82.900036598615003 11.905151666306901 -88.631227581609608
78.461335142744858 11.616385608800265 -90.923714015737033
80.551905455151655 13.784228735479475 -92.576884705007501
75.824222229457163 10.553680330066902 -89.429349809370180
78.690994836868057 10.212096572289928 -89.844650404726309
80.825737266991950 11.947849765335615 -93.525511834817593
82.637514811740374 13.472094181380756 -98.819109484629678
84.675328421116703 14.882640210040703 -100.699646324079097
-19.757966997522065 -86.000691016977299 -103.731350614731383
-36.881879763918704 -103.345259070196377 -103.713810722121664
90.761107102416887 27.816109239839001 -107.453926265246082
88.386126495721285 17.723664298915878 -107.013261774688232
92.614168734406022 24.981792980265546 -105.912616640541856
87.695810354721829 16.726560283218760 -106.172271003579439
90.358806954187159 23.197049526792195 -108.160477444971860
-36.610814658802191 -103.204570511201865 -107.266352855926144
97.894497365695059 31.059422737172984 -108.441996601213717
98.780307688744131 32.657684612436597 -109.047638477560781
88.482796766177685 19.151264577108918 -111.093645366587623
97.524863953514412 33.170335837052292 -109.133107885285128
98.078928877008366 30.046780187651393 -109.525341780490606
-23.020574747028505 -95.556422090519732 -109.348193250756140
-33.508738111130796 -96.636243084574261 -118.552534662936409
26.329104350455257 -38.766264683652722 -241.961756800970022
28.866385910620615 -39.426573136928802 -244.082348369424238
30.830269010565072 -39.387656546574917 -245.550843059127430
34.484697567190040 -28.439126633261818 -244.043249980646863
28.451515597739736 -41.305504739362675 -242.564133928158412
31.269897849874141 -39.385343612964853 -246.412723991475247
34.275429291540256 -33.407111381711992 -246.855346817646847
31.351790773665265 -36.957168050199947 -251.763957247286413
31.399913269676141 -34.932108874448680 -250.777527165754663
-24.027832045189374 -93.986036148760903 -45.228629626991086
-8.161747684504693 -72.754966520632877 -42.947607519238296
4.112917689568357 -61.130165230250633 -49.883985367688801
-30.115147110032733 -95.059012451923635 -51.577691593614709
18.474038627175176 -45.797023957700297 -53.347170766926268
