# This PCD file was generated using the MATLAB® pcwrite function
# from Computer Vision Toolbox®.
# .PCD v.7 - Point Cloud Data file format
VERSION .7
FIELDS x y z
SIZE 8 8 8
TYPE F F F
COUNT 1 1 1
WIDTH 800
HEIGHT 1
VIEWPOINT 0 0 0 1 0 0 0
POINTS 800
DATA ascii
-56.077449479244180 -143.211125127442983 -225.070718457224274
-60.931693832587051 -147.407984131182019 -225.639272529571741
-65.952307261875831 -150.509627824867238 -226.970535340393752
-60.993199789618821 -144.866649676031756 -227.943723211075394
-55.724949467193639 -142.960625944828962 -227.974724994648454
-62.486331848041630 -148.442581177986142 -229.080316132902766
-59.133290075976475 -144.642878702440811 -227.983423912263959
-60.151104871985517 -145.731201339956982 -230.491663478996202
-59.196077187890374 -149.325174197202045 -229.819615684476389
-63.571998628051631 -146.278893054971775 -232.785987089643271
-58.551228021699195 -144.474243349012568 -230.733884180613330
-57.700402186915341 -144.823847108357967 -231.244010363240932
-65.135654784774914 -149.504555364379144 -230.957334300784424
-63.533865760052201 -148.916018787523825 -234.239592012974867
-59.190009983532946 -143.524922282918396 -232.244997901745478
-65.392579283205052 -152.309951544389236 -232.835862474804060
-57.401159177870788 -143.369568500425572 -231.434321744915707
-61.069591776091769 -148.695060759000199 -235.306166118280458
-61.267378933040412 -148.387140752419100 -233.407749579358494
-61.459260141808628 -146.503762342001096 -233.778228013817397
43.541963568036643 -43.914602563543184 -235.472213277775495
46.818880118194656 -39.427289010288703 -238.439071773665489
54.264839769460089 -31.896941756050346 -240.305883142042632
-59.678375100462070 -145.194554696969448 -239.616824361071110
54.525238699129936 -32.218452651599932 -239.928152114506474
49.007458870253707 -38.142599518611711 -239.897051002740113
56.589881371566058 -27.917079495981685 -241.779859871906950
42.934781188726276 -43.506440704150684 -240.737258303594928
54.523687740883616 -33.972450045592481 -241.989909402930294
50.110219404466385 -33.770444430988256 -241.855013522655184
-61.201835681765786 -147.172506285769657 -244.474398780776966
51.977163180758843 -32.935608770331399 -243.454839748104490
59.344163689904633 -25.800554391789266 -243.807667434645083
-61.175916099805171 -148.023472092798670 -242.630892128783358
60.240387169797295 -27.005752493093247 -245.932198104359173
41.448905589923250 -43.735709431449735 -246.295767903151813
58.850712136054518 -26.780295467701155 -247.811054962263597
-62.568586352773430 -149.879558339569485 -248.474244004557420
-62.862651216413752 -149.137303440106535 -253.950125009621217
61.214515156182358 -24.391354125177280 -252.691250327474165
-61.313532264809723 -146.151740370856743 -252.571510176731607
-63.562355836008628 -148.521698371407354 -251.732933120344796
-60.222253355485819 -145.091520207984445 -251.808712517833925
-60.670293009891431 -145.239445419050526 -254.639298320535062
-60.394144604369004 -148.771121845152777 -256.738513089630885
62.408789146440959 -23.286491223425188 -258.588707964393677
63.317526237910300 -24.319431537770853 -259.176838084207418
63.719527200712513 -22.717551722517570 -262.641551590791892
60.167090728706505 -25.182153764526365 -272.939132234486522
47.906055169584967 -39.089367130716035 -272.483753182635667
61.793368031106830 -24.425824118279984 -273.843502136109919
60.597786017757215 -25.710756604803809 -275.790363462128141
55.956313252772290 -31.535401729085343 -285.775019497080564
52.536566421085240 -32.565711850501685 -289.928224425399378
49.415834713738398 -36.841616098845662 -291.765163743685036
66.638076385659872 -18.471616242218861 -11.417344995400455
69.607251370823306 -16.149691089086353 -11.879472516809610
64.174568288086576 -23.119630482805714 -12.905955927624552
60.224530010654675 -22.960991993976936 -13.964219557942762
72.446889089992681 -13.117167655672246 -18.555185995895926
77.822252581811895 -7.528578642846956 -18.889083181309189
73.812828643264879 -11.985868079276758 -21.180079576552721
61.900468268889426 -23.762302359289073 -25.353521408045619
73.858985484627311 -12.955213240770966 -30.921678055767739
78.114736425634021 -8.093397668219708 -33.970368416415120
65.301254390373956 -20.981720719170262 -34.446297053069856
60.504347980095247 -22.093682913169001 -39.192934293997546
65.219667110001964 -21.393181089596737 -41.263301359202188
0.691372702611794 -83.526618734871917 -40.374807399218035
-3.878232895519172 -87.442934194768497 -41.075868949405695
-5.269805601827733 -90.591597294357769 -41.387249585203833
8.449687134700198 -76.419060605531470 -43.154847175585097
12.550835963318454 -72.388350704310483 -44.393294366816569
22.055369713462898 -63.658069133665492 -46.522921339777476
25.016074553899657 -61.274555838503751 -48.027642992137565
-15.314573101680885 -101.474837075056271 -47.838258111259996
27.939979686281443 -58.015640585712788 -49.142608562525716
36.096071922759577 -49.001634849262622 -56.495912793159334
98.110588989721407 12.460436326722455 -60.071225442437644
37.262804952093795 -47.448565417507282 -58.959117276719617
94.869084473144653 12.208717301989710 -61.400475292031537
94.833007514314076 8.885746090604510 -61.554827466394137
33.230509357715022 -51.843863497597887 -63.464773824129210
26.380533845510673 -58.673474184208253 -64.780730481929382
113.389780163349442 29.026664935127972 -64.466964161066898
21.738223975503495 -60.523684620428291 -66.268473048879443
-24.840052967805782 -110.249508668935391 -68.825343805960770
22.626758659788525 -61.132302190839589 -68.497590014420993
20.538457531450291 -63.196331472610481 -72.432817621323977
6.468671791505869 -78.113868226867254 -77.898039401725171
2.218798179522699 -82.561315503038173 -81.163868419734968
116.401184665661503 34.622588722562853 -81.423853212836320
117.895546335334089 32.826287739222089 -82.819376199847852
82.669863207855087 -1.054553196950867 -85.691677534087390
-1.043868809450792 -86.632509475525751 -87.550359101930596
117.724675897032370 33.426577076987826 -87.680629522592469
81.489390780759862 -2.556033343122089 -89.542078851546805
85.509758820937009 2.163151955207787 -89.171619481629918
81.053968478276232 -3.389656658696460 -90.537229405884531
84.413220073766652 1.620907279077433 -91.761502753374629
-3.439822127779180 -88.506701632665269 -90.511218600524472
117.949549591253401 32.684742320790399 -92.864923923510844
85.990364563368146 1.061245601933054 -92.744493759014603
116.952525263740682 32.814175050448355 -93.585340278750138
-3.051365520571347 -86.612877543590812 -95.107437285701707
115.685805588592373 31.749079172692195 -96.508124270589320
-6.783604479425908 -89.725838460599761 -100.119564766862155
115.586546872705313 29.448097937332385 -102.102096211557452
-5.432289743885605 -89.422659500223190 -108.812183384784888
-3.010639186838608 -85.589506635161726 -108.675076540092590
107.734159682142248 24.816119993873478 -108.027064465438116
104.449856184963437 21.134924062052967 -108.012992386582638
-3.337546403006328 -86.785764485093978 -109.389854463475771
-18.184789766783933 -100.157982244590244 -109.762588327377756
-4.776174811507301 -86.454882495485464 -112.049511632565412
-15.538657167041450 -99.823665001398979 -111.458264729607421
-6.119268748888548 -90.688481223686054 -112.009340959673821
-17.707025521674957 -100.865022011650296 -114.530717402267371
-13.295178155386578 -96.851631275058594 -113.591733674795222
-15.393938324486372 -100.301233342320430 -115.048994300269911
-7.096108949383265 -88.676426678888376 -115.798518162160946
72.108241482263836 -14.516007261661365 -120.590473900575532
3.223902667316184 -80.970273972234125 -120.292587660673078
-12.292789139190729 -95.873603467772597 -120.987733150544685
-15.644385275453997 -99.652090232802621 -120.367079326815400
-2.923963716912015 -86.925086001160722 -123.652394451006813
69.089124840629538 -17.099104773846626 -121.275670008453602
68.710125960603037 -14.557978954107824 -124.374655588816665
70.263108942458715 -12.974572904642686 -123.107854529883525
-12.987690294377412 -96.446401870742093 -125.536714203957573
-13.155935882569336 -97.990123374191015 -125.142098385595204
-4.322671415168426 -87.910980059037712 -124.148228929719423
5.369525368203552 -78.947955657017346 -125.332149017290604
-0.708716902940922 -87.501910222057532 -126.686890778247417
5.687665810320737 -79.068567344715461 -127.439916386884363
0.682719626154462 -85.176909914061682 -129.430071081444055
6.644157098617055 -81.032001807774037 -130.301841950919282
2.449828335753028 -82.936384357495314 -131.730934001004158
67.566821139518410 -16.698451490214449 -131.040377056509215
6.028981372404894 -80.084469715446204 -133.914262287163666
0.937845577193177 -84.409460513827867 -134.966884753975648
58.436620288835350 -25.875956502737814 -137.325598750124584
62.859122908747025 -24.099654108612050 -138.683393407145928
-60.920603122268545 -145.753109236844665 -191.147514504403006
-61.435320106521765 -146.888320789208990 -192.926070987179145
-58.245118737717668 -141.441693598058549 -193.903926354619188
-65.574915934390361 -149.298847522279004 -195.532962100157192
-63.155894306835783 -146.597858582873585 -195.430989803087016
-56.401208267462174 -141.891774982670995 -197.087044954910255
-60.637492321863945 -145.086510008477006 -196.068453723951990
-60.703834250217959 -143.957021785630928 -195.114952720658550
-66.277446008872317 -149.729817672384371 -198.626721468369283
-56.956327237795996 -141.030673991769078 -196.698044142735824
-59.270906669675888 -145.320859664521748 -198.047340262706172
-56.694343703323504 -141.430354602167341 -200.032144423350275
-63.924969813905214 -147.607938500741113 -199.515338897473129
-60.794721997785068 -146.142587507542544 -200.424253721826801
-58.037405737506681 -142.048844535555872 -201.086818524778096
-56.848608822351054 -141.628760815385021 -201.503054478134260
-64.277738252466349 -146.736807779319719 -201.967393743307895
-64.064982764022616 -149.287818308411858 -203.289663845319922
-59.444398970425361 -142.584388245474429 -203.573753787275450
-62.074383806152973 -148.068155566181673 -205.671053763095586
-60.848429389970178 -144.798367597698672 -206.060242920513957
-59.573573332617791 -143.870680248693844 -204.995726326818641
-62.410318196243487 -147.598139637381081 -210.246173528040970
-60.736710199835613 -145.434646942784099 -217.386416474123592
-62.371324130104242 -146.644745257393140 -216.543425895754012
-62.859416605467523 -147.336607973518682 -221.162222874868576
-62.461054853709889 -145.343196229798110 -221.679734770638191
-61.849564084820351 -146.847534154134593 -222.600274946743667
-57.137896321104293 -143.549621953257599 -223.346580185867793
-59.940859418334540 -144.195709459650459 -223.023934119144712
-64.814804604828581 -147.882882398704083 -225.152392877785275
-61.483138933687115 -146.154154011762813 -224.225346276320295
-60.667125523265526 -143.291810982960612 -224.762045979360863
-57.589200437855467 -142.236756936642109 -225.786214206852662
-57.914123608189286 -141.974126102492676 -230.628898137927365
-60.100203306342145 -146.491937890676098 -233.806610518961435
44.309430485993268 -41.232921096796154 -236.426881627863168
42.545669643242150 -43.599741920006778 -236.499104694455440
46.256642755442066 -37.222553412556692 -238.421466945322038
57.786454262059273 -26.896700331836044 -242.856903175663064
48.520968946160899 -36.467089574962493 -242.211369420903139
40.059152301216272 -44.205796920116029 -244.528240731321461
42.909790049686030 -41.093028174561304 -250.323071491206065
44.894559962498626 -38.275587592009941 -253.770906430419984
62.507036241348935 -23.729888219152446 -254.649331697336862
47.521645980683999 -37.860346328303201 -258.169571789575969
49.471502267612486 -37.810060100176038 -264.304626418416944
46.902098125269397 -36.511664577097370 -268.636889425270795
60.428001398203747 -25.884840061404645 -269.677524394237253
47.466978090554463 -35.142898502319326 -269.721637339258166
57.434644234635499 -26.621653207672590 -280.138251641132626
57.543161864127420 -28.330750413931494 -282.011520169440132
46.057127202178663 -37.780221523716826 -288.603147088041908
58.013309558490079 -24.432480891510341 -16.235118713294874
75.913467374059550 -7.099848232546954 -17.330193001948238
60.253942867002330 -21.040198218881130 -23.788503793455803
73.753735442964171 -11.121026733698452 -27.877201986500708
76.552759840502731 -7.223497373612668 -32.820880458613033
57.932073516551213 -26.655094623889237 -34.579571713250779
75.316630357024167 -8.566437252921705 -34.157488504854008
64.330008172916791 -18.242566327949540 -40.585616280428873
8.064204036964597 -74.007637508448525 -42.842113942012823
10.925505841821932 -72.005248300277444 -44.703222283753654
-14.404410192143288 -98.854214232863313 -47.638550685829202
103.598923836451888 19.458795745836461 -59.090031616573377
36.129510959378251 -46.442362283513283 -60.116917091069226
28.464311234259526 -53.659357738394959 -63.574679233087636
114.036686594261909 31.495471894475301 -67.500599767246399
87.132499829710042 5.690572605546961 -76.074923821704829
17.144298832681997 -66.597951113515336 -77.441603717174402
4.154861056683762 -80.508531053905898 -77.680879508364882
15.781342255223709 -67.331876664391004 -77.507153803939175
11.070159632249801 -72.229334284010562 -78.640808064876481
116.477771577122610 34.285161119730297 -79.087815867764505
8.248479482912904 -73.460599027314800 -81.063715792713992
10.930427715750973 -73.476507734632747 -79.310303890715630
1.700740624006715 -82.180750497586260 -80.709564714656565
87.231084814588144 4.330507172501125 -79.785788858027772
86.558209019378481 3.204183088199386 -79.686436240320219
87.209520726604850 4.789495241268735 -81.334120006357324
84.755561813744094 0.358413838514201 -83.758435839809167
88.003434782856530 4.907932466258617 -82.638099517378038
-2.111801402226271 -84.953530834325264 -85.767319337878789
84.973026855639532 1.238924317763080 -88.157192550486997
88.792782588299190 5.004806002020665 -86.185472048489046
-27.261282446652313 -111.343016315293838 -88.764350927518663
86.833354566735935 1.894945411102078 -89.090221764836883
86.054915602540945 2.047611796373108 -91.945484926627060
80.938274928784992 -1.435938929633993 -92.189486426601590
87.791093339753075 6.649970308739195 -95.973839395797498
-5.783120747117413 -86.671604227766210 -97.350877240718177
-29.127951519054655 -111.212512377127666 -98.316625353717200
-5.667509980526188 -89.483736593336147 -98.900343083414697
-7.740446355526099 -90.956960801116622 -99.547013138879777
-8.344543295633958 -92.956690487503764 -101.557978346392517
-25.693735313483227 -111.579921045847186 -100.039979974795898
91.613687625866049 6.706377463920277 -100.284063917982564
92.208261500818153 9.920683616162421 -102.251352796756947
-8.679490810771007 -93.632438516575050 -104.596322029754759
-4.796389686258871 -86.364700870270013 -103.074097727418049
95.367518051651004 12.541699321721058 -105.687016455172795
102.734364953804388 18.854309413781291 -105.851400568871071
111.158939858811266 26.359713029781950 -107.417350605644970
-7.566313739791166 -90.773622209987977 -107.629123504928387
0.124439017399601 -82.394900340822659 -109.146678942055743
-5.263184778621076 -88.171856338974976 -109.020684921136052
-16.296432818560689 -96.672637074822887 -112.369747431332485
-13.240913267680421 -95.334349461757554 -111.651382794432948
77.096190309397358 -8.308911019555209 -112.706742033565206
-26.636633781524626 -109.548204909368067 -113.976302639980389
1.395070889205847 -82.145284262885255 -113.560197555570412
75.194728666523787 -6.893598123184342 -115.987045379577040
70.373011038788661 -13.622956617407670 -115.902583053436160
71.844872469740466 -12.120356128742939 -115.370434902416065
-17.955507130589730 -100.162778068871233 -118.011875624206255
69.322965655145524 -12.521572204561441 -118.641193648126645
-25.866142955952810 -109.848124316087379 -118.851346706673766
73.574064500321597 -9.178168931743583 -119.302752311485520
-13.896202688173581 -98.695034979436599 -119.600006140494571
-4.774048253344313 -89.208687487928572 -122.374417449793228
1.769752184716533 -80.548367639202311 -122.098989888893513
66.770597942890348 -16.544624606817994 -123.741768895656776
68.593062237645157 -14.765596073646709 -127.819179300058750
-2.006388856966093 -85.059562445477837 -127.751742625403494
62.218977782713132 -20.038706844003841 -129.382664028505843
3.070650560090622 -80.717474476976150 -131.618080829084306
-0.364237739009868 -83.556442024949718 -132.377494963609450
1.834336271134655 -79.971325250194411 -131.643184987734145
61.314576625486765 -22.738971494548412 -133.104955464014012
64.959003662208673 -17.543398616457395 -134.519687854192057
3.106026850021406 -82.881157723582405 -133.429333294413567
64.168568382110550 -20.304709701946752 -135.596445052540105
60.368361495616654 -22.471558559788505 -137.882124536590993
58.524377729908174 -23.836800227347798 -139.232021115648962
-64.497896026754503 -145.929216160843907 -193.353745092458666
-60.225082202905909 -143.410872067079822 -192.716943603773473
-57.560050101501290 -140.337218552498570 -195.780767291161425
-65.723016982513911 -148.995771173991841 -195.248096970862349
-62.218543978949164 -144.223329247590385 -195.155690926428235
-59.215090950351950 -140.061559326844161 -194.949806048247410
-67.569816501473710 -148.030127828295434 -197.090343146335897
-64.311626251360195 -147.632156295836580 -196.796372836663465
-60.539425783750559 -144.090536853550134 -201.530943491647662
-56.818708159316671 -141.523332609746518 -200.580570441196812
-62.253094368972704 -146.680027959912877 -200.367258519190329
-62.617932737329582 -143.804746404351647 -203.387320039553686
-60.265370985255018 -140.204837903039987 -202.184681846518600
-64.615700456411190 -145.965721844455572 -203.345920202380995
-62.348840565142226 -146.163057952650121 -204.831369053670073
-61.523060352914719 -144.066649350932437 -203.338222433291548
-63.235632249212884 -145.265785217224249 -211.603874791401978
-62.557383256920680 -145.553608636449638 -210.882908719157314
-62.828389898826970 -148.047931702644121 -210.675185694734125
41.357013782556422 -41.658177430888117 -236.009245463572114
41.808995783621079 -42.194883712949860 -241.827353318365283
50.641964939881298 -33.134035599343797 -243.609089130511876
42.389083747154572 -39.546631252044200 -242.165031311044658
48.427225133070763 -35.180499617502051 -244.203094415380491
41.053638318770176 -42.537076879360590 -244.793524237807418
58.446053170500555 -26.967911150309394 -246.590327593572908
48.988125981858026 -36.391739909306587 -262.738294652620198
57.314190830087469 -24.462541645207885 -275.322774827499018
46.864742239750711 -36.298702817754972 -282.176419772966597
74.412664837037923 -9.034860893756903 -16.346946160624125
61.682000124329043 -20.710518281107834 -20.279558419866742
70.888785751529340 -10.968961980792361 -18.414336296962418
62.895170281548296 -20.568313226072824 -19.313260659998129
55.929404582197556 -26.486194832135190 -25.790855876530895
71.054757844440417 -8.292339758041576 -28.229789000645486
62.960521430703380 -20.782388693379907 -31.054198762141354
57.981636379618045 -24.232769853207721 -32.523113062650104
75.127648410983767 -6.243384128210801 -35.436878596727915
64.022873107619674 -15.317942086628232 -35.349299595189208
0.823582217601213 -83.576623535048654 -39.152596545323640
0.547698850367043 -80.709646339249957 -41.223838658420824
14.962611979290571 -66.677061225842522 -44.884242154179219
22.328350852499916 -58.366280981572054 -47.600369881310499
-21.914913611706165 -102.176731860651003 -49.671872592699167
-21.657240194168530 -106.916215062855485 -52.170346301547383
34.992270315666808 -46.380395963103389 -55.829385892597593
34.995023874796175 -46.278989071408084 -56.417272184142142
99.201942704810946 17.628121135972393 -57.160128072120720
96.252391479603020 14.702114026921651 -57.474145354564207
-25.449040001094655 -108.661685372007511 -59.756885836313856
109.407934450812832 26.576577304313471 -59.641177659871822
111.727801717815822 28.707775571028691 -63.547975128147755
91.901279562064531 9.419685479242126 -62.355663860301213
112.770780785940630 29.490381752694347 -63.440074297086795
88.801390074449969 8.205904336803606 -64.404501437864724
16.601820900951605 -61.389960073195532 -68.680297501615314
-28.222869856393537 -109.294553860360864 -72.265211834250294
117.464971518511035 33.306453867931737 -75.327056867146396
7.482981853906866 -73.422176797164923 -78.175518639270081
16.769660932049796 -66.094227274839781 -77.897726396487940
4.648630522530805 -77.712604931760794 -77.515709979663782
8.568038446990416 -73.953670212750779 -78.772802510662586
0.183793045074903 -84.151043038932187 -82.386130924540282
85.919784260851316 3.461112421515027 -83.668400641576625
-3.512568785565340 -83.970674472391011 -85.328095930794007
116.434853352701097 35.079605092574482 -85.150173420809651
-28.682295653131682 -109.710855294711806 -86.762556749269180
82.290195896756927 0.418983103842614 -87.432985225220790
87.171667837847750 5.147374683504344 -92.835263664175997
83.445331677576235 1.356047131869862 -90.672557448134171
-7.425300397167877 -88.354168001880169 -94.640589151815746
-4.509984954699595 -87.872316199670593 -94.688605203465627
-7.185181214556255 -89.752488988315534 -97.192467277403466
-7.451817724667302 -92.125698448988601 -99.641200328935511
-11.600859779044294 -92.271559383359431 -103.650858495999572
81.270900897158242 0.046354803791931 -103.306180609450038
-4.691638369900241 -85.093465173605381 -102.238355316485411
79.660342981727865 -0.780655750669938 -103.869150062087954
-6.521496936062078 -87.554705130230246 -103.966257920261796
97.684206073033550 15.441992824595959 -106.220299557062177
95.765553224070231 13.358236766029737 -105.266590598633840
-8.335666752710624 -91.946201681422679 -105.776999487776393
-27.223148451999606 -109.107946939237323 -106.858741400775301
77.851815891086076 -4.281497937961369 -107.466408609226463
-27.752042641903166 -109.381722063027297 -108.856386051164350
73.463272919806741 -7.997749239509332 -109.561678603796381
0.471014259681203 -81.937701175851629 -109.486545481332286
-1.975359549239028 -83.740498749729070 -111.333784839624968
75.716336134491158 -5.453554493265506 -111.337580748896656
-15.930690266764248 -96.068471780554404 -112.468305163444455
-7.337733601630246 -88.940453209893391 -110.887806700244312
-13.937073241333566 -96.938496108443275 -112.871794333208499
76.420556622407204 -5.376368398876107 -113.426008397471634
-6.693303325586976 -90.878678126133110 -113.285343451566234
-12.371548867000474 -94.949489087067661 -112.948994037412874
-16.286040434332971 -100.692768689435425 -114.330242591811668
-7.673996017422856 -89.709286311771649 -118.122053083762353
2.287177291488835 -79.638770718780208 -118.627575777495608
-22.084336744405970 -103.744136169051771 -120.707760722241801
-22.412005604763536 -104.224041372566177 -122.987557057810690
-2.606784383161496 -85.978549518626451 -121.816515057523134
69.997191753777841 -12.082474103995029 -122.972598183739308
-0.956949664206533 -84.118373100719495 -126.589974439583003
59.773707963661685 -20.993562235282951 -131.193821850658736
0.944801268450825 -81.082760265989151 -131.805778169374719
61.139250784106459 -20.032520890577484 -133.494486637007753
46.704066779516140 -37.326136923830937 -239.280079480187368
48.008898062583540 -33.670177336891577 -243.709502803572292
58.535703386786224 -23.779217480596241 -241.865521020906243
43.441690798392102 -36.924767455360509 -244.456023515283164
42.679730682951302 -37.551867387479881 -243.148609485980671
46.059447283407927 -35.007948692331823 -242.913222095509212
57.204417934229546 -26.057943968033232 -250.061247708684334
60.210322161916480 -24.363136908594452 -259.069009997281341
60.198999531107063 -19.892843541819612 -265.632671291603742
31.183123728039444 -48.681674811717343 -264.250702882560518
30.343361481327570 -50.348347608331551 -266.404751493471508
61.219520554567993 -21.929403507499057 -266.661989776844962
30.049513240544115 -49.358218477803057 -269.397381356829555
31.470349874017948 -50.024929046148898 -268.635145249854531
32.605579334568048 -50.242417760058714 -274.195139286690960
51.936991100699728 -29.037463531459835 -284.402613797058336
44.708300243185974 -36.300439028343966 -286.464663398179653
46.742944808451860 -34.510664776417613 -289.306098875700343
49.650242644754705 -32.416185726379162 -290.335215690341272
59.393753010689920 -23.018931035129082 -17.186285349037163
74.898998798930464 -7.923979215844842 -16.151157023009990
56.841794556957034 -24.132583991904166 -18.894523840414926
55.539373140123992 -23.811352458563377 -21.388041821534845
71.503624122055868 -8.859202654232970 -22.697953619970381
56.147365756165662 -24.442751775417378 -26.902534552801544
59.316914475713659 -21.360535478500907 -29.660606666958785
55.594889725953308 -25.562320523021310 -30.245290789146523
59.348247147902647 -20.068001207392086 -31.227087828583414
56.995339784047417 -23.623473094274896 -32.593722728563193
73.155269651177576 -9.306779278174108 -34.635418835057976
65.414737517063770 -15.417868550053946 -39.306745488686147
65.036600483297477 -18.266994529803043 -38.376222829729471
64.300257100834472 -16.353223953437208 -40.259152947805745
5.528342592073116 -75.218236599575121 -42.544084100420342
-13.855630806653215 -93.645664377631306 -43.509839406019914
6.762116322472237 -71.597255955905297 -42.575278480534017
18.113986316807239 -61.413944322025962 -47.156844037823262
33.517629809337556 -47.668437681578844 -51.990938857641872
-26.210737078989990 -105.746975622570332 -58.131706161740013
104.527245984877737 23.495559609189506 -58.224923442531569
103.397161766870980 23.844931081327722 -58.148918651908730
94.095637216649735 15.545027606662449 -57.997230840453589
32.979849529557157 -47.557991866890667 -60.991234762911617
-27.684836679866603 -109.343538124808603 -63.790904819862718
20.907468793827327 -59.766605894944028 -64.456325118795519
113.111180423463111 31.888738032507007 -65.539709978404872
86.371689033789096 7.221380754854351 -67.385894628307682
14.591506333326604 -64.628114274470022 -72.491642548457975
13.780346028251824 -64.224907683273656 -73.761809741158388
-28.980810669116078 -110.966952487387630 -78.505757370902415
1.305765384918401 -78.254334721402913 -79.175930747889609
87.577530025188054 5.195134108904774 -79.637047939820519
85.330207878447936 3.961018522864368 -83.284976123883453
85.314252061001227 5.970585784742344 -85.841741254828491
85.204852022483237 5.790473968558246 -86.274682724357021
85.451158632465990 2.891795869179002 -85.713602487527410
115.608349393753471 34.193153889935431 -88.363555195059618
82.055548740754219 2.631769496981954 -90.076948486176349
-10.343869049298048 -87.765156045696060 -95.922814667610297
86.843446592022062 7.747933953786755 -97.008759103889389
88.353768368674039 8.582647023748780 -98.494482037756782
86.791341409455683 6.264446837898677 -99.161582403895039
89.757115679516545 10.057571809476475 -100.348171905711041
89.272542891419775 9.276571587915122 -100.219087474434431
83.550964777359809 3.819411128254458 -100.900587912498636
96.046248121617040 15.889533814845990 -100.326691968394755
85.870503669786217 5.739453496581847 -100.380002887591729
81.535743415699457 1.352151216774102 -101.911369731584628
84.502940216479146 3.313097147217559 -101.101604188676092
96.266472917955682 15.395847624492685 -103.156520353608414
112.709913276212106 31.865866175311872 -103.231889726053666
98.492050371614368 18.325764873261026 -103.608304737093277
-5.849800564363094 -86.376390807653905 -104.962646394832021
-6.116931972866012 -86.878030633732337 -105.157245921649718
83.705843915585717 1.707711470037502 -105.422539432078764
78.171332917216432 -2.221895530029116 -104.911107278501717
-5.035355571404951 -87.871648912668348 -107.249630959770016
81.253718407383474 0.514483097020354 -105.462137458478793
101.409291693383295 19.981620338974679 -107.157991352308457
-8.305712678366632 -88.374297214764567 -106.852045625655464
101.827162585781750 22.289028805876587 -108.939437295383854
-15.541118403738444 -92.649456549270667 -107.797355131927560
-0.184928411696215 -83.483103913897480 -110.993701879612871
71.887177268222388 -8.713096307718574 -114.111570264246510
-1.827793071694479 -80.410251819580949 -113.250549608547530
-0.174618324662472 -81.294086810753754 -112.624793988150969
-27.751978500626649 -108.708266825250746 -116.949260921024859
-17.485995312408232 -97.351928305221435 -115.718610085917476
-14.646331246813240 -97.193627101442999 -114.445084897650801
69.353159505389542 -11.181121667149231 -115.555668575983660
-6.328782635019924 -88.322190565926377 -115.753582163697970
74.035405485370433 -6.911379711624106 -116.820633392682424
-15.133260520194899 -96.417841977626750 -118.416134884156477
-20.073528296579241 -100.055151967078700 -119.382571615681925
-20.648749346499848 -101.801569708148293 -119.677177029940538
2.641096554853706 -78.835445148605928 -119.956785811792997
-7.786780029369050 -88.058218423176058 -119.491988382845250
71.870482317059327 -10.004628019050243 -120.602287156346449
-26.233390403134884 -106.427428289863869 -122.784986532696209
1.607479251610983 -80.088693898679480 -122.764232403380916
-5.682158508887902 -87.739431841763931 -123.859824028353444
63.711541939523791 -16.606857979887934 -124.750913686304543
-2.826100870267116 -82.416845895092180 -126.795542260468807
-3.511590918706512 -83.531609239131868 -129.707386204955128
1.205717499126748 -78.755351098614611 -128.521172109838005
60.706909051008225 -20.144282939657653 -132.770279215442201
62.372533715946908 -16.453452702838831 -131.504890377141635
60.419572675860884 -19.102056024266677 -134.149655377522436
44.451986577749068 -36.146270129047700 -237.388157132655607
54.597079734692876 -25.963545311099029 -239.627193204133761
43.886659866240144 -37.655658918371870 -242.643589304128739
48.474756547962670 -31.401479589980667 -242.179417750639232
56.284516428224350 -24.439183872101410 -243.840478914411250
43.686548517341066 -38.924640736894446 -244.225322609110293
55.963257411768765 -23.147977573608575 -247.779269578353166
43.896940006004698 -36.662060933370086 -247.675044213184208
56.247523756899213 -23.593928809835170 -251.039893232605380
29.367981514880643 -49.267700147627679 -256.668353440504461
29.935701092545152 -50.755178814045451 -258.928384858412244
58.925948367726498 -21.847209129522700 -261.157363987839062
29.851418002986460 -50.693319514185482 -262.858968391834367
33.144857042448109 -47.872757889989231 -272.296993391138528
34.442742834068675 -45.899590133929635 -276.771362764236642
35.032044266702002 -46.691644676922472 -280.774580607700329
47.354117779702428 -33.286438949713904 -282.058033859108605
54.778516882822494 -26.631765048367377 -282.261355790820346
35.944203189736797 -41.787625745948063 -281.637963765190875
36.157231467964934 -44.175871086398324 -281.860668825011146
51.188076358427963 -31.479988892624689 -288.458393477455957
67.111638521743345 -13.189027628570848 -11.315560441061955
63.076662512197736 -14.532757368536942 -16.921027939137574
66.001794367839537 -11.882571213118483 -16.163074890532563
70.001018395553444 -8.961733329321847 -20.544787718453069
54.029775504829715 -24.233897323500091 -23.958591878719684
76.798442085298319 -2.652025959855234 -24.674832757923827
75.256988624798538 -2.578199605055046 -26.126180253001824
76.468585703728536 -4.473957615893180 -30.235998746062727
55.720571550559882 -22.462128410238297 -35.907301972406955
63.076232052104075 -14.494311116938391 -36.708139491127568
57.606792302188850 -19.722427096994863 -35.622631160318960
-4.762531839480900 -85.937178599223060 -41.363762323011521
-9.349593958010260 -88.947820974209719 -42.039379094563870
-17.637105799938805 -96.953137818867305 -44.430660226156093
10.485439972847807 -69.692348530140919 -46.067876108164718
18.099979414111107 -59.721310170012728 -48.626733749798461
25.394284193552675 -53.394904837922795 -47.845899274056777
31.380980345971828 -49.906208587023649 -50.368481678323043
33.623268456632097 -44.377779659837238 -57.403675534019861
105.419765416515574 27.851911880181458 -58.519924187808876
90.887297604139988 12.122049336016808 -61.263545775003877
28.405024356371676 -50.258875195613250 -61.633259283396235
89.359142949824928 10.553626671587347 -63.834926855053880
23.153041709336833 -57.114389703805017 -62.672688960866338
-5.175083491893001 -86.081657831107009 -67.493880614053268
-6.915106448688045 -87.111589418588466 -70.325980660656924
86.349218900897640 7.907700868326525 -69.971539294175599
84.371457262714983 6.867763553990885 -72.749867675459356
2.170848849413027 -76.117864334008573 -80.482868465278273
-0.829176343029964 -80.191110837747431 -83.769762217921198
-1.337965313057460 -79.181411085918100 -83.618137284793022
83.824408843843685 5.015788099936957 -84.059116074681299
100.131189127334835 19.282765832218260 -89.738606331955339
100.492041944841858 21.771326008859422 -92.954253171349436
86.792310354451743 7.393670730589875 -94.160695482326233
98.306480501454359 16.268556558069328 -94.215340139172682
112.536684938474167 32.924669985815299 -95.734199759092206
87.669599775129910 7.863320043839575 -94.729503969458335
99.386664652667150 20.861669733469054 -97.969140989884323
84.378618808848259 5.522589038513409 -98.451776895548065
94.641068718816811 14.135605369549324 -98.593415075942687
114.908362036708851 35.386458516285551 -97.528160260427072
104.709884592377705 26.728721854691909 -97.828780060022609
-10.389833425561628 -88.833669381484043 -99.741448356544979
92.987828791689950 13.159977996082993 -98.220941072730199
91.140260545556274 11.394473174878430 -100.601910223063157
104.569363469903664 26.316603266206879 -99.932088386285088
87.129583664438215 7.689697248482633 -101.290169421295303
99.733449252635850 22.796134121765920 -102.857859357059439
104.397218288633013 24.964055771400748 -102.520621196139814
-29.240078018157753 -110.363544205504297 -103.051464454510764
93.667514307078008 12.906513691540775 -103.311269811639150
93.651118425937639 14.194921864117868 -103.615509199146558
-1.784540093402765 -82.218115094686539 -102.854602564403010
99.278916057334442 20.085733743319064 -104.400846178377449
110.876220555084160 29.514414099463281 -104.565068045994721
-13.186716427074170 -91.298727039556823 -107.281115636106023
103.040612016438075 24.177787399985295 -107.762883426950694
105.552851386333202 26.300382092238458 -107.683861631593217
78.404030568625856 0.379904371161497 -108.122662267851055
-10.334689304181319 -89.308417933654937 -109.003418639206785
72.513348082183157 -6.417179263838291 -108.847910308828176
-10.627290478097734 -91.558964787433098 -110.835342566668345
71.143252841050355 -9.406577110939192 -113.229338122956307
-15.388509934146109 -95.507116776763212 -113.145245795309421
76.434308686631610 -4.034361400386174 -112.570657420193513
-1.280021891472680 -81.455704369933500 -115.747912842911376
-18.027816964859799 -96.544095362214705 -114.563709158543162
67.122328592976601 -13.158594862875242 -117.812317481267542
-0.870526685520118 -80.772270962091895 -118.921550497811296
71.557297565304552 -7.051700010443495 -118.745807687201804
-28.492138828724446 -105.543231718317656 -120.719794687422322
1.508059352084472 -78.652043312132705 -122.969986936164673
-5.523422544727008 -84.913380057099062 -122.336772956360718
-1.447491023278223 -80.997721430800169 -125.045364415764951
68.750740584049282 -10.329224930792549 -124.849829980881850
2.935615176431210 -78.793816786845539 -125.756194239080457
67.452249430559434 -11.983271342146288 -127.899999385858933
63.910488131006694 -13.962052792993541 -128.947790311449495
-1.569434865374196 -81.120361583284392 -128.220441223885786
-1.410317209374203 -78.159923984462523 -127.187608247411390
61.971049125508053 -17.957657569309792 -128.902680123533770
45.188477358277488 -35.087427883105839 -239.508993729244963
45.644514750759626 -34.291471651164215 -240.184609823447488
50.900781701606320 -26.578618220475448 -241.650360804014895
49.377449404317282 -28.502359728097304 -244.667719589182809
43.066915296522339 -38.423776363130536 -247.107291059570173
57.703543892128344 -22.141299306108323 -255.851529137719524
49.228706835985413 -31.626210243041221 -255.673481615433332
27.235617060643172 -50.790367381442771 -260.126085165829636
28.943589809466310 -49.675580214323503 -258.753215555845600
27.716465361013057 -51.200916390145721 -261.254768152891359
27.260602248537705 -51.598743600458349 -262.464257660311262
28.068080825768451 -52.671650546664637 -260.446647678173463
27.473580246410410 -48.386231481193825 -261.927476523526082
27.004028598225606 -51.924426193637160 -260.814468691274215
30.716903700725673 -49.030771307667905 -264.712981125333101
28.512716225045939 -50.377845086078054 -265.589944680965004
27.975777538272752 -50.266324830337119 -265.249924789865304
27.750386401683969 -50.442760117623671 -268.075881365502084
30.762057913343899 -49.323498396399721 -267.331585672414519
32.460350352227394 -47.191617494217766 -268.873192971574781
28.009001535961200 -51.936693092951309 -271.589899932610365
56.560098418564088 -21.417254474525997 -271.141917501469436
29.217471060908085 -51.016431030378868 -272.496383581673228
31.886748935508198 -47.972510318212372 -273.177943050124782
35.669359044720089 -46.503376145429883 -275.568273215920442
33.319304007063138 -46.507479887111934 -276.010278690206576
48.912947689932984 -30.173281780921876 -280.814743202784484
34.535491519099260 -43.951805143305975 -282.676954233310767
37.336246581391904 -42.330624779014997 -287.333881354240532
37.802919851005271 -39.595932085467993 -288.703607163797074
49.709432192664124 -31.046629172368711 -287.873259467182208
59.785982480148206 -18.922900553078460 -12.962350280658592
64.699473998873799 -11.956084351668556 -17.265922791285831
61.859550481635331 -15.094382038620317 -16.590416768085241
70.806162885476709 -5.679441357414652 -26.432495660316370
73.295665727668023 -3.857943200453406 -30.682638969308272
73.763303777916164 -4.919123420134341 -36.465359852034709
65.203547908646669 -13.954983736943472 -39.189751883574338
-2.041787905292706 -79.931035587592291 -41.853125225443691
0.945948497773703 -78.943700042316905 -42.447995821376708
4.357638585533568 -73.989738123452995 -44.723826341298640
-19.881415592383210 -98.254238203997346 -45.792181264786187
13.773856102442391 -64.144795539902418 -47.280267785211763
-22.194097038328479 -100.097307953132415 -47.324838163577070
22.839256553252362 -53.173625689978060 -48.701055129034131
98.786243892792200 20.816074711194315 -57.576098431804333
101.169533753829285 23.108130150491316 -57.385729146357278
35.045565272551627 -43.888051147252881 -61.198559224117844
24.477198441525548 -52.987558982602863 -60.314689979968755
111.612058879484039 31.768666319869251 -63.710488885349392
-29.952397995900164 -107.987771056922341 -65.947838207262819
-5.188379276940382 -82.869566409245948 -64.012631127197835
-5.430412744340702 -81.637220524515484 -63.990062778096402
111.738500623139501 34.318837388568930 -65.486276711093851
-3.946681858058751 -81.685847986881967 -67.395200432920504
113.586777201428916 36.236130094598479 -69.182629821922120
14.343887251463320 -62.514776012594567 -69.499660770899951
-31.226862343964807 -107.546246461040738 -71.910334133687442
115.042556066317573 35.156448804786081 -72.710945939031262
113.248051355716541 35.936956620497334 -75.544754897801312
4.890305254104129 -73.621328340700359 -75.886523756795100
7.497435944322437 -70.586718878461340 -78.384468438099006
8.381034519350395 -70.477707212537069 -79.601289790476315
1.349689565371880 -75.483442853316703 -81.336615713641322
100.352286536346725 22.952959119438589 -84.254255076757630
84.141206360235785 7.677928564204916 -82.278511229059475
81.498612039356544 5.633311571370697 -84.760007947790839
98.427442087658918 18.659163402089362 -85.224750473590476
82.497234363257064 5.035952080300548 -87.054807962177918
95.644685941763839 18.261971542731505 -87.217898972108074
101.586801877615414 22.693919598224234 -88.171343832611129
103.325998432508285 26.225816868050060 -86.573657636124025
85.382762593006248 7.339065181949428 -88.584568079615181
92.637727367760093 15.904201080798780 -87.700290939277764
103.862615093096551 24.669827919289016 -91.070996018053478
91.063337885056711 13.986634909810093 -92.110529513986137
112.125718221622449 35.854598153526275 -93.267084896079254
104.118601839511356 27.253109350426410 -92.047686919694613
87.231071912498052 12.519146377360640 -93.574921930078418
-8.659105516316481 -85.323845876144247 -94.960524226025541
89.662289955550875 13.358990356885224 -94.034465208966381
92.159648576200610 15.003751740428937 -95.501598830943479
87.061865541931653 9.157499536510812 -93.556361622968566
87.988194207597502 10.640925529990445 -94.990838549227348
105.598761647942197 28.381629469635062 -97.999130208476885
-30.541857065551799 -108.401990969447468 -99.771684195526191
89.020917148091442 11.976963200049289 -100.017078527698501
112.482195069255340 35.081685502723879 -100.664131371986414
78.144947899359124 2.056846657423116 -101.616969104049545
78.011220743665945 -1.220575175778975 -104.190971162888658
-1.054594779163174 -80.599941942140305 -105.291441952696459
80.340902468489901 2.948176387944266 -106.606608832589217
100.162175116294591 23.712825639608550 -104.884456949348333
107.618266466292354 30.517429007292190 -106.749170087331137
102.246468748752577 24.936955065747195 -108.323350291109577
-11.895621217318974 -88.900561342320771 -108.705763682310916
-3.093413031932603 -82.332332780261041 -109.276718943595981
-13.760603391417527 -90.699462903527660 -111.090381020516858
-0.922577745439544 -77.880230779454720 -111.076680059161149
-11.133385213007255 -90.151991667065019 -115.106892920927294
-17.477845130057631 -98.609896819935614 -114.688998265196730
-0.158150443276872 -77.632516686858239 -116.964568064697545
-9.503550040910611 -86.132469482474988 -117.723844625936806
-23.283171201894174 -99.696126664462682 -119.685744160220963
70.792080578892225 -7.947941782232585 -121.582941422506821
-8.259083072712592 -86.136120872719673 -121.942482755975547
65.863021919345229 -14.003699200297749 -121.874671011164736
-5.146265778983629 -82.107947100575700 -123.603484061966341
67.401726598215888 -9.553371424159980 -124.401756413833411
63.648494919888599 -15.517194037415962 -126.947570824796983
-5.265668317493160 -83.652993495104198 -125.653546630494631
-3.730132561101410 -79.056817994755320 -125.685956261720719
64.900769825772457 -12.156753672609950 -126.968050419662049
-3.901141212628025 -80.703906860702816 -125.278327752392102
44.883540619423151 -33.107375195774509 -237.701586160001057
42.493354636302122 -34.549927959258980 -243.387522437128354
50.872750327768820 -28.235187842256629 -242.671932507155248
44.161603800100238 -34.880616364936849 -245.036296105538952
45.556661036869478 -32.861881758643975 -248.445816647644619
28.664333900781891 -48.782638518547252 -245.914044888087943
26.169702141324745 -49.861060399868791 -246.467999086045126
27.135529374350018 -50.392190058652822 -250.518984766725168
55.379713173611272 -22.499720417781013 -250.120191656218253
56.455741349636476 -22.066889871639908 -254.920278657864600
27.770867653762281 -50.319828057337602 -253.997711287978461
26.738829191614375 -52.167070442676248 -255.113946553344704
26.954249270793575 -50.690646531894949 -254.785961553786336
57.631664975696502 -22.326809831192829 -257.737202790387414
26.050657524318499 -50.962646886192964 -257.172083523572780
29.282313750422588 -49.944147930234983 -259.339993769775845
29.983458819095471 -48.855621459787166 -260.045341795580214
27.502425476703024 -49.994327376402147 -259.232793082320256
27.066363522683346 -51.896491200896463 -262.046442524482927
30.275777983136944 -48.182282348328279 -264.277572609996696
57.913679377894823 -19.247544443273259 -267.696787634509690
49.001988933376644 -30.274653323886476 -266.637150964107320
58.638082668233928 -20.095855398196406 -268.764949405371794
31.451235538483040 -47.832987299292881 -270.223805784231956
28.923790325742399 -49.802392442189216 -272.167557297753547
30.873358153724137 -47.554338845847724 -277.529345934455364
32.091334844129257 -45.662915433828587 -277.981790617222657
34.434370348918250 -43.089936886205471 -277.872058053324338
32.622051270278433 -45.217086770538351 -280.297568939158680
31.858741031931018 -44.304346460429230 -280.393427401831673
32.259661202444470 -44.491931724366772 -281.649768842786898
34.348927144188721 -43.570026725939506 -279.398298295833627
52.278464169950716 -26.907231435316174 -280.821356988930290
49.916959884896592 -28.317300217973656 -283.417748234639760
37.306277432843302 -40.830719046619585 -282.512413822958479
47.966606747471303 -29.169764432128169 -285.341202019162836
39.437994567515020 -37.667399363787659 -290.611588631677193
39.043938574439593 -36.935466916664282 -291.713662639928430
61.882453384556221 -14.426583872081910 -11.915417106902176
58.852380337285268 -18.110586012888870 -19.874034390971346
53.033283277220086 -22.661724698189865 -27.648538604712048
69.200657796444972 -6.284275778908960 -31.024192258017436
66.850941140356070 -9.443494201315707 -34.624111495343001
59.433373408915024 -16.728498768858390 -38.644131194888956
63.622869124624472 -16.311798145603561 -40.266122954002100
-4.073014765137325 -80.627739304701095 -41.860173527960590
-13.430115378106890 -88.139541484555764 -41.901329417922035
-14.652414637044441 -91.183205752235679 -44.211857168170425
7.135973763117118 -69.005088983305740 -43.623591543118508
11.959221771814020 -64.731960092742085 -47.569406910889725
26.298507799743945 -51.627621163393854 -48.564819103045046
29.818501494509889 -48.866168148247802 -50.111646557400199
-25.693855819898108 -100.895877207189471 -50.937501333736449
30.739505457126466 -46.038817156685653 -51.747031750038239
96.292362961192609 17.888864066572264 -55.803312552321479
91.123757008344782 15.185960287761777 -59.535722858186553
98.596473802330067 22.821452640794590 -57.063322135730814
-29.668032727035513 -104.590668337222780 -58.163398633995591
89.944382737964403 12.723804467005490 -58.265603336936344
34.571525236412505 -44.032756677266342 -59.942961673146407
24.428508404984701 -50.304525548573004 -58.560041114959255
25.968249444276267 -48.285124035802603 -58.235904790154322
107.561449537994932 29.172825441943996 -60.872386130828637
17.853889420458291 -59.701409401645833 -63.650547525567831
-5.141146978420960 -81.462218282583137 -65.617479295880287
85.327110673255973 10.165898609252906 -65.817725671323700
-7.041175468239868 -85.470852222293118 -69.486514202068960
-5.328034113031389 -81.490555587441179 -71.809883261377593
84.721564333348084 8.656254916743409 -71.359809703205840
12.706296272700680 -63.907454177502231 -74.086882849240425
4.138885840811432 -70.981501456465267 -77.379708791418579
12.947637171484129 -65.751575765940629 -77.614293311938212
94.005615554832602 18.469016959581356 -82.464513703243270
98.193714534622600 20.856576201794095 -82.582779741625302
91.494720078875886 17.173390014538757 -83.067004854284178
93.111792902536962 16.635175469270749 -84.691185711726689
-4.014763096847152 -78.772844448983008 -84.864628394285035
102.658707077559882 25.619372508857492 -86.286789855654092
-3.430634464121528 -80.939939457531523 -84.972130615720090
85.507837356394120 7.315991582072801 -88.008504810232779
90.053650991517088 12.145013379054152 -86.114462013641457
-31.885619552989006 -109.697517964489975 -89.947144133122535
106.574426570449717 27.844332726971867 -89.881297219097050
-8.029174779903629 -85.742234084847780 -91.028531315373456
86.516493103702544 8.244545041021995 -90.769682102378994
85.730464004025038 10.971183583333337 -90.898509553216385
87.554462325591871 12.038501569871961 -90.552496844044740
90.085925723770671 12.834372468846940 -89.943583070630424
-9.218049729724740 -86.283233387624520 -92.358024770719453
94.404584760268349 17.028865714905962 -94.057890303011035
-30.556674512400672 -109.410444149335234 -94.231053620270174
106.852451974622340 30.064167516483451 -94.171828408600760
