# This PCD file was generated using the MATLAB® pcwrite function
# from Computer Vision Toolbox®.
# .PCD v.7 - Point Cloud Data file format
VERSION .7
FIELDS x y z
SIZE 8 8 8
TYPE F F F
COUNT 1 1 1
WIDTH 794
HEIGHT 1
VIEWPOINT 0 0 0 1 0 0 0
POINTS 794
DATA ascii
-23.279734284819334 -115.053606044839597 -71.341089875604482
120.486944742629518 28.470028141811632 -74.231989099092928
90.037989901866723 8.447609025320048 -73.805519102604762
16.819203338180763 -74.277079285303401 -78.620465554395111
2.788959487671344 -82.030954022574292 -74.601296707831608
9.426729768850803 -77.957484933790710 -80.661285346301440
88.954335933257823 2.734580846129061 -78.892233593100855
4.267615303112514 -81.141592385167357 -85.084867764992069
93.677492753941308 5.544826109076247 -79.469863284771790
80.667156492644835 -0.089425695033334 -82.034784195450868
90.874497321700801 2.022742622968921 -86.456051041705962
85.959027582071926 -5.457158611367960 -85.788309998788733
-28.288750279648074 -113.095675941095578 -86.501143284636754
0.285590796364117 -85.545787356499531 -81.397682611502816
83.453560438191801 -3.938411658518073 -90.438912488813813
89.988402794886881 -3.879085488106761 -87.942325985765891
80.906712270836863 -6.662928578338821 -93.941853949777737
-2.920149677333361 -91.066328418851398 -90.196625792926980
85.688169360034095 -2.746432055116354 -92.493832465621622
86.174983193961495 -6.397365328051073 -93.424236393553713
-1.526108710495897 -90.968964925299304 -97.938554131000572
82.472400207912216 -5.208014505622386 -93.030926114847560
91.763475307933916 5.554331938601752 -97.485560336313810
-28.430443164593157 -114.905060419357071 -100.194850593180419
92.625275517861652 10.345023874554402 -93.860568926511007
119.243664764399995 27.346909625124781 -100.715858704986090
-5.996795980108294 -96.153672835086496 -104.078255172863194
-11.353475637220294 -95.800946228792085 -107.302864245870495
-6.531434045585344 -97.074813288284815 -103.763041997581922
99.875086515041019 13.195068265687997 -112.655937408525546
112.370675419380603 22.656558520740788 -106.599719386437656
-5.313968258101006 -94.101682369242113 -109.795934824460772
99.206643104838662 12.693922304017319 -105.963653699723253
103.871447651961049 15.719415407441049 -106.709286703310497
-15.142177280685834 -108.552595320873834 -109.893802789714115
-13.665213463185921 -102.293617078639116 -109.511552330082878
-19.309285454945492 -106.040686479657808 -108.380095872179311
-6.344169427609764 -90.841051066348513 -112.463160410232206
-2.393358180253941 -87.968009016132669 -109.799717979645862
-5.542239579054539 -87.327514706061478 -112.472596031483789
-5.012638263807110 -77.972144700315866 -114.571005798438662
-5.738905949601105 -91.413696169817470 -114.878401623669106
2.888716720758376 -87.841142030534130 -114.015356581769865
-14.434799804529645 -104.776663203150250 -115.955154626338114
1.822421910871434 -84.537790294301530 -116.710156210224682
-16.830976089525503 -98.573672344927260 -116.392649681732308
6.145531019222298 -91.537533144620127 -118.964835459722494
-14.032733620799798 -104.978063714715532 -115.969149634777807
-1.894341997147199 -84.840572129622387 -116.200676139355338
-22.801740185447965 -115.032473848349426 -118.129039350831007
-3.076135253563060 -80.588614188560896 -118.871622087746445
0.427707981844308 -84.042112712052770 -124.907956706729379
-20.557487102195630 -111.716824578961408 -119.383853647841320
-3.234313666995648 -99.874083711405589 -124.847671387830260
-1.829554443445715 -89.889406975671378 -121.006392291382824
7.873072728649866 -81.218294070445921 -121.241683079759582
-10.264130288926767 -96.763086159104404 -124.540305131094058
65.548071990500446 -17.791422989588725 -128.693300380923148
-13.063174305630652 -98.296168849286360 -129.952067003088189
63.165718716379423 -18.527149603232044 -124.918506461307715
0.359524679146894 -86.930931290012325 -131.811268049317079
6.601442462288995 -89.090692858235130 -133.178069374004508
68.512551423150484 -21.774408512192469 -133.449421177284620
8.470865265186447 -82.095774661925972 -130.334104569434828
-16.993188211663895 -110.176013446756357 -136.743243762976704
6.365135791077135 -81.559774461216136 -140.833972535092926
8.900369472533130 -83.043556360478519 -131.347079802736573
57.495623771663602 -25.781876903726889 -139.783043214124490
-24.677572606833898 -105.903071683075709 -140.700645966944450
63.666261716249693 -23.178207738377484 -138.105395827796002
-19.965803409339205 -109.323916903820177 -144.437554080837003
-18.586771086568938 -104.033019006140464 -147.449758058550344
-22.395617945797714 -109.538445315710106 -146.014113070965806
-24.081892996933480 -110.643114786811395 -141.503882397085931
56.591273268360275 -31.985967825184197 -144.983277116013198
58.108508068668954 -27.250013499265645 -141.977225088802925
-21.725379951681724 -110.726348429103922 -150.405510680826239
-25.225959921684510 -108.996929197763947 -150.049755775213015
57.812838108176059 -34.633841004049607 -152.878002428378977
55.803664863287295 -35.535515013963483 -150.474164111926939
-24.125780866949654 -111.549785360991990 -155.581652456159219
-27.385298980378256 -112.736694788878083 -156.877624496264048
-28.770136565277269 -113.525501984379972 -159.541336965005911
-25.809288022736759 -114.063293961211130 -157.828249634742065
-26.347786153685085 -111.742923275798148 -156.282339263540422
-32.325375063472229 -115.567915571327617 -162.496638350106451
-29.586442810398733 -115.685209342903747 -166.540224716598516
-28.316653009004419 -118.186591521053174 -165.913114512448345
-27.886183201423076 -117.178639501995434 -170.781335109785942
-33.876986020177100 -116.114105814429180 -170.489255579350555
-30.502688297161651 -113.652052235639232 -172.221270515976499
-57.399125823972938 -145.315091369882651 -173.514739373300870
-27.296212243573432 -118.161166871710833 -177.529609887510901
-34.043468908621520 -119.915331173660789 -175.552543445407991
-54.990648478851625 -147.135202117256938 -175.519386136535530
-30.587344595255203 -118.876814942340161 -179.363321735707927
-67.881494392020528 -150.057116936533873 -180.277352858912366
-55.028962784631048 -145.525268394125277 -184.799806590253667
-59.804357805162020 -148.199471295252323 -187.861108322937298
-46.728258810963560 -137.629936323388023 -197.819110433616714
-53.693862604377401 -144.442962824717910 -197.541911621159926
-52.798037047066160 -137.072973455323478 -192.773332737341264
-49.691584142336332 -133.241279449408296 -198.968456082477644
-42.857510644174148 -131.525826962705025 -207.336132164462839
-67.239285566512606 -153.451185822887595 -228.571821859283176
-46.197959566932376 -133.143420702576861 -229.954572436233491
-63.822606082201716 -156.313374812160987 -227.248177154527042
-62.574054980956411 -147.436095233778076 -231.361965152140328
-67.383134139210853 -153.160757933626741 -231.698165204842610
-64.035656572361631 -148.381103994760537 -231.752716302938751
-58.783594797287577 -143.836847645407630 -235.945100868275034
-62.537920272724236 -146.104522751412560 -237.487768523183348
-63.342846193108329 -145.344889118243941 -233.799740476436938
-57.897784604635611 -146.229732959242966 -235.483094973049248
44.419616661073647 -42.505151099325346 -238.024455993138474
47.242764151589753 -42.576168743788628 -235.217954566987430
-60.473772424544975 -148.052583368578638 -237.668789041189967
42.486297414331489 -44.560935948585062 -239.235096690745081
53.577286058150264 -30.399376410241416 -236.370029556030289
60.213397377964036 -27.670174113168411 -240.666463298052804
40.563336784184472 -40.515907374011725 -247.028474359820450
-59.646380397023783 -144.295830080228711 -243.282001191089648
56.118744903682988 -33.655099703402527 -246.941480208614792
41.277029221933645 -44.886244105056704 -245.819934375022569
39.672370772793421 -52.957288022678483 -249.327443001681900
-61.857403407539799 -152.333620233243721 -248.905581285889042
-56.337325020420700 -149.518809432638250 -254.405471527657880
-64.053657550787477 -149.015042840352208 -253.150223818125397
-55.576520559853769 -142.470079735252284 -254.427676312947966
60.853041839060950 -27.386416743804620 -253.699757634651093
68.546101545884554 -21.039065615838005 -256.796940320112014
-58.361925810680177 -143.461584360479776 -256.358914516988193
-60.977264313158102 -152.790527173041710 -254.551481041243107
-59.421225988795243 -143.053701312830839 -254.762625697780010
-66.407897326487273 -156.095712546122428 -254.632029317875919
-61.301856273108015 -147.499741307577466 -262.065544235411096
-57.340453077416598 -145.339328612616583 -256.495873887477444
65.089552009794673 -15.832606498560772 -257.322767492180276
-61.893495505574201 -151.329631905152439 -259.072888887057161
-58.513694754385533 -147.470984235077623 -256.021422602515088
-57.945427495050133 -144.706477018117170 -259.267294784381590
-62.951004920695482 -153.972609851027698 -261.605271143135042
49.133850030541701 -41.677154710221302 -257.694128433794901
-56.255736978580671 -144.080084961486676 -261.911571772886873
-61.951251106594590 -148.411430321538120 -261.431022159669908
-56.171137431551529 -149.155441473818939 -260.200427312716897
-64.406844448219772 -147.086558388465988 -256.538256956154441
65.716156270601076 -21.232967458290815 -271.164617653624589
-62.027212042463866 -145.314852368440540 -257.150922843339686
44.389204702508458 -40.344559838237288 -268.916342702919906
-62.732549308793729 -150.950597359436216 -261.029342772815880
-59.724343428055377 -150.291129656479484 -266.436582662414878
-58.014249249660281 -138.704576257510752 -268.531452030351943
-55.750646034620033 -140.955707499862200 -267.024785171257349
-60.221042335993666 -151.138099393473169 -260.502550175459419
-60.932614185078968 -146.590571610284258 -264.996091933411947
-61.541254957778946 -148.470215212975859 -268.106918647205362
-60.130642533387046 -140.934949179724015 -269.342644426173422
-62.046470075392236 -156.364840272931758 -277.122384004817491
-59.385438900816425 -147.780162906394622 -279.025801919902051
-57.525675798734639 -151.851135430844408 -275.164291913663135
49.674085222127303 -39.903384562973812 -275.193123474911374
46.925497957806087 -39.628193409131107 -278.474944091815757
-62.592192532815169 -145.791172329519725 -281.160522339165652
-62.601901269848646 -146.207470787623265 -281.744070628366956
-63.378603856554470 -146.593524486107128 -281.644751287330621
-60.835040701759468 -151.803426742481918 -281.179663137046589
48.192561452139074 -44.108798730744724 -283.401356515443297
56.007231209301537 -29.814734040007881 -286.769921776398462
-60.747019744903390 -147.024386146364918 -282.180960024016315
-54.754319066403774 -147.776262936221229 -283.039983197504171
43.299960407164519 -40.073404392919031 -290.018831447393154
42.786228923551811 -45.798804680620044 -290.639100456754704
42.340919397619693 -41.866321084272030 -286.770356864056680
48.986852141393058 -35.783626468528418 -288.838468767282450
-63.682021108084136 -146.438799259166245 -292.907950669643924
72.802797668187623 -15.194900544080898 -8.602359784614402
74.219673807500826 -7.884487332155420 -15.839620956569021
62.154870716212294 -23.635943357643910 -16.572073079487790
65.596325304846985 -14.884388508404129 -13.766576097453466
63.652986330740724 -21.971441372831382 -18.332365124741727
58.770096005963417 -28.025036436932762 -21.714141498795630
72.779712779798118 -10.908470926105981 -20.834682316027525
62.797144628167402 -25.154222556700148 -23.524149662168266
61.966274395394919 -23.315270653504715 -30.269432130413897
78.791309755415170 -8.237931939685476 -39.567315679461771
71.529976764465729 -19.090751147419613 -38.974543778176852
74.532071222752833 -15.246196638063335 -38.432742184271326
4.799153748000389 -79.959526687887021 -45.558814255725174
17.686687297979926 -66.289383195868510 -46.430699770418727
34.962356504846539 -51.947032192610756 -54.098036799269273
100.351798827252836 18.064246858582720 -58.053773249894249
103.535383841401000 18.617100059194396 -60.541243623527329
105.683629766733745 28.081483242869645 -61.828821340854034
-19.813521757497046 -110.918395028783820 -62.130033254627939
114.404671397492677 29.330897468700297 -63.000332194237245
93.363965530585631 3.959105877660043 -70.611205011405346
-27.575576415393847 -113.203822087280159 -74.747031721437651
117.579433068801833 29.608515287687396 -75.355046180933840
87.597377808935477 4.040591158465807 -77.066848163574917
18.343925378376735 -75.099698639961829 -77.113290496070249
6.942247208217269 -77.126433600759228 -83.389675048815789
84.885213496408298 1.040737310070059 -80.105618832179331
-24.792563462665811 -112.462857725964639 -83.669804869141672
-1.941488878753123 -86.340670037413105 -86.703127131312783
90.019717062899971 5.026779530056013 -94.018685078083408
-3.377818516507509 -88.083911354784902 -88.934929572907819
90.051264726142975 0.200373519900541 -89.095750933034438
87.545987453588666 -1.269875707785181 -93.109107584751868
91.773422628405569 1.634191504606860 -91.341957837632833
-0.343678598882445 -86.746240950031932 -90.226156220952134
-3.806897452223271 -94.261719624533058 -90.984364427891052
113.863971936343646 30.419284454418086 -101.834403546692712
-8.318499279451251 -88.229680194977590 -101.011963063917179
-7.126446984262100 -95.658492283821616 -101.239210764377944
-9.874094946040350 -93.817054037676726 -106.188718307751316
-20.620048187937034 -116.738033694887804 -109.806282140238764
114.272680993116836 24.520520942351702 -107.639061789009958
97.500469098330626 7.352026054912004 -107.655809330344681
-24.463555168355949 -110.427929681899059 -104.601468063952012
-12.089322573867980 -100.185634002208204 -105.506927620254586
97.051778455982770 12.513820358618156 -107.253054784135017
106.708634079963403 21.192882167060315 -107.945864412469646
0.811455768695500 -85.941778044967137 -109.660745765885338
-15.406103514803421 -103.699623028944771 -107.314688973832617
-10.802052245081583 -96.608890861987490 -118.543712468916169
-13.461169050214931 -100.873218971947296 -108.376532502895103
-17.168922171090518 -102.547726392133100 -116.949244114704825
-7.990026632565557 -91.191778066501456 -113.263888008286344
-20.856693660077497 -105.484312087626066 -119.271931655244430
-11.455291616335098 -94.613117688369798 -114.448505134529086
-12.055275549352007 -101.388839239266900 -124.330360756761422
-0.750875240619727 -89.597866412340167 -124.313060988855369
-23.954034231729441 -112.521752560547284 -121.493023120138602
-15.000723106183072 -96.792962143699356 -121.441419947817693
-22.426946201618971 -110.374944278884243 -119.894355726512941
68.191041145652477 -19.255630249208977 -129.036004785246234
-7.972544531732763 -98.297866109946867 -129.746804023092153
5.408476780714009 -78.704289136096591 -125.033751140625341
71.056120651967959 -14.783156440952059 -129.266799798484840
-0.100496338488235 -85.432492436198245 -129.652464575357044
57.912884501730041 -24.310853153549967 -134.033415478477053
-0.033470995857302 -81.273341829862076 -136.934509888279621
66.992403599213944 -21.419054640044369 -139.955656100282624
63.423694736043650 -16.860513058337482 -136.222337629564464
57.025322063744497 -31.232725404543523 -135.752835742498235
68.087340943794658 -26.938135025435276 -141.674973261734465
60.518163250056553 -26.143322259809537 -143.651023543313244
-59.661715969550720 -141.952105378889797 -172.229291831014564
-60.034232385741142 -147.715040872615617 -176.034107074043163
-58.816919836763084 -145.185685749609405 -177.813741026845037
-57.876718055826437 -143.308791564087301 -176.629091602068598
-56.396170969315342 -144.091805625083765 -179.284309731346667
-62.659102635590457 -144.929856838382648 -184.577472546037455
-58.459899771584290 -143.349984853957409 -180.193107148994500
-56.474995930901216 -143.240784538712489 -181.770883520958250
-63.079596399415131 -151.746266953499827 -191.434869388070950
-63.108103986635143 -144.528539801977672 -189.841399564470322
-66.675040048566586 -150.029665978686296 -192.344899020261636
-65.938487216332092 -147.616025774797635 -196.247777376388314
-44.935874589274945 -127.246441566172621 -194.585018869920049
-60.222932455275462 -144.251223161268769 -199.121359177122315
-48.331935322813059 -127.994571777795187 -198.685732640397276
-47.451152039979092 -135.125156118615195 -204.463080189576175
-61.597607236829397 -146.381211444235078 -204.915044991175677
-58.332587523329558 -145.636861555621664 -206.250653000941213
-59.738434696816888 -150.436042477503861 -209.592846879652711
-58.435596018947386 -147.341250428650540 -211.423045941873283
-63.217253358188849 -144.200823848403388 -216.093583953806160
-61.422555101858926 -144.641867791504723 -226.167180873662488
-64.425394555082832 -149.834277870642467 -221.093579132421979
-60.257030190645736 -146.518027938061294 -218.789176604651033
-65.140710469407040 -148.385809981942117 -227.687242935862713
-59.348117778662122 -152.558979857049223 -225.712148792558338
-64.029773663412726 -146.395061160862326 -226.692382945193629
-62.395408619668416 -146.151506376126463 -223.910817310604415
-54.554595925361589 -142.951954108625955 -226.020806239150858
-63.615834169777024 -144.798665231514491 -228.290366528767976
-66.843293439761752 -147.529447104041793 -232.430870194592757
-60.825951786055562 -147.803749862340766 -225.531942659875483
-57.320941201588639 -143.862830487453493 -228.057360490028458
-61.015036853277010 -151.025627378208441 -226.745284840773394
-58.989780201125491 -145.351912420539406 -224.233797914834668
-57.888994719951334 -145.671277036570672 -227.021521996279290
-54.550872376026668 -147.229340437373281 -233.979447541558784
-60.862236405580234 -147.151139011609047 -224.570745645157729
-58.512459783423694 -143.235251209553923 -233.101774524431647
-55.303273934286452 -142.240420032522991 -228.268415732496152
-64.577552396905801 -148.995083849155861 -230.070618674998002
-59.401583014444320 -154.332710211333819 -236.169476280779378
-61.023197325780579 -142.996325623548103 -229.701369226632778
-68.514340461089574 -151.081244918636457 -229.370316775115413
-61.774724829597119 -141.838030728682298 -235.132372350633659
-62.964720299316255 -149.848085811415558 -236.933673082804660
-61.045193575887772 -147.820436486869426 -238.386097297687201
-60.084490370539747 -144.459100136240892 -237.038537870284557
41.123682416350974 -40.456782382732314 -237.367015824635843
44.497442245230438 -36.420528295556252 -237.809047252708353
53.158310096737623 -33.262753107345993 -243.026159942176122
-56.092250147555404 -144.528585559911733 -238.070312159750216
53.480854220913585 -34.406200345939560 -241.660902215442235
47.651225499899482 -42.492970837915948 -237.161286080903409
61.598657590051708 -30.562053140827231 -239.355807065094098
40.080391113424177 -44.394773995799618 -238.961633116156150
56.669039338273365 -30.170952544353533 -242.259249692708238
47.688610645680050 -29.633979254097923 -244.938514047229688
-60.578419541916595 -145.155415694973271 -242.048587247271172
55.780954725018070 -33.585658825317900 -237.760744241243486
57.054679641235658 -32.847213712713753 -245.702324523762741
-62.632464450327596 -147.448605388280470 -247.448409743411332
59.287565591177554 -23.012205939233482 -241.592000474213393
38.349255065432047 -45.963485201684882 -248.200050985959933
59.419665255165548 -27.977703541419782 -248.155931216173059
-64.029594264707413 -149.365993220593282 -249.465797467017268
-62.816898838187441 -149.527437338838411 -253.030511182293765
64.236050728196759 -24.501410893079036 -247.300517283173008
-65.734825692084314 -145.812546847287109 -249.495056492929621
-59.911510577459204 -154.561964865024294 -252.692358438404113
-61.476140990919511 -144.155535815210442 -252.967803966634932
-62.151830243251986 -145.881651927795502 -255.795400792303212
-60.243951424052476 -145.946489243507926 -259.043416018581354
59.386447273838399 -23.259438279458422 -259.810740894428307
61.119641282918494 -22.780634989579976 -256.046495889300786
58.501556026188815 -22.151054815021080 -261.800012209221791
60.426276545729408 -26.657552566246096 -276.117997148950565
48.362555668100399 -36.282128634613194 -274.250606816176060
56.586112433134105 -24.889525492019040 -276.595261877707856
56.214112573489579 -25.787196913433355 -276.451214052123078
56.945828531445450 -25.715085025200949 -284.729076410413711
52.846750707654429 -33.554927445118274 -286.343350784180984
50.301293340383744 -35.005085647326005 -293.825972614947318
64.428885183946335 -20.831281017999448 -8.880770411722370
63.844326799574326 -16.937447731866740 -10.187304218881662
58.415780694985315 -22.035904998782677 -13.603441600079750
61.887591603578400 -22.826595734649690 -16.698832041780449
77.560287046162415 -12.368179539193783 -21.827563114522349
82.114489633421670 -6.915694270316969 -17.751331111528422
76.829786734793771 -9.650279001153741 -19.485585876888582
63.839882747250073 -20.946716770856586 -29.276201137543818
74.902724338645129 -13.328775360629169 -35.754086560661413
82.119128133333774 -4.278239358803727 -34.432457033229824
62.191033933974680 -17.774249590721286 -36.305289074925412
61.725884663511415 -25.281424919750087 -40.967574927386153
65.012731715146202 -21.114440174804589 -41.787580265041754
1.600619285946624 -83.370144743344937 -43.848423427817615
-5.682103860388886 -88.645768050047835 -45.294040522394816
-6.597929371545604 -90.999705323687067 -45.049280941188364
8.012683211754590 -77.832925681672521 -43.651832717578124
14.654605484193725 -71.179092156158688 -42.383432060344020
18.455554086524188 -63.353939526393233 -48.447031080949948
28.279816002163233 -64.765568886799699 -48.586801827743905
-19.150128825249837 -100.115248102368938 -49.177729786703530
23.603785916892235 -60.374865186559447 -54.947268790673370
37.452749235137915 -48.043979508470265 -53.952351558313829
97.522486214014165 11.647155282334316 -60.106518010589319
40.311531481945259 -49.112882291837870 -54.944595842315991
95.954233661879769 6.434161130531193 -58.703167832613104
95.307509976899425 11.766026945832877 -63.210893733832634
30.652313015587513 -49.831737468910084 -69.456279749587083
25.797476486130769 -58.805278721626877 -64.035576229782606
117.777836150016782 27.838882272725229 -62.822788791253970
27.256651230912954 -61.953967026781584 -68.933875076081847
-23.194269140918216 -109.411765383093794 -71.500916714738480
24.376443854930884 -65.265205813609981 -69.766706344139934
23.153691324595016 -66.722431008666305 -71.337377815054907
9.619552825143403 -81.895101383482398 -76.197157221631272
4.092142315545909 -87.162400442174018 -80.192551283234593
117.406615566715018 37.923994566401959 -79.864643881784914
117.610759675987893 34.466284933752043 -83.930329589039189
83.730270557546447 0.822221588572567 -80.053472544170248
-2.325124350143235 -86.642763348004223 -83.256583745615401
117.231955717181876 35.967333076238098 -91.272390649443921
86.141868837583658 -3.033163161568317 -88.498338867087355
87.258846795852776 4.354021134233527 -90.146392843118491
79.867520345591373 -5.617057570534538 -92.726426906686470
79.046520609150846 2.599240572538141 -87.617879891602016
-0.775142845552150 -85.249711945789144 -94.600712119204204
115.631141778713570 35.436350457928491 -89.375158563630151
82.441119188461187 1.954943860054627 -84.930360099074306
116.979253010129739 28.798565631988975 -100.706901372306561
-3.774282834962779 -85.516520726860321 -95.430704047443413
116.174101143950480 30.315343684556478 -95.871436990131258
-2.681679512764595 -95.969652231626469 -97.250168755727231
113.190374065184557 29.076396856887587 -103.003242363682858
-4.463086489550673 -88.259932232239436 -110.374665836318471
1.165286609903719 -81.527505815206695 -106.871710460431387
114.143511429444160 27.813773078617192 -109.847654666363496
109.193001809123885 18.663795487348654 -108.742069691979424
-1.770433316097763 -91.028989798163408 -112.917899967259416
-17.674066781947328 -98.409433644514067 -110.863155910069949
-6.081551157397670 -90.729688956477773 -113.659089590319709
-14.913414310091628 -98.589866976846906 -112.488595883048433
-7.911494114505603 -87.559945759303787 -116.284187804724027
-18.842800925552528 -100.045770395336021 -113.232648055332461
-14.522998401394750 -95.104299795130146 -117.802361549060834
-18.825704182512453 -102.774255457126429 -111.125117507176725
-5.358415447831351 -85.962025482830782 -119.087988554600088
67.953534818896003 -13.690139179739054 -118.962707533697582
1.926358616742557 -79.432539255599139 -121.141656428072622
-12.462298842270867 -95.859866234181993 -121.767111910390838
-13.517936643820887 -97.038699014626417 -119.463158357782831
-4.033659642919059 -93.401425877689121 -122.768720713104173
68.473887802032920 -17.133164762864187 -123.121982529219665
68.959913204886121 -16.784045583420784 -121.455398854005423
71.037878533941665 -14.802957755187830 -129.291918088365264
-15.013660040942460 -94.521765164644592 -124.311611693917783
-14.280816102532746 -101.786657810100749 -125.743043704916630
-0.602880951457621 -85.544210513824311 -124.470804515750174
7.839644529481316 -75.833146196525917 -128.020380689819433
-1.976268783920790 -83.413110312762541 -122.699786828922896
4.483072923413294 -75.081786936830312 -130.346089405568591
2.490881491372342 -79.145203882232622 -125.896492836717670
2.516701352002021 -81.804388063588092 -128.494336806461916
3.511374036247459 -87.949183592111936 -130.770771471311832
68.740086634803646 -20.654058341360628 -129.022423309414705
9.367803382578444 -78.397974625297238 -133.647972492447508
4.484716418589596 -86.432515037235518 -141.522561308776432
58.095924507489691 -26.389262348936864 -141.179222371124553
63.181257915175884 -22.075317014485048 -139.875323763609089
-58.594991753141329 -141.143231645767798 -193.849589165552686
-58.566487981525107 -145.502857746573909 -197.269213730347985
-60.687887024860338 -143.736524260765833 -193.601059283604371
-60.430429034907547 -148.442715433319108 -193.063084672690536
-62.892683411190099 -146.741924222941975 -194.701298720567053
-55.680151769818764 -142.733016630809971 -199.552226803387526
-61.490402130268571 -146.095498275181995 -196.940263826216267
-64.229268330842984 -143.181117838807381 -194.794469549092582
-67.513187991498000 -150.089592122825991 -198.075048982439199
-63.519282277110094 -141.582195981684691 -199.805964074617179
-60.021618389184646 -141.360942010155838 -197.510518601983961
-58.476575072078170 -140.058552391230307 -201.107923574602950
-68.817306651482340 -149.604138262217674 -198.079052981336588
-60.567188993250198 -144.723495883602936 -202.009600064234036
-60.274880061004311 -141.205714912358872 -200.222521875606219
-59.705148211263001 -144.577250897592762 -199.184554186445183
-65.558112608638083 -147.969481039076840 -202.975014311570874
-69.830696327415779 -148.289336599574597 -203.351675199746495
-53.205011431128717 -144.009479619926566 -204.069182153204451
-66.787987929700677 -145.756247630649824 -206.234964199818705
-61.094370014136054 -144.380702177569418 -207.713943871510082
-61.382115807567999 -146.795616976221879 -204.573274926619888
-61.137895594415987 -147.553809581487513 -210.470634235027092
-62.397770451073157 -145.878062744128300 -215.134305606562805
-63.871930294417147 -145.860920705227755 -222.109071868892755
-61.641439203946817 -145.626742697419132 -224.889840063103605
-61.326125925185913 -146.140131692066859 -220.435927083868819
-58.873502145800032 -145.275904008013100 -220.040244606028153
-53.477744844730786 -147.054837727094565 -222.738175926669982
-59.913810570182697 -144.797838008458541 -226.046242047565414
-65.820461789179177 -151.208637037437740 -225.908701787262459
-61.527706331244595 -146.550873917518373 -226.478468164726877
-57.922024901911371 -138.547904506259158 -228.789635601218436
-57.267932231022435 -141.526429517889540 -224.862866703651179
-59.005994962309622 -139.876204295728400 -226.596992019205601
-60.499949117124572 -143.292263113477759 -235.547542419202784
44.076263642284914 -43.127917320525796 -234.781684521107536
37.870879514803036 -45.128105244174336 -237.765443092067670
46.833690789237295 -36.921656597603928 -237.840495118327112
60.405958827940445 -30.069690150984293 -239.191731588967912
48.379981210518473 -36.305889763827885 -246.676718706280013
39.868773475293487 -47.581183527185281 -242.629817360165504
44.668328730041459 -40.904492550184131 -252.794115139688870
42.287858229659832 -43.058199404448843 -257.310319699046659
61.768616719473897 -25.003940361851878 -253.422102322601603
47.198455779764458 -41.859949517895437 -259.652894321023723
46.691178776834448 -35.260406814559602 -266.310202520622170
43.919127306985956 -36.087865162672301 -270.596953303814189
58.764415639354247 -19.681774663959295 -269.945679817887992
45.832355931237764 -32.578906987308081 -272.386277124812807
56.297251131776932 -28.782002287511173 -277.303995565062223
54.697650804494884 -22.119864432376364 -283.286673320719842
50.554889407888332 -34.095715265377244 -293.739029412350192
59.889288651210776 -22.261681181951896 -19.513557496544305
75.538976084610766 -8.978610491197292 -16.382087832526853
62.313701759637453 -25.051091970458483 -23.643722667717004
74.389493606684425 -12.375222707716148 -23.426700097181730
79.877631228125210 -6.895440854773538 -32.822636926267343
63.346182878756522 -28.162190740951697 -31.744228683117086
76.408060902057443 -10.844323768493515 -33.361937742299688
65.512991475652143 -17.393989348006784 -38.200606399836722
6.693975420553746 -77.050594728665530 -43.507094187470749
10.669078128935519 -76.442426723137984 -47.064923772287635
-13.116239575857646 -96.576242027770320 -49.183691365224817
97.906779610842364 19.756011599196967 -54.994664153058892
34.395107761605622 -45.929955434943189 -60.069948094586579
33.196291550980753 -57.291469176864219 -68.198990625239929
114.319948475574193 31.481696241411406 -67.028084235075099
90.997381057444926 2.777137474765865 -74.475804766442863
20.136773744854548 -68.294101854792544 -75.775957038273745
2.919374832374141 -82.859708176117110 -79.217540116863802
11.997726591230307 -68.775433973585962 -77.337048750028245
11.721414543830061 -65.804234877151259 -78.715903538358006
118.315276257056908 33.019918050222927 -81.375105838535717
6.937514204550297 -69.300419501547950 -79.046794813836414
9.223411457408503 -75.487962315958569 -77.126279859842228
4.246861575426982 -79.828077420909608 -78.753941807181846
82.455618030041009 2.878421735828391 -79.480601667065883
89.385726252562961 1.550674539169851 -75.572844951050783
87.526577773894175 4.967272222569296 -84.320887843610649
85.725237011594061 1.339442479734829 -82.765300502843587
90.817881965634868 2.850914456891544 -82.646372333308918
-5.695502610842164 -85.266881196059330 -85.635789455839969
87.077421729306906 1.510060685420964 -86.385852645913687
90.545248820615768 2.094504399207392 -89.632156913448810
-31.702418348662274 -112.672791405499595 -90.023793160977746
83.233804050593079 4.410554597709206 -89.982822503681859
84.882959148795251 4.402872327080079 -92.933699808429253
81.824291872957602 -2.156964103699459 -92.743477180260484
96.133389546035019 3.926191781609143 -93.796694335873212
-7.222048544377698 -86.099691190406489 -95.746656422094830
-26.577969942023941 -109.565606260051325 -98.859503640365304
-4.996599391035486 -93.687482119129442 -98.241454834159626
-5.327356403307297 -90.216108056684149 -101.060638798575368
-10.394846316396613 -92.279334965744056 -104.430355906851048
-24.242082852419760 -112.842481882272509 -99.106307034044306
91.540215033273910 9.581340379411181 -102.841950257096300
90.616593877138882 6.938392598301498 -105.793153494495186
-11.440004980410064 -92.916270075275875 -103.545810865381270
-1.896230829367020 -85.300288088366585 -100.538216062382830
95.910088113276586 14.054227148256235 -107.833466360264481
98.737221061327702 17.408565708556694 -105.427268931346632
109.846782677867964 25.404360517684115 -108.405798190504314
-6.204722200773658 -94.660459614461431 -103.707091563828953
2.278851954148799 -83.891316594663792 -113.571424604967746
-7.175519599986609 -88.310086156716437 -110.736210496827084
-11.359292043924762 -95.303525488447889 -107.800250113391940
-10.300537494234520 -101.014147891350760 -110.247319849381455
74.170025589011800 -9.074518710886327 -109.272038826125581
-31.131251861225607 -108.337657284896054 -116.288138376855699
0.474727797273289 -83.815408742404813 -112.483230367929252
70.953461536333322 -1.750649635928172 -121.876631187282456
69.253407631731974 -15.186556745521479 -118.542943156467345
70.711695567593068 -16.519318302746662 -117.602074029182930
-16.715038039857156 -102.726592875408002 -117.756050040350630
67.836338857888251 -11.526105675623796 -121.053854643890404
-26.002533983251350 -108.973995781289247 -116.669669042515281
68.914718027845993 -12.848268809979206 -119.962302638880459
-15.230965449737452 -96.223381157018565 -119.698216856369243
-2.700058015936557 -88.187918590553465 -119.349992673771467
1.758213184906865 -82.778346321574290 -126.958504981840733
67.524198126304057 -15.953699983299892 -119.584579859323881
64.030539476437781 -15.377563244162602 -128.423130009293345
-3.657926522176454 -83.121423117692160 -129.544576082331304
66.886378238120301 -19.106424350016518 -125.737620690192244
2.762174292196749 -80.578464093328392 -130.928129223432109
-0.097502656589223 -86.634444549595969 -131.507404308274886
-0.243871430806099 -78.863314141986493 -137.838518828823425
61.811314304828763 -27.799904456962235 -136.780460783994187
64.604860894547443 -19.063974404196703 -132.644615281271371
6.816917651900694 -81.255222140098240 -129.481522733519057
64.141149020104123 -19.686622467450139 -135.800950583001480
60.585491782055833 -22.926197547688446 -137.609118095614690
60.836775186106259 -26.962984828377948 -138.874983150690639
-68.702103527764905 -146.793071502995417 -194.913420176191664
-62.266388848328170 -146.063481819871811 -194.924287153961728
-58.446120815383587 -146.921396267698441 -194.327225046599722
-59.928671077842210 -149.836959791859272 -193.243439997900140
-60.547609303864945 -145.175726378883581 -201.902929534895748
-60.387260978994483 -139.660837795661109 -195.753234355824588
-65.528480341876090 -152.230104151911831 -193.894891054426267
-65.287926778098281 -141.669762867038969 -195.479693562265766
-62.828072936556580 -144.252532864879242 -198.386904757826159
-57.897753953598716 -140.208980331375415 -202.111239267345013
-62.384197967150968 -148.869782696006183 -200.767132154228250
-61.478864438851900 -149.117884340603581 -198.910333627078444
-57.741177913417154 -142.242777251941305 -201.374895610865963
-59.630428543116004 -146.057227840793075 -204.428361440524952
-65.994699412071540 -144.974261092171417 -199.242316766587862
-59.411409542056802 -142.190227780530876 -204.047785645835887
-60.935323155137141 -142.683268431515586 -208.994997202157606
-60.596791521416463 -144.441964108186426 -208.441402551475363
-62.599350740540032 -143.927226129513969 -208.501948610903952
42.529503536896392 -41.978707529368762 -235.374315768902761
39.074579591579557 -40.716380756045503 -242.637711358321610
49.953050662391227 -33.839714531513799 -242.803708792522741
42.484751066471318 -39.369220787897497 -238.943970653012656
43.244994839628866 -37.456361640620784 -244.044117329854771
43.567399079051974 -42.329541046260758 -240.617876576127742
58.171053861930929 -31.601712170475714 -241.845180717385318
48.071719097891332 -35.645876819358257 -261.180225510635296
62.721315620715437 -28.099536990521369 -279.961570595525586
40.953792330399885 -39.383867206830459 -280.510198175831306
70.068680050392771 -6.750088143130688 -13.539923069523352
65.377379306034371 -21.235857255652725 -18.614715630145614
69.136617474152331 -15.799801522814366 -19.144202326839530
61.558222167149097 -18.773013451545548 -25.427827076713680
58.979915415298265 -22.920821319673642 -29.951639623480812
70.479019617985756 -9.534263533431833 -28.914099491474538
62.732775687460297 -16.697782030524117 -35.210998422750059
55.343325613486812 -27.456612573909794 -34.174455281967546
78.817132884135773 -11.002648900056082 -36.706765830816870
68.615144723310010 -17.237642053035351 -33.432184885195163
-4.633480209477523 -80.722510143472036 -44.587754801168039
1.807555965851446 -75.266331973597346 -43.760495070051611
14.912735076848808 -66.788587497172088 -50.276634943155493
23.553057068766442 -61.085673941913150 -50.759226856551848
-22.492083908759927 -102.854725287195578 -49.324607541235970
-18.181380344312174 -106.222316019524342 -50.180167699311802
34.293029466071282 -46.341546613932032 -56.331600775679277
37.059207186691900 -43.580653968083993 -57.949602766713937
100.668140981355961 16.404104131304244 -56.424925104042316
95.669375012767873 15.690230223180460 -57.527449639559492
-20.349404784402520 -104.849233400713288 -61.531855830707990
107.318184136359022 25.534392432723006 -62.734963712917050
109.574221253003500 27.089310335700677 -61.881095603609921
89.750810406446320 12.163081427543531 -63.794301947197255
113.393893791192014 32.275304968449078 -63.074541891580694
89.031663746711288 8.795660365080156 -68.274182715629436
20.853436332078886 -62.550942951891415 -66.858436664926458
-25.884401038034753 -105.773219707629380 -69.213844263773140
116.903187861852530 33.315381161742160 -78.986885254833467
7.478659392012833 -71.815625562262554 -81.242313546370866
14.292839231116448 -65.586458818510877 -76.505159391664932
5.893905508774941 -77.792633793913140 -79.997000672885491
6.364326617796738 -73.616666561966198 -78.516388454748395
-6.668888140832193 -81.424874630808986 -79.218566512623823
85.812990504142221 2.432984932592456 -86.945799760501700
-6.529636741834372 -82.252235641975318 -85.197751118289716
118.246509581583211 36.037775068434755 -88.848920845144960
-31.737433119268470 -111.004544371343911 -88.077657885061399
83.479791423997554 1.025699971067707 -87.892550593296562
89.679128983153063 3.557874081677944 -86.445887427117711
85.509178772693943 4.100282719604225 -94.770497620343193
-1.453157087250411 -85.790028514514688 -89.466488484373997
-10.406203002931871 -89.071974488575776 -95.356374843901932
-7.925714523290541 -88.423167387370157 -98.321934951975805
-7.954250120849440 -85.482307926686033 -96.522335446080106
-10.442988254042172 -91.173614768478117 -103.072605787582916
77.414383914253790 3.299309406659376 -102.162639146970164
-3.056137387554096 -86.730678475862433 -107.099121111223951
83.392175327902223 -2.418019635539475 -106.725022101541001
-4.175808675222302 -88.287978852280006 -107.465979338329291
99.059634603127151 15.387989495631825 -99.877706056987051
92.909585510613184 12.505869367894423 -106.158170524766973
-10.099537034729387 -92.116546842122403 -108.461993172901089
-27.971806322792030 -108.846330725809594 -101.846791782851298
79.118864418369412 -4.781825193031916 -106.502475433634785
-33.074262533935219 -105.560154988540503 -110.996455496960905
73.004456093711298 -10.450010172410060 -116.497645199141047
-3.464237414050690 -81.482076044724991 -112.723044310881505
-3.107057763751568 -83.988574947454552 -106.596697998874689
73.433549054771177 0.676370475904962 -110.348301707864323
-18.652890708510853 -96.242520644179450 -111.768491310904622
-5.768022237095200 -87.574332280843961 -109.307914013063282
-17.238478765719925 -96.971608033218644 -111.397877260063723
74.838162128693170 -6.940532572965228 -114.105579087152378
-9.913965645413725 -90.157074524902910 -112.603015494535370
-7.719122253652293 -95.985270547198894 -114.604766920175535
-22.991067026323449 -98.744541269621706 -113.235435930753681
-6.471429202228792 -86.377202143157291 -115.519638468839503
2.280476790898919 -79.961403043146646 -114.741292679706802
-22.502788416585403 -103.967739169725775 -118.938320890197375
-22.024048328895145 -109.457736038718721 -123.601370628168723
-6.217938429957290 -84.696959523636778 -121.173971402207769
67.617465590909191 -12.414692557638551 -123.651165693218033
-0.741989966926442 -81.649141755650305 -129.833071781617065
62.313653221769975 -21.152779802537250 -129.648543754704377
1.711711881528674 -78.829400201807502 -127.578675038463246
61.521195236963734 -15.313734565993343 -135.564898150348256
45.190544676639078 -33.563848200959043 -241.825854151525846
50.755714318107344 -35.485427186259102 -240.085389087070837
56.613667382464840 -25.347396494821716 -247.480241119043853
43.219323375804692 -38.165224264442720 -243.770838607406489
43.559480292174655 -42.336666348012223 -245.159428001605932
45.870359340748216 -36.203365734358790 -244.975664796553588
57.683529826553809 -23.005179296294106 -243.836760656806547
61.970663713094808 -19.357175511703733 -261.545033169644057
56.797029066698137 -18.528629848902597 -263.602824738669142
28.221221978651485 -48.894840382952758 -265.291608959142593
36.657271502678995 -50.182141027496044 -268.968701832265992
63.207557784193938 -17.270854755262516 -268.630601835056609
29.783032292435188 -50.697728901075820 -268.715072242055442
34.480035329152862 -50.563016870289069 -266.059735203170305
31.871162524276588 -52.402737492019135 -271.334215676271356
52.534900480146298 -28.340287564380862 -285.454609536107114
47.501302580996729 -34.176064437125490 -287.486652745309073
48.828325530703800 -30.166144558203818 -291.447683548346959
47.750403462579307 -37.127561322035625 -295.119746861868919
57.615886954753179 -17.344640816702132 -13.517779977185194
82.061622623964041 -10.289208011384202 -15.177376419672058
53.635288554113394 -24.434648564771486 -26.182061235583376
54.414467765769274 -21.009438659156395 -19.781202005209739
69.803875433599572 -11.580252314210869 -24.731923843718334
54.007020644505410 -25.713375883106092 -23.489019706787928
58.648305200059085 -21.530327246152179 -30.553805478279127
55.976794158588675 -27.849789226082706 -27.942082216830158
58.845170751579737 -18.151457577514787 -31.532524900455982
64.882891414745629 -23.363805082279626 -35.717344828835017
73.366069191588892 -4.118154196814332 -35.347571824683044
63.874182666087279 -16.809162233998268 -39.069979812806061
61.125392291224358 -18.398126142889797 -35.198353933631324
64.259461472330273 -10.852777762005497 -36.469618044669296
6.037127120271105 -70.858337300592140 -43.735107106372809
-10.780944117661162 -99.261302157642859 -40.969811353304628
7.754983678365230 -71.784989445705989 -42.212855046368752
16.246728735036601 -60.293483246691579 -44.570569067770819
36.027461229432504 -50.063644642985892 -50.158285071648386
-23.284242134649123 -108.070294818405401 -52.706937050004427
105.862966354599664 22.218603923622801 -60.017057185154670
105.163566990276536 26.509433557649334 -54.909629047037612
90.106462684605233 10.253748825493240 -57.309793032682215
30.459110222669914 -46.801322913977103 -59.364596952962344
-26.427342181167951 -107.365126069098906 -67.134906888394283
20.337616646431705 -58.036154974492177 -63.152058528594409
113.104108519293050 30.827290320093613 -67.570245153682450
88.574136241532528 9.466425561536699 -67.349868754868282
21.194263727412920 -64.737070254297223 -78.342709506546925
18.853759154769737 -64.256073831169402 -77.949371029571779
-26.846471640040175 -107.557481180755317 -75.787540209527336
0.539087790488802 -76.973400512683469 -79.084831540036262
85.498060839392508 4.263433037892596 -80.504996797249831
85.170308654099401 6.091998726382242 -82.053151886052646
84.628402724518978 4.191801205586418 -87.600479984554610
91.023214692068947 4.243937461149809 -84.878852297967356
86.651265587172261 8.151853581251791 -85.894901119465828
116.133907936661245 37.498468276439233 -88.215631597080446
86.219594293824159 3.742617985910279 -88.902768902715607
-5.098832622981591 -90.096565596529402 -98.158621981562163
84.401924306571615 5.532911479913682 -99.367729245398223
86.881766023526538 11.866939460908750 -96.576782411927056
86.389772361837487 9.791467568516950 -101.175252027415937
84.989523900923828 9.190697680427483 -98.480617232947452
86.878155131556426 8.575291911349623 -103.720593938363834
79.745350220335979 4.679388229226650 -100.726615787081727
96.305111222400114 15.929517287586911 -98.660643167161624
88.417204456424173 7.865651316782958 -101.148747464810583
85.380717508868273 -0.655710486842985 -102.878641742637285
83.360294703575747 5.961864489796390 -99.744974645774690
96.949319282774084 13.264821863909168 -99.391669110047062
110.506112981748601 32.155319890075262 -103.895504333247104
103.981149911067163 19.793810706555313 -100.908423105451362
-9.861906820148878 -84.326561981910402 -107.113260963004961
-5.090596435778808 -84.747020355926722 -101.465154521725211
81.329555191843383 0.488433950509439 -106.811914857710121
74.044748129570692 -7.011998501421722 -107.300410182940283
-3.401337546146339 -89.748359601890527 -106.457639506262723
85.366151509324425 -3.378721767717158 -107.888548761119424
97.912892671837625 16.732662676567131 -108.692313519461379
-8.230428027461807 -89.522417760607709 -107.701763295124806
106.429912358032297 17.104018442725025 -106.340317299404759
-12.448212419263001 -93.404104708461148 -110.200546366086385
3.486217009043802 -83.524916967596965 -112.423348161211862
72.045421763503867 -6.411753211605541 -112.367979687943631
1.974785367650820 -79.600525292133710 -113.913653211614019
0.167265187291527 -79.542469188897371 -113.180397012169990
-28.262557797387089 -112.535061110017196 -118.818171795412269
-20.766542463738833 -100.919563778619306 -117.879792944940718
-10.581385223033068 -95.449273547174315 -113.905306318045788
70.827818284503039 -11.137290297903133 -118.133511543800410
-6.387301528650892 -92.906831751866605 -114.798713508015268
71.900855521102713 -7.824684492700026 -120.799271946354253
-17.393993140338317 -97.529592909205448 -119.382727677077526
-23.016728643922502 -99.094337740008925 -115.439922471320969
-16.107259538865009 -104.635350053686039 -118.319687046104036
0.212910231754516 -79.751937471609978 -118.598125117715227
-5.157444716893795 -89.355355777494125 -118.574325823040311
70.416428453971264 -4.660928644265891 -122.280867709496633
-28.097697471284565 -102.764633878104391 -124.449331249056868
1.223044768095292 -78.825227153058833 -120.379503462059844
-7.144674613014056 -84.918984748553996 -118.712799536689673
61.087113621488442 -14.018640639683586 -126.482723125939813
-1.416791939879251 -83.944231711332890 -127.357385139255172
-2.235720538549379 -82.814029302971250 -130.294369795814475
0.987228496855957 -75.831432955123276 -128.358162340607976
62.216676053988081 -21.230834755225260 -130.262023153826277
67.949208697022812 -13.503744534538130 -129.509678213423996
60.733073827156979 -19.780367808486062 -134.507106238651858
47.533590258588532 -33.597546767041472 -235.771692947861652
60.133070524548728 -23.666006207235942 -235.490278751067052
50.105633370769844 -40.627316767306624 -246.056058972538239
46.227308589121556 -30.084251989815350 -241.954579389133471
58.084166564199208 -25.764213050485708 -241.496550331267116
42.782862476427262 -38.765142704996670 -244.629449738308182
52.244674597583028 -21.650209206795207 -249.797212728143649
40.651004079742080 -40.344094154571891 -248.815808555617707
59.103499655221263 -22.610954485598615 -254.274937576210505
30.835508559889249 -54.257349121068280 -254.088534969057633
29.019146525043514 -50.922829480334180 -260.116862374816549
61.516818152145973 -18.464645063610391 -259.910327812302739
32.413523159611529 -47.911059847053380 -263.493805190833314
30.608162262826799 -51.176507660867919 -274.463751743745888
35.262245051986220 -49.624116108699241 -281.257408363297770
34.359244857665018 -49.954500482867502 -279.505115392074288
46.537198161219003 -35.794511127487013 -281.729973100509767
58.847453391903471 -31.033187805982791 -282.120916962876606
39.740328767503463 -42.998012985897205 -278.430857757704644
37.912490343999927 -42.905484049422071 -281.646639845703362
51.365190709932676 -31.909387143165219 -289.868048345364457
61.443634946565993 -11.655813372120543 -9.258305545415602
63.341551100187196 -10.441942971716509 -14.740412946726426
70.251595944296298 -14.391442561779456 -13.766306465944350
67.918846443285446 -10.411841260692389 -22.382452676916063
56.306605656070552 -20.447051579859192 -23.124659390302817
73.234197885059857 -2.647879938660915 -21.958629959729304
