# This PCD file was generated using the MATLAB® pcwrite function
# from Computer Vision Toolbox®.
# .PCD v.7 - Point Cloud Data file format
VERSION .7
FIELDS x y z
SIZE 4 4 4
TYPE F F F
COUNT 1 1 1
WIDTH 1434
HEIGHT 1
VIEWPOINT 0 0 0 1 0 0 0
POINTS 1434
DATA ascii
-22.439341 -125.796715 -256.790863
-59.339043 -163.309189 -257.875824
-28.680550 -130.825592 -257.988983
-25.465784 -126.810623 -258.950867
-52.856144 -156.775070 -258.008911
-66.616905 -168.125778 -257.227234
-59.453285 -160.433548 -260.081635
-54.214962 -155.977844 -258.802277
-52.831665 -152.920822 -257.802582
-29.469175 -130.628693 -259.263000
42.288422 -60.917572 -260.408600
-36.306671 -136.841492 -259.984741
-56.670322 -160.367172 -261.500061
-48.102852 -148.773865 -260.884308
-42.617825 -144.769943 -261.468384
42.450363 -60.697861 -261.468719
-56.862320 -157.301605 -262.949066
-52.423714 -153.140137 -264.025543
-65.011658 -169.125244 -264.754028
43.845272 -56.603077 -274.588074
-65.597107 -170.199310 -277.465668
46.469158 -55.890038 -279.437286
-51.898445 -153.152069 -279.924042
-66.902077 -168.047363 -282.381287
-51.056488 -153.569229 -281.623535
-48.786602 -151.745575 -283.524109
-48.227757 -149.805008 -283.080200
-46.005486 -148.745209 -284.996735
6.842589 -94.672638 -285.685242
-36.609127 -138.730362 -284.517365
-0.001413 -102.369400 -286.419708
22.977098 -79.356857 -284.896210
28.691275 -75.117264 -284.108582
34.991646 -68.633667 -287.346069
-36.015671 -139.357849 -287.043274
-7.294972 -111.458618 -287.030151
29.490591 -71.285202 -286.052917
44.273327 -58.750095 -286.038422
-28.826679 -131.365952 -286.269012
47.119911 -54.321270 -284.816162
59.402298 -43.860588 -287.235321
58.595947 -44.902157 -286.367065
61.376904 -39.454971 -287.373291
-66.607491 -165.094025 -288.535095
21.164948 -84.499870 -289.386169
-24.734865 -125.532211 -291.709442
-9.467415 -112.659889 -288.713196
-0.029764 -103.398033 -290.219666
5.683928 -98.509079 -291.047089
-17.821169 -121.591515 -291.513306
28.648922 -75.517227 -290.758911
-28.787485 -130.894562 -292.117218
-28.778584 -131.589279 -291.756195
-22.780102 -123.679558 -290.790924
39.022526 -64.301712 -291.259705
41.156246 -60.498188 -290.311096
42.483017 -59.802788 -290.962402
46.332420 -54.908611 -290.948120
-33.844711 -135.399796 -290.710846
53.662338 -49.812988 -291.650574
55.321522 -47.266094 -292.310913
62.915325 -36.568752 -292.857239
59.475483 -41.670769 -294.325226
61.868317 -38.554165 -291.785522
-58.837910 -161.802124 -293.446503
-50.069233 -151.920319 -310.818024
69.790733 -31.175438 -18.073681
72.951202 -26.443853 -15.333456
70.375999 -30.632586 -19.197620
69.783974 -30.841232 -20.697865
69.358475 -33.285278 -21.208832
64.855873 -33.383087 -23.248055
69.023590 -33.371170 -25.541431
66.050781 -33.295605 -27.048986
68.214348 -32.810738 -31.983950
69.619522 -31.816685 -32.107883
71.429382 -29.269997 -35.269421
80.093575 -19.535341 -35.354580
67.981308 -31.006716 -36.706524
74.164223 -25.255688 -37.047634
76.996536 -21.447199 -35.878746
72.456627 -28.245630 -38.259357
77.482544 -21.365032 -38.734795
73.954559 -25.264833 -37.960552
76.668709 -22.920187 -39.942547
11.314904 -89.101654 -49.421608
20.612110 -80.336372 -50.448193
25.209257 -74.050148 -51.518871
-5.697676 -105.351875 -57.191891
30.018103 -69.064461 -55.816650
-7.387492 -107.582001 -58.439987
34.728214 -64.804604 -57.985554
-11.519788 -112.443291 -65.356750
40.279125 -61.717659 -65.440094
109.175346 7.083587 -67.398727
112.132584 14.896894 -68.426003
107.206680 7.104838 -67.696831
39.413830 -60.957344 -69.591599
112.779198 12.400223 -67.650841
-13.084028 -113.946915 -72.137230
116.339005 15.286566 -71.229004
102.873756 3.299071 -73.373848
119.975990 18.506708 -72.718048
-13.203403 -115.140785 -75.176086
33.969299 -67.529312 -75.223358
30.598129 -69.001816 -78.968124
121.488457 19.330839 -78.411827
100.889114 -0.446639 -79.554047
19.332901 -81.287498 -81.531052
17.959471 -84.223763 -83.884811
120.637520 17.943533 -84.320656
120.493431 20.648060 -86.635437
-14.061866 -116.569656 -86.957764
120.925026 19.978535 -89.978455
121.416367 19.611311 -92.710457
95.778328 -6.581957 -93.310722
85.982834 -14.896971 -93.180084
89.477058 -10.492137 -97.992836
-2.419408 -104.371277 -98.537025
119.300003 18.936523 -98.523674
2.866450 -97.901039 -99.626587
-2.844963 -103.127075 -99.708595
-0.998115 -102.992393 -99.503036
105.983330 7.454542 -103.317665
116.324112 14.279708 -101.406151
-5.766190 -107.813316 -102.982788
82.814865 -19.236609 -101.885323
89.521416 -11.844463 -103.995888
83.106194 -21.794687 -105.775871
88.359688 -13.742496 -107.733749
128.377228 28.335152 -111.576294
76.431679 -24.301500 -113.732208
-15.145797 -115.977081 -112.090599
128.719162 28.489569 -113.245575
83.119850 -15.128516 -114.399849
76.178734 -20.664858 -114.735031
-9.414373 -111.650803 -116.196213
126.323235 25.868431 -115.054947
81.582527 -17.669632 -116.706871
-14.494552 -113.777580 -118.202316
132.854996 29.951229 -117.987328
128.458130 29.970764 -119.948158
82.894150 -19.341068 -120.395950
134.079651 32.224731 -122.675949
81.009483 -21.037121 -123.491226
79.547501 -20.477909 -124.748238
128.898071 27.074959 -127.454369
74.282234 -27.581696 -128.955505
130.155807 29.630501 -128.233185
10.848425 -88.576103 -127.900429
14.459476 -85.553963 -130.114670
128.984390 27.652151 -130.133499
133.007629 31.860855 -131.371399
-3.447420 -103.924515 -134.365402
-1.114070 -102.492714 -134.518692
133.389786 31.300957 -134.401169
9.297660 -91.907738 -134.682495
18.507467 -83.341141 -134.755264
129.367813 29.374096 -135.364563
78.611382 -24.273132 -137.641922
128.293121 29.073061 -137.730392
10.357237 -90.975731 -138.977249
-0.046359 -98.201149 -141.118546
132.843643 31.419483 -141.431107
21.345173 -79.343353 -141.106445
-0.748228 -100.175438 -143.330231
131.459290 31.624426 -143.371231
4.375510 -97.399277 -145.110626
67.965530 -31.304193 -145.223923
13.051887 -89.119934 -144.418594
0.091359 -98.237129 -144.581604
20.327299 -80.420624 -145.512100
131.156189 30.429825 -146.128677
73.892647 -25.539793 -145.879608
67.317688 -34.123371 -146.374741
128.767212 25.772690 -148.335587
132.130310 31.497992 -148.478333
2.537153 -95.263481 -150.069321
1.817649 -97.718117 -152.153656
56.829559 -41.822666 -150.912857
61.481922 -38.911789 -153.813171
130.576385 29.911112 -153.206879
0.219870 -97.677505 -154.114243
6.714058 -95.550056 -153.650879
129.684448 31.096272 -152.002899
14.719529 -87.319351 -153.843933
25.582922 -76.283546 -153.175034
65.655388 -34.234245 -154.446167
17.736492 -84.907562 -154.673157
65.185165 -34.070583 -154.344254
61.226830 -40.275517 -155.817307
7.944367 -94.448204 -155.133865
61.871712 -38.058300 -157.008713
130.627243 30.353046 -155.496490
130.358765 30.122658 -157.599731
59.990894 -40.698822 -157.505554
62.396996 -37.227100 -157.517014
0.964817 -99.176605 -159.331146
25.281668 -77.356934 -160.180923
18.365974 -81.175880 -159.663284
67.839050 -34.027378 -158.990906
128.572601 26.996815 -159.009735
18.389872 -83.244293 -159.136505
133.445938 32.077095 -161.132889
50.771656 -48.186798 -159.347519
129.686050 28.973318 -161.856674
3.923877 -97.276871 -161.680466
29.119701 -71.423088 -162.787796
6.854389 -92.382660 -161.790787
132.386963 30.326313 -162.129471
20.873138 -79.364296 -164.880142
51.007957 -48.481270 -164.153793
50.811611 -49.877480 -163.949814
5.356273 -95.131638 -164.861649
5.175164 -93.936203 -163.983322
30.163855 -72.833130 -165.562180
70.594528 -29.898895 -164.139343
127.092384 26.170900 -165.115524
127.661308 27.886217 -165.335907
9.273830 -92.056496 -167.677597
29.241144 -69.534256 -167.406342
131.249985 28.715000 -167.630646
7.316768 -91.280434 -168.618942
23.036274 -79.899887 -168.400009
24.676275 -77.225288 -168.092987
128.670380 28.978813 -169.377228
8.744053 -92.769142 -170.551971
32.913109 -69.165985 -171.006546
131.888885 31.504942 -172.928467
128.930618 28.914604 -173.789795
-53.743393 -153.234879 -173.954681
-49.590023 -151.175842 -174.734680
125.515343 22.450985 -176.561066
128.567337 27.714029 -178.274277
33.565575 -67.497360 -176.544128
63.757034 -37.547897 -179.220001
62.190567 -39.028667 -178.996979
127.646263 25.871984 -179.502563
27.103863 -75.742180 -180.156387
28.510818 -73.542152 -179.895248
69.641739 -31.799318 -181.217972
127.434769 25.785975 -179.386307
-50.248756 -150.580429 -180.439911
69.536827 -31.405340 -184.418854
67.254761 -32.681210 -186.649811
37.660275 -61.961426 -183.689331
29.091192 -69.590706 -184.846329
-52.158455 -151.739929 -187.790573
59.653950 -39.989964 -187.246017
128.992996 28.086098 -184.506836
-51.730183 -151.808884 -187.675934
124.212540 24.312819 -187.625961
31.589119 -69.046890 -189.271744
125.419571 21.670530 -189.368668
-54.824963 -154.073822 -191.851196
-51.009632 -152.036697 -191.034225
67.319237 -32.906219 -190.868164
120.827736 21.245014 -191.863922
126.946304 25.083881 -192.894180
33.877487 -68.073776 -194.979004
-42.661930 -142.371689 -195.446564
-39.047153 -138.456467 -195.016266
-39.032345 -136.189774 -195.980957
67.870583 -33.806053 -196.168137
-51.630997 -153.448502 -195.939026
58.629887 -44.414890 -196.786377
-47.075726 -147.839813 -197.746994
39.605213 -59.946823 -197.565201
-43.820869 -143.369720 -197.183929
121.712029 20.802296 -194.760300
-47.954128 -146.774963 -198.937576
121.371437 20.354958 -200.636627
-44.588326 -145.487198 -198.183487
43.816807 -58.236610 -199.167511
34.187153 -66.022614 -200.466324
-41.911140 -140.678085 -202.466064
-36.781742 -136.423813 -201.467484
121.112961 17.682962 -203.457855
66.810356 -35.957611 -203.352539
-54.849018 -153.644211 -203.854065
-50.905350 -152.401291 -205.174835
44.037334 -57.009007 -205.215439
63.857822 -37.725853 -206.778656
-64.490356 -164.492889 -206.430618
57.091202 -42.071964 -204.869522
38.287697 -64.085892 -207.877869
-63.647678 -164.492188 -208.547287
65.270149 -35.743317 -209.394165
116.371643 14.574299 -207.741074
-3.058832 -105.076263 -208.598923
113.835365 13.393954 -210.968781
-5.533692 -104.704041 -208.722275
48.613720 -53.259415 -209.327866
116.876671 17.277908 -210.908691
-58.698971 -161.957855 -210.647507
116.200813 17.640423 -211.341125
31.020784 -69.755684 -211.236252
-9.374475 -109.724655 -212.157654
31.455673 -69.215103 -212.145157
112.860977 10.339918 -213.213150
-14.575104 -116.917244 -214.393997
65.217285 -35.898918 -213.901749
-61.595276 -162.358505 -213.884766
40.929512 -58.346878 -214.849594
-50.297649 -152.438675 -214.411819
-57.452213 -156.214294 -214.147598
113.601425 10.515312 -216.027481
-54.768559 -155.214890 -216.208252
-64.961845 -168.090027 -216.422058
36.169140 -66.224945 -216.946747
-11.840346 -111.456604 -216.797974
57.125229 -43.239132 -217.101929
-59.835476 -156.281494 -217.755768
111.791611 12.668442 -217.682022
32.420383 -67.041840 -218.702042
50.826866 -51.900711 -219.468384
65.732384 -38.260662 -220.438599
113.388367 11.942199 -220.575317
110.714714 10.183270 -219.449692
107.445511 5.061476 -219.177155
-64.768654 -166.386337 -222.139603
-23.308510 -123.222328 -220.894638
-15.230619 -116.191223 -220.578674
-54.910454 -155.226898 -221.240128
113.856644 13.471975 -221.874390
-64.776970 -162.698746 -222.670792
-57.016247 -157.717300 -222.011749
-56.382351 -157.601868 -224.274216
39.340458 -60.994904 -223.204041
51.327381 -50.010315 -222.104630
106.539650 4.504042 -222.971146
107.508606 5.986211 -224.088409
-59.128380 -158.747635 -224.029327
-24.404093 -124.884857 -223.826721
-20.484554 -120.506302 -223.043716
-67.268898 -164.323502 -224.382248
-44.980625 -142.282440 -224.677826
42.638481 -59.397800 -224.211960
48.117748 -54.381390 -226.035950
-36.928196 -137.449188 -224.445694
-31.602034 -130.593811 -225.060760
-24.061806 -126.229507 -224.709808
39.447346 -59.582447 -223.827637
108.691437 7.134371 -224.832611
111.003090 10.842348 -225.149307
-57.861107 -159.135712 -226.384949
-48.636227 -149.570648 -225.089767
-64.804825 -165.520401 -225.607376
-52.475117 -152.991165 -227.890549
-24.287813 -125.069534 -225.288010
39.935421 -60.990929 -226.791931
63.540863 -37.293488 -224.258133
-58.666981 -159.084412 -228.195831
-53.635487 -155.630386 -228.146622
53.995045 -47.216125 -226.226578
56.282856 -42.935341 -226.122391
-36.448380 -135.455826 -227.978851
-66.324921 -166.045731 -227.940353
104.074799 4.534145 -226.648438
-61.600708 -162.623627 -227.550171
-30.860989 -129.757156 -226.507553
45.517517 -56.832985 -228.044617
60.445732 -39.536423 -228.141632
-27.720261 -128.106827 -228.975189
41.677345 -59.161907 -227.521469
47.843399 -52.275955 -226.770233
-51.839985 -153.555710 -229.944016
-33.729313 -135.976730 -229.035721
-53.990913 -154.083237 -230.289902
-52.772366 -155.875717 -229.640091
57.423958 -44.090206 -229.182602
-34.617249 -135.893524 -230.166199
45.476986 -54.759605 -228.937698
107.416084 7.561825 -230.019958
47.508411 -52.621536 -230.682312
-47.066582 -149.581802 -232.283554
-36.534809 -138.542816 -230.415115
39.557423 -59.803352 -231.102463
-45.327419 -142.686081 -231.931015
-64.225899 -166.715195 -233.317520
-57.604076 -158.429214 -231.890503
-55.893505 -157.972122 -232.044357
-50.928829 -150.956146 -232.788757
98.489120 -1.704152 -233.943451
100.763771 0.902698 -231.803726
51.597095 -48.974621 -235.056686
59.705799 -39.516819 -234.135422
64.921150 -35.332081 -235.132889
-57.720364 -158.142380 -234.305466
104.450653 4.160075 -235.397751
58.285240 -41.738258 -237.237854
38.407364 -64.399940 -237.249130
62.245167 -37.622078 -235.973740
99.158081 -2.760838 -235.994766
99.111931 -0.313322 -237.027740
43.885986 -56.887566 -238.081421
47.496876 -51.065948 -238.390793
33.907703 -65.665176 -238.729385
51.429745 -51.026009 -240.651520
61.461681 -39.012264 -238.455276
35.152542 -67.178879 -240.422333
50.348488 -52.037605 -241.285522
53.034023 -48.069798 -241.038681
57.965420 -41.929306 -240.355911
37.700817 -62.023010 -241.994293
42.677837 -61.975861 -242.110703
92.307236 -8.985637 -242.062408
58.653893 -41.746017 -240.910507
-66.829361 -166.811646 -241.139771
-51.265968 -153.440994 -240.843170
52.213036 -48.784687 -243.311096
47.339504 -55.555645 -243.569702
95.223747 -4.426872 -241.660233
43.989056 -56.927528 -245.462952
47.522388 -53.104958 -245.652054
89.606674 -10.079270 -245.063278
4.852417 -93.733856 -244.941513
10.323016 -89.588745 -245.403809
44.028770 -55.083401 -245.295319
85.767052 -13.164705 -245.805130
-1.460063 -103.261353 -246.982986
89.563782 -11.361265 -246.921860
7.776156 -91.717659 -246.285431
42.682808 -57.709038 -249.228851
86.968933 -15.220272 -246.379913
-6.265009 -106.336098 -248.725418
42.151794 -57.689934 -248.603821
5.606576 -95.715126 -250.361832
67.398727 -34.192574 -250.264801
-50.131866 -151.944641 -251.514420
40.275154 -59.661629 -251.701065
43.954052 -59.167747 -251.696640
66.703743 -35.449802 -252.533173
-17.344292 -116.950630 -253.897003
-51.097137 -150.655304 -253.355957
-35.600140 -137.266891 -254.277832
-19.972029 -121.678642 -254.098480
-7.347540 -108.198341 -254.318344
-48.030533 -151.815811 -254.233002
-21.527599 -123.906540 -254.855713
-22.947708 -122.585258 -255.312119
-8.629847 -111.349228 -254.518448
-29.924679 -130.585663 -256.692627
-26.977743 -127.563293 -254.777100
-20.367458 -120.961388 -258.763672
-23.498846 -125.814529 -259.681427
-24.964375 -124.129967 -260.535889
-25.621063 -125.129105 -260.198212
-50.986919 -151.770523 -261.635803
-31.853720 -132.358521 -261.745636
-44.136982 -145.439011 -262.035004
67.850342 -33.500137 -261.684814
-66.129433 -168.454422 -262.660187
-36.999786 -138.889496 -263.212158
-50.439362 -153.422714 -265.477295
66.957245 -31.326773 -266.505402
42.484413 -58.802319 -270.861359
-53.326862 -153.088135 -271.524963
-66.242790 -169.365784 -272.667328
67.986320 -36.810230 -276.877533
46.198532 -54.911125 -279.539978
63.558727 -37.315994 -279.354309
-51.995937 -152.460999 -280.673218
46.742199 -55.557854 -280.353943
-41.596626 -142.124207 -282.055359
-51.434620 -150.754059 -281.838715
-34.794846 -138.671082 -283.415466
60.279896 -40.782955 -283.432434
-43.737377 -146.277390 -285.446594
6.828846 -93.681625 -287.618927
15.841270 -86.567398 -286.045380
-37.397236 -137.249252 -286.043488
2.149218 -98.691925 -286.439514
-18.638149 -120.454735 -286.110291
-12.799856 -113.338463 -285.590302
21.939854 -78.540405 -285.297638
31.120192 -70.305550 -285.374298
33.726234 -67.764259 -287.897217
-68.689949 -166.752609 -285.219849
-28.815153 -130.363297 -286.597809
-25.757891 -127.276482 -286.107941
26.330229 -73.834343 -286.965088
31.016893 -67.570030 -285.329559
39.985840 -58.825226 -286.821106
58.419022 -41.745064 -289.179413
56.899765 -42.405342 -288.263641
12.429324 -87.544029 -288.785370
14.422485 -84.842598 -289.783691
23.911243 -76.063652 -289.448547
27.089851 -74.768883 -290.139557
35.205452 -65.790337 -288.573669
35.735458 -63.923347 -289.504333
40.302711 -60.047607 -290.182648
40.937336 -59.163445 -288.705353
61.775047 -38.293293 -289.584625
-11.018098 -112.431953 -288.785309
-62.322887 -165.530151 -290.890961
-16.134632 -116.742073 -289.833588
50.870415 -48.172256 -290.980774
54.110359 -44.728996 -289.315521
-49.735428 -150.759995 -292.198273
61.082096 -39.949299 -290.990173
-42.828396 -143.990494 -294.384033
-51.350479 -152.659836 -295.098785
-56.452305 -157.814575 -295.985352
-56.911945 -159.509781 -298.041260
-58.022236 -159.376923 -300.471405
-58.091106 -160.131485 -305.404510
-60.470284 -158.020233 -308.729095
-55.024239 -156.118179 -311.130035
-54.647472 -156.007126 -311.319061
74.138420 -24.804123 -11.518126
78.351601 -22.207638 -10.780304
71.148926 -28.444485 -13.934946
80.877892 -18.892998 -13.413953
74.417198 -24.754431 -16.408232
77.561958 -21.651007 -14.371396
68.958420 -28.713373 -16.648191
80.988739 -17.426088 -17.901258
80.268555 -20.597860 -14.903169
85.466797 -14.364212 -17.379955
82.547874 -17.465160 -21.246059
79.587654 -16.679237 -20.025553
84.320145 -17.190821 -24.021122
86.794258 -15.128879 -20.771402
65.265739 -35.007759 -22.646059
82.919640 -17.014162 -27.354126
85.532242 -14.930058 -29.598267
64.817245 -34.168468 -30.908033
82.066559 -18.442755 -32.813293
79.564774 -18.980495 -34.326977
83.662872 -15.518806 -34.270344
66.918251 -31.790962 -35.873142
83.879410 -16.446819 -36.865162
81.182686 -18.483681 -37.412487
76.867371 -24.542395 -40.448421
7.991382 -90.107811 -48.556313
11.805079 -88.638214 -48.508839
17.145458 -81.465889 -48.499138
3.376010 -96.317863 -48.966301
0.344025 -98.092552 -48.911015
20.392649 -76.764107 -51.127518
112.655670 12.025930 -66.133385
115.536667 12.157209 -66.972275
110.885910 10.155185 -66.477592
117.564438 18.789795 -70.406563
39.242863 -61.364983 -71.091843
24.797195 -74.460686 -77.227570
31.899870 -66.499268 -75.889412
28.428694 -69.242432 -77.259201
20.314360 -78.560616 -77.767937
121.205704 22.302015 -80.152168
14.963533 -85.541695 -87.469604
93.969559 -4.720068 -85.254021
92.179314 -7.258805 -87.014755
89.591835 -11.547976 -88.222137
99.750732 -0.725723 -87.109985
9.578256 -89.715576 -89.463638
87.190643 -10.323505 -91.604149
4.414532 -94.954941 -90.781563
-17.894548 -114.684608 -92.215309
85.402969 -15.939960 -94.196968
125.571823 24.253214 -95.793343
4.047298 -95.339127 -94.529900
125.773033 27.663607 -96.650314
123.667084 23.501776 -95.842491
83.134727 -16.184185 -97.153572
123.991318 21.777262 -99.300285
90.050217 -9.415293 -98.695160
101.863380 4.300331 -99.826851
128.305527 25.947664 -99.710701
78.233223 -20.163624 -101.217598
104.573380 6.874875 -101.990898
117.759476 20.099783 -102.201927
125.675041 24.287012 -103.004463
88.226028 -11.979039 -107.304077
81.378868 -18.801317 -105.802650
86.085190 -14.390476 -106.023903
128.164612 27.135860 -105.345284
126.364990 26.046587 -107.535332
78.991844 -22.412804 -109.097954
86.966614 -13.439805 -107.729294
125.483246 25.110090 -108.211296
127.699966 29.544458 -109.773514
130.968216 31.202051 -112.135574
82.077347 -17.589312 -113.132248
74.666679 -25.444973 -115.255684
-13.069983 -110.741959 -115.543404
81.961441 -17.996311 -116.511360
130.775879 29.080862 -117.519279
80.827148 -20.043936 -119.455978
129.063675 30.804865 -120.596359
129.963623 30.629978 -121.863258
74.445709 -26.873024 -122.047836
76.674126 -20.599997 -124.958946
74.059303 -25.052309 -124.832489
80.767181 -18.907242 -123.845848
128.700928 29.791355 -123.738373
129.799118 30.836376 -127.335167
132.322876 34.455399 -126.025040
8.947714 -89.846298 -127.452477
76.582161 -23.115995 -129.576172
-3.028443 -101.694901 -130.389969
131.508484 32.201157 -130.119507
129.437866 31.423117 -129.812988
12.155333 -87.300461 -130.647369
78.756424 -20.108404 -131.676804
72.356728 -27.376190 -129.907394
9.296762 -89.453239 -131.964493
70.273170 -30.720219 -134.243469
13.852392 -84.978470 -132.848892
75.087524 -22.371256 -134.851700
132.419449 31.840511 -135.984955
0.213031 -98.552032 -137.030457
131.348022 30.725588 -136.424576
16.741596 -80.914085 -136.809891
-4.403080 -105.146255 -138.581497
9.524031 -90.190826 -137.899353
71.860916 -29.348633 -137.762207
-0.893823 -101.251297 -136.625305
70.340012 -32.443695 -139.450287
75.321815 -25.554747 -138.144287
18.791565 -80.434280 -141.462479
131.361984 32.787552 -140.712891
134.508438 34.771938 -141.378616
17.151613 -80.025314 -141.794739
76.709976 -21.820429 -142.158554
-3.414926 -104.311745 -142.905670
0.319042 -98.156006 -142.481110
18.226171 -81.660851 -143.052368
21.532026 -79.949387 -145.944809
76.086876 -23.611084 -147.723526
133.696030 33.706860 -145.460739
-0.487346 -98.621536 -147.369766
1.814385 -95.174278 -147.456268
1.432212 -98.630203 -148.253189
-2.113322 -102.027847 -149.622543
13.742881 -86.369118 -147.669891
60.469173 -36.735241 -149.109833
58.906521 -39.845970 -147.672195
68.296257 -30.559277 -149.004166
65.742790 -29.976528 -150.497833
60.974102 -38.016285 -150.591385
-1.883322 -101.696770 -152.378189
21.301069 -78.239243 -151.462845
66.966827 -30.782278 -152.813248
134.262329 33.695309 -152.397583
55.838757 -44.567940 -155.993622
4.579483 -94.575623 -154.993225
14.760707 -85.720383 -156.372726
61.307808 -40.102531 -154.295654
73.613152 -25.842447 -154.291275
52.371773 -47.163948 -158.932053
71.856651 -28.397470 -157.596420
72.154648 -28.077326 -159.596725
4.144092 -93.799561 -160.862152
23.330267 -76.362465 -159.011856
128.413574 28.180035 -159.341064
55.336498 -42.615734 -159.250961
54.062519 -44.443714 -159.687408
3.827171 -96.776024 -161.339600
6.010596 -94.367516 -161.413696
51.247749 -46.064308 -162.531677
18.596315 -82.048393 -162.697952
26.865805 -72.602539 -163.495331
132.183838 33.400448 -163.582245
71.277153 -28.356573 -164.404160
65.681381 -34.776638 -168.632156
23.907978 -75.662552 -167.466919
71.247238 -28.706137 -170.633957
29.033123 -70.629517 -169.562820
131.629532 30.368528 -170.752457
63.944054 -36.809319 -173.191162
124.118591 25.663702 -172.100159
23.766611 -75.575470 -172.868317
63.867165 -37.608742 -174.063416
130.461868 29.948908 -175.620529
29.724792 -69.193260 -174.565689
26.659615 -74.427841 -176.918518
-56.785065 -155.824295 -176.683533
-50.065697 -149.260880 -177.568817
33.927074 -66.061943 -178.032562
124.851784 24.345415 -179.463104
67.594017 -30.829800 -180.297455
129.153137 31.183081 -180.107376
-50.735867 -148.195419 -181.303467
-50.988480 -150.659882 -180.118195
26.111700 -73.520203 -180.831528
36.127655 -66.021706 -183.095505
61.235161 -38.140701 -181.372574
27.965572 -70.860474 -182.694351
28.907364 -69.377472 -183.921249
67.870522 -32.733860 -183.880356
122.816185 23.437622 -186.114090
-50.018997 -149.756973 -184.743576
28.391403 -70.767410 -186.805908
69.054245 -31.364214 -186.288467
35.055401 -62.784428 -187.736465
126.419006 27.934341 -188.749161
32.785934 -67.476494 -189.536179
68.635208 -33.113869 -190.836670
-50.796402 -152.707870 -192.068954
58.744701 -39.232960 -192.445831
60.424812 -38.948441 -194.206573
30.477034 -69.326187 -193.253860
68.166313 -33.413521 -193.665436
-57.957485 -158.798874 -195.145004
-58.393661 -156.643219 -196.031982
-35.913593 -136.598267 -193.508957
-33.188057 -130.932465 -196.993835
-48.956413 -149.701263 -195.608856
-48.892746 -146.870148 -196.178726
119.164597 20.249702 -194.598251
-62.122005 -162.273056 -195.889435
-34.400711 -132.763107 -196.928085
-30.949837 -129.709000 -195.455307
-53.423458 -154.200180 -196.484375
-37.015759 -134.137939 -195.825150
122.685623 25.278212 -195.181122
-63.617138 -162.610550 -196.739426
-57.649952 -159.051910 -196.707382
65.652817 -36.535717 -197.064102
-52.884113 -151.274033 -197.597473
-55.913311 -153.367355 -196.948868
58.261532 -43.246281 -198.052628
-51.029995 -152.191437 -198.949081
-34.715870 -135.337738 -199.404221
-26.468042 -126.310928 -197.348007
-66.539711 -163.747604 -200.931915
-57.726112 -156.637512 -200.676666
118.353912 18.440969 -199.095657
-54.254047 -151.552307 -200.163681
-29.847067 -127.346100 -199.919174
40.898109 -57.725422 -199.839066
-59.169201 -158.815353 -201.893890
-48.460045 -148.197983 -200.753769
36.410683 -63.201023 -200.395782
124.174316 23.710896 -201.365784
-67.087677 -165.898499 -200.600449
-64.228546 -166.528549 -202.872253
-35.685867 -134.495605 -202.446793
-55.316517 -156.875931 -202.278290
57.686806 -43.027836 -203.512741
-64.286354 -162.341324 -203.390549
-55.591225 -156.957413 -202.787308
121.696709 20.301603 -205.082581
-56.224060 -155.897034 -206.063065
37.946815 -61.163715 -206.111389
115.291283 15.149139 -207.108551
-61.305389 -160.997925 -205.856339
62.630783 -36.610809 -206.610916
-5.504434 -104.152138 -207.911301
-5.420516 -104.583420 -209.838867
55.833347 -45.923820 -212.417587
-56.233421 -156.234680 -210.019012
-3.361663 -104.872131 -209.946930
117.245613 18.497677 -211.233612
57.923386 -42.592339 -210.508240
61.591969 -37.123898 -212.428818
-56.288395 -154.642166 -212.018738
112.242577 11.966085 -213.355164
-14.380465 -113.539131 -213.189499
40.254944 -61.013805 -215.368713
46.051998 -54.320381 -213.593857
62.044495 -37.906929 -213.805801
-11.322942 -112.643013 -215.247803
116.526718 17.819733 -213.008163
110.625893 10.650245 -214.881287
-15.880968 -117.528267 -214.633362
-11.654425 -111.520027 -217.363922
34.051235 -66.617249 -213.685349
-17.540699 -117.381851 -216.442703
40.797386 -57.590233 -218.368164
55.943871 -41.189930 -216.686661
109.221748 8.464781 -218.168167
114.319748 14.786086 -219.637802
55.457069 -44.472771 -217.304459
110.745735 11.211237 -219.747772
34.484287 -64.334030 -219.435089
51.545765 -49.960964 -219.221802
36.057110 -62.135860 -220.802597
55.212704 -42.347488 -220.733215
60.332233 -40.360054 -219.924408
48.578934 -49.823013 -221.334641
108.572098 8.356629 -222.208054
-19.193825 -118.526550 -220.908981
-51.503387 -150.352142 -222.854477
35.227242 -64.982353 -223.165787
42.095932 -56.711079 -224.180252
-49.707279 -149.015686 -222.840637
-35.891533 -136.082474 -222.023880
44.547291 -55.343807 -223.533920
43.338348 -56.754864 -224.460297
-50.256142 -150.277252 -225.111923
36.912941 -65.621971 -225.788956
-20.834007 -123.071594 -225.807114
55.219276 -45.473812 -227.649689
60.516972 -39.208607 -225.890701
-28.819508 -128.857330 -225.130463
58.729572 -42.226219 -226.562286
-32.410984 -131.267014 -226.256317
-28.912560 -126.533127 -227.192535
55.282967 -45.466637 -227.411301
106.670334 6.031405 -225.037857
-23.016565 -123.403419 -225.274231
105.637901 6.329262 -225.860611
42.252174 -55.036800 -228.120056
40.690990 -56.243187 -227.146576
56.792538 -40.456467 -229.789459
100.297913 0.626437 -230.805832
55.246582 -43.630737 -229.822388
40.382385 -59.692410 -231.115646
-29.121063 -128.654221 -228.743912
101.025230 3.059058 -230.787003
-35.475780 -135.619171 -231.468887
-49.717495 -149.361038 -228.334854
43.670033 -56.030422 -232.816559
-50.445545 -148.033981 -232.780899
48.598450 -49.111301 -232.155197
60.153603 -41.692287 -231.754395
43.916233 -57.579628 -232.836136
98.966492 -0.900986 -232.171112
-37.806831 -136.166382 -231.664383
63.917099 -36.026604 -234.808441
-44.083473 -142.504623 -233.415268
-52.269028 -150.295212 -233.747131
97.027855 -3.925378 -233.921753
102.242905 3.355501 -234.026810
-67.314186 -167.565231 -234.789154
41.504356 -57.086964 -234.485245
44.063904 -54.143879 -236.411240
48.241055 -49.234394 -238.172318
44.795567 -53.815201 -237.581848
56.659439 -43.326912 -238.853653
92.328583 -6.138735 -238.477921
-67.331268 -165.399368 -239.096466
51.177197 -47.640652 -237.982986
99.548347 1.976647 -239.129440
62.533932 -35.538349 -239.149872
96.600876 -2.981078 -240.167831
44.828182 -54.638836 -240.411911
37.341167 -62.312084 -240.193481
40.409004 -61.382278 -240.239792
54.911594 -45.472401 -240.910477
57.893932 -39.249870 -240.950974
51.602448 -47.019283 -241.938614
43.271080 -53.965488 -240.324097
56.844582 -41.398056 -243.163483
61.025249 -41.515129 -245.699081
58.777828 -39.940544 -242.321823
62.084354 -37.600388 -244.277786
65.163200 -36.184319 -245.234528
3.215825 -94.690193 -245.400406
41.774307 -56.641655 -246.431335
-1.016698 -99.392067 -247.222885
6.999161 -90.822998 -245.801941
-52.937473 -150.872589 -248.188431
64.418121 -37.308701 -246.920425
84.800179 -16.042994 -247.054214
-8.490795 -108.284782 -249.511642
89.400856 -10.012186 -248.366364
3.648677 -94.416672 -248.956619
-68.321136 -167.810394 -248.784058
86.008492 -13.889880 -250.286942
-14.429609 -112.750740 -249.326233
0.952289 -99.245781 -248.741562
84.544708 -15.795930 -249.161545
-14.449396 -113.164871 -250.690475
0.503452 -100.082375 -252.104904
-1.790719 -102.006805 -251.795258
78.216293 -19.702610 -253.329895
-5.576721 -102.845482 -252.713776
-43.994102 -144.450638 -253.731384
-49.604797 -148.291351 -255.531113
-32.706451 -132.861938 -254.371796
-33.116859 -129.675003 -255.407455
68.229218 -32.632725 -254.788513
-29.411499 -128.330627 -255.855499
-16.430416 -115.618340 -256.306610
-36.933796 -134.886765 -261.628418
-67.628082 -165.953476 -261.087952
-44.527760 -142.402191 -263.618073
-39.807941 -140.045547 -262.983337
-67.884682 -166.330475 -265.252838
-67.245514 -168.468597 -268.094910
-52.034233 -152.093628 -273.526123
-68.512184 -167.899475 -273.515289
64.509079 -34.768520 -275.037720
44.980309 -55.877430 -277.799652
-52.335979 -151.017365 -281.403839
-39.804943 -138.998871 -283.299683
-68.747345 -168.374939 -283.976990
-62.397327 -160.705887 -284.954559
-6.675933 -105.374702 -284.418274
1.625463 -97.269951 -285.083435
-20.219906 -118.842133 -284.475281
0.475332 -98.138123 -286.078064
7.873007 -91.516190 -286.282898
-61.856678 -160.727249 -285.536987
18.876942 -81.418396 -285.874268
19.971870 -79.056160 -285.653351
-67.269493 -166.573715 -286.558929
46.815693 -52.473202 -286.328705
32.616432 -67.180336 -286.520813
39.624313 -58.565655 -287.703369
22.050461 -75.986588 -288.779785
-65.098167 -167.010727 -287.333954
34.477081 -66.641052 -286.978607
38.695152 -59.265423 -287.786926
47.320396 -52.219662 -288.481476
10.289886 -86.305634 -287.269226
16.167774 -82.100616 -287.653320
27.194695 -73.239662 -289.051300
34.215233 -66.407349 -290.305573
57.951996 -41.351860 -289.298676
22.120913 -79.916786 -288.354950
33.181267 -65.945793 -288.200439
40.502350 -59.726261 -287.761322
40.976299 -58.805649 -290.127350
9.778089 -89.581535 -289.061188
1.978234 -97.451988 -290.206604
43.789398 -51.983597 -289.373474
47.919144 -51.455326 -291.401733
-2.708780 -102.457458 -289.761444
-2.484017 -102.096809 -291.356049
38.543736 -59.600410 -288.953125
53.670753 -47.060207 -290.559357
-15.265000 -113.010239 -291.164520
-10.518310 -111.377640 -290.848206
-22.338373 -123.289124 -290.477722
-15.012064 -114.523949 -290.989014
-48.287773 -149.423569 -292.270081
-38.720070 -136.645340 -291.515747
-49.591412 -149.064133 -292.249603
-30.771738 -129.376495 -290.598236
-44.795387 -144.053513 -293.014191
-37.982521 -137.715744 -294.785736
-39.274364 -140.377426 -293.145172
-50.723732 -150.776962 -300.937103
-50.981945 -151.855103 -308.172119
-52.573200 -152.790314 -310.976044
78.772491 -19.017591 -11.895422
70.063919 -27.656109 -11.846063
67.875908 -31.099455 -15.091662
67.129692 -32.307102 -14.012744
76.412628 -22.142054 -16.201597
72.862267 -25.175245 -15.653978
65.684448 -32.939316 -16.359175
76.935692 -20.032707 -15.356481
73.149338 -25.978592 -16.726765
68.057877 -31.244797 -17.999266
64.822350 -32.867268 -20.090509
66.572929 -32.364143 -20.166553
64.171257 -34.250217 -21.585646
69.196960 -28.159817 -21.674541
84.994560 -14.399198 -22.161043
66.137642 -33.347759 -22.640966
68.954849 -30.333597 -24.067755
80.518753 -15.806177 -25.446932
65.616821 -33.909031 -25.144751
68.001465 -31.586758 -25.414593
86.012665 -12.413252 -27.081791
64.006454 -34.284199 -29.392548
68.816299 -30.845028 -30.280228
69.798004 -27.089437 -32.087997
83.783127 -14.749312 -34.224567
64.862305 -31.984636 -32.650997
71.279045 -26.660061 -33.341709
65.997261 -32.351940 -33.418919
67.066757 -31.321827 -34.804173
65.711761 -31.184309 -35.004883
71.752502 -26.832718 -33.796341
73.412521 -23.683441 -37.001076
69.001747 -29.819162 -37.794994
72.468262 -27.324415 -37.675827
73.907776 -25.231749 -39.800640
75.547562 -21.890909 -40.678158
12.127920 -85.662827 -47.441204
25.588533 -74.197372 -49.184727
28.009438 -70.067505 -53.618973
-7.578556 -105.581703 -52.254627
-7.529915 -105.840942 -54.671490
36.432884 -62.020836 -57.374264
-10.079633 -109.968719 -60.915436
37.450390 -60.627728 -62.018913
39.514832 -58.585148 -65.113541
107.486122 9.703939 -63.553661
-14.640830 -111.634872 -67.012146
104.552986 7.137601 -65.926285
103.037865 3.377432 -67.448143
117.223793 17.736067 -68.715408
37.888203 -63.478554 -70.632942
98.530968 0.539387 -72.363274
119.745628 23.132612 -73.196335
31.794283 -65.693176 -73.455544
119.205368 22.262691 -74.085739
23.767666 -75.470665 -76.140465
22.063290 -73.605400 -75.855583
120.383301 21.962633 -76.494247
98.812340 -0.257518 -77.426033
121.557205 22.452183 -80.661308
-16.217739 -115.304901 -82.935226
13.625091 -81.486786 -84.127350
94.382637 -0.871964 -87.369308
87.691292 -9.902581 -89.506996
9.788490 -88.505180 -88.822876
93.187828 -5.012491 -88.820587
90.794975 -8.060583 -88.782822
120.647438 23.674158 -91.155212
88.352486 -11.505836 -92.094177
100.333923 1.428432 -91.089401
92.627701 -5.174368 -91.593224
118.498978 21.382757 -94.467178
123.786942 26.702339 -95.961136
100.957863 2.128399 -96.691956
123.846306 23.687040 -97.443611
2.281304 -96.510513 -97.637192
82.119247 -18.528795 -99.586151
93.273064 -9.709886 -98.711479
80.997002 -16.922867 -100.150040
109.540352 10.788391 -102.029182
85.105797 -11.602386 -102.120201
110.838943 11.938604 -101.981712
128.430603 27.910574 -101.940323
-19.986603 -117.368546 -104.742142
126.032539 28.613976 -107.664009
126.184471 26.697285 -108.436440
127.385391 28.804947 -109.135506
128.837540 31.579409 -108.535179
87.113831 -13.975746 -110.188164
75.743279 -23.445698 -110.371323
127.300072 29.660276 -112.244926
82.723129 -15.119757 -112.758499
-7.100533 -103.482780 -113.374382
78.412498 -17.828722 -113.289581
79.976151 -18.175106 -112.117828
-8.501246 -103.834404 -113.798698
-5.690853 -102.988205 -113.978889
125.563499 25.094391 -112.477333
77.471046 -20.812672 -114.338585
125.369507 28.438446 -115.377907
79.994110 -19.004202 -116.211792
126.903694 30.174170 -115.579575
-17.269615 -116.657837 -117.366692
-16.978769 -113.498787 -118.496262
-8.233230 -106.061096 -119.306099
-8.264627 -106.531349 -118.682869
-15.934732 -114.391106 -119.795364
126.439346 29.053194 -120.869133
-7.997878 -105.138214 -118.495705
73.272881 -26.030466 -119.158066
78.286736 -19.495417 -119.180885
-6.846199 -104.116692 -121.135910
128.263489 29.585556 -121.549835
126.471123 27.458218 -123.069679
130.276306 32.133739 -123.134254
-8.453973 -108.035706 -123.615173
73.922127 -23.435648 -124.681297
-10.634302 -108.675156 -123.886429
-4.916066 -102.654884 -125.600906
12.636666 -86.059158 -128.394867
73.472809 -25.538197 -128.344955
76.278183 -21.505926 -129.276260
-10.078116 -107.344864 -128.513092
70.858696 -28.401688 -128.720047
74.668289 -23.364426 -129.830429
128.294601 27.607557 -132.461578
134.835587 34.000530 -130.907852
7.314585 -91.302803 -132.429626
-0.812094 -99.515884 -133.131607
16.360359 -82.562180 -135.342178
76.671036 -23.273201 -135.295288
7.457972 -90.026077 -137.395233
133.946899 34.179321 -135.836960
68.252663 -29.595684 -139.797455
70.390762 -26.512178 -137.699661
72.290695 -26.178535 -137.519150
-3.773519 -100.475227 -138.061646
8.753302 -91.943428 -140.815552
73.290596 -25.131872 -140.348541
69.991570 -28.422813 -139.986496
-2.635335 -100.747833 -140.137665
10.398945 -89.633705 -142.877579
128.793976 30.062828 -142.061676
-3.038325 -101.915001 -142.717270
71.391762 -28.473969 -144.718735
75.584274 -24.175430 -145.174042
67.146126 -30.754303 -146.305756
133.351517 33.824505 -146.305405
19.147781 -81.802498 -146.910065
66.315544 -32.138645 -147.828522
71.338661 -24.999609 -146.845444
69.554344 -27.096836 -148.310165
71.545509 -27.864048 -148.238297
73.474564 -26.681332 -149.974243
1.250542 -95.099693 -151.462418
18.770311 -80.022484 -150.357513
127.309708 29.270088 -153.346527
67.279633 -29.016062 -151.409119
22.617634 -76.050323 -151.966614
15.498487 -83.654648 -152.356033
-0.138038 -97.867195 -156.269287
1.546968 -96.356438 -155.312973
3.225070 -94.310806 -155.366821
17.600061 -77.617882 -155.791229
-0.269392 -95.300331 -156.333481
58.184719 -42.162468 -156.944641
60.681358 -38.109272 -156.951660
132.778595 33.951664 -159.262726
18.646101 -79.282799 -157.204758
66.133583 -32.151279 -157.998154
21.188543 -77.743973 -158.786209
53.130398 -45.770287 -158.292633
25.267107 -71.895554 -161.100571
71.847679 -26.545462 -161.455612
125.585686 27.506012 -162.865189
129.928574 33.161098 -162.901321
68.276207 -29.476810 -163.180161
24.313646 -73.758728 -164.912964
29.174391 -71.743332 -163.096359
20.517958 -76.569496 -162.961319
70.959038 -26.743484 -165.993896
22.671007 -73.062187 -166.121674
63.835575 -37.391140 -164.722656
19.986126 -77.529022 -168.218460
23.527081 -75.396378 -168.848907
70.993324 -26.711866 -168.591934
127.245651 27.570848 -168.894806
29.936998 -67.820274 -169.528015
128.918564 30.263083 -172.432312
26.161238 -72.113258 -169.767960
68.694809 -29.708019 -174.477310
69.858200 -28.119890 -175.662659
128.262894 30.150900 -173.589584
29.829872 -68.753860 -175.449295
27.843073 -70.049904 -177.487122
28.326782 -69.817451 -176.005386
126.357689 27.129606 -176.941620
33.721252 -64.524269 -177.130112
69.874680 -28.674765 -179.198334
126.890839 30.087572 -178.535248
61.554943 -38.925800 -177.383820
29.365038 -67.374901 -181.048355
124.442719 26.829348 -178.054337
26.277603 -72.400673 -181.141708
125.719185 29.593613 -181.285141
127.403221 28.806826 -180.326096
-58.125629 -156.168015 -181.394577
32.949219 -65.936401 -182.079834
34.956924 -62.001263 -181.909073
69.520363 -30.549767 -182.871872
62.062370 -35.161919 -184.640213
60.221100 -40.422344 -184.749283
123.292358 24.235502 -185.956741
-57.852837 -154.900864 -186.114014
32.135109 -64.967819 -185.757492
37.151123 -61.132595 -188.010437
126.814476 28.878347 -188.903885
-56.289570 -154.694458 -187.753799
-52.321125 -150.551880 -187.638214
29.850653 -67.015915 -187.119644
121.532547 22.508703 -188.280685
29.927168 -68.752312 -192.222290
38.428509 -60.253487 -192.400635
-55.788654 -155.806732 -192.120804
-57.577587 -156.034515 -191.564514
-59.908581 -158.090805 -192.010300
-51.206059 -149.682388 -193.329727
-60.533867 -157.452393 -194.256577
124.621063 27.191887 -192.677292
38.364174 -60.998787 -194.381714
119.329193 21.044071 -195.296997
-28.803190 -126.177734 -195.830856
57.462532 -40.929157 -195.293686
-64.260010 -162.263840 -194.412949
-27.454960 -127.559654 -196.240173
-31.687250 -129.271774 -197.093353
-29.715454 -127.382729 -195.586090
-31.748373 -129.665421 -200.008301
41.380928 -58.719902 -197.747787
32.797649 -64.857925 -199.412827
118.540443 20.660524 -198.608368
59.339371 -38.739967 -199.632309
59.589088 -39.637077 -202.010498
-35.915459 -134.969025 -200.775726
-49.413601 -146.575500 -201.904709
-67.974083 -164.017960 -201.374634
33.265373 -64.855675 -201.717377
121.077637 23.320484 -202.398697
-52.664055 -148.916290 -203.777969
117.256760 18.995049 -204.205078
41.776123 -55.779022 -204.323624
63.362160 -35.300495 -204.845337
55.996780 -43.999725 -203.547150
-53.089554 -148.699127 -205.515289
113.577248 17.260860 -204.932495
35.112816 -63.305771 -205.418686
60.528423 -35.673847 -206.359756
117.821190 21.062508 -206.048584
44.490631 -52.834713 -206.237198
120.319321 21.831419 -208.475372
43.334866 -55.843800 -209.073730
63.886364 -36.286579 -209.620819
-52.695557 -151.186523 -212.305893
48.529858 -52.361153 -210.249756
111.447227 12.398946 -213.003937
54.960930 -43.393169 -211.912460
115.891853 18.600603 -213.129532
58.049549 -38.079163 -212.746445
62.450703 -35.914402 -214.721298
59.709473 -39.594669 -215.007706
-15.492762 -113.992508 -215.196854
-14.106380 -112.071259 -215.191742
46.008865 -51.901169 -214.288727
-20.488855 -117.773415 -217.616531
39.659004 -58.064034 -217.527405
-13.509742 -110.297775 -218.910782
-14.691017 -112.625374 -217.679169
49.321640 -48.386356 -218.059006
-67.727173 -166.309723 -219.375610
40.420174 -58.556553 -217.419785
-22.942179 -120.581032 -219.196320
106.043892 9.030713 -220.192978
-51.866829 -148.636276 -220.964355
-14.654058 -112.793465 -220.308807
53.138081 -41.407471 -220.600723
56.866089 -39.476475 -218.909851
113.221123 14.599592 -221.461472
42.637402 -53.350403 -221.426437
63.175613 -37.010620 -220.342880
59.150909 -38.543030 -222.161530
-25.533205 -124.357300 -223.698151
106.731422 6.462957 -221.475784
-39.020023 -136.468506 -223.040375
-38.335247 -136.127838 -223.365707
35.353149 -61.195866 -223.294327
111.426537 12.622619 -223.257889
53.957752 -44.039192 -224.313492
-31.781185 -130.545547 -223.326492
39.792751 -56.484245 -222.660065
44.401779 -52.809055 -223.263916
-43.699833 -143.762756 -225.408737
41.534931 -53.615288 -225.842072
60.922794 -37.860588 -226.487518
-30.416161 -129.771637 -224.644104
-67.242012 -166.717758 -227.107391
38.043221 -61.975128 -226.735413
44.576508 -54.408516 -227.108505
100.816841 4.977560 -227.079758
104.342094 4.585545 -228.773972
107.595299 7.150288 -230.317429
38.511860 -60.090557 -230.533371
44.089584 -53.993996 -227.795227
-31.521976 -129.904770 -230.813431
42.778542 -55.683956 -232.966858
59.880692 -36.922573 -232.742371
101.242294 3.008479 -231.679443
55.804913 -43.008549 -234.522980
100.579964 1.114265 -232.074173
98.494957 1.546096 -233.765228
50.033337 -45.932816 -233.606598
55.072861 -41.276402 -234.888199
-50.997314 -148.003784 -235.207306
45.498562 -52.191380 -236.645035
38.935364 -58.320763 -236.166855
48.655048 -47.520424 -236.000320
96.038277 -2.218250 -235.806183
99.399803 -0.672296 -236.090744
58.188248 -40.644505 -237.527161
100.895668 2.137853 -237.504120
45.214378 -53.130672 -238.473831
50.173378 -48.888306 -238.627686
59.826908 -37.613377 -237.182419
59.902115 -37.531307 -238.075592
59.399830 -39.908146 -240.017502
90.042961 -8.035824 -239.410690
96.033531 -2.526566 -239.780762
56.132751 -42.306919 -240.227295
42.831158 -54.625820 -242.548645
91.844910 -4.452102 -240.528900
42.569229 -55.185398 -241.966232
92.325539 -5.521047 -243.565720
92.479233 -6.364697 -242.571365
61.463921 -36.242729 -244.708298
-68.316116 -166.308899 -245.467438
62.479336 -35.256115 -246.874481
89.451515 -8.166674 -245.809570
92.910561 -6.859730 -245.584045
86.907349 -9.685294 -245.748749
-1.437582 -99.024399 -246.728027
1.443714 -96.092964 -247.680832
-4.334750 -99.999687 -248.327988
-6.759561 -103.096039 -249.645218
81.162086 -18.284883 -248.296890
-0.489399 -97.541901 -249.058304
-51.451454 -152.417038 -251.162430
38.703178 -58.755699 -250.989960
-69.372139 -165.861435 -252.021667
77.759926 -19.606186 -252.385361
84.943520 -13.671762 -254.287766
-50.151711 -148.764709 -251.922943
-40.833500 -138.179642 -252.499878
-6.060816 -103.716446 -253.361725
-43.920990 -143.681152 -253.307724
39.209282 -58.720428 -253.862625
76.997337 -19.593630 -254.109802
-46.771961 -143.518921 -254.723679
-37.675289 -134.077744 -255.578018
-9.902729 -106.733368 -252.867493
80.299011 -18.404682 -254.534561
-26.620335 -123.859383 -255.430939
71.883194 -25.451174 -258.161621
74.308716 -22.833578 -258.332581
-61.766968 -157.383804 -257.067261
-25.848881 -123.944725 -261.949249
38.971687 -61.952351 -261.648285
-31.364740 -129.595139 -262.742920
-51.834698 -149.511459 -263.228577
-48.455822 -148.281357 -261.316925
-28.807777 -128.934143 -261.804688
-61.486267 -157.733612 -261.745514
-39.305866 -137.336243 -263.212524
-60.833469 -158.661316 -265.386353
-51.533394 -150.018570 -266.452972
-58.817905 -155.955719 -264.615906
-60.290943 -160.079681 -268.126709
66.687737 -31.834005 -268.745941
41.298267 -57.496437 -270.948517
-58.563824 -155.746399 -272.402863
66.033630 -35.340206 -273.505829
-68.782112 -168.046173 -273.676056
-65.151337 -161.022156 -275.069489
-62.032806 -160.969315 -275.075470
-53.128162 -152.406433 -275.692719
-59.151012 -155.223648 -276.405884
43.388901 -56.783634 -277.022308
-63.046337 -161.335220 -277.991211
-59.477421 -157.444519 -277.185516
-50.600563 -152.690521 -279.611053
-70.036163 -166.997879 -282.140472
-43.854496 -142.749313 -281.333710
-59.681751 -158.046173 -283.744080
-49.175480 -148.301117 -285.365051
-46.583336 -144.233551 -284.660431
-30.190739 -131.007584 -285.183289
-61.708988 -159.834534 -285.016327
-24.519238 -123.947670 -284.491638
-12.252630 -107.097519 -287.021393
58.177059 -38.128986 -285.414734
-63.859779 -162.184631 -286.776215
-9.433790 -108.207092 -284.607452
9.311790 -88.433708 -286.888031
-2.926177 -99.880096 -286.553802
6.410539 -92.406898 -287.056366
44.516125 -51.194485 -287.351898
-56.933689 -155.276749 -287.221802
9.211900 -87.938042 -285.588745
12.403130 -84.652176 -286.262360
58.220112 -39.973381 -288.213013
-66.157997 -164.689926 -288.482391
13.194559 -84.387817 -288.108551
55.732738 -41.394863 -288.470245
-0.248038 -97.544052 -290.403320
4.032954 -94.029861 -290.495392
47.418015 -51.173302 -289.892700
-64.691803 -163.887222 -291.533844
-19.282421 -116.074913 -289.862793
49.587349 -48.503128 -289.190155
53.834930 -45.909733 -291.038605
-16.573362 -114.489899 -289.692657
-30.655167 -128.926071 -290.475098
-46.312462 -143.754395 -291.320862
-33.373734 -131.009308 -291.179077
-62.092602 -160.693130 -292.109711
-62.759865 -162.115585 -292.578430
-59.702404 -157.428848 -294.028870
-58.798794 -154.679703 -295.403076
-57.907955 -157.135071 -296.909851
-51.203575 -149.758560 -311.002411
-57.473194 -157.537140 -311.295380
75.370804 -22.427296 -12.114832
72.871429 -27.308521 -12.404948
81.173111 -15.825971 -14.971484
67.695816 -28.390333 -13.491349
81.407806 -14.585320 -15.820475
78.187149 -18.341644 -18.166817
84.606575 -14.473411 -17.529686
67.146225 -29.143250 -21.033165
70.145248 -28.773977 -22.403673
85.692726 -14.004128 -25.208082
81.866219 -15.820526 -25.012333
83.726341 -12.306505 -27.663015
80.419899 -15.892595 -28.556870
84.596481 -11.193697 -29.193935
85.284462 -13.326001 -31.067625
79.202728 -18.778831 -33.965992
84.401726 -14.294809 -31.621984
76.038406 -19.590240 -34.666683
82.501892 -14.841106 -35.945656
75.014626 -21.708212 -34.368069
81.149956 -16.468369 -36.953613
74.956764 -22.343111 -36.741276
81.181488 -15.435855 -37.176891
80.292076 -14.951350 -40.183174
79.335480 -16.842258 -38.207127
73.933273 -23.894005 -38.887539
74.116501 -22.302469 -38.858540
72.221657 -24.359591 -38.413982
73.089043 -23.798174 -41.305225
75.516098 -19.849329 -39.321754
78.599869 -20.346516 -38.806702
6.186995 -89.430496 -46.726479
11.862742 -85.266121 -48.331413
15.941106 -81.374779 -48.040783
1.465334 -96.733017 -47.830322
17.055487 -77.474564 -49.171394
21.441269 -75.116295 -47.431477
32.400742 -63.487835 -55.393848
-10.140309 -107.308273 -55.359264
104.261337 5.836426 -63.889969
105.270195 9.947611 -65.630272
113.294403 17.180836 -65.464058
100.690666 4.996456 -65.562462
-16.825085 -112.457901 -67.896530
39.534584 -58.447872 -68.182503
98.686119 2.209369 -70.587753
35.432793 -62.034031 -72.002983
97.091019 1.495422 -76.982765
-17.882689 -113.476700 -76.410133
96.711235 -1.051051 -79.654373
92.175415 -4.318297 -83.271721
97.711319 1.021226 -85.291489
89.307892 -5.742904 -85.373314
92.680138 -2.731209 -88.666298
