# This PCD file was generated using the MATLAB® pcwrite function
# from Computer Vision Toolbox®.
# .PCD v.7 - Point Cloud Data file format
VERSION .7
FIELDS x y z
SIZE 4 4 4
TYPE F F F
COUNT 1 1 1
WIDTH 1378
HEIGHT 1
VIEWPOINT 0 0 0 1 0 0 0
POINTS 1378
DATA ascii
-94.707703	68.39521	-55.49691
-99.100777	78.66938	-53.763336
-93.860849	94.627314	-66.181946
-98.1804028	87.0396843	-58.2901112
-97.2018538	92.0885602	-59.2669857
-95.0095677	97.0388726	-66.0193828
-96.781837	106.340179	-60.051445
-97.808914	106.079376	-58.279236
-83.5205163	91.8473465	-72.0388148
-89.3758025	93.7039225	-70.0489262
-92.3066356	95.6218873	-68.4617192
-91.131516	87.4479711	-66.7520064
-89.0096107	98.3637336	-73.4323543
-91.6641916	106.067925	-71.2536213
-99.479462	95.79705	-52.670437
-145.214969	187.116915	-67.9976253
-150.244822	187.438237	-66.6476968
-144.564771	186.513216	-65.0502289
-151.438749	186.161645	-63.5711504
-146.645907	185.77525	-60.9820759
-144.315308	185.532725	-60.3539468
-151.228994	186.077294	-63.2205434
-153.242287	187.377509	-59.9437095
-144.043915	186.742867	-56.0787374
-148.547238	185.213499	-55.8728108
-142.10731	186.87388	-61.5459993
-142.203882	186.960172	-59.3189055
-143.120071	187.025181	-56.6924541
-95.5723193	110.458189	-67.063544
-95.1277388	116.682596	-66.1853685
-97.5932246	114.118452	-60.2894044
-94.6827216	124.254861	-64.7032781
-99.1933693	124.899893	-57.5460942
-86.8823982	115.849064	-74.2964912
-87.7291364	111.471816	-75.8900183
-90.933527	115.744295	-71.9865128
-83.5450401	117.087945	-66.5580306
-83.836908	116.017306	-62.0951275
-85.7793243	120.530967	-74.1164537
-90.0783352	125.130019	-70.8463433
-88.8719021	122.078956	-71.3149123
-85.0448173	120.322419	-71.4772084
-92.251751	122.499633	-68.6537667
-85.1936665	122.198889	-67.1947545
-89.0474323	126.214312	-64.4197846
-85.1770405	122.010695	-62.3476697
-85.852086	122.288683	-59.914908
-83.6002997	122.414099	-58.0741207
-84.8151544	122.338375	-57.5483152
-85.4563937	122.723908	-57.4049313
-99.176361	116.070595	-54.142937
-98.858505	119.291504	-55.52898
-93.7440097	128.712947	-68.4794942
-97.1253889	129.048738	-58.6091199
-87.1215001	135.866164	-63.7482924
-93.1111263	128.869014	-64.1061044
-86.221191	127.450943	-63.0836988
-85.0592675	128.818171	-61.4315173
-84.8457274	136.776512	-63.9561356
-92.8626928	130.320352	-61.7384432
-90.4473892	132.480406	-58.8094263
-90.2860704	129.926541	-60.3928875
-83.4649225	133.20773	-59.2659197
-85.7840067	128.647042	-57.9687357
-88.5407199	128.0735	-58.7876322
-85.3991077	136.934702	-64.621898
-83.2429869	127.622919	-63.5534814
-88.5804663	138.763071	-63.4510953
-90.5484294	144.683955	-63.5996569
-83.3628611	137.368721	-59.7296764
-90.0902264	138.847349	-59.0321238
-88.5411642	138.894345	-62.6755597
-86.8561423	137.711598	-59.6165882
-83.8379207	141.039495	-58.5292715
-90.1072425	144.375845	-59.673124
-83.9966676	141.125784	-59.0713969
-87.6023924	140.985871	-58.6647236
-90.0059167	145.674699	-58.3356916
-94.6320955	132.915554	-56.5104832
-94.7259517	134.298051	-55.4556267
-97.5378659	129.504851	-53.8589826
-86.4246874	145.733725	-56.213715
-105.938976	175.517234	-59.8122083
-106.083725	176.540636	-59.7052199
-105.95049	181.526254	-63.922611
-106.391833	181.709066	-64.5184918
-105.239796	183.545582	-63.8930904
-105.623588	181.422733	-62.0176859
-111.215106	186.388359	-59.7656303
-105.959347	183.594474	-57.9814763
-106.331306	183.600964	-56.9476266
-94.6458111	156.35991	-62.8641565
-95.91235	153.654187	-59.9000053
-95.1471571	154.427352	-58.450337
-96.3773241	157.232318	-58.4558203
-97.2214047	164.091766	-61.7564604
-97.3170038	160.350344	-61.7646093
-97.5918233	158.677739	-60.5834575
-99.4344114	161.291564	-61.8792858
-96.917399	167.034442	-60.9631733
-102.340626	167.296304	-62.149181
-95.1591683	165.107221	-57.4669096
-95.9099246	167.15169	-59.2702208
-94.2047276	161.980544	-59.1588791
-93.2274865	148.449022	-61.4515814
-89.2311981	149.087553	-64.3148211
-89.4885861	147.736636	-61.6707864
-89.978019	154.180144	-61.9334469
-90.4142785	148.660559	-57.7258722
-90.6206899	153.169068	-59.8922167
-95.9853885	155.447208	-56.5957128
-95.1387348	157.815439	-56.3384382
-102.36579	173.170035	-62.2905184
-101.471721	172.993419	-62.4961146
-97.7974269	171.37244	-59.6052626
-101.773735	168.596633	-59.3650528
-96.3369537	170.623516	-59.1912962
-102.739668	172.564023	-57.9157192
-100.023084	178.47564	-61.6570944
-102.841778	181.409809	-60.650031
-101.852419	180.139634	-60.855641
-102.73566	170.197513	-56.677593
-74.014491	61.3731355	-64.8406949
-75.3904432	57.9340556	-63.4102717
-78.4999707	62.0164482	-61.9846164
-82.2761949	62.3315885	-59.4473947
-64.776403	55.1793189	-60.2202235
-65.2576769	59.5488545	-65.9393675
-75.066307	54.382462	-53.643276
-82.6477252	57.0030766	-56.1256147
-72.3734919	55.3894411	-56.3506538
-68.013489	52.817913	-56.167042
-57.7813233	54.2074031	-59.7130658
-56.9129817	53.814952	-58.740305
-57.6247943	63.8253663	-69.5183998
-57.1274654	57.3860071	-63.8890472
-49.7549697	54.0393438	-56.8813814
-48.871752	66.0822506	-69.7479593
-45.1098128	63.4158107	-67.4077255
-47.4400917	56.7532964	-64.3211242
-44.2196535	56.7605505	-60.74062
-43.7750952	55.5839063	-55.943009
-47.6814891	53.9927177	-55.3871061
-52.4982129	52.6120888	-53.7918425
-77.7098812	73.5651742	-72.112329
-75.1897059	69.091799	-69.9771803
-81.3526154	68.671565	-66.505727
-74.8027715	79.9541953	-73.5822736
-79.9408847	82.0417681	-72.3525718
-63.214989	72.8303672	-72.8568945
-64.4896794	67.3316809	-69.7251982
-68.423629	69.4809682	-70.5935635
-68.1576381	78.2609885	-74.2326976
-68.7525195	77.1324876	-73.7692686
-79.1837487	93.781292	-77.0010428
-73.138697	87.2204796	-74.9302043
-63.0495628	106.819148	-74.7002894
-64.3029944	103.95972	-67.6114474
-65.0739881	106.896873	-68.4309563
-64.3175855	102.554198	-65.813863
-64.6521482	102.2381	-62.0491849
-65.1892114	104.926664	-61.8976889
-64.3023364	103.633869	-59.28682
-66.1320393	106.289251	-58.9633942
-64.6701055	103.87307	-57.3914558
-63.1866162	93.7576843	-54.2677468
-66.5222058	105.444682	-56.7307145
-65.9007774	99.9738669	-54.7178201
-68.6922954	104.034278	-54.5830899
-66.7694294	106.509705	-55.2655256
-60.0056193	75.8543624	-74.2243421
-54.8879873	68.8904626	-71.7385289
-57.7161085	68.5776585	-71.7822781
-57.0977756	67.0547981	-71.3361347
-59.576211	82.7657989	-76.5217874
-56.9389123	77.7022376	-74.0954644
-56.1800021	82.801334	-76.2747288
-51.2747817	76.6276588	-73.7119017
-46.6469908	75.3695215	-73.9067399
-48.3805021	71.1296893	-71.5490925
-46.7384761	81.3193178	-74.0722183
-57.4158984	102.807772	-70.9760646
-54.0708597	101.816935	-75.5940243
-58.4402057	104.197432	-75.2795539
-53.3734877	99.1058996	-67.2547128
-56.2668182	101.657003	-69.203425
-58.3640742	99.154487	-62.9019389
-62.7235581	99.9115735	-58.3889658
-62.2348693	98.101304	-57.3155553
-47.0324862	94.3018509	-76.7374078
-47.6602435	95.4941497	-73.6721088
-49.3294439	95.7652575	-67.7305975
-44.3595887	94.0284124	-72.587157
-49.5860745	96.8719258	-70.5617979
-43.8246938	92.7205779	-65.4697349
-50.1739472	94.3236956	-61.8363404
-46.09335	90.3954677	-57.7895413
-50.6274166	92.3946734	-58.4201109
-47.3289862	92.5090064	-59.3220554
-50.1062827	91.0644731	-57.3623877
-51.781374	92.7982352	-59.0258354
-48.9641969	97.3887756	-75.6652953
-58.8560049	89.3714638	-56.636714
-53.7534966	88.0257401	-55.215149
-61.6101053	94.9589828	-56.2866581
-43.2206524	90.3090667	-54.286014
-38.1668916	65.4391028	-69.4608619
-38.7187305	62.7387593	-66.9501676
-38.4793503	60.3681295	-62.7772675
-34.4824892	58.9757135	-59.5631443
-30.9701039	60.5265218	-64.3544826
-27.4999127	60.3317882	-59.370313
-38.1709627	57.623313	-56.2420567
-29.6354819	57.6703207	-56.6008423
-15.8878937	64.6611411	-60.3075212
-19.720264	62.674522	-59.938015
-18.315947	59.059727	-55.022434
-41.9315614	74.4453941	-73.6484246
-38.3371489	70.5978507	-71.7765065
-41.3481248	67.7216841	-69.6848546
-37.7563572	67.9174132	-71.1445145
-42.6821811	85.8951887	-76.3051161
-41.1483721	81.665489	-75.4896821
-40.7412303	78.8914544	-75.1678003
-33.7796128	86.4272206	-76.6522393
-37.1054859	86.2795162	-65.5101332
-26.8289179	73.5391951	-70.9053738
-28.3218949	82.6087659	-72.1617713
-27.6212692	78.3780692	-71.2743258
-24.884948	81.2060138	-69.7959019
-27.5200549	86.0524799	-69.5863493
-25.4742747	85.6591826	-65.7599546
-23.3463065	83.4586223	-64.5855892
-27.7248219	86.8378054	-66.0570397
-26.5416131	79.583058	-58.7054315
-41.823385	88.186607	-76.6328815
-34.6046442	88.335038	-74.7793291
-39.5492753	91.7422164	-75.5597372
-42.4662691	93.9021634	-75.206847
-40.7846926	93.6979107	-73.5537471
-37.1621992	93.2282082	-70.3130578
-34.4169246	89.2869277	-70.9607214
-38.0507448	87.7222403	-69.4384369
-41.9181587	92.9153255	-70.3477845
-33.0307335	88.8675317	-72.9201533
-36.1720469	86.9377321	-62.5421109
-40.8013816	89.1609047	-63.1220193
-34.2136414	88.10038	-57.7975067
-40.946178	88.6343907	-60.4570037
-31.7386501	88.6669445	-71.3529774
-31.9122771	88.8143809	-70.2121617
-29.0855808	87.2566017	-61.5845236
-30.7812407	88.5147897	-59.0119071
-34.8731015	88.2894838	-54.9127005
-22.7102217	71.60409	-67.2952257
-20.7657753	75.0695432	-68.1762289
-15.0427662	76.6860809	-65.115907
-15.5058933	71.5013482	-62.8439037
-21.9171153	78.0737648	-68.477715
-18.7131887	78.6365636	-67.2458095
-16.3177474	79.1340913	-65.2715378
-14.5061722	77.6027071	-64.7159647
-14.6841996	77.28149	-60.8889946
-16.4897495	77.0188759	-57.7775634
-22.7489759	78.0388953	-57.8253367
-11.3311312	74.3908675	-60.6505235
-11.4945124	74.2458589	-60.107644
-18.3224075	76.1168029	-56.8095205
-13.3218049	73.1815633	-53.5620793
-11.023524	66.9582569	-56.4267443
-10.5029722	70.0667524	-55.4235174
-83.0446904	111.388413	-71.310151
-78.2631279	114.672965	-73.9647644
-74.4491508	111.684842	-73.6934315
-78.2796114	108.296054	-67.9473708
-76.2722376	110.237852	-65.5559884
-78.6925192	110.640043	-65.6309383
-79.6175237	107.738947	-63.2846128
-75.1331519	110.538849	-63.034906
-75.2752592	114.21054	-60.2716523
-77.0221473	114.487487	-59.8367707
-75.5882993	112.518431	-60.3205188
-78.0284768	112.380937	-62.2242751
-75.3973563	114.113579	-57.7264033
-80.3984121	116.408825	-59.2558849
-73.6415726	114.37159	-58.0564085
-76.4473755	115.187833	-57.554825
-82.2003586	118.322597	-71.3225443
-78.6064594	122.478955	-63.315024
-79.9823246	121.326144	-63.8382955
-75.3841478	118.765879	-65.8247677
-76.1236968	121.021603	-61.7985955
-79.1607179	117.610268	-60.7129966
-81.7455669	124.056778	-61.2789771
-74.0278102	124.480031	-58.7349041
-81.4981024	124.007025	-58.3674698
-76.9368443	126.532993	-61.5512556
-75.1695622	122.804882	-58.1792595
-78.0789747	125.661851	-57.656379
-77.9371941	121.344221	-57.5585487
-80.8962645	123.971502	-57.432816
-80.8371238	126.02271	-57.6120162
-75.0678436	120.532705	-57.1897187
-81.2668838	126.841358	-57.255836
-80.5623439	123.542177	-57.243516
-78.6627461	125.901502	-57.0104957
-63.7082237	107.325243	-76.4321925
-72.0542072	112.414371	-73.3074192
-64.3307572	108.645442	-74.5788115
-66.1661003	108.438576	-70.484897
-71.7495272	111.331017	-62.4849326
-67.9341771	108.936703	-62.9562887
-71.2881239	109.502458	-61.5079387
-69.8148446	109.598006	-59.8861994
-70.0088042	111.22871	-61.1061582
-70.8261678	115.202309	-58.6004741
-72.4358283	117.800755	-57.9383848
-69.1131228	110.258015	-54.9200855
-71.7902261	111.532132	-55.6452195
-67.0520498	114.154309	-52.9016924
-70.7865013	117.99602	-56.2150464
-63.9166984	120.925808	-56.2559245
-67.6468974	121.142176	-54.8857241
-68.8824415	123.970928	-56.1319257
-68.1709641	123.775508	-54.9122722
-82.4259893	129.961433	-63.7912144
-81.1148936	135.779598	-61.7329347
-79.4736495	128.279893	-63.0707489
-78.4798524	129.018288	-61.3421003
-77.5314062	129.149551	-60.1219993
-82.9009819	127.77066	-59.1996422
-78.4586245	131.706815	-57.937441
-79.5697683	134.785974	-59.1417302
-75.9709463	130.692444	-58.3434678
-77.4361907	131.055581	-57.8608982
-74.9623351	136.585342	-57.2249755
-79.3296104	134.946018	-57.7888312
-81.9575212	132.463241	-57.3537937
-75.2436799	138.620716	-66.5488287
-75.2592341	146.081375	-64.0438751
-79.3891443	144.687198	-64.1362877
-75.7529851	138.139609	-63.6180524
-74.957122	139.857096	-62.6103264
-76.3937088	143.990111	-61.0306929
-75.6171143	141.022595	-61.599315
-76.3397696	138.799736	-61.6680298
-74.9634423	141.23687	-59.3746023
-79.2862179	138.916562	-61.5063904
-80.0610751	144.910284	-60.0975848
-75.190346	143.680134	-59.4204849
-64.0309744	128.657252	-58.3718166
-64.9582941	131.004771	-57.8736868
-64.3836961	129.597631	-57.5057527
-71.3171994	147.127016	-65.4986455
-70.8110578	147.012836	-65.0406258
-78.9558275	127.60298	-56.8429585
-80.9944684	130.570738	-56.1215019
-76.3570667	142.263978	-56.2273517
-76.6149365	140.67604	-55.1479738
-66.9124496	131.964187	-56.1087864
-66.1634829	132.744569	-56.3635228
-67.6028934	135.498186	-53.6663365
-63.5657925	142.536743	-53.6248967
-63.1037357	139.234634	-54.731264
-59.9029159	127.011801	-57.5194805
-62.7731344	122.504787	-56.4844754
-60.0970837	121.384092	-56.0889513
-62.4683256	125.386973	-56.0229075
-54.474961	137.192238	-59.6075906
-57.2887211	136.521629	-62.380668
-61.4765303	130.407624	-60.6743239
-61.7610738	130.437808	-60.0786683
-55.9315924	136.872604	-61.1398591
-55.7725776	129.568585	-58.4047531
-61.3299562	128.441478	-57.135705
-52.9746923	147.233691	-67.7625051
-62.2089272	140.910791	-58.8451904
-56.5120552	145.651274	-65.798289
-55.5767029	141.296886	-65.0549105
-56.5736026	142.426328	-65.807507
-58.3342557	145.455133	-64.7985368
-58.0174945	142.261776	-65.10877
-56.5977103	137.815355	-62.3043436
-58.2319917	138.413438	-62.7556701
-57.8614462	146.87708	-59.8472582
-59.5672106	139.048176	-61.1391904
-60.4152739	139.073089	-61.3389254
-59.9889644	146.055128	-57.9889211
-60.2837324	140.160276	-59.804604
-57.1101778	146.543067	-58.0298365
-53.5416021	141.156102	-56.9126076
-52.6525574	145.043223	-67.4110624
-50.6353761	145.743503	-66.1884719
-52.0413055	144.447904	-65.439581
-52.033454	142.880336	-62.2130261
-50.7736166	144.279215	-62.2015536
-52.1567218	140.843388	-61.6551953
-49.1488895	146.397705	-63.6880553
-52.2577501	144.247056	-59.7579656
-49.9907885	145.629568	-60.2221255
-51.1879032	145.655183	-58.7604856
-59.445142	128.6685	-54.9178125
-62.4336654	141.397963	-56.3408874
-53.6046635	137.891769	-55.7388944
-55.9112633	144.482384	-56.6107573
-54.2147614	137.801767	-56.6589059
-56.0830179	140.731761	-56.4740637
-58.3848884	142.994087	-56.5133151
-76.7239133	152.019652	-64.573446
-75.1467018	156.77671	-65.4635033
-74.1747335	147.49609	-64.1065622
-74.7369968	149.041993	-62.6705088
-78.5672664	149.398578	-65.0703582
-74.1735553	147.326035	-61.8302409
-76.569876	156.701268	-64.2628649
-74.8645589	147.9476	-60.7843913
-75.9327375	147.725374	-58.3798267
-74.9859319	151.616037	-60.5282555
-73.2124755	155.054615	-61.1540214
-74.92966	160.333695	-64.9742915
-73.3089734	161.372489	-64.7675602
-72.3517154	150.458899	-67.2905798
-71.5415682	156.204352	-68.1069168
-69.0632109	155.883114	-68.1923467
-70.6876676	153.188335	-68.5552824
-67.002704	154.154322	-67.7699287
-72.2953117	153.893647	-64.5569302
-72.9559496	149.91817	-64.5344293
-72.9195743	154.810108	-65.6168934
-69.5658216	149.223439	-65.2317355
-72.578359	158.478721	-67.5876576
-66.9405847	166.118128	-70.8327067
-65.8024316	166.187428	-71.2565101
-66.5310193	166.417736	-71.0261381
-70.2068855	163.48409	-68.4516376
-70.1600711	161.121545	-68.4190586
-69.5743042	159.254983	-67.4690035
-68.4796045	163.660449	-67.154048
-68.0556974	157.654834	-67.838307
-70.4847705	166.685581	-68.2502116
-70.0157648	164.532654	-66.9828686
-70.7352045	160.179576	-66.6798796
-65.895728	165.666098	-65.9550326
-66.2171171	165.627974	-65.4543854
-67.4373482	160.585787	-62.0039258
-69.4239092	159.60335	-62.8809229
-63.671846	177.175534	-73.7088518
-68.8360189	168.397953	-70.8797956
-64.2343965	175.379222	-71.1084228
-66.3931236	169.743208	-70.1798998
-63.9781402	169.305641	-70.6922122
-63.6782679	173.417653	-70.1440005
-66.810045	175.025441	-69.088882
-66.8111001	170.721032	-67.3683981
-66.3299821	173.531522	-68.4274841
-66.7384842	174.386336	-68.8554239
-64.3346324	172.699972	-67.9368244
-63.48652	177.151701	-72.7657094
-67.0739627	168.781825	-65.7216362
-64.1279952	168.74784	-63.8439586
-63.7495641	179.597299	-66.5347316
-53.6931424	150.596904	-69.0962994
-54.7035231	153.206134	-68.4261157
-55.0671322	153.767231	-67.96068
-56.9507825	149.488313	-66.6031525
-57.7881807	147.656204	-66.0651336
-54.3236534	153.17631	-62.3154126
-57.2899001	150.788261	-63.4437227
-59.7218626	148.270442	-64.6601776
-53.044318	151.669745	-61.9099835
-55.1504787	154.803932	-63.4525701
-54.1407273	152.886355	-61.1611168
-54.5748357	148.895206	-59.655508
-57.1050563	149.320363	-60.4088426
-57.2485852	147.617626	-58.4448356
-53.3435984	160.299422	-66.4950767
-50.3254605	149.441676	-68.5103906
-48.1566653	151.14176	-69.3144594
-51.3391522	155.99171	-74.8187822
-49.8805531	156.25534	-69.8294922
-47.3665525	153.966605	-69.1467243
-45.7313941	156.367245	-69.4262129
-46.6181161	152.361151	-67.1140228
-49.1470461	147.832583	-66.8236623
-45.81809	155.408802	-65.6477242
-45.9815716	151.688648	-62.5462585
-44.4753604	156.209974	-65.522747
-50.3160443	151.825173	-63.5342693
-46.9221649	157.313504	-63.2934473
-46.2072513	152.482868	-61.8440165
-49.1486871	154.450626	-60.929873
-46.3993672	161.846001	-72.5111034
-44.4718025	165.24596	-72.8389769
-44.7003344	159.856649	-72.4145177
-48.7490063	162.749572	-71.9824425
-45.502064	160.39483	-72.2751429
-46.4521326	166.789573	-71.8212086
-49.4983314	158.415549	-71.3461985
-49.1424436	159.406991	-70.3116603
-48.9824715	163.235321	-69.1188205
-46.452614	165.531956	-70.4712087
-51.5840286	158.165033	-68.6715361
-43.6366259	158.703526	-71.0758381
-52.6621225	160.556526	-64.3752865
-48.7401237	166.556855	-66.4629702
-48.7180426	163.881988	-64.8099131
-43.6599045	158.727418	-66.5679033
-44.217665	162.647796	-64.354537
-52.4736718	157.874673	-66.6114179
-50.2631629	163.472212	-64.8052835
-50.9303018	158.478217	-64.8867808
-48.6063321	164.983346	-63.9375997
-45.3180346	159.871829	-62.8634504
-48.3746489	159.210672	-62.3140802
-61.2233532	175.142394	-70.6938626
-62.1098077	175.14997	-70.3477373
-60.1315943	172.259958	-69.9387766
-60.9497138	177.472817	-70.5873611
-61.0537107	176.836392	-68.4095168
-61.1835005	179.590376	-73.8408209
-56.7326871	183.443806	-74.6669373
-60.1757375	181.030459	-75.2968887
-53.9194013	184.183818	-73.5879534
-54.1233387	187.287226	-72.3525035
-57.8207201	182.454882	-72.621072
-60.4356706	180.550234	-72.3348899
-54.5856896	184.422683	-73.3377705
-60.1911572	179.692561	-68.7615999
-58.4208294	184.421893	-71.5993107
-54.8323165	181.00734	-70.0601038
-59.9910546	182.384652	-70.3148416
-62.1840424	186.653681	-68.537786
-56.6926354	183.690389	-70.1399092
-58.8253841	186.527226	-69.2855349
-59.8392786	181.85581	-67.4835199
-43.3307886	171.016753	-72.6292889
-44.812785	171.390041	-68.5973588
-46.4263894	171.722269	-67.9499443
-44.1480288	172.687896	-65.8070803
-44.66453	168.325747	-63.4885827
-43.3891873	167.824044	-62.7841803
-43.8550962	178.171909	-65.2136614
-42.5495077	157.810601	-68.4324745
-40.9045537	167.29748	-72.7862842
-42.43774	163.420956	-70.9620606
-41.0071262	163.281787	-69.7709726
-38.6539435	165.132023	-69.7092707
-38.7579737	164.369749	-68.2960543
-42.2421958	160.481408	-65.6575223
-39.2124596	164.249067	-65.9161744
-41.8357391	163.241784	-64.4097462
-42.3861896	165.455217	-63.0963395
-42.8180725	171.946194	-67.4647776
-41.1689185	172.428644	-72.6339585
-39.051445	171.20988	-73.5038691
-41.7289096	170.341143	-72.0012373
-35.6579853	174.21095	-73.0964729
-34.2128842	176.093992	-72.3995347
-34.9170045	171.713045	-71.2736884
-36.0307873	170.128572	-71.3335447
-41.4389816	175.629415	-70.6230415
-32.9170306	175.162963	-67.2494363
-34.8058474	170.967558	-67.6003812
-33.6724003	171.5825	-69.2386294
-38.3165015	168.874125	-65.9097866
-33.4660852	172.377403	-65.0299079
-39.9162508	170.217043	-66.4428014
-39.3929073	171.462853	-66.5748956
-42.7065849	173.904413	-66.0649749
-42.820685	177.884121	-69.5427631
-34.6029531	183.485372	-72.5242977
-33.8371094	179.224752	-72.1845792
-38.9428216	181.140286	-71.8969162
-37.9852909	178.915394	-72.0684694
-38.0492106	182.935082	-71.1263959
-37.7600003	181.062379	-69.023019
-37.1465472	184.031271	-69.9696821
-39.9913728	182.484095	-67.5040425
-32.9797592	184.240859	-72.6036416
-41.2578457	179.876724	-65.908897
-35.9609399	186.288352	-65.9294265
-40.4968654	181.892435	-66.1417924
-33.3198165	185.461855	-66.1374442
-33.7456694	182.620807	-65.5957951
-39.1014901	182.840627	-64.0914604
-35.6796287	183.085892	-61.8082443
-33.8259914	183.246839	-63.0208383
-32.3245496	177.640382	-70.8584727
-29.7211649	182.915914	-72.2826065
-31.4644938	186.354815	-70.9931523
-31.583002	179.181299	-69.3074877
-28.7588574	182.441362	-68.0191134
-28.8111952	183.218136	-67.5936102
-27.0787161	186.548881	-68.7534141
-31.4149499	180.284972	-67.8038119
-25.2204161	183.967524	-65.6606709
-32.0751417	182.896946	-64.653588
-27.7299072	183.881578	-64.4828649
-31.5436664	183.182303	-62.4932259
-13.4110696	186.649139	-76.2971421
-17.1942804	187.413905	-75.8730987
-15.487062	185.127171	-76.510074
-12.9766116	183.932881	-70.205322
-6.41433702	177.488832	-68.2028095
-10.5779946	186.345223	-75.8405573
-7.42110366	179.355917	-75.0725982
-10.0309132	184.944903	-74.9163749
-3.97082129	177.788837	-74.5950617
-7.57872878	179.032709	-75.093323
-10.2984412	180.750001	-72.3977176
-5.62800005	181.872318	-70.0425534
-164.905383	211.759514	-64.2294548
-166.176574	212.888897	-62.0324674
-164.887653	211.021124	-62.2002705
-165.58488	213.008757	-62.2685555
-164.520776	223.3302	-67.4835362
-166.328653	218.260359	-61.3245824
-164.09695	219.353756	-65.8935498
-165.511958	233.743306	-67.6076716
-166.077655	233.919708	-65.7075975
-165.59712	235.540687	-64.6110256
-165.020281	234.433404	-61.1849044
-165.325567	229.766742	-60.2586616
-164.545797	237.777896	-60.9134846
-165.513844	245.162865	-66.8571867
-164.843759	239.011441	-66.8289783
-163.768126	244.208554	-62.5240025
-164.490108	258.004035	-67.582592
-165.143057	252.894326	-65.7276484
-168.389692	250.628611	-64.341148
-167.066732	249.370703	-64.6398351
-167.956438	248.80187	-64.1465994
-164.829024	254.923668	-63.638862
-165.830014	259.216729	-67.0060693
-169.666699	261.763178	-65.2925176
-166.972161	260.899059	-65.4085457
-165.761214	272.924505	-67.2003978
-165.379519	268.95136	-67.0868998
-166.117175	275.052999	-67.1820687
-166.431353	273.815328	-66.0653995
-166.127117	272.806713	-64.8454933
-165.540937	269.559104	-64.31934
-165.946746	274.659079	-65.2844732
-164.620393	279.02513	-68.109129
-166.964826	285.377497	-65.9604754
-168.032778	287.026575	-65.6404636
-168.520767	284.256395	-65.3968042
-165.763033	295.03689	-67.7403922
-165.768216	298.370749	-67.3786893
-169.163152	292.977573	-65.9992291
-169.318755	294.789047	-65.0249179
-166.666835	295.956808	-64.2320543
-164.274635	299.993705	-67.3065955
-147.251132	199.421835	-77.6645934
-145.54791	215.667656	-77.5065665
-146.79686	226.059775	-77.761153
-147.602089	220.911355	-77.3481436
-144.311643	233.345979	-77.1439136
-148.198267	236.092864	-77.5519858
-150.422601	237.871164	-77.6356928
-146.747485	236.723747	-77.4967631
-146.46125	241.677319	-77.5078687
-146.843594	246.247594	-77.7528039
-144.602199	239.094231	-77.3645752
-151.400645	240.277328	-77.5780606
-150.335875	242.528199	-77.3552713
-146.070288	243.308966	-77.3579598
-148.049947	255.266543	-77.4629642
-148.758309	256.29978	-78.4167844
-150.862713	249.03954	-77.8314776
-146.329412	249.224765	-77.2005991
-147.404672	259.467921	-79.160737
-147.464243	259.208315	-79.7798503
-147.838728	264.398643	-78.3246432
-145.529545	267.063376	-78.5795354
-151.513493	265.289581	-77.886965
-145.338292	263.284501	-77.1157687
-145.933229	267.515157	-78.0696363
-147.667306	266.214836	-78.1636483
-142.016117	237.595369	-77.7963767
-143.004227	237.033578	-77.4824928
-134.069827	235.97229	-77.6459669
-138.648028	240.926287	-79.4088618
-142.037818	264.851311	-77.2725164
-135.725107	267.447505	-77.5323991
-150.340762	268.639742	-77.9913443
-145.627822	271.413602	-78.315827
-147.697368	277.846603	-78.8507316
-145.332371	269.587171	-78.5234401
-145.289053	270.659769	-78.1137956
-149.802139	273.685708	-77.5830349
-145.309155	273.515748	-77.7962435
-148.553948	270.465747	-77.9483775
-149.301663	268.580913	-77.8085742
-147.715472	286.932413	-79.9193069
-146.100792	280.618798	-78.1655407
-146.218892	280.974755	-78.7094232
-148.146285	287.341259	-79.6598137
-146.751132	286.699943	-79.2797044
-150.005306	281.381896	-77.2664504
-148.77981	294.232532	-79.6100663
-146.527451	294.421318	-79.1533784
-150.558087	296.618509	-80.5795144
-144.666372	296.901935	-78.8116335
-149.777734	292.592535	-77.29911
-147.613888	297.445939	-78.0205108
-144.065631	296.03848	-78.2816789
-147.411645	296.036419	-79.3507054
-152.49713	296.754237	-79.8589721
-146.585507	293.653944	-78.1234306
-146.008071	301.081651	-78.4358375
-148.693973	301.575099	-79.518507
-148.498061	307.228518	-80.6406214
-150.583429	301.058347	-79.6953018
-143.854433	300.076243	-78.1354449
-147.115892	301.560031	-79.1973772
-151.910414	298.764832	-79.0064597
-150.455519	302.104761	-79.3564633
-146.934141	299.484003	-78.628324
-148.475259	300.872151	-78.4981124
-135.88055	269.33404	-78.8977129
-141.269564	269.012371	-77.5074141
-134.311066	269.872294	-79.3492938
-137.190889	297.38611	-77.7207697
-142.006462	298.471894	-78.4954254
-141.790223	299.36017	-79.1848587
-135.464867	298.757003	-80.7598682
-139.323181	298.880632	-79.8645486
-147.076896	310.561491	-81.0897285
-150.246608	309.009606	-78.6994395
-148.24891	310.072833	-79.0579278
-74.6478431	221.641583	-78.5144852
-65.8057115	218.051529	-77.7061091
-67.5291769	219.714496	-79.228019
-72.7347215	222.22692	-77.1319762
-49.6522947	193.729002	-77.5483489
-44.8029944	206.327014	-78.04197
-55.1168161	212.327402	-77.9429282
-61.3803421	216.49789	-78.6522038
-59.176806	213.940566	-78.9399978
-60.0196674	217.099451	-77.1463203
-48.4078535	208.40116	-78.9876587
-51.8596431	210.388027	-78.7170267
-50.3797808	213.694596	-78.1788003
-52.1601806	208.26799	-78.5658358
-42.1780799	207.105367	-78.5867413
-37.1626567	203.509654	-80.1959881
-34.9120866	198.485477	-80.9114981
-40.2910916	207.593336	-79.2448872
-37.9845167	206.790742	-79.3433364
-32.9976401	201.891346	-77.1107066
-30.1192864	194.899058	-80.166531
-32.2520804	196.793142	-80.1017807
-31.7054523	200.36454	-77.2390829
-19.2851798	192.222519	-77.0578178
-3.12084203	268.265223	-77.9162052
-4.19768713	273.223248	-77.5381553
-162.617755	207.03403	-66.4152386
-156.055021	206.34298	-66.4659205
-155.131809	201.996979	-62.5830376
-154.202576	204.303618	-62.294019
-162.402147	207.476873	-64.3620835
-147.490336	187.634231	-67.9919498
-147.245598	197.027783	-74.6573465
-147.701467	195.272602	-70.2367348
-148.683388	195.629624	-68.2988785
-145.224269	191.235043	-68.0459867
-146.258635	196.359999	-67.36969
-147.715507	191.741848	-68.2426559
-149.410208	196.71328	-67.1749373
-153.491071	188.743201	-57.163272
-151.367392	197.124873	-62.6099314
-150.799643	197.376077	-63.1919773
-150.670891	197.01515	-59.9794862
-144.379755	197.407897	-58.2322689
-147.925969	197.383449	-58.604038
-149.667669	195.433502	-58.0680677
-145.80403	195.871872	-57.40834
-148.160577	203.794278	-76.1218595
-146.293583	205.338553	-75.8220727
-145.37001	198.74505	-75.30536
-144.863031	204.150475	-73.8840942
-148.351494	198.309295	-75.1838607
-149.885769	205.077112	-74.1159707
-147.283318	206.884142	-75.3979578
-144.296222	202.459139	-71.110664
-149.112649	202.05971	-71.5966766
-146.892368	202.687471	-69.3114513
-150.047103	204.086187	-70.7728775
-144.335896	198.670269	-71.6515871
-152.18846	197.812375	-61.941135
-146.646646	198.725469	-66.7973
-147.082131	202.847665	-65.6285991
-151.539841	206.058547	-66.2721126
-148.69219	197.757575	-65.5740834
-151.097925	203.457268	-64.2021846
-144.315941	204.26181	-64.772807
-143.843549	198.518827	-64.93302
-151.11794	202.736822	-60.4414324
-152.712115	206.007227	-59.8132063
-148.112478	201.916398	-59.3629297
-147.225799	203.540409	-58.7927678
-144.210114	202.658751	-60.4314546
-145.468233	204.829156	-56.9294936
-146.316127	202.843236	-54.7689267
-149.046508	206.168244	-56.0220225
-149.976472	207.261162	-55.58699
-153.872335	209.638353	-71.8170366
-154.919407	210.154546	-65.4511993
-163.154615	213.57288	-65.9665465
-163.057883	208.218439	-65.4936651
-153.730317	211.143697	-61.9633663
-159.367347	215.44529	-59.4245297
-161.35491	208.74101	-61.2990999
-160.601119	210.627655	-61.5869135
-158.382849	213.316667	-63.8672798
-154.291157	208.134889	-62.3946233
-155.505259	212.384906	-57.2496401
-155.486977	227.309148	-66.2024035
-156.927492	222.846537	-63.8546075
-163.425877	219.045446	-61.961496
-161.421337	224.177891	-62.3224549
-144.816547	210.824858	-76.6446681
-145.074885	210.745481	-76.3823878
-153.015492	207.863999	-71.5107556
-148.595227	210.436065	-75.593281
-148.556725	213.053023	-75.1706181
-152.2153	208.380863	-73.2808777
-149.555294	213.32425	-74.241929
-145.438947	208.694154	-73.8932485
-146.126929	211.820824	-75.8976116
-149.859153	215.02992	-71.7953937
-148.085608	216.109427	-69.3101345
-147.775206	210.405046	-75.7089512
-152.511039	209.614085	-71.7920438
-145.997336	215.282565	-72.3334498
-145.531237	216.094964	-69.1565838
-146.020291	216.64238	-67.7994588
-149.093233	215.955655	-66.7787735
-147.858845	210.849995	-64.5318523
-147.248666	208.102597	-64.2174908
-144.89548	207.839675	-66.0075174
-148.230837	208.47149	-64.0689812
-149.354708	213.909961	-65.2455154
-152.31842	213.583847	-66.7104164
-145.446627	214.689684	-65.4567237
-148.857111	209.782774	-59.8237414
-151.760504	212.951547	-62.5404416
-144.733361	208.443087	-60.4034678
-148.06384	212.016206	-61.6236197
-144.41229	213.029982	-63.8015206
-145.350353	215.292387	-60.0140672
-148.841155	216.50593	-59.0321498
-148.968406	215.38309	-57.4433655
-143.832711	214.492302	-64.3011731
-147.63606	220.16259	-76.4032272
-147.470411	220.330222	-76.6328219
-146.221253	219.41384	-70.2682892
-146.885549	223.163001	-68.8681138
-148.506724	227.476987	-70.4038074
-145.497488	227.354125	-73.1531402
-149.399144	218.318034	-73.164082
-147.064131	224.982477	-71.1597574
-148.660647	221.558256	-71.5674987
-148.671329	222.114525	-71.4548043
-148.619559	227.519861	-68.5520148
-150.089727	221.435716	-67.8039839
-149.71929	224.92465	-68.2607644
-151.556503	223.669186	-67.1326997
-144.789439	225.067146	-62.4194258
-150.594348	222.473981	-61.8821283
-145.881785	225.139993	-59.1037126
-146.240456	219.415031	-57.082151
-154.567472	210.682061	-55.6516528
-153.656188	207.783351	-56.1786759
-145.274619	208.467972	-55.3308971
-149.862064	210.42824	-55.904512
-148.246755	214.148307	-55.4532357
-144.055495	212.884973	-56.3261678
-144.367597	208.251658	-56.2059664
-146.771131	209.107835	-55.395591
-147.07548	212.624311	-55.1552662
-151.962891	214.664533	-55.8539673
-143.645539	215.477424	-54.8100668
-145.034302	215.332398	-55.9520792
-146.072047	216.525328	-55.0913556
-150.39936	213.8869	-56.1404255
-143.575345	190.342223	-67.5459457
-141.31511	196.726671	-63.2115727
-143.165907	197.522775	-58.5067527
-141.070716	197.146695	-59.9704939
-135.104154	206.545267	-69.9024652
-140.278755	207.023924	-70.1642447
-143.292986	198.409773	-65.3174582
-142.363705	205.940379	-65.9550458
-139.278164	206.944456	-62.1186665
-143.052872	200.675889	-63.8102727
-141.50316	207.296031	-58.5426017
-133.740123	203.462001	-61.6956222
-130.611367	207.47789	-67.5541767
-125.623766	206.118318	-65.4857536
-132.330569	205.067599	-63.6615938
-132.823914	205.111034	-61.7822546
-125.485048	205.079768	-62.515362
-131.854066	206.681588	-58.5628191
-131.952833	206.036141	-59.3096378
-125.403373	206.234935	-59.9075582
-123.750233	206.695612	-61.7303194
-123.962534	206.273212	-61.1975934
-141.84963	206.21401	-56.4754313
-135.566607	208.39649	-68.1371662
-136.843722	208.841759	-76.5253714
-141.671481	209.641693	-75.6093965
-134.828176	208.965232	-75.2935961
-142.437045	208.49707	-75.0274074
-136.279099	208.668599	-73.9320858
-133.789737	209.311579	-71.7307997
-137.242864	211.462765	-69.0652959
-139.558877	209.538933	-70.4553265
-140.705873	211.046132	-70.6255975
-140.021983	210.516938	-68.5660444
-142.467185	213.791826	-70.863045
-133.886552	210.936582	-68.0249043
-141.077594	209.431671	-65.5467918
-140.739015	212.656405	-66.3277798
-141.703937	213.801244	-64.9874692
-139.3197	211.98878	-64.3812127
-140.471496	212.689641	-59.833565
-139.675624	209.168867	-59.3810294
-134.439623	209.195072	-57.2326687
-133.200977	208.920591	-73.805161
-132.765939	210.796986	-68.6766255
-131.231246	211.062064	-67.4427597
-126.117729	209.731573	-67.4575826
-133.525379	211.663974	-59.1547982
-132.574011	208.128981	-64.2498785
-125.85042	213.859584	-64.9708396
-133.24831	212.954728	-65.9324352
-133.214953	213.369849	-64.0399167
-131.081468	213.936461	-62.339268
-130.859423	213.710917	-65.3246143
-124.550826	214.811848	-62.8161451
-132.42887	213.441377	-60.5273321
-132.045857	213.36727	-60.2208549
-126.360032	213.186329	-58.8295485
-127.916668	214.959273	-61.019069
-125.630486	214.031346	-59.4736853
-125.137954	210.302242	-58.3682802
-132.827318	211.741588	-58.1260916
-130.974812	208.868616	-57.6616117
-123.645219	209.395477	-64.7320175
-123.480337	211.838599	-63.622383
-123.882004	214.83199	-60.5747917
-142.449629	210.351397	-55.7276773
-160.666353	237.360305	-68.4646852
-158.965588	233.615056	-66.3469246
-153.754238	234.764118	-66.171966
-160.392394	237.78585	-65.4175636
-156.017673	234.533669	-65.1205129
-154.959664	236.310643	-62.0649227
-160.543639	230.856359	-61.2963236
-157.917441	231.689527	-60.6060267
-154.111332	238.089904	-72.0909697
-163.550554	239.795474	-67.3587189
-161.608634	246.95632	-66.8123805
-154.12105	241.718918	-66.7483491
-154.115466	239.901254	-66.3888147
-157.499768	245.558863	-66.0941165
-158.955681	238.313374	-60.6398355
-159.710749	245.362631	-64.3255773
-154.159554	239.597873	-63.6933605
-150.231341	228.010781	-76.8208806
-143.93936	237.947723	-75.6340015
-150.749592	234.217695	-74.5714257
-145.699446	228.442928	-76.8728247
-151.349395	232.676207	-72.3829986
-144.898574	233.629137	-73.5470178
-151.082099	233.163668	-73.4177273
-148.780446	235.898284	-71.5373855
-146.939136	228.560666	-70.292816
-148.075259	231.966457	-68.9962833
-147.728332	232.199541	-68.4526557
-150.859584	232.672407	-67.6819566
-145.412114	228.09484	-67.1059144
-147.845893	237.493087	-66.7431766
-151.149086	233.582612	-65.9609853
-144.587028	233.499604	-63.7614159
-147.603336	237.458552	-60.4003588
-144.577177	231.199989	-62.8554632
-145.956145	233.036342	-62.4548234
-151.344976	233.696023	-63.1982757
-151.609928	234.119147	-62.2394694
-152.270146	234.796821	-57.9323203
-148.711036	232.4039	-58.4942479
-147.854389	237.934829	-61.0363795
-152.27872	238.683074	-76.6184189
-146.506756	239.118335	-75.021489
-152.365536	239.804134	-75.7576555
-149.726871	239.004891	-76.7933945
-147.178194	241.088826	-71.891044
-148.417511	238.310289	-74.9628222
-150.260661	243.928064	-71.8564768
-145.079396	244.898081	-71.698384
-145.379262	246.019623	-71.6531254
-150.383911	245.368809	-71.6506965
-152.51304	242.470361	-71.5337015
-149.165878	243.718737	-69.7664817
-145.301426	244.776727	-67.8967505
-148.828953	240.266939	-67.3626827
-147.031307	240.547974	-67.623894
-145.904059	241.423521	-67.6047976
-152.834135	243.659858	-67.7941928
-143.971616	242.695543	-73.1383222
-148.270678	238.445663	-66.6644994
-145.115067	245.732126	-64.4760084
-144.953394	244.611035	-64.4583383
-150.713395	244.345054	-63.7164593
-146.504771	238.870376	-61.4509006
-149.898594	244.787442	-61.7651353
-146.644761	245.508423	-62.0218449
-147.196992	240.872174	-62.3396709
-152.129109	238.727117	-57.035331
-151.360025	245.454528	-58.0622101
-147.239749	246.198342	-56.8982838
-155.425287	239.399394	-56.6659063
-155.791991	241.278475	-55.9290404
-153.977584	243.389408	-56.1961179
-147.537547	234.792523	-55.4876836
-151.501121	235.577517	-55.9810377
-147.178682	236.80941	-55.1190584
-153.350993	237.425276	-56.734618
-149.046847	236.946312	-55.5012561
-148.486401	235.131583	-56.1599168
-145.180506	232.348338	-56.186822
-146.043525	231.55164	-56.7100835
-147.672598	235.825703	-55.4793866
-147.581369	234.359827	-56.0375912
-146.819975	241.983059	-55.8790247
-147.596011	241.830968	-55.8092789
-148.070285	244.286723	-55.8096062
-144.656641	237.968394	-56.0185519
-148.08229	246.090762	-56.1637361
-148.809293	245.014186	-56.0314229
-162.221266	248.470176	-66.3959148
-157.006444	248.700738	-63.5608909
-158.38187	250.184684	-62.9288548
-161.1947	253.809383	-63.442076
-159.988509	255.713242	-62.389505
-160.238909	249.568846	-62.2152562
-160.99166	250.526302	-63.5446132
-162.12632	257.021358	-62.6563602
-160.029006	258.36968	-67.947797
-160.936406	259.636072	-67.9642077
-161.433875	264.368873	-67.3906415
-153.91938	266.086845	-63.2885963
-156.74888	262.217603	-63.1419999
-162.100723	262.815435	-64.2598122
-159.025617	258.563109	-61.92061
-146.371576	248.622901	-76.8534568
-145.981019	249.290696	-73.7293283
-149.538289	250.651546	-73.3009429
-148.481569	255.425438	-71.9231202
-146.041938	250.210029	-70.4534952
-148.091707	252.461397	-71.7279533
-150.530565	257.711242	-70.3472043
-146.883502	257.154891	-72.0935302
-151.780871	255.231605	-67.2333426
-152.572167	257.237735	-65.0600812
-150.173253	251.67618	-57.5159421
-148.213	262.25164	-76.85505
-153.042023	266.884521	-72.6869058
-146.478194	259.345812	-73.6172731
-149.697169	262.39994	-73.6964799
-146.678195	258.53214	-76.8945174
-151.360508	259.948595	-72.2648549
-145.502102	263.86789	-73.9538003
-150.868489	264.914133	-74.1833927
-151.162879	262.074998	-70.885989
-146.416572	261.196163	-71.5091557
-150.334405	262.819531	-68.2189725
-152.371987	262.250191	-67.4005304
-151.876225	262.87869	-67.6218292
-148.702412	266.95509	-67.206417
-145.676092	263.450929	-68.748938
-145.511969	263.439933	-67.6961544
-149.049164	266.955457	-65.9055087
-146.08223	262.787527	-64.8283561
-147.645849	266.971457	-63.2336702
-150.218985	263.362039	-60.7348449
-151.857045	263.876511	-63.7782253
-144.443922	264.231302	-64.1879494
-146.90465	263.198943	-62.0084989
-152.537024	266.331119	-57.6032776
-147.531145	263.947653	-57.1548127
-145.508503	265.224617	-58.6166142
-153.678812	264.833914	-57.3890062
-147.257623	263.169121	-57.4114678
-143.920558	265.47863	-58.1986279
-146.337609	255.191072	-55.0268923
-149.201506	262.170509	-56.7742123
-147.424819	263.163361	-56.7922736
-149.554887	262.994552	-56.631453
-148.345399	266.89436	-56.5413288
-150.751141	261.841553	-56.0136892
-134.385064	237.379674	-73.2278131
-141.113745	237.085216	-66.146136
-135.305079	236.353209	-65.690397
-133.771494	235.223503	-64.6149716
-134.009586	235.332952	-63.2592211
-136.5842	236.587107	-66.25454
-133.959453	235.243467	-64.2289105
-133.780808	234.883346	-62.7200392
-141.110965	235.192015	-63.8298003
-142.399205	236.833793	-62.1468209
-134.04906	237.435869	-58.9735545
-134.222988	237.874082	-57.0315631
-133.614034	234.761752	-63.2027241
-135.963399	237.971882	-70.4237933
-141.625995	237.989211	-72.8603385
-141.265803	238.347578	-71.236369
-135.102979	238.045544	-68.7246723
-142.262663	239.507415	-75.5720429
-136.018634	239.007418	-75.819114
-139.429922	238.681196	-71.3283557
-135.657337	240.752002	-68.7973279
-141.415227	240.047794	-69.6108124
-140.400461	238.963795	-67.5317029
-142.203982	241.659535	-67.9638558
-142.641214	240.872081	-71.4756768
-133.881319	241.166634	-68.3203223
-134.513765	242.270326	-66.2738409
-141.763372	243.714194	-64.4506189
-142.429754	243.058191	-64.9516994
-135.493974	241.601028	-60.2234629
-133.884807	244.01632	-61.8506455
-141.491585	240.071027	-60.3117748
-141.32722	240.842818	-60.1434389
-140.877651	239.744952	-57.4517619
-133.571209	242.90072	-62.7354966
-130.690516	236.33378	-68.2407098
-124.319761	232.356385	-63.0158141
-124.59856	237.472016	-59.4045468
-132.540204	233.932374	-62.4551558
-132.111413	235.926428	-58.3129003
-124.319996	234.810048	-61.1182476
-125.521452	237.462003	-58.3029135
-133.059377	238.80368	-68.2858099
-124.835444	242.123157	-67.6025192
-125.788036	239.661099	-66.9272116
-133.306849	239.326953	-66.8839941
-124.048662	239.872741	-66.2386699
-124.201825	241.369261	-63.9662593
-132.634805	243.781969	-64.3904555
-126.018662	243.153544	-66.0297323
-125.782957	242.724837	-60.0829588
-127.039656	243.920153	-61.3469192
-132.137752	242.875654	-60.2189079
-126.141356	242.190044	-59.3254466
-143.378508	235.298721	-55.4272867
-142.690292	235.61452	-55.8531338
-143.198751	243.457665	-56.1720423
-141.974624	243.707711	-56.3597585
-143.356973	265.866553	-76.4576994
-137.67112	266.130779	-73.5413046
-141.809713	267.773368	-71.5748652
-141.4623	266.507663	-68.9581137
-136.571865	265.523397	-66.6724134
-141.300734	264.642201	-65.0876547
-134.588404	265.27449	-64.1871832
-142.964481	267.814856	-58.6010142
-125.713627	266.183143	-68.9069117
-133.014429	266.903305	-70.9622122
-132.278599	265.816612	-69.0902191
-124.51728	265.321924	-67.024334
-123.514338	265.926522	-68.7165082
-133.434999	265.428388	-62.3766135
-131.536706	264.274845	-65.1749312
-124.007415	266.6117	-63.1207287
-127.220298	265.248622	-62.3610284
-124.417143	265.797108	-60.3725067
-125.07373	266.675647	-56.7138036
-122.56198	207.077639	-68.180791
-116.637043	206.282925	-64.4233441
-115.955134	204.969175	-64.8417419
-114.95409	206.702669	-61.2344679
-109.551199	191.785743	-61.7840777
-108.68952	194.137402	-62.5750929
-113.228186	195.757408	-62.316169
-106.536634	192.093682	-59.5770521
-108.932856	188.814121	-61.2637027
-109.560126	195.896402	-60.16142
-104.75397	190.503197	-58.5257287
-109.854332	196.619842	-59.7372367
-104.301085	190.388115	-57.9802453
-109.793442	188.960849	-59.8579308
-108.054173	197.474604	-58.9046195
-106.214936	188.67749	-58.518644
-111.116744	207.292207	-64.3152558
-110.72062	202.048109	-64.672149
-109.023084	199.098029	-64.3482498
-112.04226	207.328139	-64.5130072
-113.224227	205.48407	-64.8542424
-108.843572	201.260869	-64.1947484
-108.324725	205.810585	-61.9770495
-107.706355	199.625319	-60.2124547
-109.495521	203.654757	-57.3998572
-110.167015	206.465486	-59.084078
-123.467962	211.23641	-64.0782595
-123.372173	211.462875	-59.994968
-113.784881	209.746102	-59.0620531
-115.175626	211.462843	-59.875011
-123.06779	209.63592	-59.6595958
-115.553538	214.911818	-57.487972
-112.594902	207.827705	-60.0979844
-112.004121	209.96134	-64.7282559
-112.378521	212.30471	-65.1844725
-111.846942	210.285715	-61.3647659
-113.35114	214.348286	-61.2454815
-112.413821	208.706749	-57.9680479
-94.8878008	227.340096	-68.675174
-96.4481342	226.690028	-64.394756
-95.7309399	226.695153	-64.0207907
-94.6805272	226.268718	-63.65573
-84.592113	223.790085	-71.4474632
-84.8346218	222.926655	-71.0924246
-87.4447185	226.035556	-70.3290175
-90.7057528	226.441859	-69.2484928
-86.6041588	221.087125	-70.0682708
-83.5671587	224.090668	-67.8991646
-86.6541994	226.21633	-68.1928582
-88.8772456	222.009773	-67.1634697
-89.2990849	224.123214	-66.9865998
-92.403958	227.594387	-69.8457838
-90.9850334	227.448043	-65.7388806
-114.360109	237.29737	-66.4279187
-121.77362	235.5594	-65.4360004
-123.32962	237.60701	-64.9363118
-116.416418	236.327953	-65.4431493
-118.523249	234.940418	-64.9211515
-122.172649	234.810119	-65.3593067
-114.792969	237.529815	-61.6352693
-114.549145	238.002144	-60.8050935
-114.233958	238.587791	-65.9858557
-115.291757	244.074438	-63.2167724
-121.83988	245.824067	-60.0914582
-115.659862	243.101721	-61.8173984
-117.088512	238.9759	-60.0012986
-115.201156	242.103476	-61.2096367
-116.364755	242.616372	-60.0095655
-105.072726	236.14086	-67.290538
-110.943014	236.579065	-66.3902087
-106.849797	234.782374	-65.7820878
-110.975466	235.336644	-64.1491235
-104.086996	229.358568	-62.8963738
-104.892976	231.179846	-61.4146349
-103.857844	232.923261	-61.6571625
-109.916942	237.117737	-61.4806923
-106.468181	236.945113	-64.7852207
-113.36849	241.02701	-66.2694143
-113.085073	240.293572	-66.0600818
-111.885925	239.633772	-61.9019705
-112.831571	240.856465	-62.7189433
-116.397139	267.672844	-67.0713307
-118.350731	266.265965	-67.9416688
-122.327666	266.312483	-66.247072
-113.860727	267.633088	-64.4067909
-117.502882	265.929293	-64.8726203
-105.794159	267.744189	-66.6081405
-106.361874	266.694789	-64.1330681
-94.1996753	229.399541	-68.6235759
-99.0040667	232.494548	-69.2737221
-98.3362342	231.139626	-67.5967378
-102.875775	229.337103	-64.0738196
-99.9161585	233.27703	-65.1052652
-100.183581	232.797483	-63.1651289
-99.2096293	231.952975	-64.1225656
-84.4815403	228.541848	-71.0653616
-87.0503525	229.366327	-69.4089056
-91.20905	228.793503	-67.4149545
-92.3097485	228.006299	-65.3398568
-94.2740703	267.112346	-67.9934934
-97.3217525	265.729181	-66.9368515
-101.270227	266.349758	-65.3556042
-94.5195329	265.718592	-63.059891
-100.350074	266.257366	-61.1986643
-95.3807883	265.561298	-62.8291178
-100.912374	266.657454	-61.9059444
-96.3007442	267.769816	-66.8064346
-99.932229	267.986097	-63.8177787
-88.1811367	263.03657	-70.5388375
-92.083206	263.684112	-67.0164299
-85.1853357	262.107116	-68.9848649
-91.0247405	262.381334	-66.7934246
-86.8038421	264.922051	-66.5261887
-84.2987186	264.204362	-66.0475474
-91.0152145	262.289633	-65.1140633
-84.3991115	262.949589	-64.4731197
-89.633739	261.852635	-62.2452374
-154.161645	270.543986	-72.2495199
-161.416013	272.569898	-67.7443725
-159.073255	271.975417	-67.7281419
-161.093241	276.956413	-67.3972364
-154.503901	268.599123	-67.2947525
-160.082981	268.967242	-67.3642649
-155.452189	272.095125	-66.6896077
-158.616834	276.456233	-64.847236
-156.595039	269.185812	-63.3560416
-159.264504	270.090863	-64.3300564
-154.484348	273.074043	-59.873528
-156.432301	274.053643	-65.2554129
-161.981997	271.44018	-63.342157
-163.430089	277.601877	-65.3289933
-161.216024	276.380118	-63.3280522
-155.277749	268.48279	-65.0539471
-155.509488	269.130492	-60.8168216
-154.442557	270.153443	-58.9439907
-162.563333	287.609211	-65.1893296
-151.680355	268.662829	-76.633873
-150.383289	275.59186	-74.8038726
-152.62082	272.789624	-73.1459415
-149.803774	270.482333	-76.5462759
-148.601453	270.166413	-67.4242821
-146.650794	273.87852	-71.3279157
-149.839179	274.89462	-74.8467977
-153.329539	274.312898	-69.1391953
-148.081511	271.129047	-67.0248583
-150.814466	274.215653	-70.5269733
-146.758966	276.194851	-68.9609696
-150.836539	269.756909	-69.4919505
-146.68139	275.679574	-68.0173807
-143.919679	271.066622	-75.153148
-146.040171	274.185596	-66.88069
-146.102868	275.261305	-63.8648745
-151.634564	274.088056	-63.8926151
-153.101654	275.226871	-62.3316138
-150.603031	269.341672	-61.9206387
-144.918704	273.268084	-63.7655155
-146.543791	274.610613	-60.4354564
-152.523899	275.300964	-62.0452188
-152.582587	270.666065	-57.6851914
-146.245634	272.627722	-63.3181163
-151.502526	273.913771	-59.1434766
-150.392364	274.86879	-58.352955
-145.708517	271.305872	-58.4622678
-147.172939	276.279337	-60.8409773
-150.769557	275.32403	-59.0129775
-149.128255	275.073417	-58.4641333
-149.537915	274.994578	-58.1766402
-146.353031	268.400901	-57.216808
-148.710921	269.958096	-57.0882425
-152.579727	273.51931	-57.792832
-150.26511	285.131375	-76.9094866
-150.980632	280.303573	-74.0538883
-147.764892	285.9792	-73.0734255
-146.343918	285.029381	-75.5444651
-151.288816	285.392157	-72.7471062
-145.328945	281.944194	-74.5262959
-150.009367	280.89546	-72.7569117
-146.944693	287.827842	-73.5252771
-146.699514	281.523379	-72.7465938
-150.45245	280.874462	-73.2978555
-150.633648	286.534195	-72.7672588
-151.914761	282.707875	-69.2472078
-146.603137	288.110798	-68.875079
-153.443746	286.145905	-63.9380247
-146.903501	282.408928	-61.3616399
-150.582016	271.178481	-56.8147491
-155.821463	297.232437	-73.8893525
-162.307302	295.346228	-68.1340496
-160.067777	296.717699	-65.9639762
-161.869726	298.213909	-65.5811567
-155.336052	294.982231	-64.0845883
-155.342436	295.458019	-65.8517624
-154.211374	297.550215	-60.1785428
-154.875313	298.649726	-74.6654213
-153.762947	301.45532	-74.1024272
-156.274873	300.341242	-70.3155237
-155.903861	304.089449	-68.0074113
