# This PCD file was generated using the MATLAB® pcwrite function
# from Computer Vision Toolbox®.
# .PCD v.7 - Point Cloud Data file format
VERSION .7
FIELDS x y z
SIZE 8 8 8
TYPE F F F
COUNT 1 1 1
WIDTH 801
HEIGHT 1
VIEWPOINT 0 0 0 1 0 0 0
POINTS 801
DATA ascii
23.592100143432617 -41.940601348876953 -7.950000762939453
34.312500000000000 -41.940601348876953 -8.113199234008789
38.125000000000000 -41.940601348876953 -8.748399734497070
46.287998199462891 -41.940601348876953 -8.350000381469727
23.828100204467773 -41.169498443603516 -8.750000000000000
30.938100814819336 -41.940601348876953 -8.750000000000000
22.433000564575195 -41.940601348876953 -9.149999618530273
47.248600006103516 -41.940601348876953 -9.549999237060547
40.152500152587891 -41.940601348876953 -9.950000762939453
27.640600204467773 -41.456699371337891 -10.750000000000000
48.272998809814453 -41.940601348876953 -11.149999618530273
41.896800994873047 -41.940601348876953 -11.549999237060547
26.687500000000000 -41.940601348876953 -12.220600128173828
25.734399795532227 -41.053199768066406 -12.350000381469727
20.641099929809570 -41.940601348876953 -12.750000000000000
42.890598297119141 -41.940601348876953 -13.134599685668945
43.250801086425781 -41.940601348876953 -14.350000381469727
23.828100204467773 -41.003200531005859 -15.149999618530273
49.543498992919922 -41.940601348876953 -15.950000762939453
20.968799591064453 -41.163200378417969 -16.350000381469727
44.001701354980469 -41.940601348876953 -17.549999237060547
19.823299407958984 -41.940601348876953 -17.950000762939453
24.781200408935547 -41.715198516845703 -17.950000762939453
43.843799591064453 -41.940601348876953 -19.875000000000000
20.152999877929688 -41.940601348876953 -20.750000000000000
23.828100204467773 -41.005599975585938 -21.149999618530273
49.308300018310547 -41.940601348876953 -21.549999237060547
25.798599243164063 -41.940601348876953 -21.950000762939453
42.997398376464844 -41.940601348876953 -22.350000381469727
21.921899795532227 -41.147399902343750 -23.150001525878906
27.107799530029297 -41.940601348876953 -23.950000762939453
21.295000076293945 -41.940601348876953 -24.349998474121094
26.687500000000000 -41.127101898193359 -24.750000000000000
47.678699493408203 -41.940601348876953 -25.150001525878906
40.101100921630859 -41.940601348876953 -25.950000762939453
46.703098297119141 -41.940601348876953 -26.592899322509766
30.091499328613281 -41.940601348876953 -26.750000000000000
37.878200531005859 -41.940601348876953 -27.150001525878906
46.433399200439453 -41.940601348876953 -27.150001525878906
32.144798278808594 -41.940601348876953 -27.549999237060547
25.734399795532227 -40.992000579833984 -27.950000762939453
24.134199142456055 -41.940601348876953 -28.349998474121094
33.044399261474609 -41.940601348876953 -28.349998474121094
45.325000762939453 -41.940601348876953 -28.349998474121094
32.406200408935547 -41.133899688720703 -28.750000000000000
34.706600189208984 -41.940601348876953 -28.750000000000000
44.450901031494141 -41.940601348876953 -29.150001525878906
28.593799591064453 -41.080898284912109 -30.750000000000000
33.112098693847656 -41.940601348876953 -31.150001525878906
31.453100204467773 -41.366798400878906 -31.950000762939453
38.125000000000000 -41.236900329589844 -31.950000762939453
-68.625000000000000 -41.940601348876953 -33.985599517822266
-65.765602111816406 -41.198200225830078 -34.349998474121094
-81.015602111816406 -41.940601348876953 -36.124500274658203
-37.171901702880859 -41.535900115966797 -40.750000000000000
-27.640600204467773 -41.674598693847656 -41.950000762939453
-8.069399833679199 -41.940601348876953 -47.549999237060547
-8.578120231628418 -41.476299285888672 -48.750000000000000
85.575996398925781 -41.940601348876953 -49.950000762939453
-19.062500000000000 -41.940601348876953 -51.071098327636719
96.689903259277344 -41.940601348876953 -52.349998474121094
-27.111099243164063 -41.940601348876953 -52.750000000000000
-31.453100204467773 -41.940601348876953 -54.327899932861328
-60.940898895263672 -41.940601348876953 -54.349998474121094
-65.429901123046875 -41.940601348876953 -55.550003051757813
-64.812500000000000 -41.533000946044922 -57.150001525878906
-61.784599304199219 -41.940601348876953 -57.550003051757813
79.109397888183594 -41.940601348876953 -63.848197937011719
81.015602111816406 -41.592201232910156 -63.550003051757813
83.970298767089844 -41.940601348876953 -64.349998474121094
66.718803405761719 -41.940601348876953 -66.568199157714844
89.537696838378906 -41.940601348876953 -66.349998474121094
91.500000000000000 -41.337898254394531 -66.349998474121094
62.906200408935547 -41.119201660156250 -68.349998474121094
92.808502197265625 -41.940601348876953 -68.349998474121094
61.953098297119141 -40.987499237060547 -70.349998474121094
-45.434898376464844 -41.940601348876953 -70.750000000000000
96.720199584960938 -41.940601348876953 -71.949996948242188
101.984001159667969 -41.456001281738281 -71.949996948242188
62.906200408935547 -41.269401550292969 -72.750000000000000
61.953098297119141 -41.206901550292969 -73.150001525878906
98.171897888183594 -41.589801788330078 -73.150001525878906
103.944000244140625 -41.940601348876953 -76.349998474121094
102.938003540039063 -41.038700103759766 -76.750000000000000
-59.310798645019531 -41.940601348876953 -77.550003051757813
63.859401702880859 -40.995899200439453 -79.550003051757813
103.489997863769531 -41.940601348876953 -79.949996948242188
62.906200408935547 -41.388801574707031 -80.349998474121094
63.859401702880859 -41.134700775146484 -81.550003051757813
99.125000000000000 -41.488899230957031 -83.550003051757813
101.984001159667969 -41.355899810791016 -84.750000000000000
62.906200408935547 -41.412700653076172 -85.550003051757813
101.030998229980469 -41.247798919677734 -85.550003051757813
-68.843002319335938 -41.940601348876953 -86.349998474121094
64.812500000000000 -41.210998535156250 -90.349998474121094
-100.078002929687500 -40.987499237060547 -91.150001525878906
66.718803405761719 -41.324401855468750 -93.150001525878906
-99.390998840332031 -41.940601348876953 -95.949996948242188
-62.906200408935547 -41.695800781250000 -97.550003051757813
-75.724296569824219 -41.940601348876953 -97.949996948242188
-67.671897888183594 -41.940601348876953 -98.417999267578125
-98.794898986816406 -41.940601348876953 -98.750000000000000
-69.578102111816406 -41.436298370361328 -99.949996948242188
-63.859401702880859 -41.370601654052734 -100.750000000000000
-77.825698852539063 -41.940601348876953 -101.550003051757813
-69.578102111816406 -41.558101654052734 -102.750000000000000
-65.765602111816406 -41.451698303222656 -105.150001525878906
-63.859401702880859 -41.573101043701172 -105.150001525878906
-95.723800659179688 -41.940601348876953 -109.150001525878906
-86.734397888183594 -41.543498992919922 -109.150001525878906
-93.406196594238281 -41.384601593017578 -111.150001525878906
-91.500000000000000 -41.940601348876953 -111.453002929687500
1.906250000000000 -41.940601348876953 -226.916000366210938
-2.859380006790161 -41.775299072265625 -227.550003051757813
6.671879768371582 -41.651798248291016 -227.550003051757813
10.484399795532227 -41.733398437500000 -227.550003051757813
-0.953125000000000 -41.797599792480469 -228.350006103515625
0.953125000000000 -41.737499237060547 -228.750000000000000
3.689510107040405 -41.940601348876953 -229.149993896484375
7.232540130615234 -41.940601348876953 -229.149993896484375
6.671879768371582 -41.183700561523438 -229.550003051757813
3.812500000000000 -41.553199768066406 -230.350006103515625
12.390600204467773 -41.523601531982422 -232.350006103515625
17.156200408935547 -41.016399383544922 -232.350006103515625
21.268100738525391 -41.940601348876953 -232.350006103515625
-9.531250000000000 -40.998199462890625 -233.149993896484375
-13.343799591064453 -41.425800323486328 -233.550003051757813
18.109399795532227 -41.378501892089844 -234.350006103515625
17.156200408935547 -40.996299743652344 -234.750000000000000
20.015600204467773 -41.257400512695313 -235.149993896484375
15.250000000000000 -41.940601348876953 -235.712997436523438
24.781200408935547 -41.654701232910156 -235.949996948242188
27.640600204467773 -41.035198211669922 -236.750000000000000
-11.437500000000000 -41.047100067138672 -237.550003051757813
-13.082599639892578 -41.940601348876953 -238.750000000000000
30.006599426269531 -41.940601348876953 -239.550003051757813
27.610200881958008 -41.940601348876953 -239.949996948242188
-12.215900421142578 -41.940601348876953 -240.750000000000000
-11.437500000000000 -41.024898529052734 -240.750000000000000
-13.343799591064453 -41.455398559570313 -241.149993896484375
-12.390600204467773 -41.940601348876953 -241.527999877929688
24.549699783325195 -41.940601348876953 -241.149993896484375
-12.390600204467773 -41.940601348876953 -241.630004882812500
-11.437500000000000 -41.005001068115234 -241.550003051757813
14.736300468444824 -41.940601348876953 -241.550003051757813
-12.354700088500977 -41.940601348876953 -241.949996948242188
-11.437500000000000 -41.150199890136719 -241.949996948242188
8.578120231628418 -41.065601348876953 -241.949996948242188
29.546899795532227 -41.039299011230469 -241.949996948242188
-12.693900108337402 -41.940601348876953 -242.750000000000000
-13.343799591064453 -41.044700622558594 -243.149993896484375
31.044599533081055 -41.940601348876953 -243.149993896484375
-13.769300460815430 -41.940601348876953 -243.550003051757813
-13.343799591064453 -41.024200439453125 -243.550003051757813
6.671879768371582 -41.011100769042969 -243.949996948242188
-12.424699783325195 -41.940601348876953 -244.350006103515625
-13.343799591064453 -41.160800933837891 -244.350006103515625
-12.390600204467773 -41.940601348876953 -244.483001708984375
16.472099304199219 -41.940601348876953 -244.350006103515625
-13.995900154113770 -41.940601348876953 -245.149993896484375
26.493099212646484 -41.940601348876953 -245.149993896484375
30.155500411987305 -41.940601348876953 -245.949996948242188
16.203100204467773 -41.059398651123047 -246.350006103515625
-13.940999984741211 -41.940601348876953 -248.350006103515625
17.430999755859375 -41.940601348876953 -248.350006103515625
11.437500000000000 -41.305198669433594 -249.549987792968750
27.640600204467773 -41.456199645996094 -249.549987792968750
-9.531250000000000 -41.769298553466797 -250.350006103515625
29.546899795532227 -41.022800445556641 -251.149993896484375
-7.625000000000000 -41.633201599121094 -252.750000000000000
17.563100814819336 -41.940601348876953 -252.750000000000000
17.156200408935547 -41.407199859619141 -253.149993896484375
29.271299362182617 -41.940601348876953 -253.549987792968750
5.718750000000000 -41.232398986816406 -254.350006103515625
27.594400405883789 -41.940601348876953 -254.350006103515625
-11.437500000000000 -41.803398132324219 -255.149993896484375
29.149700164794922 -41.940601348876953 -255.149993896484375
14.296899795532227 -41.379600524902344 -255.549987792968750
-4.765620231628418 -41.538600921630859 -256.350006103515625
0.000000000000000 -41.096599578857422 -256.350006103515625
8.578120231628418 -41.246898651123047 -256.350006103515625
27.640600204467773 -41.833198547363281 -257.549987792968750
3.812500000000000 -41.282199859619141 -259.549987792968750
-8.578120231628418 -41.635398864746094 -260.350006103515625
28.593799591064453 -41.869998931884766 -260.350006103515625
8.578120231628418 -41.288799285888672 -261.549987792968750
16.203100204467773 -41.358501434326172 -261.549987792968750
24.781200408935547 -41.791698455810547 -262.350006103515625
27.640600204467773 -41.181098937988281 -262.350006103515625
-0.953125000000000 -41.683700561523438 -262.750000000000000
26.687500000000000 -41.622898101806641 -263.549987792968750
27.363599777221680 -41.940601348876953 -265.950012207031250
-5.718750000000000 -41.743198394775391 -266.350006103515625
19.697900772094727 -41.940601348876953 -266.350006103515625
3.812500000000000 -41.691600799560547 -267.149993896484375
15.250000000000000 -41.540699005126953 -267.549987792968750
19.062500000000000 -41.834701538085938 -268.350006103515625
25.187400817871094 -41.940601348876953 -268.350006103515625
-3.812500000000000 -41.782901763916016 -269.549987792968750
21.921899795532227 -41.654701232910156 -269.950012207031250
11.437500000000000 -41.614799499511719 -270.350006103515625
25.397399902343750 -41.940601348876953 -271.549987792968750
13.343799591064453 -41.775901794433594 -271.950012207031250
20.015600204467773 -41.706798553466797 -273.549987792968750
-0.953125000000000 -41.741100311279297 -274.350006103515625
16.203100204467773 -41.797599792480469 -278.750000000000000
12.390600204467773 -41.305198669433594 -279.149993896484375
0.953125000000000 -41.882900238037109 -279.549987792968750
3.812500000000000 -41.572200775146484 -280.750000000000000
19.681200027465820 -41.940601348876953 -280.750000000000000
13.343799591064453 -41.756999969482422 -281.149993896484375
4.765620231628418 -41.761901855468750 -282.750000000000000
9.531250000000000 -41.818199157714844 -282.750000000000000
9.531250000000000 -41.940601348876953 -285.233001708984375
5.718750000000000 -41.319999694824219 -285.950012207031250
8.578120231628418 -41.940601348876953 -286.993011474609375
33.359401702880859 -40.578998565673828 -3.949999809265137
40.984401702880859 -40.373001098632813 -5.949999809265137
42.890598297119141 -40.861801147460938 -5.949999809265137
27.640600204467773 -40.749198913574219 -6.350000381469727
36.218799591064453 -40.403701782226563 -6.750000000000000
39.078098297119141 -40.259201049804688 -7.950000762939453
43.843799591064453 -40.208801269531250 -7.950000762939453
29.546899795532227 -40.674999237060547 -8.350000381469727
39.078098297119141 -40.576499938964844 -8.350000381469727
45.671699523925781 -40.987499237060547 -8.350000381469727
26.687500000000000 -40.793598175048828 -9.950000762939453
46.703098297119141 -40.193801879882813 -11.149999618530273
43.843799591064453 -40.345901489257813 -12.350000381469727
47.656200408935547 -40.177501678466797 -15.950000762939453
49.331901550292969 -40.987499237060547 -15.950000762939453
44.796901702880859 -40.612701416015625 -18.350000381469727
45.750000000000000 -40.283500671386719 -18.350000381469727
48.609401702880859 -40.544200897216797 -21.149999618530273
43.843799591064453 -40.401199340820313 -23.549999237060547
46.703098297119141 -40.227401733398438 -23.549999237060547
47.159301757812500 -40.987499237060547 -25.549999237060547
40.984401702880859 -40.441299438476563 -27.150001525878906
43.843799591064453 -40.438899993896484 -28.349998474121094
36.218799591064453 -40.761798858642578 -28.750000000000000
31.453100204467773 -40.664798736572266 -29.950000762939453
40.031200408935547 -40.541801452636719 -30.750000000000000
36.218799591064453 -40.565799713134766 -31.150001525878906
-73.390602111816406 -40.987499237060547 -34.400001525878906
-41.937500000000000 -40.987499237060547 -40.741298675537109
-18.109399795532227 -40.987499237060547 -42.647300720214844
-9.050749778747559 -40.987499237060547 -44.750000000000000
-62.906200408935547 -40.885101318359375 -47.150001525878906
-95.765098571777344 -40.987499237060547 -47.950000762939453
-63.859401702880859 -40.987499237060547 -48.349998474121094
74.343803405761719 -40.987499237060547 -48.591899871826172
79.109397888183594 -40.987499237060547 -48.496898651123047
-60.046901702880859 -40.274700164794922 -48.750000000000000
88.640602111816406 -40.987499237060547 -49.213500976562500
91.668197631835938 -40.987499237060547 -49.950000762939453
-60.546100616455078 -40.987499237060547 -50.349998474121094
69.966201782226563 -40.987499237060547 -50.349998474121094
82.921897888183594 -40.987499237060547 -50.635700225830078
-64.894096374511719 -40.987499237060547 -51.549999237060547
-23.828100204467773 -40.987499237060547 -52.178600311279297
68.240798950195313 -40.987499237060547 -51.950000762939453
66.927803039550781 -40.987499237060547 -53.950000762939453
99.389396667480469 -40.987499237060547 -56.349998474121094
-99.543403625488281 -40.987499237060547 -57.949996948242188
65.765602111816406 -40.649299621582031 -58.750000000000000
66.718803405761719 -40.987499237060547 -60.134597778320313
70.531196594238281 -40.522201538085938 -60.349998474121094
77.203102111816406 -40.425899505615234 -60.349998474121094
74.343803405761719 -40.987499237060547 -61.230003356933594
81.968803405761719 -40.987499237060547 -61.873802185058594
-38.100799560546875 -40.987499237060547 -61.949996948242188
64.812500000000000 -40.667400360107422 -63.150001525878906
87.895401000976563 -40.987499237060547 -63.550003051757813
-39.078098297119141 -40.444698333740234 -64.349998474121094
90.025398254394531 -40.987499237060547 -64.349998474121094
64.812500000000000 -40.503200531005859 -66.349998474121094
98.171897888183594 -40.047100067138672 -66.349998474121094
101.984001159667969 -40.213298797607422 -66.349998474121094
63.859401702880859 -40.865798950195313 -67.949996948242188
97.427200317382813 -40.987499237060547 -68.750000000000000
101.030998229980469 -40.987499237060547 -69.250000000000000
-41.937500000000000 -40.987499237060547 -70.592300415039063
-100.692001342773438 -40.987499237060547 -75.550003051757813
63.859401702880859 -40.723300933837891 -75.550003051757813
-57.187500000000000 -40.987499237060547 -76.394897460937500
99.672302246093750 -40.987499237060547 -77.949996948242188
101.984001159667969 -40.578201293945313 -81.150001525878906
61.726200103759766 -40.987499237060547 -81.949996948242188
101.030998229980469 -40.563899993896484 -82.349998474121094
-67.629699707031250 -40.987499237060547 -85.150001525878906
62.906200408935547 -40.913200378417969 -87.949996948242188
65.765602111816406 -40.882701873779297 -88.750000000000000
-71.484397888183594 -40.987499237060547 -90.018302917480469
66.718803405761719 -40.289901733398438 -89.949996948242188
63.859401702880859 -40.737300872802734 -90.750000000000000
-72.618202209472656 -40.987499237060547 -91.949996948242188
65.765602111816406 -40.781200408935547 -94.349998474121094
68.625000000000000 -40.559398651123047 -94.349998474121094
71.484397888183594 -40.558601379394531 -97.550003051757813
68.625000000000000 -40.435199737548828 -98.349998474121094
70.531196594238281 -40.913501739501953 -98.349998474121094
-65.765602111816406 -40.770500183105469 -98.750000000000000
76.250000000000000 -40.370800018310547 -99.550003051757813
74.343803405761719 -40.453201293945313 -101.150001525878906
-94.550003051757813 -40.987499237060547 -109.949996948242188
10.484399795532227 -40.987499237060547 -226.942993164062500
6.671879768371582 -40.784500122070313 -227.550003051757813
3.812500000000000 -40.987499237060547 -228.617004394531250
8.578120231628418 -40.757701873779297 -228.350006103515625
13.343799591064453 -40.403301239013672 -228.350006103515625
11.437500000000000 -40.188701629638672 -232.350006103515625
21.921899795532227 -40.283000946044922 -232.350006103515625
23.791900634765625 -40.987499237060547 -232.750000000000000
16.203100204467773 -40.569099426269531 -233.149993896484375
-11.437500000000000 -40.493999481201172 -233.550003051757813
-1.906250000000000 -40.583499908447266 -233.550003051757813
-6.671879768371582 -40.875400543212891 -233.949996948242188
0.953125000000000 -40.504901885986328 -233.949996948242188
-7.625000000000000 -40.240001678466797 -234.350006103515625
-4.765620231628418 -40.211700439453125 -234.350006103515625
9.531250000000000 -40.695400238037109 -234.350006103515625
23.828100204467773 -40.190898895263672 -234.350006103515625
-9.531250000000000 -40.067600250244141 -234.750000000000000
17.356899261474609 -40.987499237060547 -235.149993896484375
17.156200408935547 -40.860401153564453 -235.149993896484375
18.109399795532227 -40.093898773193359 -235.149993896484375
5.718750000000000 -40.711898803710938 -235.550003051757813
-10.484399795532227 -40.102500915527344 -236.350006103515625
3.812500000000000 -40.604499816894531 -236.750000000000000
8.578120231628418 -40.606201171875000 -236.750000000000000
13.343799591064453 -40.666198730468750 -236.750000000000000
20.015600204467773 -40.651599884033203 -236.750000000000000
24.781200408935547 -40.751899719238281 -237.149993896484375
-11.437500000000000 -40.987499237060547 -237.850006103515625
13.990500450134277 -40.987499237060547 -237.550003051757813
-11.459699630737305 -40.987499237060547 -237.949996948242188
-12.390600204467773 -40.431499481201172 -237.949996948242188
-3.812500000000000 -40.034400939941406 -239.149993896484375
-4.765620231628418 -40.065399169921875 -239.949996948242188
14.296899795532227 -40.794998168945313 -239.949996948242188
30.205699920654297 -40.987499237060547 -239.949996948242188
-11.437500000000000 -40.806701660156250 -240.350006103515625
29.546899795532227 -40.577598571777344 -240.350006103515625
-11.437500000000000 -40.987499237060547 -241.070007324218750
-10.484399795532227 -40.585300445556641 -240.750000000000000
20.968799591064453 -40.360401153564453 -240.750000000000000
-11.457400321960449 -40.987499237060547 -241.149993896484375
-11.437500000000000 -40.987499237060547 -241.283004760742188
-9.531250000000000 -40.496700286865234 -241.550003051757813
12.390600204467773 -40.798999786376953 -241.550003051757813
23.828100204467773 -40.261699676513672 -242.350006103515625
-12.390600204467773 -40.498100280761719 -243.149993896484375
0.953125000000000 -40.468700408935547 -243.949996948242188
-7.625000000000000 -40.640899658203125 -244.750000000000000
-2.859380006790161 -40.401401519775391 -245.550003051757813
29.546899795532227 -40.702701568603516 -245.949996948242188
-12.765600204467773 -40.987499237060547 -246.350006103515625
24.781200408935547 -40.298900604248047 -246.350006103515625
3.812500000000000 -40.707698822021484 -247.549987792968750
25.308099746704102 -40.987499237060547 -248.750000000000000
28.593799591064453 -40.679698944091797 -249.549987792968750
24.510400772094727 -40.987499237060547 -250.350006103515625
-10.484399795532227 -40.868400573730469 -251.549987792968750
0.953125000000000 -40.688598632812500 -251.549987792968750
22.875000000000000 -40.275699615478516 -251.950012207031250
-2.859380006790161 -40.882900238037109 -252.750000000000000
24.567300796508789 -40.987499237060547 -255.950012207031250
28.593799591064453 -40.884201049804688 -256.350006103515625
20.968799591064453 -40.112098693847656 -259.950012207031250
-4.765620231628418 -40.807899475097656 -261.549987792968750
23.828100204467773 -40.910198211669922 -261.549987792968750
0.000000000000000 -40.298698425292969 -261.950012207031250
19.062500000000000 -40.170501708984375 -262.350006103515625
22.875000000000000 -40.780300140380859 -263.549987792968750
-1.906250000000000 -40.825099945068359 -265.950012207031250
26.594499588012695 -40.987499237060547 -267.549987792968750
13.343799591064453 -40.352100372314453 -267.950012207031250
2.859380006790161 -40.601398468017578 -268.750000000000000
5.718750000000000 -40.617900848388672 -271.149993896484375
16.203100204467773 -40.526500701904297 -271.149993896484375
20.015600204467773 -40.925201416015625 -271.149993896484375
3.240629911422729 -40.987499237060547 -272.750000000000000
23.828100204467773 -40.819301605224609 -272.750000000000000
24.133600234985352 -40.987499237060547 -274.750000000000000
10.484399795532227 -40.656799316406250 -275.149993896484375
17.156200408935547 -40.902400970458984 -275.149993896484375
21.921899795532227 -40.655498504638672 -276.750000000000000
21.921899795532227 -40.987499237060547 -277.928985595703125
10.484399795532227 -40.923400878906250 -278.350006103515625
20.015600204467773 -40.609699249267578 -278.750000000000000
17.156200408935547 -40.584499359130859 -281.549987792968750
17.156200408935547 -40.258598327636719 -282.750000000000000
17.516599655151367 -40.987499237060547 -283.149993896484375
14.467100143432617 -40.987499237060547 -285.149993896484375
10.484399795532227 -40.651100158691406 -285.549987792968750
6.671879768371582 -40.987499237060547 -286.872009277343750
9.531250000000000 -40.987499237060547 -286.863006591796875
-68.625000000000000 -40.034400939941406 -34.442298889160156
-75.296897888183594 -40.034400939941406 -34.959300994873047
-61.953098297119141 -40.034400939941406 -35.416698455810547
-53.375000000000000 -40.034400939941406 -37.421199798583984
-50.515598297119141 -39.621299743652344 -38.349998474121094
-86.371002197265625 -40.034400939941406 -38.750000000000000
-44.796901702880859 -39.522499084472656 -39.950000762939453
-35.265598297119141 -39.702499389648438 -41.950000762939453
-91.809600830078125 -40.034400939941406 -42.750000000000000
-21.921899795532227 -40.034400939941406 -43.134998321533203
-27.640600204467773 -39.336498260498047 -43.150001525878906
-61.000000000000000 -39.085601806640625 -43.549999237060547
-62.906200408935547 -39.096500396728516 -44.750000000000000
79.109397888183594 -39.098701477050781 -49.150001525878906
-10.423899650573730 -40.034400939941406 -49.950000762939453
-13.343799591064453 -39.486301422119141 -50.349998474121094
-63.859401702880859 -39.772899627685547 -54.750000000000000
98.465698242187500 -40.034400939941406 -55.150001525878906
-62.906200408935547 -39.936599731445313 -55.550003051757813
71.484397888183594 -39.093200683593750 -55.949996948242188
-36.218799591064453 -39.750701904296875 -57.949996948242188
69.578102111816406 -40.034400939941406 -58.055297851562500
74.343803405761719 -39.601600646972656 -57.949996948242188
67.900100708007813 -40.034400939941406 -58.750000000000000
-37.171901702880859 -39.301200866699219 -59.150001525878906
64.635597229003906 -40.034400939941406 -59.150001525878906
85.304702758789063 -40.034400939941406 -60.750000000000000
66.718803405761719 -39.666099548339844 -61.550003051757813
89.407302856445313 -40.034400939941406 -61.949996948242188
101.984001159667969 -39.152599334716797 -63.550003051757813
102.938003540039063 -39.807899475097656 -63.550003051757813
63.859401702880859 -39.281501770019531 -66.349998474121094
61.765899658203125 -40.034400939941406 -66.750000000000000
62.906200408935547 -39.124099731445313 -66.750000000000000
62.906200408935547 -39.373298645019531 -68.349998474121094
64.548698425292969 -40.034400939941406 -70.750000000000000
-53.375000000000000 -40.034400939941406 -74.689002990722656
60.793201446533203 -40.034400939941406 -74.349998474121094
62.906200408935547 -39.618301391601563 -78.349998474121094
62.906200408935547 -39.526599884033203 -84.349998474121094
63.859401702880859 -39.472900390625000 -85.550003051757813
64.812500000000000 -39.167900085449219 -87.550003051757813
63.859401702880859 -39.115299224853516 -89.150001525878906
64.812500000000000 -39.492198944091797 -90.750000000000000
-99.833999633789063 -40.034400939941406 -93.150001525878906
66.718803405761719 -39.367900848388672 -93.150001525878906
66.718803405761719 -39.317600250244141 -94.349998474121094
-74.901397705078125 -40.034400939941406 -95.550003051757813
69.578102111816406 -39.278900146484375 -97.150001525878906
70.531196594238281 -39.240100860595703 -98.349998474121094
76.250000000000000 -39.471900939941406 -98.349998474121094
81.015602111816406 -39.235801696777344 -98.349998474121094
-98.171897888183594 -39.125598907470703 -98.750000000000000
80.062500000000000 -39.821601867675781 -99.550003051757813
82.921897888183594 -39.659698486328125 -99.550003051757813
71.484397888183594 -39.889701843261719 -100.750000000000000
79.109397888183594 -39.468498229980469 -101.150001525878906
82.921897888183594 -39.244400024414063 -101.150001525878906
-83.875000000000000 -39.287998199462891 -105.150001525878906
-90.546897888183594 -39.802501678466797 -110.750000000000000
12.390600204467773 -40.034400939941406 -227.182006835937500
16.203100204467773 -40.034400939941406 -227.453994750976563
17.156200408935547 -39.288398742675781 -228.350006103515625
18.109399795532227 -39.404598236083984 -229.149993896484375
20.834499359130859 -40.034400939941406 -229.550003051757813
20.968799591064453 -39.341201782226563 -230.350006103515625
22.875000000000000 -39.676998138427734 -232.350006103515625
14.694000244140625 -40.034400939941406 -232.750000000000000
-3.812500000000000 -39.614101409912109 -233.149993896484375
0.953125000000000 -39.822601318359375 -233.149993896484375
9.531250000000000 -39.711700439453125 -233.949996948242188
17.156200408935547 -40.034400939941406 -234.483001708984375
6.671879768371582 -39.719100952148438 -234.750000000000000
-6.671879768371582 -39.602500915527344 -235.149993896484375
13.343799591064453 -39.670600891113281 -235.550003051757813
17.428600311279297 -40.034400939941406 -235.550003051757813
-9.531250000000000 -40.034400939941406 -237.389999389648438
9.531250000000000 -39.564899444580078 -237.149993896484375
18.109399795532227 -39.866199493408203 -237.149993896484375
-11.907899856567383 -40.034400939941406 -237.550003051757813
3.812500000000000 -39.471199035644531 -237.550003051757813
13.343799591064453 -39.477298736572266 -239.550003051757813
-11.437500000000000 -39.661098480224609 -240.350006103515625
-12.112000465393066 -40.034400939941406 -240.750000000000000
18.109399795532227 -39.538600921630859 -240.750000000000000
-12.106399536132813 -40.034400939941406 -241.149993896484375
6.671879768371582 -39.618900299072266 -241.949996948242188
1.906250000000000 -39.317298889160156 -242.350006103515625
20.968799591064453 -39.590801239013672 -242.750000000000000
18.109399795532227 -39.618900299072266 -244.750000000000000
10.484399795532227 -39.748401641845703 -245.550003051757813
0.953125000000000 -39.323898315429688 -246.750000000000000
-8.578120231628418 -39.759201049804688 -247.549987792968750
-2.859380006790161 -39.321800231933594 -248.750000000000000
8.578120231628418 -39.782798767089844 -249.549987792968750
20.968799591064453 -39.755901336669922 -251.149993896484375
3.812500000000000 -39.596801757812500 -252.350006103515625
18.109399795532227 -39.902198791503906 -252.750000000000000
11.437500000000000 -39.943599700927734 -253.149993896484375
-4.765620231628418 -39.807800292968750 -253.950012207031250
-1.906250000000000 -39.697200775146484 -255.950012207031250
4.765620231628418 -39.681598663330078 -258.350006103515625
14.296899795532227 -39.960498809814453 -260.750000000000000
5.718750000000000 -39.958099365234375 -263.950012207031250
-12.390600204467773 -39.081199645996094 -43.630001068115234
-59.827301025390625 -39.081199645996094 -45.950000762939453
-63.978000640869141 -39.081199645996094 -46.750000000000000
79.109397888183594 -38.358200073242188 -46.750000000000000
75.296897888183594 -39.081199645996094 -48.357498168945313
81.968803405761719 -38.392101287841797 -48.349998474121094
88.640602111816406 -39.081199645996094 -48.987201690673828
-96.581001281738281 -39.081199645996094 -49.150001525878906
71.979103088378906 -39.081199645996094 -49.549999237060547
83.875000000000000 -38.179599761962891 -50.750000000000000
95.799400329589844 -39.081199645996094 -52.349998474121094
-61.907100677490234 -39.081199645996094 -53.549999237060547
-31.097900390625000 -39.081199645996094 -53.549999237060547
67.245697021484375 -39.081199645996094 -53.950000762939453
73.390602111816406 -38.135200500488281 -53.950000762939453
72.437500000000000 -38.561698913574219 -55.150001525878906
67.671897888183594 -38.456001281738281 -55.550003051757813
-99.355598449707031 -39.081199645996094 -56.750000000000000
79.109397888183594 -39.081199645996094 -57.550003051757813
81.015602111816406 -38.575599670410156 -57.550003051757813
66.718803405761719 -38.572299957275391 -59.150001525878906
87.806602478027344 -39.081199645996094 -59.550003051757813
64.812500000000000 -38.938701629638672 -61.150001525878906
98.171897888183594 -38.511001586914063 -63.550003051757813
-39.771800994873047 -39.081199645996094 -67.550003051757813
-100.519996643066406 -39.081199645996094 -67.949996948242188
63.538101196289063 -39.081199645996094 -69.550003051757813
-47.268501281738281 -39.081199645996094 -72.750000000000000
61.680801391601563 -39.081199645996094 -75.550003051757813
60.546600341796875 -39.081199645996094 -77.949996948242188
63.516201019287109 -39.081199645996094 -81.150001525878906
65.134803771972656 -39.081199645996094 -81.150001525878906
65.152900695800781 -39.081199645996094 -81.550003051757813
65.765602111816406 -38.158901214599609 -81.550003051757813
60.861000061035156 -39.081199645996094 -83.150001525878906
62.434398651123047 -39.081199645996094 -84.349998474121094
65.496101379394531 -39.081199645996094 -84.349998474121094
66.494003295898438 -39.081199645996094 -87.949996948242188
67.980003356933594 -39.081199645996094 -91.550003051757813
-75.744598388671875 -39.081199645996094 -96.349998474121094
-98.645500183105469 -39.081199645996094 -97.550003051757813
83.875000000000000 -38.507701873779297 -98.349998474121094
74.343803405761719 -38.676700592041016 -99.150001525878906
80.062500000000000 -38.210498809814453 -99.150001525878906
73.390602111816406 -39.022701263427734 -99.949996948242188
80.062500000000000 -38.374900817871094 -99.949996948242188
-97.844200134277344 -39.081199645996094 -100.750000000000000
88.640602111816406 -38.743000030517578 -100.750000000000000
92.453102111816406 -38.587600708007813 -100.750000000000000
76.250000000000000 -38.167800903320313 -101.150001525878906
94.359397888183594 -38.195499420166016 -101.150001525878906
87.687500000000000 -38.975399017333984 -102.349998474121094
-82.921897888183594 -38.890598297119141 -103.150001525878906
-92.453102111816406 -38.273498535156250 -109.949996948242188
-6.671879768371582 -38.837100982666016 -234.350006103515625
-9.610670089721680 -39.081199645996094 -234.750000000000000
-2.859380006790161 -38.867000579833984 -235.149993896484375
0.357421994209290 -39.081199645996094 -236.350006103515625
-10.411100387573242 -39.081199645996094 -237.550003051757813
-4.765620231628418 -38.630798339843750 -238.350006103515625
0.000000000000000 -38.916698455810547 -238.750000000000000
-6.671879768371582 -38.913898468017578 -242.750000000000000
-0.953125000000000 -39.019298553466797 -244.350006103515625
-82.921897888183594 -38.128101348876953 -37.380100250244141
-58.140598297119141 -37.437301635742188 -37.549999237060547
-40.984401702880859 -38.128101348876953 -42.506000518798828
-92.749496459960938 -38.128101348876953 -43.950000762939453
-20.968799591064453 -37.492698669433594 -44.349998474121094
-16.203100204467773 -37.213298797607422 -44.349998474121094
-10.484399795532227 -38.128101348876953 -44.730201721191406
76.250000000000000 -37.699199676513672 -46.750000000000000
-95.846298217773438 -38.128101348876953 -47.950000762939453
76.250000000000000 -37.184200286865234 -47.950000762939453
78.156196594238281 -37.463798522949219 -47.950000762939453
84.828102111816406 -37.462600708007813 -49.549999237060547
73.390602111816406 -37.617198944091797 -49.950000762939453
93.406196594238281 -38.128101348876953 -50.456798553466797
-63.881301879882813 -38.128101348876953 -50.750000000000000
-60.990699768066406 -38.128101348876953 -50.750000000000000
-21.921899795532227 -38.128101348876953 -51.539100646972656
68.882202148437500 -38.128101348876953 -51.950000762939453
-29.546899795532227 -38.128101348876953 -53.063201904296875
70.641502380371094 -38.128101348876953 -55.550003051757813
83.875000000000000 -37.732799530029297 -56.750000000000000
99.839797973632813 -38.128101348876953 -57.150001525878906
86.734397888183594 -38.128101348876953 -57.550003051757813
69.578102111816406 -37.306499481201172 -57.949996948242188
90.546897888183594 -37.521198272705078 -57.949996948242188
101.198997497558594 -38.128101348876953 -60.349998474121094
94.677101135253906 -38.128101348876953 -61.150001525878906
62.518699645996094 -38.128101348876953 -61.550003051757813
67.099998474121094 -38.128101348876953 -62.349998474121094
-100.178001403808594 -38.128101348876953 -65.150001525878906
66.718803405761719 -37.630100250244141 -65.550003051757813
61.000000000000000 -38.128101348876953 -66.250000000000000
61.953098297119141 -37.716499328613281 -66.750000000000000
-40.473899841308594 -38.128101348876953 -68.750000000000000
-41.263401031494141 -38.128101348876953 -69.550003051757813
61.000000000000000 -37.523998260498047 -69.550003051757813
-43.338699340820313 -38.128101348876953 -70.349998474121094
65.765602111816406 -37.810398101806641 -70.349998474121094
60.046901702880859 -38.128101348876953 -71.404502868652344
63.859401702880859 -38.128101348876953 -71.949996948242188
-52.421901702880859 -37.361400604248047 -73.550003051757813
61.000000000000000 -37.924800872802734 -74.349998474121094
60.046901702880859 -37.572101593017578 -75.949996948242188
66.718803405761719 -37.574001312255859 -76.750000000000000
63.804901123046875 -38.128101348876953 -78.750000000000000
65.765602111816406 -37.819400787353516 -78.750000000000000
64.063598632812500 -38.128101348876953 -80.750000000000000
65.751403808593750 -38.128101348876953 -80.750000000000000
64.812500000000000 -37.216400146484375 -80.750000000000000
70.531196594238281 -37.270301818847656 -80.750000000000000
61.000000000000000 -37.581699371337891 -81.150001525878906
64.058403015136719 -38.128101348876953 -81.150001525878906
65.752601623535156 -38.128101348876953 -81.150001525878906
64.812500000000000 -37.213100433349609 -81.150001525878906
65.765602111816406 -38.128101348876953 -81.250000000000000
66.718803405761719 -37.608898162841797 -81.150001525878906
66.718803405761719 -37.647201538085938 -82.349998474121094
60.107398986816406 -38.128101348876953 -83.150001525878906
71.484397888183594 -37.253799438476563 -85.949996948242188
67.671897888183594 -37.614898681640625 -86.750000000000000
-100.425003051757813 -38.128101348876953 -87.150001525878906
68.625000000000000 -37.551399230957031 -89.150001525878906
61.628200531005859 -38.128101348876953 -89.550003051757813
62.906200408935547 -37.377201080322266 -89.550003051757813
-71.550102233886719 -38.128101348876953 -90.349998474121094
101.984001159667969 -37.208999633789063 -90.750000000000000
68.400100708007813 -38.128101348876953 -91.150001525878906
68.570503234863281 -38.128101348876953 -91.550003051757813
67.671897888183594 -37.202999114990234 -91.550003051757813
68.625000000000000 -38.048698425292969 -91.550003051757813
69.578102111816406 -37.572101593017578 -91.550003051757813
62.574699401855469 -38.128101348876953 -91.949996948242188
-72.853698730468750 -38.128101348876953 -92.349998474121094
69.578102111816406 -37.930900573730469 -93.150001525878906
99.125000000000000 -37.471401214599609 -93.949996948242188
68.625000000000000 -37.775901794433594 -94.349998474121094
100.078002929687500 -37.313499450683594 -95.150001525878906
64.683097839355469 -38.128101348876953 -95.550003051757813
71.484397888183594 -37.875000000000000 -95.550003051757813
97.218803405761719 -37.385898590087891 -95.550003051757813
66.718803405761719 -37.813899993896484 -95.949996948242188
73.390602111816406 -37.465099334716797 -96.349998474121094
97.218803405761719 -37.761001586914063 -96.750000000000000
-77.671897888183594 -38.128101348876953 -97.550003051757813
75.296897888183594 -37.781501770019531 -97.550003051757813
95.312500000000000 -37.819801330566406 -97.949996948242188
82.921897888183594 -37.644199371337891 -99.150001525878906
67.795196533203125 -38.128101348876953 -99.550003051757813
-82.032798767089844 -38.128101348876953 -101.150001525878906
84.828102111816406 -37.658699035644531 -101.150001525878906
81.015602111816406 -37.309398651123047 -101.550003051757813
88.640602111816406 -37.378601074218750 -101.550003051757813
95.312500000000000 -37.346298217773438 -101.550003051757813
73.390602111816406 -38.128101348876953 -102.386001586914063
88.640602111816406 -37.195098876953125 -102.349998474121094
92.453102111816406 -38.022998809814453 -102.750000000000000
88.640602111816406 -38.029499053955078 -103.550003051757813
-96.307701110839844 -38.128101348876953 -104.349998474121094
-85.781196594238281 -37.997100830078125 -106.349998474121094
-94.773803710937500 -38.128101348876953 -107.949996948242188
-74.343803405761719 -37.174999237060547 -35.599998474121094
-62.906200408935547 -36.588500976562500 -36.750000000000000
-52.421901702880859 -36.358001708984375 -39.150001525878906
-50.515598297119141 -37.067100524902344 -39.549999237060547
-62.150798797607422 -37.174999237060547 -41.150001525878906
-89.984397888183594 -37.174999237060547 -41.549999237060547
-42.890598297119141 -37.174999237060547 -42.480800628662109
-9.178509712219238 -37.174999237060547 -46.349998474121094
81.968803405761719 -36.374401092529297 -46.349998474121094
-63.764099121093750 -37.174999237060547 -46.750000000000000
83.224296569824219 -37.174999237060547 -47.549999237060547
81.968803405761719 -36.410701751708984 -47.950000762939453
91.500000000000000 -37.174999237060547 -48.970199584960938
72.890197753906250 -37.174999237060547 -49.549999237060547
82.921897888183594 -36.622798919677734 -49.549999237060547
96.265602111816406 -36.677299499511719 -49.549999237060547
75.142799377441406 -37.174999237060547 -49.950000762939453
-14.296899795532227 -37.066101074218750 -50.349998474121094
83.875000000000000 -36.705200195312500 -50.750000000000000
95.312500000000000 -36.929000854492188 -51.150001525878906
-97.678497314453125 -37.174999237060547 -51.549999237060547
74.797599792480469 -37.174999237060547 -52.349998474121094
71.761398315429688 -37.174999237060547 -52.750000000000000
100.078002929687500 -36.681301116943359 -52.750000000000000
-98.538497924804688 -37.174999237060547 -53.950000762939453
66.233001708984375 -37.174999237060547 -53.950000762939453
100.078002929687500 -36.481800079345703 -53.950000762939453
96.523597717285156 -37.174999237060547 -54.349998474121094
72.437500000000000 -36.489398956298828 -54.750000000000000
81.015602111816406 -37.174999237060547 -54.863201141357422
87.687500000000000 -36.702999114990234 -55.150001525878906
100.078002929687500 -36.360500335693359 -55.150001525878906
89.593803405761719 -36.628501892089844 -55.550003051757813
65.765602111816406 -36.931701660156250 -56.750000000000000
63.616001129150391 -37.174999237060547 -58.349998474121094
67.671897888183594 -37.174999237060547 -58.715698242187500
70.531196594238281 -36.673801422119141 -58.349998474121094
97.218803405761719 -36.524299621582031 -59.949996948242188
100.078002929687500 -36.776699066162109 -59.949996948242188
63.888500213623047 -37.174999237060547 -60.349998474121094
68.625000000000000 -37.174999237060547 -61.105598449707031
69.578102111816406 -36.773700714111328 -60.750000000000000
67.671897888183594 -36.277099609375000 -61.150001525878906
62.162399291992188 -37.174999237060547 -63.150001525878906
72.437500000000000 -36.471199035644531 -63.150001525878906
104.844001770019531 -36.322200775146484 -63.949996948242188
65.765602111816406 -37.025001525878906 -64.349998474121094
103.890998840332031 -36.505199432373047 -65.949996948242188
69.578102111816406 -36.771400451660156 -66.750000000000000
104.844001770019531 -36.618301391601563 -69.550003051757813
64.812500000000000 -37.043800354003906 -69.949996948242188
105.796997070312500 -36.390098571777344 -71.949996948242188
76.250000000000000 -36.419799804687500 -72.349998474121094
69.578102111816406 -36.925899505615234 -72.750000000000000
-55.281200408935547 -36.945899963378906 -73.949996948242188
104.844001770019531 -36.494201660156250 -75.150001525878906
70.531196594238281 -36.921501159667969 -76.750000000000000
-100.809997558593750 -37.174999237060547 -77.949996948242188
64.812500000000000 -36.980998992919922 -77.949996948242188
72.437500000000000 -36.890899658203125 -79.550003051757813
103.890998840332031 -36.376201629638672 -79.550003051757813
105.796997070312500 -36.451000213623047 -79.550003051757813
-60.476699829101563 -37.174999237060547 -79.949996948242188
64.769203186035156 -37.174999237060547 -80.349998474121094
64.812500000000000 -37.174999237060547 -80.578598022460938
76.250000000000000 -36.607299804687500 -80.349998474121094
65.765602111816406 -36.793701171875000 -80.750000000000000
104.844001770019531 -36.735099792480469 -80.750000000000000
-100.728996276855469 -37.174999237060547 -81.550003051757813
81.015602111816406 -36.422901153564453 -83.949996948242188
65.765602111816406 -36.927501678466797 -85.550003051757813
101.984001159667969 -36.358001708984375 -85.550003051757813
103.890998840332031 -36.882301330566406 -85.949996948242188
104.844001770019531 -36.358001708984375 -85.949996948242188
61.953098297119141 -37.115398406982422 -86.349998474121094
72.437500000000000 -36.978298187255859 -86.750000000000000
80.062500000000000 -36.626399993896484 -87.150001525878906
81.015602111816406 -36.570899963378906 -88.349998474121094
66.718803405761719 -37.174999237060547 -89.038902282714844
101.984001159667969 -37.153800964355469 -88.750000000000000
77.203102111816406 -36.865398406982422 -89.550003051757813
82.921897888183594 -36.430400848388672 -90.750000000000000
75.296897888183594 -36.860801696777344 -91.150001525878906
-73.898002624511719 -37.174999237060547 -93.550003051757813
69.578102111816406 -36.766498565673828 -93.550003051757813
82.921897888183594 -36.495300292968750 -94.349998474121094
76.250000000000000 -36.952999114990234 -94.750000000000000
79.109397888183594 -36.707801818847656 -96.349998474121094
65.765602111816406 -36.918800354003906 -96.750000000000000
81.015602111816406 -37.174999237060547 -97.169998168945313
73.390602111816406 -36.709701538085938 -97.550003051757813
66.372200012207031 -37.174999237060547 -98.349998474121094
75.296897888183594 -36.907501220703125 -98.349998474121094
97.722801208496094 -37.174999237060547 -99.150001525878906
69.578102111816406 -36.830799102783203 -99.550003051757813
94.359397888183594 -36.514099121093750 -99.550003051757813
95.312500000000000 -36.339900970458984 -99.949996948242188
68.211601257324219 -37.174999237060547 -100.750000000000000
81.015602111816406 -36.677299499511719 -100.750000000000000
72.437500000000000 -36.266201019287109 -101.550003051757813
77.203102111816406 -36.488800048828125 -101.550003051757813
71.484397888183594 -36.276298522949219 -101.949996948242188
74.343803405761719 -36.299400329589844 -102.349998474121094
91.500000000000000 -36.558700561523438 -102.349998474121094
85.781196594238281 -36.791301727294922 -103.550003051757813
-88.640602111816406 -36.863399505615234 -108.349998474121094
-70.531196594238281 -36.221900939941406 -35.812301635742188
-66.718803405761719 -35.705600738525391 -36.349998474121094
-81.015602111816406 -35.315200805664063 -37.549999237060547
-60.607498168945313 -36.221900939941406 -38.349998474121094
-58.140598297119141 -36.221900939941406 -38.720401763916016
-58.996101379394531 -36.221900939941406 -39.950000762939453
-63.117198944091797 -36.221900939941406 -43.150001525878906
-59.152900695800781 -36.221900939941406 -43.950000762939453
-60.046901702880859 -36.143699645996094 -45.950000762939453
-61.000000000000000 -35.965301513671875 -46.750000000000000
-9.069669723510742 -36.221900939941406 -47.549999237060547
70.960700988769531 -36.221900939941406 -48.750000000000000
89.593803405761719 -36.221900939941406 -48.819400787353516
92.453102111816406 -35.411300659179688 -49.150001525878906
86.734397888183594 -35.883300781250000 -49.549999237060547
69.134803771972656 -36.221900939941406 -50.349998474121094
95.312500000000000 -35.716800689697266 -50.349998474121094
86.734397888183594 -35.527301788330078 -50.750000000000000
92.453102111816406 -35.575500488281250 -50.750000000000000
-19.062500000000000 -35.593200683593750 -51.150001525878906
77.203102111816406 -36.221900939941406 -51.331001281738281
95.312500000000000 -35.659801483154297 -51.150001525878906
69.578102111816406 -35.924701690673828 -51.549999237060547
80.062500000000000 -36.056900024414063 -51.549999237060547
73.390602111816406 -35.985900878906250 -51.950000762939453
75.296897888183594 -35.796001434326172 -52.349998474121094
72.437500000000000 -35.822700500488281 -53.150001525878906
73.390602111816406 -35.304000854492188 -53.150001525878906
95.350601196289063 -36.221900939941406 -53.150001525878906
73.390602111816406 -35.312099456787109 -53.549999237060547
84.828102111816406 -36.221900939941406 -53.792400360107422
