# This PCD file was generated using the MATLAB® pcwrite function
# from Computer Vision Toolbox®.
# .PCD v.7 - Point Cloud Data file format
VERSION .7
FIELDS x y z
SIZE 8 8 8
TYPE F F F
COUNT 1 1 1
WIDTH 786
HEIGHT 1
VIEWPOINT 0 0 0 1 0 0 0
POINTS 786
DATA ascii
-24.781200408935547 -63.261703491210938 -229.949996948242188
61.000000000000000 -62.996696472167969 -230.350006103515625
69.578102111816406 -63.362899780273438 -230.350006103515625
-165.843994140625000 -63.051803588867188 -230.750000000000000
-27.468500137329102 -63.862503051757813 -230.750000000000000
11.408399581909180 -63.862503051757813 -231.149993896484375
16.871900558471680 -63.862503051757813 -231.149993896484375
67.671897888183594 -63.632598876953125 -231.149993896484375
-151.546997070312500 -62.917098999023438 -231.550003051757813
-160.125000000000000 -63.342201232910156 -231.949996948242188
-3.812500000000000 -63.336502075195313 -231.949996948242188
-164.891006469726563 -63.546401977539063 -232.350006103515625
-146.085998535156250 -63.862503051757813 -232.750000000000000
13.343799591064453 -63.253097534179688 -232.750000000000000
-5.718750000000000 -63.560501098632813 -233.149993896484375
19.952899932861328 -63.862503051757813 -233.149993896484375
-19.062500000000000 -63.862503051757813 -233.652999877929688
58.140598297119141 -63.394599914550781 -234.350006103515625
-59.093799591064453 -63.862503051757813 -235.302001953125000
-55.281200408935547 -63.317901611328125 -235.149993896484375
-48.609401702880859 -63.425697326660156 -235.149993896484375
-3.812500000000000 -63.270401000976563 -235.149993896484375
9.590820312500000 -63.862503051757813 -235.149993896484375
61.000000000000000 -63.256500244140625 -235.149993896484375
-162.983993530273438 -63.644897460937500 -235.550003051757813
-55.281200408935547 -62.914398193359375 -235.949996948242188
-47.891399383544922 -63.862503051757813 -236.350006103515625
-2.349950075149536 -63.862503051757813 -236.350006103515625
-150.557006835937500 -63.862503051757813 -236.750000000000000
-67.671897888183594 -63.862503051757813 -236.850006103515625
17.156200408935547 -63.731903076171875 -236.750000000000000
-151.546997070312500 -63.287803649902344 -237.149993896484375
-162.031005859375000 -63.571098327636719 -237.550003051757813
-53.375000000000000 -63.063201904296875 -237.550003051757813
15.540100097656250 -63.862503051757813 -237.550003051757813
-6.629940032958984 -63.862503051757813 -237.949996948242188
-74.343803405761719 -63.862503051757813 -238.492996215820313
-159.171997070312500 -63.596801757812500 -239.149993896484375
-57.187500000000000 -63.528396606445313 -239.550003051757813
-164.891006469726563 -63.801300048828125 -241.149993896484375
-84.828102111816406 -62.909400939941406 -241.149993896484375
-63.554901123046875 -63.862503051757813 -241.550003051757813
-158.218994140625000 -63.606597900390625 -241.949996948242188
-152.500000000000000 -63.484397888183594 -242.350006103515625
-67.644203186035156 -63.862503051757813 -242.350006103515625
-146.024002075195313 -63.862503051757813 -243.149993896484375
-165.843994140625000 -63.724502563476563 -243.550003051757813
-151.546997070312500 -63.678298950195313 -243.550003051757813
-89.593803405761719 -63.862503051757813 -243.809005737304688
-73.390602111816406 -63.862503051757813 -243.889007568359375
-162.031005859375000 -63.725196838378906 -243.949996948242188
-93.406196594238281 -63.292800903320313 -243.949996948242188
-154.406005859375000 -63.662002563476563 -244.350006103515625
-152.610992431640625 -63.862503051757813 -244.350006103515625
-125.811996459960938 -63.198501586914063 -245.550003051757813
-133.438003540039063 -63.454002380371094 -245.949996948242188
-13.856200218200684 -63.862503051757813 -245.949996948242188
-155.358993530273438 -63.575103759765625 -246.350006103515625
-85.781196594238281 -63.486999511718750 -246.350006103515625
-116.984001159667969 -63.862503051757813 -246.750000000000000
-99.125000000000000 -63.651901245117188 -246.750000000000000
-94.359397888183594 -63.803100585937500 -246.750000000000000
-135.343994140625000 -62.916999816894531 -247.149993896484375
-165.843994140625000 -63.824600219726563 -247.950012207031250
-122.953002929687500 -63.862503051757813 -248.316986083984375
-104.844001770019531 -63.330902099609375 -247.950012207031250
-97.218803405761719 -63.662399291992188 -247.950012207031250
-92.453102111816406 -63.434196472167969 -247.950012207031250
-149.641006469726563 -63.862503051757813 -248.488006591796875
-117.234001159667969 -63.729499816894531 -248.350006103515625
-147.733993530273438 -63.593399047851563 -248.750000000000000
-100.078002929687500 -63.499702453613281 -249.149993896484375
-105.796997070312500 -63.180801391601563 -249.549987792968750
-160.125000000000000 -63.820701599121094 -249.950012207031250
-114.375000000000000 -63.613899230957031 -249.950012207031250
-108.655998229980469 -63.266799926757813 -249.950012207031250
-150.046997070312500 -63.862503051757813 -250.350006103515625
-166.796997070312500 -63.355903625488281 -250.750000000000000
-156.311996459960938 -63.771598815917969 -250.750000000000000
-149.641006469726563 -63.862503051757813 -251.140014648437500
-147.733993530273438 -63.575103759765625 -250.750000000000000
-115.328002929687500 -63.747100830078125 -251.549987792968750
-14.897299766540527 -63.862503051757813 -251.549987792968750
-123.905998229980469 -63.627799987792969 -251.950012207031250
-155.177001953125000 -63.862503051757813 -253.149993896484375
-142.016006469726563 -63.598701477050781 -253.149993896484375
-134.496994018554688 -63.862503051757813 -253.950012207031250
-14.549699783325195 -63.862503051757813 -254.750000000000000
-153.453002929687500 -63.794601440429688 -255.950012207031250
-145.679000854492188 -63.862503051757813 -255.950012207031250
-166.796997070312500 -63.698799133300781 -257.149993896484375
-11.078499794006348 -63.862503051757813 -266.750000000000000
-167.350997924804688 -63.862503051757813 -269.149993896484375
-9.008760452270508 -63.862503051757813 -270.350006103515625
-145.951004028320313 -63.862503051757813 -271.149993896484375
-167.570007324218750 -63.862503051757813 -273.149993896484375
-145.458999633789063 -63.862503051757813 -274.350006103515625
-143.921997070312500 -63.862503051757813 -275.734008789062500
-142.016006469726563 -63.099998474121094 -276.350006103515625
-136.296997070312500 -63.862503051757813 -276.834991455078125
-64.812500000000000 -63.862503051757813 -276.881988525390625
-124.867996215820313 -63.862503051757813 -277.149993896484375
-73.390602111816406 -63.862503051757813 -277.302001953125000
-40.031200408935547 -63.862503051757813 -277.183013916015625
-33.359401702880859 -63.862503051757813 -277.532012939453125
-26.687500000000000 -63.862503051757813 -277.420989990234375
-123.905998229980469 -63.862503051757813 -277.876007080078125
-85.781196594238281 -63.862503051757813 -277.610992431640625
-31.453100204467773 -63.149696350097656 -277.549987792968750
-12.390600204467773 -63.862503051757813 -277.799011230468750
-115.328002929687500 -63.606201171875000 -277.950012207031250
-4.765620231628418 -63.564102172851563 -277.950012207031250
9.013660430908203 -63.862503051757813 -278.750000000000000
8.875980377197266 -63.862503051757813 -279.149993896484375
13.343799591064453 -63.862503051757813 -279.792999267578125
-165.442001342773438 -63.862503051757813 -280.350006103515625
-45.750000000000000 -63.862503051757813 -281.911987304687500
-107.703002929687500 -63.862503051757813 -282.003997802734375
-87.687500000000000 -63.862503051757813 -282.273986816406250
-76.250000000000000 -63.862503051757813 -282.250000000000000
-66.718803405761719 -63.862503051757813 -282.045989990234375
-98.171897888183594 -63.732803344726563 -282.350006103515625
-32.479598999023438 -63.862503051757813 -282.350006103515625
-115.328002929687500 -63.637100219726563 -282.750000000000000
-113.421997070312500 -62.931503295898438 -282.750000000000000
-105.796997070312500 -63.129302978515625 -282.750000000000000
-19.062500000000000 -63.862503051757813 -282.750000000000000
-15.250000000000000 -63.093299865722656 -282.750000000000000
-13.343799591064453 -63.862503051757813 -282.993011474609375
-7.625000000000000 -62.922401428222656 -282.750000000000000
-121.046997070312500 -63.297096252441406 -283.149993896484375
1.299710035324097 -63.862503051757813 -283.549987792968750
6.671879768371582 -63.862503051757813 -283.920013427734375
15.908100128173828 -63.862503051757813 -283.950012207031250
10.484399795532227 -63.534400939941406 -284.350006103515625
14.296899795532227 -63.035797119140625 -284.350006103515625
-157.682006835937500 -63.862503051757813 -285.549987792968750
-144.444000244140625 -63.862503051757813 -302.750000000000000
25.734399795532227 -62.478103637695313 -7.950000762939453
30.500000000000000 -62.587501525878906 -7.950000762939453
26.687500000000000 -62.364700317382813 -11.549999237060547
25.734399795532227 -62.644897460937500 -13.149999618530273
24.781200408935547 -62.663101196289063 -14.350000381469727
21.921899795532227 -62.605499267578125 -15.549999237060547
24.781200408935547 -62.500900268554688 -17.950000762939453
21.921899795532227 -62.625701904296875 -20.750000000000000
21.921899795532227 -62.364700317382813 -23.150001525878906
25.734399795532227 -62.653503417968750 -23.549999237060547
29.546899795532227 -62.292396545410156 -26.750000000000000
41.937500000000000 -62.118103027343750 -26.750000000000000
25.734399795532227 -62.460800170898438 -27.950000762939453
32.406200408935547 -62.456901550292969 -28.750000000000000
37.171901702880859 -62.291297912597656 -28.750000000000000
29.546899795532227 -62.378402709960938 -30.750000000000000
39.078098297119141 -62.271896362304688 -30.750000000000000
32.406200408935547 -62.275802612304688 -31.150001525878906
37.171901702880859 -62.171798706054688 -31.950000762939453
-56.234401702880859 -62.307098388671875 -41.150001525878906
-43.843799591064453 -62.675903320312500 -42.750000000000000
-35.265598297119141 -62.520301818847656 -44.750000000000000
-79.109397888183594 -62.533302307128906 -47.150001525878906
-29.546899795532227 -62.460601806640625 -47.150001525878906
-81.968803405761719 -62.543998718261719 -49.549999237060547
-22.875000000000000 -62.355003356933594 -50.750000000000000
-88.640602111816406 -62.291603088378906 -56.750000000000000
-16.203100204467773 -62.560203552246094 -57.150001525878906
81.968803405761719 -62.401901245117188 -59.550003051757813
88.640602111816406 -62.119499206542969 -59.949996948242188
80.062500000000000 -62.817596435546875 -60.349998474121094
-16.626100540161133 -62.909400939941406 -60.750000000000000
85.781196594238281 -62.682296752929688 -61.550003051757813
-91.500000000000000 -62.353797912597656 -63.150001525878906
92.453102111816406 -62.801498413085938 -63.150001525878906
73.390602111816406 -62.665702819824219 -64.349998474121094
95.312500000000000 -62.428199768066406 -64.349998474121094
-92.453102111816406 -62.563598632812500 -67.949996948242188
-25.146499633789063 -62.909400939941406 -67.949996948242188
-28.593799591064453 -62.909400939941406 -69.054603576660156
98.171897888183594 -62.591697692871094 -70.349998474121094
71.135101318359375 -62.909400939941406 -71.150001525878906
-43.900699615478516 -62.909400939941406 -73.949996948242188
-48.609401702880859 -62.909400939941406 -76.284400939941406
97.621597290039063 -62.909400939941406 -76.349998474121094
98.601799011230469 -62.909400939941406 -78.349998474121094
-93.899398803710938 -62.909400939941406 -79.150001525878906
98.422096252441406 -62.909400939941406 -81.550003051757813
99.125000000000000 -62.209602355957031 -85.150001525878906
59.789798736572266 -62.909400939941406 -85.949996948242188
49.698699951171875 -62.909400939941406 -86.750000000000000
55.752300262451172 -62.909400939941406 -89.550003051757813
-77.203102111816406 -62.909400939941406 -90.312599182128906
95.312500000000000 -62.575996398925781 -90.750000000000000
-69.279701232910156 -62.909400939941406 -91.550003051757813
-75.731002807617188 -62.909400939941406 -91.949996948242188
-73.390602111816406 -62.909400939941406 -92.585998535156250
79.109397888183594 -62.318397521972656 -93.150001525878906
91.500000000000000 -62.519500732421875 -93.550003051757813
-81.968803405761719 -62.909400939941406 -94.220001220703125
43.668201446533203 -62.909400939941406 -93.949996948242188
53.163898468017578 -62.909400939941406 -94.349998474121094
41.232200622558594 -62.909400939941406 -97.949996948242188
51.580001831054688 -62.909400939941406 -100.349998474121094
109.609001159667969 -62.102897644042969 -103.550003051757813
35.032501220703125 -62.909400939941406 -105.150001525878906
-94.198501586914063 -62.909400939941406 -105.550003051757813
108.655998229980469 -62.165702819824219 -105.550003051757813
47.656200408935547 -61.989501953125000 -105.949996948242188
37.171901702880859 -62.034698486328125 -106.349998474121094
-88.597297668457031 -62.909400939941406 -106.750000000000000
106.502998352050781 -62.909400939941406 -108.349998474121094
43.868999481201172 -62.909400939941406 -109.150001525878906
-92.453102111816406 -62.559501647949219 -109.550003051757813
114.041999816894531 -62.909400939941406 -110.349998474121094
110.561996459960938 -62.909400939941406 -111.150001525878906
43.843799591064453 -62.032798767089844 -112.750000000000000
115.023002624511719 -62.909400939941406 -114.750000000000000
40.590801239013672 -62.909400939941406 -115.550003051757813
40.053798675537109 -62.909400939941406 -117.150001525878906
108.314002990722656 -62.909400939941406 -119.550003051757813
31.189699172973633 -62.909400939941406 -120.350006103515625
111.355003356933594 -62.909400939941406 -120.750000000000000
-55.281200408935547 -62.253700256347656 -121.149993896484375
-52.421901702880859 -62.081298828125000 -122.350006103515625
108.790000915527344 -62.909400939941406 -122.350006103515625
113.583999633789063 -62.909400939941406 -123.550003051757813
-77.203102111816406 -62.448501586914063 -125.550003051757813
-75.296897888183594 -62.809402465820313 -125.949996948242188
116.660003662109375 -62.909400939941406 -125.949996948242188
-59.093799591064453 -62.518501281738281 -126.750000000000000
-47.984100341796875 -62.909400939941406 -127.149993896484375
112.005996704101563 -62.909400939941406 -127.149993896484375
37.824901580810547 -62.909400939941406 -129.949996948242188
109.324996948242188 -62.909400939941406 -129.949996948242188
-58.707801818847656 -62.909400939941406 -130.750000000000000
-70.110198974609375 -62.909400939941406 -132.350006103515625
114.147003173828125 -62.909400939941406 -133.149993896484375
-43.595500946044922 -62.909400939941406 -133.949996948242188
-72.437500000000000 -62.317802429199219 -134.750000000000000
114.250000000000000 -62.909400939941406 -135.949996948242188
-67.962699890136719 -62.909400939941406 -136.750000000000000
25.569700241088867 -62.909400939941406 -136.750000000000000
-54.541999816894531 -62.909400939941406 -137.149993896484375
-72.437500000000000 -62.152702331542969 -137.949996948242188
-43.843799591064453 -62.909400939941406 -138.179000854492188
112.469001770019531 -62.283401489257813 -137.949996948242188
32.406200408935547 -62.292602539062500 -139.149993896484375
22.302099227905273 -62.909400939941406 -140.350006103515625
109.419998168945313 -62.909400939941406 -140.350006103515625
113.421997070312500 -62.217903137207031 -140.350006103515625
-68.397201538085938 -62.909400939941406 -141.949996948242188
-69.578102111816406 -62.090400695800781 -143.149993896484375
9.531250000000000 -62.070602416992188 -143.550003051757813
13.343799591064453 -62.730201721191406 -144.750000000000000
112.021003723144531 -62.909400939941406 -144.750000000000000
-69.357002258300781 -62.909400939941406 -145.149993896484375
-64.549797058105469 -62.909400939941406 -145.149993896484375
112.469001770019531 -62.366798400878906 -145.149993896484375
-51.809200286865234 -62.909400939941406 -145.550003051757813
-36.868598937988281 -62.909400939941406 -146.350006103515625
21.030399322509766 -62.909400939941406 -146.350006103515625
-48.776199340820313 -62.909400939941406 -146.750000000000000
20.461900711059570 -62.909400939941406 -147.949996948242188
13.343799591064453 -62.432800292968750 -148.350006103515625
-63.258499145507813 -62.909400939941406 -148.750000000000000
15.250000000000000 -62.493896484375000 -148.750000000000000
113.436996459960938 -62.909400939941406 -148.750000000000000
112.469001770019531 -62.379302978515625 -149.149993896484375
11.334899902343750 -62.909400939941406 -149.550003051757813
15.250000000000000 -62.432800292968750 -149.949996948242188
-70.105300903320313 -62.909400939941406 -150.350006103515625
-37.036201477050781 -62.909400939941406 -150.750000000000000
-45.889900207519531 -62.909400939941406 -151.149993896484375
22.144699096679688 -62.909400939941406 -151.149993896484375
108.142997741699219 -62.909400939941406 -151.949996948242188
-47.401100158691406 -62.909400939941406 -152.350006103515625
115.938003540039063 -62.909400939941406 -152.350006103515625
0.953125000000000 -62.209098815917969 -153.149993896484375
110.980003356933594 -62.909400939941406 -153.550003051757813
-67.832199096679688 -62.909400939941406 -153.949996948242188
-32.301300048828125 -62.909400939941406 -153.949996948242188
-61.953098297119141 -62.439903259277344 -154.350006103515625
112.469001770019531 -62.813598632812500 -154.350006103515625
-42.890598297119141 -62.332496643066406 -155.550003051757813
0.000000000000000 -62.465301513671875 -155.949996948242188
0.953125000000000 -62.909400939941406 -156.611999511718750
-65.765602111816406 -62.605499267578125 -156.750000000000000
-63.859401702880859 -62.000503540039063 -156.750000000000000
-33.237499237060547 -62.909400939941406 -157.149993896484375
28.336200714111328 -62.909400939941406 -157.949996948242188
107.098999023437500 -62.909400939941406 -157.949996948242188
110.561996459960938 -62.580596923828125 -158.750000000000000
-61.000000000000000 -62.374702453613281 -159.149993896484375
-29.302900314331055 -62.909400939941406 -159.149993896484375
111.552001953125000 -62.909400939941406 -159.149993896484375
-61.953098297119141 -62.377601623535156 -160.350006103515625
-42.659999847412109 -62.909400939941406 -160.750000000000000
-40.083000183105469 -62.909400939941406 -160.750000000000000
109.609001159667969 -62.750000000000000 -161.550003051757813
-60.046901702880859 -62.803497314453125 -162.350006103515625
-27.199699401855469 -62.909400939941406 -162.750000000000000
113.808998107910156 -62.909400939941406 -163.149993896484375
109.669998168945313 -62.909400939941406 -165.949996948242188
-148.688003540039063 -62.165901184082031 -166.350006103515625
-143.921997070312500 -62.348701477050781 -166.750000000000000
104.370002746582031 -62.909400939941406 -168.750000000000000
107.643997192382813 -62.909400939941406 -168.750000000000000
-23.463699340820313 -62.909400939941406 -169.149993896484375
17.156200408935547 -62.909400939941406 -170.300994873046875
14.747300148010254 -62.909400939941406 -170.350006103515625
107.708000183105469 -62.909400939941406 -171.550003051757813
-35.627601623535156 -62.909400939941406 -172.750000000000000
-33.294200897216797 -62.909400939941406 -172.750000000000000
24.833000183105469 -62.909400939941406 -172.750000000000000
107.703002929687500 -62.909400939941406 -173.136993408203125
-142.968994140625000 -62.705497741699219 -173.149993896484375
26.216199874877930 -62.909400939941406 -175.949996948242188
23.994600296020508 -62.909400939941406 -177.149993896484375
-18.963199615478516 -62.909400939941406 -177.550003051757813
-29.546899795532227 -62.414596557617188 -177.949996948242188
-147.733993530273438 -62.909400939941406 -178.623001098632813
12.690600395202637 -62.909400939941406 -178.350006103515625
109.111999511718750 -62.909400939941406 -178.350006103515625
-145.828002929687500 -62.535400390625000 -179.550003051757813
103.874000549316406 -62.909400939941406 -179.550003051757813
-27.810499191284180 -62.909400939941406 -181.550003051757813
103.890998840332031 -62.845596313476563 -181.949996948242188
-148.688003540039063 -62.395301818847656 -183.149993896484375
-145.828002929687500 -62.909400939941406 -183.600006103515625
22.141799926757813 -62.909400939941406 -183.550003051757813
99.125000000000000 -62.023696899414063 -183.949996948242188
106.356002807617188 -62.909400939941406 -184.750000000000000
-25.001600265502930 -62.909400939941406 -186.750000000000000
-131.531005859375000 -62.244102478027344 -187.149993896484375
-126.765998840332031 -62.556701660156250 -187.149993896484375
-123.905998229980469 -62.336303710937500 -187.149993896484375
22.591899871826172 -62.909400939941406 -187.949996948242188
-146.781005859375000 -62.909400939941406 -188.404006958007813
9.734530448913574 -62.909400939941406 -188.350006103515625
-140.108993530273438 -62.677001953125000 -189.149993896484375
-15.731100082397461 -62.909400939941406 -189.149993896484375
-133.438003540039063 -62.396202087402344 -189.550003051757813
100.078002929687500 -62.824996948242188 -189.550003051757813
-140.296005249023438 -62.909400939941406 -191.550003051757813
98.171897888183594 -62.841903686523438 -191.550003051757813
-133.438003540039063 -62.470596313476563 -191.949996948242188
-11.437500000000000 -62.909400939941406 -192.714996337890625
-24.080200195312500 -62.909400939941406 -193.149993896484375
-131.531005859375000 -62.697196960449219 -193.949996948242188
-123.905998229980469 -62.580001831054688 -194.350006103515625
97.277198791503906 -62.909400939941406 -195.550003051757813
20.457899093627930 -62.909400939941406 -195.949996948242188
-149.641006469726563 -62.374198913574219 -197.149993896484375
-145.207000732421875 -62.909400939941406 -197.149993896484375
-10.484399795532227 -62.909400939941406 -198.304000854492188
17.770599365234375 -62.909400939941406 -197.949996948242188
-163.938003540039063 -62.139900207519531 -198.750000000000000
9.358779907226563 -62.909400939941406 -199.149993896484375
-20.465299606323242 -62.909400939941406 -199.550003051757813
-163.938003540039063 -62.396697998046875 -200.750000000000000
19.290399551391602 -62.909400939941406 -200.750000000000000
92.453102111816406 -62.614402770996094 -201.149993896484375
-77.203102111816406 -62.909400939941406 -201.910003662109375
88.188201904296875 -62.909400939941406 -201.550003051757813
-78.956901550292969 -62.909400939941406 -201.949996948242188
-5.470779895782471 -62.909400939941406 -202.350006103515625
92.453102111816406 -62.598602294921875 -202.350006103515625
-158.218994140625000 -62.100303649902344 -203.149993896484375
92.504402160644531 -62.909400939941406 -203.550003051757813
-29.546899795532227 -62.535499572753906 -203.949996948242188
-84.828102111816406 -62.439300537109375 -204.750000000000000
-26.687500000000000 -62.374000549316406 -205.149993896484375
85.223396301269531 -62.909400939941406 -205.550003051757813
-93.693496704101563 -62.909400939941406 -205.949996948242188
18.583400726318359 -62.909400939941406 -205.949996948242188
-161.078002929687500 -62.412498474121094 -206.350006103515625
-14.094099998474121 -62.909400939941406 -206.750000000000000
-145.492004394531250 -62.909400939941406 -207.149993896484375
-152.500000000000000 -61.971397399902344 -207.550003051757813
86.851699829101563 -62.909400939941406 -207.550003051757813
-150.593994140625000 -62.357002258300781 -207.949996948242188
-164.891006469726563 -62.304603576660156 -208.750000000000000
-20.968799591064453 -62.294601440429688 -208.750000000000000
-87.687500000000000 -62.484001159667969 -209.149993896484375
8.285189628601074 -62.909400939941406 -209.149993896484375
-155.358993530273438 -62.375999450683594 -209.550003051757813
85.781196594238281 -61.995300292968750 -209.949996948242188
-25.734399795532227 -62.191001892089844 -210.350006103515625
-2.859380006790161 -62.909400939941406 -211.102996826171875
17.731100082397461 -62.909400939941406 -211.550003051757813
86.632797241210938 -62.909400939941406 -211.550003051757813
83.352798461914063 -62.909400939941406 -211.949996948242188
79.443000793457031 -62.909400939941406 -212.350006103515625
-163.938003540039063 -62.726196289062500 -212.750000000000000
-104.844001770019531 -62.309600830078125 -212.750000000000000
-95.525100708007813 -62.909400939941406 -212.750000000000000
-150.147003173828125 -62.909400939941406 -213.149993896484375
88.237197875976563 -62.909400939941406 -213.550003051757813
-162.031005859375000 -62.671997070312500 -213.949996948242188
-151.546997070312500 -62.385200500488281 -213.949996948242188
-152.207992553710938 -62.909400939941406 -214.750000000000000
-16.203100204467773 -62.909400939941406 -215.087005615234375
0.212264999747276 -62.909400939941406 -214.750000000000000
76.907600402832031 -62.909400939941406 -215.149993896484375
80.062500000000000 -62.909400939941406 -215.451995849609375
-154.406005859375000 -62.534698486328125 -215.550003051757813
-106.750000000000000 -62.693397521972656 -215.550003051757813
-101.030998229980469 -62.445899963378906 -215.550003051757813
-165.843994140625000 -62.000602722167969 -216.350006103515625
-133.438003540039063 -62.110397338867188 -216.350006103515625
-14.107999801635742 -62.909400939941406 -216.350006103515625
-7.311550140380859 -62.909400939941406 -216.350006103515625
-123.905998229980469 -62.633499145507813 -216.750000000000000
-116.280998229980469 -62.001602172851563 -216.750000000000000
-108.655998229980469 -62.424102783203125 -216.750000000000000
-16.203100204467773 -62.566802978515625 -216.750000000000000
81.968803405761719 -62.909400939941406 -217.024002075195313
84.973197937011719 -62.909400939941406 -217.149993896484375
-154.406005859375000 -62.822402954101563 -217.550003051757813
-141.061996459960938 -62.758598327636719 -217.550003051757813
-163.938003540039063 -62.888198852539063 -217.949996948242188
-147.733993530273438 -62.909400939941406 -218.302993774414063
-105.796997070312500 -62.342201232910156 -217.949996948242188
-16.220100402832031 -62.909400939941406 -217.949996948242188
17.649999618530273 -62.909400939941406 -217.949996948242188
-155.358993530273438 -62.588500976562500 -218.350006103515625
-148.688003540039063 -62.909400939941406 -218.384994506835938
3.088989973068237 -62.909400939941406 -218.350006103515625
6.273119926452637 -62.909400939941406 -218.350006103515625
-122.953002929687500 -62.269798278808594 -218.750000000000000
-164.891006469726563 -62.806602478027344 -219.149993896484375
76.250000000000000 -61.995597839355469 -219.149993896484375
-160.125000000000000 -62.756896972656250 -219.550003051757813
-114.375000000000000 -62.498596191406250 -219.949996948242188
-9.830400466918945 -62.909400939941406 -219.949996948242188
15.250000000000000 -62.693000793457031 -219.949996948242188
-111.515998840332031 -62.281402587890625 -220.350006103515625
-13.465399742126465 -62.909400939941406 -220.350006103515625
-4.663499832153320 -62.909400939941406 -220.350006103515625
-146.781005859375000 -62.750503540039063 -220.750000000000000
-122.953002929687500 -62.777496337890625 -220.750000000000000
-148.688003540039063 -62.589797973632813 -221.550003051757813
-147.733993530273438 -62.909400939941406 -221.832992553710938
9.282380104064941 -62.909400939941406 -221.550003051757813
-122.953002929687500 -62.527297973632813 -221.949996948242188
-8.578120231628418 -62.864303588867188 -221.949996948242188
80.306999206542969 -62.909400939941406 -221.949996948242188
-6.671879768371582 -62.087699890136719 -222.750000000000000
-141.061996459960938 -62.686500549316406 -223.149993896484375
-123.849998474121094 -62.909400939941406 -223.149993896484375
-14.016500473022461 -62.909400939941406 -223.149993896484375
-134.391006469726563 -62.063301086425781 -223.550003051757813
-165.843994140625000 -62.677803039550781 -224.350006103515625
-154.406005859375000 -62.703796386718750 -224.750000000000000
-152.500000000000000 -62.909400939941406 -225.328002929687500
-143.378997802734375 -62.909400939941406 -225.149993896484375
66.372901916503906 -62.909400939941406 -225.550003051757813
70.531196594238281 -62.489196777343750 -225.550003051757813
0.455383002758026 -62.909400939941406 -225.949996948242188
12.390600204467773 -62.342399597167969 -226.350006103515625
18.449199676513672 -62.909400939941406 -226.350006103515625
-152.500000000000000 -62.813003540039063 -226.750000000000000
74.837402343750000 -62.909400939941406 -226.750000000000000
11.381099700927734 -62.909400939941406 -227.949996948242188
-20.015600204467773 -62.909400939941406 -228.658996582031250
15.250000000000000 -62.862396240234375 -228.750000000000000
65.765602111816406 -61.967300415039063 -229.149993896484375
67.671897888183594 -61.969802856445313 -229.550003051757813
-8.578120231628418 -62.476501464843750 -229.949996948242188
-3.812500000000000 -62.254096984863281 -230.350006103515625
-23.719200134277344 -62.909400939941406 -230.750000000000000
-1.075119972229004 -62.909400939941406 -231.149993896484375
14.580800056457520 -62.909400939941406 -231.149993896484375
-23.828100204467773 -62.909400939941406 -231.604003906250000
-1.906250000000000 -62.639999389648438 -231.949996948242188
1.906250000000000 -62.909400939941406 -233.091003417968750
8.578120231628418 -62.398200988769531 -232.750000000000000
-19.062500000000000 -62.025100708007813 -233.149993896484375
-15.250000000000000 -62.909400939941406 -233.315002441406250
57.187500000000000 -62.536399841308594 -233.149993896484375
10.484399795532227 -62.435699462890625 -233.550003051757813
-166.149002075195313 -62.909400939941406 -234.350006103515625
-145.333999633789063 -62.909400939941406 -234.750000000000000
0.048004198819399 -62.909400939941406 -234.750000000000000
-6.671879768371582 -62.557701110839844 -235.149993896484375
62.906200408935547 -62.113403320312500 -235.550003051757813
-10.484399795532227 -62.516296386718750 -236.750000000000000
-5.718750000000000 -62.909400939941406 -237.020004272460938
54.328098297119141 -62.839897155761719 -236.750000000000000
-63.859401702880859 -62.070396423339844 -237.149993896484375
-57.187500000000000 -62.272003173828125 -237.550003051757813
-8.825940132141113 -62.909400939941406 -237.949996948242188
50.515598297119141 -62.421096801757813 -237.949996948242188
-76.250000000000000 -62.909400939941406 -238.990997314453125
53.375000000000000 -62.570800781250000 -238.750000000000000
-60.046901702880859 -62.337501525878906 -239.550003051757813
-10.484399795532227 -62.197402954101563 -239.949996948242188
49.562500000000000 -62.354202270507813 -239.949996948242188
-81.253898620605469 -62.909400939941406 -240.350006103515625
-13.343799591064453 -62.344802856445313 -240.350006103515625
-64.812500000000000 -62.383201599121094 -241.149993896484375
21.434400558471680 -62.909400939941406 -242.350006103515625
-145.376007080078125 -62.909400939941406 -242.750000000000000
-14.296899795532227 -62.447303771972656 -243.149993896484375
-12.037400245666504 -62.909400939941406 -243.149993896484375
21.599000930786133 -62.909400939941406 -243.949996948242188
-95.312500000000000 -62.315498352050781 -244.350006103515625
-144.186996459960938 -62.909400939941406 -244.750000000000000
-123.905998229980469 -62.909400939941406 -246.044998168945313
-100.078002929687500 -62.476799011230469 -245.949996948242188
-82.921897888183594 -62.909400939941406 -246.220993041992188
-142.677001953125000 -62.909400939941406 -246.350006103515625
-102.938003540039063 -62.361297607421875 -246.350006103515625
-103.890998840332031 -62.543998718261719 -247.149993896484375
-87.687500000000000 -62.909400939941406 -247.273010253906250
-115.328002929687500 -62.626701354980469 -247.950012207031250
-108.655998229980469 -62.414901733398438 -247.950012207031250
-101.030998229980469 -62.247299194335938 -250.350006103515625
-106.750000000000000 -62.823501586914063 -250.750000000000000
-107.703002929687500 -62.469902038574219 -251.549987792968750
-108.655998229980469 -62.207099914550781 -252.350006103515625
-142.968994140625000 -62.909400939941406 -253.536987304687500
-117.234001159667969 -62.678100585937500 -253.149993896484375
-135.343994140625000 -62.769203186035156 -253.549987792968750
23.584100723266602 -62.909400939941406 -253.549987792968750
-167.425994873046875 -62.909400939941406 -253.950012207031250
-125.241996765136719 -62.909400939941406 -255.149993896484375
-145.320007324218750 -62.909400939941406 -257.149993896484375
23.242799758911133 -62.909400939941406 -257.149993896484375
-13.939999580383301 -62.909400939941406 -261.950012207031250
-145.458999633789063 -62.909400939941406 -262.750000000000000
-167.604003906250000 -62.909400939941406 -264.750000000000000
19.029499053955078 -62.909400939941406 -269.549987792968750
-8.578120231628418 -62.909400939941406 -271.510986328125000
17.269199371337891 -62.909400939941406 -271.950012207031250
-145.511993408203125 -62.909400939941406 -272.750000000000000
-8.106920242309570 -62.909400939941406 -273.950012207031250
-131.531005859375000 -62.909400939941406 -275.074005126953125
-143.179992675781250 -62.909400939941406 -275.549987792968750
-124.998001098632813 -62.909400939941406 -275.549987792968750
13.932000160217285 -62.909400939941406 -275.950012207031250
-136.296997070312500 -62.909400939941406 -276.502014160156250
-61.953098297119141 -62.909400939941406 -276.834991455078125
-51.468799591064453 -62.909400939941406 -276.928985595703125
-123.905998229980469 -62.680397033691406 -277.149993896484375
-70.531196594238281 -62.909400939941406 -277.158996582031250
-99.125000000000000 -62.909400939941406 -277.804992675781250
-91.500000000000000 -62.909400939941406 -277.611999511718750
-42.890598297119141 -62.480499267578125 -277.549987792968750
-29.546899795532227 -62.354698181152344 -277.549987792968750
-26.687500000000000 -62.909400939941406 -277.950012207031250
-167.511993408203125 -62.909400939941406 -277.950012207031250
-114.375000000000000 -62.909400939941406 -277.993011474609375
-110.561996459960938 -62.909400939941406 -278.221008300781250
-34.312500000000000 -62.300903320312500 -278.350006103515625
-26.687500000000000 -62.397796630859375 -278.350006103515625
-15.250000000000000 -62.542800903320313 -278.350006103515625
11.437500000000000 -62.708999633789063 -280.350006103515625
9.531250000000000 -62.076301574707031 -281.149993896484375
-55.281200408935547 -62.909400939941406 -281.848999023437500
-51.468799591064453 -62.061096191406250 -281.549987792968750
-38.125000000000000 -62.909400939941406 -281.888000488281250
-36.218799591064453 -62.201301574707031 -281.549987792968750
-22.875000000000000 -62.123596191406250 -281.549987792968750
-22.875000000000000 -62.531303405761719 -281.950012207031250
-17.156200408935547 -62.217201232910156 -281.950012207031250
-13.343799591064453 -62.122901916503906 -281.950012207031250
15.250000000000000 -62.749496459960938 -281.950012207031250
-88.640602111816406 -62.909400939941406 -282.635986328125000
-163.080001831054688 -62.909400939941406 -282.750000000000000
-94.359397888183594 -62.909400939941406 -282.875000000000000
0.000000000000000 -62.147598266601563 -282.750000000000000
4.765620231628418 -62.207099914550781 -283.149993896484375
-142.205001831054688 -62.909400939941406 -283.549987792968750
14.296899795532227 -62.454597473144531 -283.549987792968750
-133.438003540039063 -62.909400939941406 -285.415985107421875
-145.296997070312500 -62.909400939941406 -286.750000000000000
-153.979003906250000 -62.909400939941406 -288.350006103515625
-154.242996215820313 -62.909400939941406 -290.750000000000000
-155.738998413085938 -62.909400939941406 -291.950012207031250
-155.919998168945313 -62.909400939941406 -297.149993896484375
-156.095993041992188 -62.909400939941406 -301.950012207031250
-150.593994140625000 -62.909400939941406 -303.109985351562500
-151.546997070312500 -62.909400939941406 -303.717987060546875
33.359401702880859 -61.782203674316406 -3.550000190734863
38.125000000000000 -61.741996765136719 -3.949999809265137
28.593799591064453 -61.918899536132813 -5.149999618530273
43.843799591064453 -61.446899414062500 -6.350000381469727
33.359401702880859 -61.916900634765625 -7.149999618530273
38.125000000000000 -61.875099182128906 -7.149999618530273
24.781200408935547 -61.838600158691406 -7.549999237060547
44.796901702880859 -61.714500427246094 -8.350000381469727
40.984401702880859 -61.602798461914063 -9.149999618530273
47.656200408935547 -61.068099975585938 -9.950000762939453
44.796901702880859 -61.751197814941406 -12.350000381469727
43.843799591064453 -61.048500061035156 -13.149999618530273
45.750000000000000 -61.764396667480469 -14.750000000000000
48.609401702880859 -61.622802734375000 -14.750000000000000
20.724800109863281 -61.956298828125000 -15.549999237060547
45.750000000000000 -61.810798645019531 -20.350000381469727
48.609401702880859 -61.604896545410156 -21.950000762939453
20.968799591064453 -61.031196594238281 -22.350000381469727
43.843799591064453 -61.884300231933594 -24.750000000000000
41.937500000000000 -61.730300903320313 -25.549999237060547
46.703098297119141 -61.774101257324219 -25.549999237060547
23.615200042724609 -61.956298828125000 -26.750000000000000
44.796901702880859 -61.677497863769531 -28.349998474121094
41.937500000000000 -61.555496215820313 -30.750000000000000
36.218799591064453 -61.933799743652344 -31.950000762939453
-61.953098297119141 -61.350898742675781 -40.349998474121094
-56.234401702880859 -61.457496643066406 -40.349998474121094
-48.609401702880859 -61.589996337890625 -40.750000000000000
-68.625000000000000 -61.600799560546875 -41.150001525878906
-72.437500000000000 -61.442703247070313 -41.950000762939453
-40.984401702880859 -61.631797790527344 -41.950000762939453
87.687500000000000 -61.732597351074219 -58.750000000000000
89.593803405761719 -61.725502014160156 -59.150001525878906
84.828102111816406 -61.523803710937500 -59.550003051757813
94.359397888183594 -61.182197570800781 -62.349998474121094
-17.911800384521484 -61.956298828125000 -62.750000000000000
-35.155998229980469 -61.956298828125000 -67.550003051757813
-25.356700897216797 -61.956298828125000 -67.949996948242188
-29.546899795532227 -61.956298828125000 -68.910499572753906
-40.984401702880859 -61.069099426269531 -69.150001525878906
99.789802551269531 -61.956298828125000 -71.949996948242188
-50.731899261474609 -61.956298828125000 -78.349998474121094
61.953098297119141 -61.165702819824219 -78.349998474121094
58.140598297119141 -61.766601562500000 -78.750000000000000
55.281200408935547 -61.522499084472656 -79.150001525878906
68.845596313476563 -61.956298828125000 -79.550003051757813
-58.118999481201172 -61.956298828125000 -81.949996948242188
53.375000000000000 -61.956298828125000 -83.201103210449219
-64.812500000000000 -61.956298828125000 -83.908302307128906
-94.940200805664063 -61.956298828125000 -85.150001525878906
46.271099090576172 -61.956298828125000 -86.750000000000000
105.796997070312500 -61.956298828125000 -87.410202026367188
-65.289100646972656 -61.956298828125000 -87.550003051757813
107.077003479003906 -61.956298828125000 -87.949996948242188
101.984001159667969 -61.956298828125000 -88.625000000000000
46.703098297119141 -61.956298828125000 -89.480796813964844
101.480003356933594 -61.956298828125000 -89.550003051757813
55.541198730468750 -61.956298828125000 -90.750000000000000
73.390602111816406 -61.719200134277344 -90.750000000000000
109.047996520996094 -61.956298828125000 -92.750000000000000
41.437698364257813 -61.956298828125000 -93.550003051757813
77.203102111816406 -61.405097961425781 -93.550003051757813
94.359397888183594 -61.318901062011719 -93.550003051757813
102.938003540039063 -61.956298828125000 -94.719001770019531
53.647300720214844 -61.956298828125000 -97.150001525878906
41.937500000000000 -61.037597656250000 -97.550003051757813
50.572399139404297 -61.956298828125000 -98.349998474121094
111.097999572753906 -61.956298828125000 -98.349998474121094
107.474998474121094 -61.956298828125000 -99.550003051757813
37.656501770019531 -61.956298828125000 -100.349998474121094
48.857200622558594 -61.956298828125000 -100.349998474121094
104.306999206542969 -61.956298828125000 -100.750000000000000
109.609001159667969 -61.016601562500000 -102.349998474121094
113.016998291015625 -61.956298828125000 -104.750000000000000
44.988700866699219 -61.956298828125000 -105.949996948242188
34.044200897216797 -61.956298828125000 -107.949996948242188
-90.257499694824219 -61.956298828125000 -108.750000000000000
45.478500366210938 -61.956298828125000 -109.550003051757813
111.203002929687500 -61.956298828125000 -109.550003051757813
41.960399627685547 -61.956298828125000 -111.150001525878906
109.920997619628906 -61.956298828125000 -112.349998474121094
111.903999328613281 -61.956298828125000 -113.150001525878906
30.997299194335938 -61.956298828125000 -115.150001525878906
39.078098297119141 -61.707099914550781 -115.550003051757813
33.359401702880859 -61.956298828125000 -116.694000244140625
42.482898712158203 -61.956298828125000 -116.349998474121094
110.761001586914063 -61.956298828125000 -117.550003051757813
111.515998840332031 -61.032897949218750 -118.750000000000000
115.901000976562500 -61.956298828125000 -118.750000000000000
-58.140598297119141 -61.342697143554688 -119.550003051757813
37.792800903320313 -61.956298828125000 -121.149993896484375
-75.296897888183594 -61.623703002929688 -122.350006103515625
113.337997436523438 -61.956298828125000 -122.350006103515625
112.469001770019531 -61.387397766113281 -122.350006103515625
-56.234401702880859 -61.185997009277344 -123.149993896484375
39.662899017333984 -61.956298828125000 -123.149993896484375
30.440099716186523 -61.956298828125000 -123.949996948242188
-57.187500000000000 -61.273002624511719 -124.350006103515625
27.370199203491211 -61.956298828125000 -125.550003051757813
-51.468799591064453 -61.956298828125000 -126.102996826171875
35.265598297119141 -61.028198242187500 -126.350006103515625
113.619003295898438 -61.956298828125000 -127.550003051757813
-72.031799316406250 -61.956298828125000 -127.949996948242188
112.212997436523438 -61.956298828125000 -128.350006103515625
-46.450599670410156 -61.956298828125000 -128.750000000000000
-77.758697509765625 -61.956298828125000 -129.550003051757813
-57.187500000000000 -61.753601074218750 -129.550003051757813
28.527000427246094 -61.956298828125000 -129.550003051757813
-73.390602111816406 -61.079399108886719 -129.949996948242188
25.377700805664063 -61.956298828125000 -131.149993896484375
34.312500000000000 -61.877799987792969 -131.949996948242188
-44.796901702880859 -61.046401977539063 -132.350006103515625
113.421997070312500 -61.831703186035156 -132.350006103515625
116.998001098632813 -61.956298828125000 -132.350006103515625
-46.618598937988281 -61.956298828125000 -132.750000000000000
36.376300811767578 -61.956298828125000 -133.550003051757813
-76.854400634765625 -61.956298828125000 -134.350006103515625
-71.177398681640625 -61.956298828125000 -135.149993896484375
-45.750000000000000 -61.525497436523438 -135.149993896484375
-41.937500000000000 -61.956298828125000 -137.843002319335938
34.880001068115234 -61.956298828125000 -137.949996948242188
116.998001098632813 -61.956298828125000 -137.949996948242188
-70.531196594238281 -61.222198486328125 -138.750000000000000
-67.029098510742188 -61.956298828125000 -138.750000000000000
-71.484397888183594 -61.956298828125000 -140.742004394531250
-74.651702880859375 -61.956298828125000 -140.750000000000000
-52.505500793457031 -61.956298828125000 -140.750000000000000
15.250000000000000 -61.428398132324219 -140.750000000000000
13.343799591064453 -61.602096557617188 -141.149993896484375
24.580799102783203 -61.956298828125000 -141.550003051757813
24.781200408935547 -61.032897949218750 -142.750000000000000
15.250000000000000 -61.675498962402344 -143.149993896484375
-73.007499694824219 -61.956298828125000 -144.350006103515625
-40.912498474121094 -61.956298828125000 -144.750000000000000
23.615800857543945 -61.956298828125000 -145.149993896484375
116.550003051757813 -61.956298828125000 -145.949996948242188
5.718750000000000 -61.956298828125000 -146.645004272460938
-64.735000610351563 -61.956298828125000 -146.750000000000000
-50.855598449707031 -61.956298828125000 -146.750000000000000
13.972000122070313 -61.956298828125000 -146.750000000000000
32.658500671386719 -61.956298828125000 -146.750000000000000
2.859380006790161 -61.956298828125000 -150.210006713867188
29.583299636840820 -61.956298828125000 -150.750000000000000
28.593799591064453 -61.045303344726563 -151.149993896484375
-63.859401702880859 -61.558700561523438 -151.550003051757813
-38.125000000000000 -61.363296508789063 -151.550003051757813
108.589996337890625 -61.956298828125000 -151.550003051757813
8.262040138244629 -61.956298828125000 -151.949996948242188
5.718750000000000 -61.177902221679688 -152.750000000000000
-66.718803405761719 -61.472099304199219 -153.149993896484375
-63.859401702880859 -61.470901489257813 -153.949996948242188
2.859380006790161 -61.484100341796875 -153.949996948242188
-46.152198791503906 -61.956298828125000 -154.350006103515625
-35.005298614501953 -61.956298828125000 -155.550003051757813
115.028999328613281 -61.956298828125000 -156.350006103515625
28.074300765991211 -61.956298828125000 -157.550003051757813
19.879499435424805 -61.956298828125000 -160.350006103515625
-39.361598968505859 -61.956298828125000 -160.750000000000000
29.350799560546875 -61.956298828125000 -161.149993896484375
-31.149099349975586 -61.956298828125000 -161.550003051757813
113.741996765136719 -61.956298828125000 -162.350006103515625
19.062500000000000 -61.956298828125000 -163.867004394531250
105.867996215820313 -61.956298828125000 -165.149993896484375
-39.477199554443359 -61.956298828125000 -165.550003051757813
16.273000717163086 -61.956298828125000 -165.949996948242188
112.825996398925781 -61.956298828125000 -165.949996948242188
-28.593799591064453 -61.747398376464844 -166.350006103515625
-35.307800292968750 -61.956298828125000 -168.350006103515625
-151.195999145507813 -61.956298828125000 -169.149993896484375
-142.684005737304688 -61.956298828125000 -169.949996948242188
-26.415199279785156 -61.956298828125000 -169.949996948242188
104.232002258300781 -61.956298828125000 -170.350006103515625
24.937900543212891 -61.956298828125000 -171.149993896484375
111.180999755859375 -61.956298828125000 -171.149993896484375
-142.705993652343750 -61.956298828125000 -172.750000000000000
-142.175994873046875 -61.956298828125000 -173.149993896484375
-34.694999694824219 -61.956298828125000 -173.550003051757813
-23.715999603271484 -61.956298828125000 -173.949996948242188
16.151399612426758 -61.956298828125000 -173.949996948242188
-31.458299636840820 -61.956298828125000 -174.350006103515625
-29.546899795532227 -61.027397155761719 -175.149993896484375
23.957099914550781 -61.956298828125000 -176.350006103515625
102.166999816894531 -61.956298828125000 -176.750000000000000
-142.044006347656250 -61.956298828125000 -177.550003051757813
-31.453100204467773 -61.057998657226563 -177.949996948242188
25.081499099731445 -61.956298828125000 -179.550003051757813
-20.687299728393555 -61.956298828125000 -179.949996948242188
107.330001831054688 -61.956298828125000 -181.550003051757813
-25.734399795532227 -61.003097534179688 -183.550003051757813
22.018499374389648 -61.956298828125000 -183.550003051757813
-144.617996215820313 -61.956298828125000 -183.949996948242188
10.909099578857422 -61.956298828125000 -183.949996948242188
13.196499824523926 -61.956298828125000 -183.949996948242188
-27.682100296020508 -61.956298828125000 -185.550003051757813
23.188600540161133 -61.956298828125000 -185.949996948242188
-154.406005859375000 -61.470298767089844 -186.750000000000000
-153.186996459960938 -61.956298828125000 -186.750000000000000
-123.905998229980469 -61.825698852539063 -186.750000000000000
-116.280998229980469 -61.014999389648438 -186.750000000000000
-141.061996459960938 -61.956298828125000 -187.348007202148438
-140.108993530273438 -61.203796386718750 -187.550003051757813
97.324996948242188 -61.956298828125000 -187.550003051757813
-159.171997070312500 -61.677001953125000 -187.949996948242188
