# This PCD file was generated using the MATLAB® pcwrite function
# from Computer Vision Toolbox®.
# .PCD v.7 - Point Cloud Data file format
VERSION .7
FIELDS x y z
SIZE 8 8 8
TYPE F F F
COUNT 1 1 1
WIDTH 809
HEIGHT 1
VIEWPOINT 0 0 0 1 0 0 0
POINTS 809
DATA ascii
78.259232364558159 -90.524199618238910 -51.950000762939453
78.259026988672161 -90.782103589200119 -52.349998474121094
78.321164842421240 -12.751524921406915 -52.349998474121094
78.258487084119878 -91.460097148643939 -53.150001525878906
78.258253359994498 -91.753599863200733 -53.549999237060547
78.322170443964097 -11.488725105125859 -53.676700592041016
78.322445814059023 -11.142924814987882 -53.950000762939453
78.257793797730614 -92.330702341352662 -54.349998474121094
78.322559768239998 -10.999825075509195 -54.349998474121094
78.257658186703765 -92.500998002689343 -54.750000000000000
78.322801851481074 -10.695825271080015 -54.750000000000000
78.257368003043752 -92.865400658144921 -55.150001525878906
77.820217071491413 78.105399615435218 -55.150001525878906
77.977275672649327 79.058476141611507 -55.150001525878906
78.011634496181202 80.011551194768742 -55.150001525878906
77.853793673622235 80.964779301686491 -55.150001525878906
78.323070850664621 -10.358025352245708 -55.549999237060547
77.832000961375172 76.199193032973241 -55.549999237060547
78.191257448005587 77.152009361361067 -55.549999237060547
78.393516297675419 78.104943081803412 -55.589298248291016
78.395793318665881 80.964347692755084 -55.623600006103516
78.119750403093789 81.917769109346949 -55.549999237060547
78.257014992734909 -93.308698857432887 -55.950000762939453
78.323249625774238 -10.133525720973804 -55.950000762939453
78.391998342411512 76.198747091959390 -56.147899627685547
78.175112937035095 82.870819807286310 -55.950000762939453
78.323350592075073 -10.006735714482996 -56.349998474121094
78.397251946763561 82.796042668623357 -56.349998474121094
77.721171591905147 83.824283707033999 -56.349998474121094
78.400347348495828 86.683141655874181 -56.494300842285156
77.623648528600270 86.683760162086770 -56.349998474121094
78.401106329165529 87.636243465492242 -56.434799194335938
78.061209281174371 87.636514134676275 -56.349998474121094
78.066767149482658 88.589612122810735 -56.349998474121094
77.973123925833278 89.542888289609834 -56.349998474121094
78.256606318780726 -93.821897547252931 -56.750000000000000
78.398070333580861 83.823744674314625 -56.930698394775391
78.144171793478563 83.823946860568029 -56.750000000000000
78.398829314250548 84.776846483932701 -57.082801818847656
77.551531914444638 84.777521209698037 -56.750000000000000
78.399588288844754 85.729940664158647 -56.790199279785156
78.403383344080495 90.495640447051798 -56.777198791503906
77.666444957332260 91.449329704974247 -56.750000000000000
78.256407954010939 -94.070997199716643 -57.150001525878906
78.323341339102811 -10.018355278669896 -57.150001525878906
78.404108721211401 91.406544088897220 -57.150001525878906
77.953342207621574 -94.410355577342415 -57.549999237060547
78.323338910425420 -10.021405128166752 -57.549999237060547
78.003181925963290 74.292859518322828 -57.549999237060547
78.404443656935555 91.827144846651350 -57.549999237060547
78.166537940805213 -94.410525350853192 -57.950000762939453
78.323213233585236 -10.179225779725952 -57.950000762939453
78.322929423114914 -10.535625202855817 -58.287300109863281
78.390377577694807 74.163446528792520 -57.950000762939453
77.832523933365366 73.339793821708625 -57.950000762939453
78.405660280014104 93.354938246513896 -57.981899261474609
77.700319099679973 94.308701524889258 -57.950000762939453
78.255867089531137 -94.750196203114186 -58.349998474121094
78.389468331914813 73.021646964063109 -58.349998474121094
78.406376337342337 94.254138400859176 -58.349998474121094
78.322889208682852 -10.586125102920562 -58.750000000000000
78.388890437319489 72.295946815741630 -58.750000000000000
78.255645631821380 -95.028295174996430 -59.150001525878906
78.322786561749410 -10.715025590004410 -59.150001525878906
78.407363865819377 95.494242682954436 -59.150001525878906
78.058578371566838 -95.363541793752120 -59.550003051757813
78.322490248678776 -11.087125348427193 -59.550003051757813
78.387549424645329 70.611949241773658 -59.550003051757813
78.322274284731449 -11.358325442491960 -59.949996948242188
78.387167823077490 70.132747123205633 -59.949996948242188
78.408074825810957 96.387041777317577 -59.949996948242188
78.255260129788539 -95.512395363300499 -60.349998474121094
78.322038014975476 -11.655024872343768 -60.349998474121094
78.408315075013306 96.688738459002892 -60.349998474121094
78.254993834957773 -95.846799248970854 -60.750000000000000
78.321671465435713 -12.115325171953790 -60.750000000000000
77.586712448495433 -12.441239946759351 -60.750000000000000
78.386407013685101 69.177348866561786 -60.750000000000000
78.408489314009714 96.907541795389008 -60.750000000000000
77.982396446993690 97.167883323296749 -60.750000000000000
78.321245669989437 -12.650024442420062 -61.150001525878906
77.444752415846466 -13.394326588983608 -61.150001525878906
78.254860769561503 -96.013898195012516 -61.550003051757813
77.503120622682715 -96.316201881784593 -61.550003051757813
77.617794803707881 -14.347564893968446 -61.550003051757813
78.385971504288705 68.630451151782111 -61.550003051757813
78.409426507046703 98.084436563834586 -61.550003051757813
77.960224206997722 -96.316565885693763 -61.949996948242188
77.394559292980560 -18.159888334334870 -61.949996948242188
77.588677519440324 -16.253742720421091 -61.949996948242188
78.319134448379415 -15.301223896303478 -62.250000000000000
77.750836288724983 -15.300771345155795 -61.949996948242188
78.073891308264081 -14.347928095912856 -61.949996948242188
78.385693265043315 68.281047881219138 -61.949996948242188
78.409878268380595 98.651742902514442 -61.949996948242188
77.369123402154429 -21.972369287871931 -62.349998474121094
77.508283368916835 -21.019379598040064 -62.349998474121094
77.732499547259266 -19.113257951936912 -62.349998474121094
78.316857431945579 -18.160622785211057 -62.644096374511719
78.030820011187615 -17.207195317074458 -62.349998474121094
78.256817758111410 99.073861992840150 -62.349998474121094
78.254633260663070 -96.299596041438519 -62.750000000000000
77.830880770293547 -21.019636491049045 -62.750000000000000
78.056542863805589 -20.066616503032733 -62.750000000000000
78.385343918255330 67.842350205374842 -62.750000000000000
78.254376844580094 -96.621594535534413 -63.150001525878906
78.313062457210080 -22.926221478658718 -63.483802795410156
77.734964343387503 -22.925761123543293 -63.150001525878906
78.011819578991108 -21.972881084166708 -63.150001525878906
78.385271850785216 67.751850356139784 -63.150001525878906
78.410480209767925 99.407640184816060 -63.150001525878906
78.312303478059263 -23.879321380928758 -63.763900756835938
77.986505546691475 -23.879061939251446 -63.550003051757813
78.385234024780416 67.704349760849155 -63.550003051757813
78.410776602579375 99.779840079010313 -63.550003051757813
78.254257789265282 -96.771100103365328 -63.949996948242188
77.967645834754421 -24.832147427419915 -63.949996948242188
78.410965252639613 100.016740333486609 -63.949996948242188
78.254142561509582 -96.915799154165526 -64.349998474121094
77.863485625325410 -25.785264170662607 -64.349998474121094
78.385119434951235 67.560451796220732 -64.349998474121094
78.411421546289532 100.589738198682170 -64.349998474121094
78.310525042209150 -26.112619928191751 -64.750000000000000
77.841227019202393 -26.738346952199990 -64.750000000000000
78.411638149682261 100.861741286266749 -64.750000000000000
77.960232317412093 100.980097006135509 -64.750000000000000
78.254032109089522 -97.054501502765547 -65.150001525878906
77.591467569685307 -27.691248568681623 -65.150001525878906
78.268230876982088 100.979851738577892 -65.150001525878906
78.309716690583542 -27.127720085461682 -65.550003051757813
77.835367791424545 -27.691442793004530 -65.550003051757813
78.384697461748004 67.030552367067060 -65.550003051757813
78.411872268714532 101.155739911310832 -65.550003051757813
78.034561253907157 -97.269826678463787 -65.949996948242188
78.309140946711906 -27.850719428975442 -65.949996948242188
78.384408395978269 66.667553519760119 -66.091201782226563
78.412032327515760 101.356736246507054 -65.949996948242188
77.982710492974604 -28.644759814796565 -66.349998474121094
78.384147435428304 66.339848240364290 -66.349998474121094
78.412173278898877 101.533738143510362 -66.349998474121094
78.253862730485636 -97.267201325461897 -66.750000000000000
77.542052208721813 -29.597509413388849 -66.750000000000000
78.383860362419497 65.979351833670165 -66.750000000000000
77.772392646086530 101.933249819785033 -66.750000000000000
78.308055233749315 -29.214120409648125 -67.150001525878906
78.412336527332698 101.738739909565496 -67.150001525878906
78.253681407467127 -97.494900533050867 -67.550003051757813
78.383663188445880 65.731747542060447 -67.550003051757813
78.253646929057680 -97.538197333287670 -67.949996948242188
77.593092987316851 -30.550650565202670 -67.949996948242188
78.412872452438606 102.411736217175815 -67.949996948242188
77.506352501500089 102.887464357580441 -67.949996948242188
78.253548026145353 -97.662396207482360 -68.349998474121094
77.933993300370759 -30.550922033313729 -68.349998474121094
78.383326903962811 65.309453059257407 -68.349998474121094
78.413044461729939 102.627739566656757 -68.349998474121094
78.383361619316389 65.353047405786583 -68.750000000000000
78.413168687287296 102.783737747175152 -68.750000000000000
78.253521269684526 -97.695996050344547 -69.150001525878906
77.356932929239775 -31.503563011246392 -69.150001525878906
78.253425070365537 -97.816799845049303 -69.550003051757813
78.306732854604988 -30.874718638007934 -69.550003051757813
78.413452181832099 103.139740441915194 -69.550003051757813
78.383276416635496 65.246052810804926 -69.949996948242188
78.413625776826493 103.357735062737419 -69.949996948242188
78.253412014136131 -97.833195408698444 -70.349998474121094
78.306556148959373 -31.096619507591619 -70.349998474121094
78.383125671561430 65.056752333716716 -70.349998474121094
78.253329272028950 -97.937100099874669 -70.750000000000000
78.383014739177625 64.917447263139849 -70.750000000000000
77.594091319871978 64.761878860367290 -70.750000000000000
78.413693469943340 103.442741749651688 -70.750000000000000
78.413741247601834 103.502739289222120 -71.150001525878906
78.253344564038912 -97.917896919928225 -71.550003051757813
78.306024999189134 -31.763619113001742 -71.550003051757813
78.382890355657509 64.761250718426524 -71.750000000000000
78.253291288061391 -97.984799059360213 -71.949996948242188
78.413661616145859 103.402740846807362 -71.949996948242188
78.305667767933159 -32.212217832459658 -72.349998474121094
78.027472717954311 -32.457197486825656 -72.349998474121094
78.253299332011011 -97.974697744203638 -72.750000000000000
78.305305118858399 -32.667620062333640 -72.750000000000000
77.477203792462575 -98.222477624306961 -73.150001525878906
78.304931245314648 -33.137117594134935 -73.150001525878906
78.304713448088023 -33.410619857269559 -73.273902893066406
78.382812315980075 64.663251176745163 -73.150001525878906
78.298641456918673 -41.035617439624801 -73.792999267578125
78.299400516569747 -40.082416447909274 -73.736999511718750
78.300159497239449 -39.129314638291206 -73.752601623535156
78.302436433173042 -36.270016838829115 -73.861099243164063
78.303195492824116 -35.316815847113588 -73.807296752929688
78.303954470456063 -34.363717852191577 -73.616699218750000
78.266893077983440 64.761343090186401 -73.550003051757813
78.251213639209041 103.839866807030162 -73.550003051757813
78.253256171725425 -98.028896945768793 -73.949996948242188
77.448502019336445 -98.222454768311138 -73.949996948242188
78.155586687001858 -41.988602120570661 -73.949996948242188
77.616444102421028 -41.035074187477171 -73.949996948242188
77.467903587828232 -40.081754304485081 -73.949996948242188
77.521160415622063 -39.128694300318188 -73.949996948242188
77.827993223248171 64.761692597974871 -73.949996948242188
78.414126670653303 103.986740295428731 -73.949996948242188
77.771301599604129 -98.222711822320619 -74.349998474121094
78.297199390608512 -42.846514692595186 -74.349998474121094
77.819989990922465 64.761698971164577 -74.349998474121094
78.414320970919846 104.230735884569370 -74.349998474121094
78.296974667322530 -43.128714462737733 -74.750000000000000
78.383099947934014 65.024449487513621 -74.750000000000000
77.765701625793767 -98.222707362910484 -75.150001525878906
78.383084339998533 65.004849579177346 -75.150001525878906
77.938493523905379 64.761604603606017 -75.150001525878906
78.414471479049766 104.419738815365193 -75.150001525878906
78.296036356395263 -44.307013039331963 -75.550003051757813
78.382890355657509 64.761250718426524 -75.777496337890625
77.918403908919686 -98.222828963855875 -75.949996948242188
78.295605461334006 -44.848116230802418 -76.011901855468750
78.381372318374474 62.854951731788994 -76.103897094726563
78.382472920845785 64.237050445180671 -75.949996948242188
78.382131378025548 63.808152723504520 -76.004501342773438
78.414510495850735 104.468734771509830 -75.949996948242188
77.950603758329265 -98.222854605464178 -76.750000000000000
78.295078691992515 -45.509615044499640 -76.750000000000000
78.380298791327263 61.506853404345378 -76.750000000000000
77.455133557724452 -52.472449358009271 -77.150001525878906
78.294597871586831 -46.113412765652200 -77.150001525878906
77.501333341659944 -52.472486148142913 -77.550003051757813
77.624193113693480 -51.519481570677243 -77.550003051757813
78.294255529839575 -46.543313752391114 -77.550003051757813
78.382131378025548 63.808152723504520 -77.771301269531250
78.382890355657509 64.761250718426524 -77.797096252441406
78.414523242230118 104.484741236161241 -77.550003051757813
78.017002357881850 -98.222907480459313 -77.949996948242188
77.374777132185784 -53.425483967337314 -77.949996948242188
77.539636704759303 -52.472516650143731 -77.949996948242188
77.794793950714649 -51.519617424723712 -77.949996948242188
77.584951270500227 -50.566248725164229 -77.949996948242188
78.293851075313640 -47.051213829389226 -77.949996948242188
78.293328525400412 -47.707414030264516 -78.275199890136719
77.574128619158529 -47.706841311987226 -77.949996948242188
78.378417549062078 59.144454098455590 -77.949996948242188
78.381622841231518 63.169549715536050 -77.949996948242188
78.414448386109797 104.390739495946676 -77.949996948242188
78.253114345471644 -98.206997475236264 -78.349998474121094
77.359259239358238 -55.331672623352048 -78.349998474121094
77.544676065132634 -53.425619262438637 -78.349998474121094
77.774335879611215 -52.472703547424913 -78.349998474121094
78.181653656988431 -50.566723895363609 -78.349998474121094
78.291810488117392 -49.613713016902054 -78.666702270507813
77.660012897913006 -49.613209899445671 -78.349998474121094
78.292569465749338 -48.660615021980043 -78.601402282714844
77.671269919091372 -48.660120264398799 -78.349998474121094
78.377948193107258 58.555053040218773 -78.349998474121094
78.377577342120105 58.089351130993307 -78.678199768066406
78.381066608798108 62.471052164790656 -78.349998474121094
78.382986311956856 64.881749337446806 -78.349998474121094
77.520716106087448 -54.378698781793581 -78.750000000000000
77.896436670975064 -52.472800779577305 -78.750000000000000
78.380403745428268 61.638651153083842 -78.750000000000000
78.383025255851933 64.930653740886086 -78.750000000000000
77.346438257660964 -57.237962609150181 -79.150001525878906
77.492456981549282 -55.331778692305591 -79.150001525878906
77.594217669696491 -54.378757313070523 -79.150001525878906
77.736475168137588 -53.425771997235884 -79.150001525878906
78.109937579843205 -52.472970796107710 -79.150001525878906
78.376920056050693 57.263953901245493 -79.150001525878906
78.379562426671512 60.582152006865016 -79.150001525878906
78.379095382440880 59.995653932326903 -79.520500183105469
78.383024459962670 64.929654290519380 -79.150001525878906
78.414190372172783 104.066734471725269 -79.150001525878906
77.599497417747699 -56.285065527666283 -79.550003051757813
77.704557896964829 -55.331947593983465 -79.550003051757813
78.146776246540227 -53.426098731047659 -79.550003051757813
78.376496570050293 56.732154753455880 -79.550003051757813
78.204988190384952 64.761392386717546 -79.550003051757813
78.414277172707727 104.175735596832439 -79.550003051757813
77.715399328020368 -56.285157823482528 -79.949996948242188
77.891458930233739 -55.332096428315708 -79.949996948242188
78.190214337414318 -54.379231921287015 -79.949996948242188
78.376112978759252 56.250454008971104 -79.949996948242188
78.378682407039307 59.477053632891412 -79.949996948242188
78.414451569666895 104.394737297413485 -79.949996948242188
78.253114503434404 -98.206799111041349 -80.349998474121094
77.509081785592315 -58.191190725893236 -80.349998474121094
77.693438269708594 -57.238238934616014 -80.349998474121094
78.286497474579988 -56.285612604335277 -80.653602600097656
77.931097501816822 -56.285329589754234 -80.349998474121094
78.287256534231076 -55.332411612619751 -80.410598754882813
78.203661284857560 -55.332345043468678 -80.349998474121094
78.375572749168228 55.572052277049281 -80.349998474121094
78.378029100416271 58.656653654977099 -80.349998474121094
77.969843516541914 -57.238459043566841 -80.750000000000000
78.375345717195799 55.286953337904087 -80.750000000000000
78.377617637811866 58.139953074177548 -80.750000000000000
77.607520082184223 -59.144470711138219 -81.150001525878906
77.868880102908179 -58.191477242994637 -81.150001525878906
78.374857171803754 54.673454844680847 -81.150001525878906
78.377318617350696 57.764453467894761 -81.150001525878906
78.382906121555749 64.781048990957714 -81.150001525878906
78.414628354293882 104.616737349094620 -81.150001525878906
77.508963738724134 -60.097494642079369 -81.550003051757813
77.744921619429107 -59.144580127687121 -81.550003051757813
78.136679395438918 -58.191690498792013 -81.550003051757813
78.374563564604756 54.304753026770044 -81.550003051757813
78.376740324810740 57.038253594389928 -81.550003051757813
78.252932305545229 -98.435596951094467 -81.949996948242188
77.407405232505653 -61.050512367618886 -81.949996948242188
77.672061068602943 -60.097624520880778 -81.949996948242188
78.040118059034796 -59.144815200571422 -81.949996948242188
78.374224169470466 53.878552295205552 -81.949996948242188
77.957990435448153 64.761589077689663 -81.949996948242188
78.283910688623152 -59.534009401520180 -82.349998474121094
77.942164437551583 -60.097839611476331 -82.349998474121094
78.376225578865245 56.391853347682783 -82.349998474121094
78.414629150183160 104.617736799461326 -82.349998474121094
77.463046536063217 -62.003655275605539 -82.750000000000000
77.796904773314338 -61.050822536605395 -82.750000000000000
78.373618245599019 53.117653946374382 -82.750000000000000
78.375853616063324 55.924755259700774 -82.750000000000000
78.383158400229576 65.097851869025206 -82.750000000000000
78.252917809424545 -98.453800680674206 -83.150001525878906
77.718646430606540 -62.003858816693366 -83.150001525878906
78.282813828654085 -60.911408409370743 -83.150001525878906
78.373337302760291 52.764855596321482 -83.150001525878906
78.414495367878999 104.449737585150416 -83.150001525878906
77.514884584615118 -62.956798969656163 -83.550003051757813
78.373156693611932 52.538052842305703 -83.550003051757813
78.375370562914824 55.318153736946975 -83.550003051757813
78.383167161087101 65.108853452451015 -83.550003051757813
78.414391847593791 104.319740372950434 -83.550003051757813
78.252951734964341 -98.411198155119621 -83.949996948242188
78.281184543061727 -62.957409194974993 -84.068199157714844
78.372813319031266 52.106854858907710 -83.949996948242188
78.375112233052292 54.993751984335731 -83.949996948242188
78.383197101105026 65.146451096779998 -83.949996948242188
78.414219838302444 104.103737023469492 -83.949996948242188
78.252871702525979 -98.511700137413783 -84.349998474121094
78.280952653734531 -63.248607833113894 -84.349998474121094
78.372613997371701 51.856553577186318 -84.349998474121094
78.374952809139842 54.793552920615234 -84.349998474121094
77.473902907931532 55.230671956503301 -84.349998474121094
78.414208689777098 104.089737088943593 -84.349998474121094
78.252908337734610 -98.465694902977148 -84.750000000000000
78.280861314808064 -63.363308114128884 -84.750000000000000
78.374777619329151 54.573555584363547 -84.750000000000000
78.383044685271045 64.955052536860933 -84.750000000000000
78.414320970919846 104.230735884569370 -84.750000000000000
78.280806844996619 -63.431709429110924 -85.150001525878906
78.374498347250352 54.222855317141509 -85.150001525878906
78.049291370854988 64.761516372293030 -85.150001525878906
78.414433252062580 104.371734680195161 -85.150001525878906
78.252864059558746 -98.521297912690954 -85.550003051757813
78.280657694738863 -63.619007190769665 -85.550003051757813
78.372043827762738 51.140554200935519 -85.550003051757813
78.382168484084715 63.854749235829850 -85.550003051757813
78.280514832613932 -63.798408531592273 -85.949996948242188
78.374251724858311 53.913155403130489 -85.949996948242188
78.381502200213632 63.018052876363861 -85.949996948242188
78.280431856600345 -63.902606954364806 -86.349998474121094
77.701743403120048 54.277388106958824 -86.349998474121094
78.380731992037212 62.050851950122421 -86.349998474121094
78.414472274939030 104.420738265731899 -86.349998474121094
78.252872978379017 -98.510097965070230 -86.750000000000000
78.371561096615252 50.534357035963666 -86.750000000000000
78.373782368903491 53.323754344893672 -87.122398376464844
78.383649336327196 65.714352528044600 -87.016700744628906
78.252817393715048 -98.579899273504850 -87.150001525878906
78.280279121803105 -64.094406057369753 -87.150001525878906
78.371430257886317 50.370054262131127 -87.150001525878906
78.380001520607408 61.133551062990911 -87.150001525878906
78.383127579265505 65.059147962839958 -87.150001525878906
78.382890355657509 64.761250718426524 -87.182296752929688
78.211751502646948 65.714489414924486 -87.150001525878906
78.371207606342651 50.090456114698839 -87.550003051757813
78.257281551350019 53.323847117635928 -87.550003051757813
78.379550719201035 60.567450168264784 -87.550003051757813
78.382131378025548 63.808152723504520 -87.628799438476563
78.414311414173042 104.218734850776869 -87.550003051757813
78.280166518659357 -64.235809210777489 -87.949996948242188
78.373610602631786 53.108056171097218 -87.949996948242188
78.197085647584657 53.323895053257175 -87.949996948242188
78.379139976542263 60.051653670430532 -87.949996948242188
78.381646733098506 63.199552300017324 -87.949996948242188
78.383926299719548 66.062153626264006 -87.949996948242188
78.252794142812320 -98.609096957118282 -88.349998474121094
78.279968475890584 -64.484504505459270 -88.349998474121094
78.371009639517496 49.841856187418472 -88.349998474121094
77.731642990807799 54.277364297110964 -88.349998474121094
77.924437162143306 59.042913574911935 -88.349998474121094
78.381313629134780 62.781251803985022 -88.349998474121094
77.982811624701426 103.840080542791299 -88.349998474121094
78.279822743096304 -64.667510734054886 -88.750000000000000
78.373548009889333 53.029454358861159 -88.750000000000000
78.194087296484568 53.323897440924995 -88.750000000000000
77.829142807305800 54.277286655378177 -88.750000000000000
77.437201717175725 55.230701182651082 -88.750000000000000
78.377577342120105 58.089351130993307 -89.081199645996094
78.381073218931931 62.479352943408749 -88.750000000000000
78.384085082667738 66.261547789116662 -88.750000000000000
78.252856811498390 -98.530399777480824 -89.150001525878906
77.588004927987171 50.464977471150569 -89.150001525878906
78.223880072682746 53.323873716134003 -89.150001525878906
77.974543762180332 54.277170868677331 -89.150001525878906
77.856700027769648 55.230367124835325 -89.150001525878906
77.918860435139806 56.183519221002086 -89.150001525878906
78.097422395946850 57.136475626614455 -89.150001525878906
78.380521442870929 61.786451551777660 -89.150001525878906
78.252806166208316 -98.593998390128220 -89.550003051757813
78.279382294325998 -65.220611144621799 -89.550003051757813
78.370746373318823 49.511255553716055 -89.638900756835938
78.098704345569004 55.230174410271850 -89.550003051757813
78.376443931999276 56.666053700195675 -89.550003051757813
78.234557051351018 56.183267823274399 -89.550003051757813
78.380265901658618 61.465551690145922 -89.550003051757813
78.383872944760640 65.995152304734560 -89.550003051757813
78.279212040851462 -65.434409599782313 -89.949996948242188
77.620510059305403 -65.816285691576056 -89.949996948242188
78.252651012813899 49.511349596235860 -89.949996948242188
78.373775202862262 53.314755476897318 -89.949996948242188
78.374541346535437 54.276852339815683 -90.251800537109375
78.227042308830050 54.276969797276458 -89.949996948242188
78.375862054919835 55.935352485344637 -89.949996948242188
78.249705274253913 55.230054164160862 -89.949996948242188
78.379976756907510 61.102453660741531 -89.949996948242188
78.383848733930392 65.964749177167391 -89.949996948242188
78.413910863149852 103.715736658210844 -89.949996948242188
78.252874254232054 -98.508495792726663 -90.349998474121094
78.106746518059950 49.511465783919085 -90.349998474121094
77.481605425590260 50.465062199943198 -90.349998474121094
78.379396073661979 60.373251621440545 -90.349998474121094
77.966394860218941 59.995982576880486 -90.349998474121094
78.252797964295937 -98.604298069479697 -90.750000000000000
78.278850670667481 -65.888205842616671 -90.750000000000000
78.023547997076278 49.511532037144647 -90.750000000000000
77.452506924074299 50.465085371864546 -90.750000000000000
78.378808622319852 59.635550439326558 -90.750000000000000
77.716639223879042 59.043079050013077 -90.750000000000000
78.413824062614907 103.606735533103674 -90.750000000000000
78.278762752242258 -65.998610775872493 -91.150001525878906
78.002746459482339 49.511548601969906 -91.150001525878906
77.429480413727646 58.090106126141137 -91.150001525878906
78.378522105218451 59.275752122010701 -91.150001525878906
78.383923748013473 66.058949281576872 -91.150001525878906
78.413786637592494 103.559738477692449 -91.150001525878906
78.252872978379017 -98.510097965070230 -91.550003051757813
77.457720755514231 57.136985038279150 -91.550003051757813
77.961577107809646 58.089682403196598 -91.550003051757813
78.413686300864370 103.433739066959276 -91.550003051757813
78.252798681203842 -98.603397801210463 -91.949996948242188
78.278590427025406 -66.215010853743266 -91.949996948242188
77.938445942760609 49.511599806205119 -91.949996948242188
77.478961130037831 56.183869524679842 -91.949996948242188
77.892718176184104 57.136638638104138 -91.949996948242188
78.384211379967411 66.420147592345316 -91.949996948242188
78.413361401850779 103.025742064974523 -91.949996948242188
78.278517964648401 -66.306006613465627 -92.349998474121094
77.698462555802223 56.183694729776043 -92.349998474121094
78.376859932995202 57.188453436903046 -92.349998474121094
78.413131262264884 102.736740691763927 -92.349998474121094
78.252892966743261 -98.484997265021050 -92.750000000000000
78.278372073891376 -66.489211206256172 -92.750000000000000
77.659408408765358 50.464920610633555 -92.750000000000000
77.486366101404201 51.418260005063878 -92.750000000000000
77.703700198351356 55.230488962724863 -92.750000000000000
78.149062083341576 56.183335905222648 -92.750000000000000
78.384598078871917 66.905750770895494 -92.750000000000000
78.252815959899252 -98.581699810043332 -93.150001525878906
78.278115262901522 -66.811705610839368 -93.150001525878906
77.975349312407388 49.511570419056838 -93.150001525878906
77.693305797919919 50.464893617228590 -93.150001525878906
77.592067514422837 51.418175832178640 -93.150001525878906
78.033701924772970 55.230226173452202 -93.150001525878906
78.412746635102692 102.253739135924022 -93.150001525878906
78.278106982007756 -66.822104472288302 -93.550003051757813
78.139049364263059 49.511440060291662 -93.550003051757813
77.838905116989366 50.464777672564985 -93.550003051757813
77.745967612110377 51.418053277381212 -93.550003051757813
77.742923340812126 52.371158115631367 -93.550003051757813
77.765883849490621 53.324238430875582 -93.550003051757813
78.375106023900855 54.985954745597049 -93.550003051757813
77.927241531084633 54.277208536719371 -93.550003051757813
78.384897017313961 67.281147380384766 -93.550003051757813
78.412600908383908 102.070740536720507 -93.550003051757813
78.412491014908994 101.932740092194820 -93.765403747558594
78.252880384402118 -98.500797736085431 -93.949996948242188
77.897407295705818 50.464731085702667 -93.949996948242188
77.799464909601198 51.418010676040758 -93.949996948242188
77.814624367882701 52.371101018170222 -93.949996948242188
77.913184523001092 53.324121131377566 -93.949996948242188
78.305640306370051 54.276907207571760 -93.949996948242188
78.298466958609296 67.620716741861855 -93.949996948242188
78.252835474375217 -98.557194202578913 -94.349998474121094
78.277867601600590 -67.122710150901568 -94.349998474121094
78.370834923595069 49.622453943751545 -94.349998474121094
78.063407609283317 50.464598895177062 -94.349998474121094
77.963763868737686 51.417879840349570 -94.349998474121094
78.039725767457455 52.370921763856281 -94.349998474121094
78.373782368903491 53.323754344893672 -94.386398315429688
78.216690295741188 101.932896013586912 -94.349998474121094
78.277853348499519 -67.140608704796819 -94.750000000000000
78.372264410601844 51.417554540353592 -94.780799865722656
78.385285307997009 67.768749459668342 -94.750000000000000
78.412306265313759 101.700737907454567 -94.750000000000000
78.277640967572793 -67.407309364863409 -95.150001525878906
78.385441071426342 67.964351814641233 -95.150001525878906
78.252884685849509 -98.495396126469984 -95.550003051757813
78.277343304983788 -67.781103802009113 -95.550003051757813
78.385677341182316 68.261051244493032 -95.550003051757813
78.412116740382871 101.462739020514121 -95.550003051757813
78.277297750954887 -67.838308984066487 -95.949996948242188
78.411898545211599 101.188737032196144 -95.949996948242188
78.252957707171646 -98.403698462673319 -96.349998474121094
78.386096683698085 68.787647146862128 -96.349998474121094
78.411685927340741 100.921738825837181 -96.349998474121094
78.277037276444162 -68.165403912093339 -96.750000000000000
78.386327540191886 69.077548788341943 -96.750000000000000
78.411533827432280 100.730736994307961 -96.750000000000000
78.270558519024689 -76.301204555145389 -97.388999938964844
78.276630510194039 -68.676206972790155 -97.325996398925781
78.386518899920944 69.317851751700289 -97.150001525878906
78.411359436548594 100.511742923119030 -97.150001525878906
78.269040563760797 -78.207400544989412 -97.922996520996094
78.270003401443816 -76.998302112438182 -97.550003051757813
78.270949993264850 -75.809604674395018 -97.550003051757813
78.386789727067736 69.657947163886362 -97.550003051757813
77.504987003071989 69.527553439374898 -97.550003051757813
78.411071160592655 100.149735896786680 -97.550003051757813
78.158901421776889 -98.223020478509952 -97.949996948242188
77.980897347241864 -77.254076304158929 -97.949996948242188
78.270885647743356 -75.890407566255448 -97.949996948242188
77.537858403440254 -76.300621086287393 -97.949996948242188
78.276497760723288 -68.842909190441972 -97.949996948242188
78.268700287680360 -78.634707538410169 -98.349998474121094
78.268281504109723 -79.160601536704945 -98.538002014160156
77.820001096987426 -77.253948178136568 -98.349998474121094
78.387139711782240 70.097445925902434 -98.349998474121094
78.410602606602595 99.561341918308685 -98.349998474121094
78.410214315919532 99.073739839025109 -98.740997314453125
77.691140814133135 -78.206940347836749 -98.750000000000000
78.270661486440261 -76.171901617627626 -98.750000000000000
78.270558519024689 -76.301204555145389 -99.111999511718750
78.276099202461026 -69.343404942395196 -98.750000000000000
78.275871529524338 -69.629308782408216 -99.041000366210938
78.387504350580187 70.555346781693160 -98.750000000000000
77.791401233123750 -98.222727828200732 -99.150001525878906
78.267249302549914 -80.456804739001285 -99.150001525878906
78.067220462926016 -80.113543840391429 -99.150001525878906
77.677083724030467 -79.160130749972069 -99.150001525878906
78.387878066161164 71.024645949299540 -99.150001525878906
78.388203366157143 71.433146491163697 -99.426002502441406
77.850902862206894 -98.222775210952335 -99.550003051757813
78.267089796618336 -80.657106799515304 -99.550003051757813
78.266763542770320 -81.066805155941083 -99.769996643066406
78.270203279010786 -76.747302741338530 -99.550003051757813
77.703759534920295 -76.300753197831625 -99.550003051757813
78.275667350509991 -69.885709763123316 -99.550003051757813
77.513822506066731 -80.113103154676992 -99.949996948242188
78.270069417725253 -76.915401137746898 -99.949996948242188
78.275548702253062 -70.034704161682711 -99.949996948242188
78.388412879452275 71.696246078153322 -99.949996948242188
78.409325058503796 97.957040974344878 -99.949996948242188
77.720365553173991 -81.066370044489318 -100.349998474121094
78.275319917501577 -70.322004180452268 -100.349998474121094
78.388962346826844 72.386248300781773 -100.468002319335938
78.408924027516832 97.453440059801991 -100.349998474121094
77.456258158230369 98.121397086020366 -100.349998474121094
78.265957744369672 -82.078699061175854 -100.750000000000000
78.269858786539828 -77.179904532885161 -100.750000000000000
78.269799538355002 -77.254306364763451 -101.094001770019531
78.274992144780896 -70.733609884906102 -100.750000000000000
78.389121135850530 72.585650093026544 -100.750000000000000
78.408487242267398 96.904940172678749 -100.750000000000000
78.407937301004566 96.214342857465553 -101.140998840332031
78.265707932345038 -82.392404406045770 -101.150001525878906
77.875505491943855 -82.019695182780822 -101.150001525878906
78.274869511002095 -70.887609164691099 -101.150001525878906
78.389332398886964 72.850946944944482 -101.150001525878906
78.398070333580861 83.823744674314625 -101.448997497558594
78.265347200087575 -82.845399562708351 -101.550003051757813
77.341406082432400 -82.019269865019979 -101.550003051757813
78.269487458626671 -77.646205349391451 -101.550003051757813
78.274672185141213 -71.135404191103632 -101.550003051757813
78.274353495279058 -71.535603954349696 -101.861999511718750
78.389885128800003 73.545046151137186 -101.550003051757813
78.390480387147619 74.292551102115368 -101.926002502441406
78.398829314250548 84.776846483932701 -101.817001342773438
78.407376843067411 95.510539064506119 -101.550003051757813
77.528039508703159 96.215043543802437 -101.550003051757813
78.265108457606914 -83.145204155149841 -101.949996948242188
78.269319197913077 -77.857501363939150 -101.949996948242188
77.604199926397456 -77.253776329845735 -101.949996948242188
78.396916294131515 82.374541642599979 -101.949996948242188
77.504313894353089 82.871353982650902 -101.949996948242188
78.398987781273220 84.975843918395512 -101.949996948242188
78.405660280014104 93.354938246513896 -102.347999572753906
78.406419339665177 94.308139238229415 -102.023002624511719
77.735647440359799 -82.972678594661218 -102.349998474121094
78.269270697271196 -77.918406801170946 -102.349998474121094
78.274149158301967 -71.792203299259725 -102.349998474121094
77.414296081010946 -72.488021481455647 -102.349998474121094
78.390720636349954 74.594247783800668 -102.349998474121094
78.213851325405813 81.917694174245241 -102.349998474121094
78.399172287848842 85.207540927451277 -102.349998474121094
78.399588288844754 85.729940664158647 -102.637001037597656
78.253297181287323 -97.977398549011369 -102.750000000000000
78.264576590928769 -83.813104028829201 -102.750000000000000
77.452401726236843 -77.253655448845976 -102.750000000000000
78.273947130011308 -72.045903475167108 -102.750000000000000
77.723694634033521 -72.488267863865801 -102.750000000000000
78.390978644211472 74.918245178629974 -102.750000000000000
78.396003390906159 81.228149183819028 -102.750000000000000
78.395793318665881 80.964347692755084 -102.888999938964844
78.400347348495828 86.683141655874181 -103.088996887207031
78.405257979249598 92.849742789019558 -102.750000000000000
78.253281494370455 -97.997097639445101 -103.150001525878906
78.264346694362501 -84.101800226355294 -103.150001525878906
77.388200391612571 -77.253604323592143 -103.150001525878906
78.273622388960476 -72.453702112956947 -103.150001525878906
78.391537267350444 75.619744895171522 -103.150001525878906
78.391998342411512 76.198747091959390 -103.384002685546875
78.404715444009867 92.168445702791146 -103.150001525878906
77.717787177270594 -83.925766786066973 -103.550003051757813
78.268973508570468 -78.291606145731890 -103.550003051757813
78.273388184871337 -72.747807549490602 -103.550003051757813
78.392757323081213 77.151848901577452 -103.681999206542969
78.393516297675419 78.104943081803412 -103.750000000000000
78.394275357326492 79.058144073518946 -103.670997619628906
78.126632323488565 80.011459618898144 -103.550003051757813
78.275610458311760 87.636343401237980 -103.550003051757813
78.401865309835216 88.589345275110318 -103.755996704101563
78.402624369486290 89.542546266825838 -103.830001831054688
78.403383344080495 90.495640447051798 -103.817001342773438
78.404517632109730 91.920040325009637 -103.550003051757813
78.404142324750197 91.448742256669874 -103.698997497558594
78.253336204163773 -97.928394963474631 -103.949996948242188
78.263887612062376 -84.678299982530362 -103.949996948242188
77.924642174423440 -78.207126291265894 -103.949996948242188
77.382802596693182 -77.253600025182507 -103.949996948242188
78.273143634221611 -73.054905840791349 -103.949996948242188
77.840935646467358 -73.441463640060022 -103.949996948242188
77.839327276361416 89.542994835489395 -103.949996948242188
77.697283104095291 90.496202733711641 -103.949996948242188
78.253330468900600 -97.935597109628560 -104.349998474121094
78.263596474550326 -85.043900452547561 -104.349998474121094
78.268589440353409 -78.773905797497477 -104.349998474121094
77.737641959057072 -78.206977377952271 -104.349998474121094
77.355500817019646 -77.253578284039207 -104.349998474121094
77.461876993628309 -74.394363381609324 -104.349998474121094
77.837927358707049 -84.878964870947669 -104.750000000000000
78.268583711165732 -78.781100314259291 -104.750000000000000
77.780942573989932 -78.207011859399458 -104.750000000000000
77.442601772068713 -77.253647644878242 -104.750000000000000
77.340859869710840 -76.300464211043263 -104.750000000000000
77.397420224289249 -75.347406837563824 -104.750000000000000
78.272601973852531 -73.735104294555597 -104.750000000000000
77.661679328958968 -74.394522489596270 -104.750000000000000
78.263249436448802 -85.479698959389211 -105.150001525878906
77.357229879285029 -84.878582078583648 -105.150001525878906
78.272321504902081 -74.087307552023745 -105.150001525878906
77.964375461010974 -74.394763534687883 -105.150001525878906
78.262907568589810 -85.909004853543365 -105.550003051757813
77.615140624607335 -78.206879826836612 -105.550003051757813
77.439000698991748 -77.253644777246649 -105.550003051757813
77.436559149670359 -76.300540418960267 -105.550003051757813
77.583218810397938 -75.347554793987669 -105.550003051757813
78.253398155941952 -97.850598052106406 -105.949996948242188
77.993170379327296 -85.832183279768728 -105.949996948242188
77.711640990738658 -78.206956672680121 -105.949996948242188
77.535699429317972 -77.253721781052917 -105.949996948242188
77.561459927939381 -76.300639880817727 -105.949996948242188
78.271743531325370 -74.813106882442682 -105.949996948242188
77.830220380030795 -75.347751487997527 -105.949996948242188
77.689942999571514 -78.206939393984712 -106.349998474121094
77.568902543790315 -77.253748221588239 -106.349998474121094
78.174317408379721 -75.348025501739158 -106.349998474121094
78.262209512940373 -86.785599119060180 -107.129997253417969
78.042985555036097 -79.160422127465992 -106.750000000000000
77.658342057442738 -78.206914229302427 -106.750000000000000
77.610700168477067 -77.253781506163776 -106.750000000000000
78.271108940251281 -75.610004517955332 -106.750000000000000
77.784158068998792 -76.300817221352105 -106.750000000000000
78.253477629435167 -97.750797973886563 -107.150001525878906
78.000749742778879 -82.972889702772633 -107.150001525878906
78.267945851477663 -79.582102562728309 -107.150001525878906
78.267522523440022 -80.113703346323007 -107.328002929687500
78.049825448910170 -80.113529988272745 -107.150001525878906
77.902883212983497 -79.160310560193409 -107.150001525878906
77.713040984191238 -78.206957787532659 -107.150001525878906
78.270611473001210 -76.234706773495347 -107.150001525878906
77.862211928585282 -86.785280590198539 -107.550003051757813
77.346289187150660 -83.925470952200655 -107.550003051757813
78.231546483565410 -82.973073492440349 -107.550003051757813
77.775441782277028 -78.207007478970695 -107.550003051757813
78.270224063264308 -76.721202590922658 -107.550003051757813
77.938699179469225 -77.254042700620133 -107.550003051757813
78.253562042302292 -97.644795199879496 -107.949996948242188
78.261825997592965 -87.267204496143549 -107.949996948242188
77.347510248519129 -86.784870719372677 -107.949996948242188
77.750241900130391 -78.206987411625079 -107.949996948242188
78.269799538355002 -77.254306364763451 -108.097999572753906
78.115197536593129 -77.254183251020876 -107.949996948242188
78.253554314278176 -97.654499786646227 -108.349998474121094
78.261719530694791 -87.400901963517953 -108.349998474121094
78.261450532270686 -87.738700928678242 -108.661003112792969
78.264919570602544 -83.382401955918496 -108.349998474121094
78.269305576663029 -77.874606461054725 -108.349998474121094
78.019338189320209 -78.207201700255865 -108.349998474121094
78.269119399327494 -78.108401552941345 -108.750000000000000
77.633542718381989 -78.206894480920070 -108.750000000000000
77.447185173707396 -62.956745058789863 -108.750000000000000
78.253727994329452 -97.436398354334429 -109.150001525878906
77.796851070205435 -87.738330955599494 -109.150001525878906
78.264882862488037 -83.428498743060487 -109.150001525878906
78.269135402169866 -78.088305734117782 -109.150001525878906
77.585868660574434 -64.863155691681357 -109.150001525878906
77.489851961002131 -87.738086483931156 -109.550003051757813
78.264743982847222 -83.602899017353536 -109.550003051757813
77.428409595312019 -65.816132716796929 -109.550003051757813
77.851726125929417 -63.910268801833041 -109.550003051757813
77.693046005374015 -62.003838430384484 -109.550003051757813
78.261015575743926 -88.284904368775713 -109.949996948242188
78.269205482954533 -78.000300696103423 -109.949996948242188
78.046489182905873 -62.957222300731559 -109.949996948242188
77.954741784215003 -62.004046825789331 -109.949996948242188
77.734004250045217 -61.050772447222712 -109.949996948242188
77.761860076944316 -97.269609519163666 -110.349998474121094
78.260787908882719 -88.570800579396632 -110.349998474121094
78.264758709836556 -83.584405370873540 -110.349998474121094
78.269384017322835 -77.776103379493961 -110.349998474121094
77.925868705359107 -64.863426442884517 -110.349998474121094
77.529162554341212 -60.097510726940868 -110.349998474121094
77.658062197257664 -97.269526862113352 -110.750000000000000
78.264655827477853 -83.713601496901731 -110.750000000000000
77.907789558433109 -83.925918090086171 -110.750000000000000
78.269399704239703 -77.756404289060228 -110.750000000000000
77.771610170087769 -65.816406016668424 -110.750000000000000
78.231925437753318 -63.910571564796442 -110.750000000000000
78.281943523731428 -62.004307385356924 -110.766998291015625
78.071406486815661 -61.051041129721305 -110.750000000000000
77.731562697686087 -60.097671903632374 -110.750000000000000
78.260520101254784 -88.907104183702941 -111.150001525878906
77.454065436193289 -81.066157982525851 -111.150001525878906
77.414522153030219 -80.113024079128408 -111.150001525878906
78.269640591368557 -77.453906521203137 -111.150001525878906
77.818508043401522 -65.816443362709464 -111.150001525878906
78.112064019857627 -64.863574715233881 -111.150001525878906
78.050665837475407 -60.097926014066637 -111.150001525878906
78.264664746298138 -83.702401549281007 -111.550003051757813
77.829889650271369 -83.925856056288865 -111.550003051757813
77.462865939994728 -81.066164990604321 -111.550003051757813
77.534322682672240 -80.113119479520378 -111.550003051757813
77.816122921316321 -59.144636827203627 -111.550003051757813
78.253973103924309 -97.128598158959349 -111.949996948242188
78.260215986494714 -89.289001035271809 -111.949996948242188
78.269920659336634 -77.102206803614408 -111.949996948242188
77.434349141935471 -66.769339042793248 -111.949996948242188
77.975105131200735 -65.816568065192840 -111.949996948242188
77.951720107326651 -59.144744806898984 -111.949996948242188
77.926687562695065 -83.925933139076520 -112.349998474121094
77.616663040888753 -81.066287463382636 -112.349998474121094
77.885122131991736 -80.113398830580550 -112.349998474121094
78.270160355669319 -76.801204396611311 -112.349998474121094
77.463348461353988 -66.769362135733218 -112.349998474121094
78.254073920616193 -97.001996026249302 -112.750000000000000
77.771688832543362 -83.925809709408426 -112.750000000000000
77.608766620052620 -81.066281175249799 -112.750000000000000
78.114721058216645 -80.113581666396229 -112.750000000000000
78.270320499527415 -76.600101249925515 -112.750000000000000
78.076209835471758 -65.816648577594961 -112.750000000000000
78.259735324051789 -89.892600392229454 -113.150001525878906
77.319632802296127 -89.644254944015458 -113.150001525878906
77.800989512950309 -83.925833042330282 -113.150001525878906
78.267383005872688 -80.288904706787847 -113.150001525878906
77.721365003540683 -81.066370840378596 -113.150001525878906
78.267659015413003 -79.942301423130061 -113.150001525878906
77.523250633523020 -66.769409837448066 -113.150001525878906
78.097777125058755 -58.191659519865176 -113.150001525878906
78.254128229427124 -96.933796890158234 -113.550003051757813
78.259693913507505 -89.944602328866296 -113.550003051757813
78.267187988698254 -80.533800564197733 -113.550003051757813
77.757165926027255 -81.066399349618479 -113.550003051757813
78.267939320325212 -79.590304159248930 -113.550003051757813
77.587381146271142 -79.160059317390733 -113.550003051757813
77.397987038671801 -62.956705880988395 -113.550003051757813
77.521846261072028 -62.003702099411996 -113.550003051757813
78.259532341909107 -90.147498382698458 -113.949996948242188
78.264637351910793 -83.736802478314971 -113.949996948242188
77.689466515119534 -81.066345438752180 -113.949996948242188
78.268272026344306 -79.172503388399988 -113.949996948242188
78.270509945476931 -76.362201545082527 -113.949996948242188
78.278929664196937 -65.789008486373703 -113.949996948242188
77.644404669079393 -61.050701096660497 -113.949996948242188
77.372161108760068 -60.097385702456485 -113.949996948242188
78.285523807334883 -57.508310428326524 -113.949996948242188
78.254233584510530 -96.801495601540381 -114.349998474121094
78.264614258970823 -83.765801797733488 -114.349998474121094
77.505050718639339 -66.769395344365122 -114.349998474121094
77.551784139565825 -62.956828353766703 -114.349998474121094
77.739245789309507 -62.003875220518125 -114.349998474121094
77.725905650318097 -61.050765998089389 -114.349998474121094
77.496062436662385 -60.097484368424674 -114.349998474121094
78.285675269316826 -57.318109682969080 -114.349998474121094
78.098376449198724 -90.597969863196823 -114.750000000000000
78.264641252375782 -83.731904408578927 -114.750000000000000
78.266963262374531 -80.816004149036331 -114.750000000000000
77.843065251818643 -81.066467753567721 -114.750000000000000
78.268457808772951 -78.939204207000657 -114.750000000000000
78.270511057291714 -76.360805366325991 -114.750000000000000
77.472248147252884 -66.769369222793060 -114.750000000000000
78.031043334729219 -62.004107586771340 -114.750000000000000
