# This PCD file was generated using the MATLAB® pcwrite function
# from Computer Vision Toolbox®.
# .PCD v.7 - Point Cloud Data file format
VERSION .7
FIELDS x y z
SIZE 4 4 4
TYPE F F F
COUNT 1 1 1
WIDTH 1423
HEIGHT 1
VIEWPOINT 0 0 0 1 0 0 0
POINTS 1423
DATA ascii
-145.493027 -52.691933 165.560013
-162.956955 -62.650520 142.989029
-91.697800 -61.708504 247.419357
-149.891296 -60.527908 168.685593
-230.942627 -52.087208 38.380356
-214.708023 -53.238766 28.053585
-144.360367 -57.788483 162.814758
-159.457611 -59.047832 152.887787
-101.760513 -67.370796 260.437225
-157.676147 -53.975887 152.259811
-93.750427 -54.596424 262.288910
-105.815308 -61.798523 262.196106
-102.758469 -55.510822 255.722122
-155.400879 -60.635139 163.535797
-216.437668 -53.922268 38.253563
-150.662170 -51.820255 165.099823
-105.221397 -63.756840 264.350372
-162.081604 -54.206444 167.441559
-173.082291 -65.874367 149.396011
-230.589172 -60.804600 46.194466
-231.042542 -52.541843 58.159206
-172.286316 -55.183186 170.691315
-135.820618 -55.689644 207.993210
-147.766052 -57.229443 203.809723
-177.721985 -61.855103 152.730774
-111.201775 -53.113186 262.434021
-225.495667 -61.013836 60.650444
-229.607117 -63.852600 57.642239
-236.866776 -56.988556 60.503326
-141.084503 -48.273102 229.594818
-119.781395 -53.785786 261.987518
-183.460739 -61.237492 155.004684
-232.297623 -57.008774 76.307236
-112.510208 -55.527855 271.656128
-176.231369 -56.059769 163.591156
-130.143997 -61.498608 264.686157
-190.022400 -57.831139 156.096634
-202.699051 -52.519405 129.472122
-215.838348 -56.620430 131.718887
-124.063362 -56.366661 279.226532
-134.478699 -54.545544 250.164032
-201.771240 -52.735382 149.338638
-203.812485 -50.908577 153.124420
-238.912933 -50.038837 85.682556
-235.857574 -54.922516 82.971054
-209.441910 -56.320217 151.879837
-210.836227 -61.836178 134.767212
-192.916290 -48.933365 172.250763
-186.984619 -55.388554 186.431274
-191.490204 -52.949402 182.211975
-193.463074 -56.466595 181.148849
-204.646179 -52.377048 163.730499
-186.636200 -52.735821 198.865219
-212.468460 -54.371769 157.357620
-179.948639 -52.098839 218.165970
-226.639343 -60.054520 135.116287
-135.662384 -54.710079 278.326782
-180.788361 -56.835300 220.835510
-221.130432 -55.243389 135.915054
-140.218613 -56.670105 293.625122
-227.185928 -56.485966 139.047501
-175.577103 -52.779274 222.737701
-184.030075 -54.999165 214.246826
-231.781174 -60.228363 135.796509
-176.372604 -51.035275 236.899170
-162.478546 -50.479645 264.626495
-152.724472 -52.613548 273.781006
-156.280228 -57.093544 271.096649
-154.668152 -60.301632 283.686462
-155.272858 -63.806576 282.846863
-157.816299 -49.283882 277.315063
-152.632919 -51.639599 300.546814
-169.254868 -49.528976 273.298737
-159.511414 -63.069748 284.620331
-144.667389 -54.429611 298.597656
-148.017929 -52.898846 294.788635
-155.797119 -53.183708 303.447144
-155.002151 -57.242241 298.595062
-250.072281 -56.149746 152.210892
-148.498672 -55.610363 309.560028
-165.485199 -52.873951 295.154633
-226.771255 -62.500301 177.144073
-154.647934 -49.903957 304.767761
-250.259384 -58.664173 160.788773
-171.604034 -56.747009 303.029663
-170.914993 -61.646782 315.460876
-164.873184 -53.324448 306.067841
-167.997681 -55.447720 317.082642
-251.519028 -61.999031 177.268097
-250.114258 -56.917110 159.532150
-198.367126 -60.196453 254.302078
-166.494232 -60.275215 309.942261
-174.296356 -54.141541 301.777527
-199.989090 -53.889542 269.480896
-166.432648 -59.094494 301.546509
-179.089798 -52.965012 313.000641
-220.462204 -57.254776 238.436081
-174.444122 -52.266788 315.726227
-197.571579 -58.321812 283.299927
-229.769135 -55.445404 205.857895
-172.991714 -60.081928 313.484894
-180.056885 -52.921528 295.403687
-247.097366 -54.089188 187.987305
-189.814117 -54.697258 287.822449
-250.162384 -51.159203 174.757477
-259.313599 -48.877892 154.371292
-186.144684 -54.556477 292.690399
-181.656982 -50.888680 304.684082
-192.083649 -52.561115 324.315704
-6.618659 -57.047562 119.039383
-41.665588 -55.791855 76.150208
-48.405712 -50.761269 79.034698
-101.471748 -54.416630 2.855608
-111.421112 -56.360397 -14.242743
-43.499767 -49.153240 103.174210
-110.527954 -54.139378 7.866951
-117.295197 -54.179092 0.418860
-110.347389 -55.347530 13.563725
-108.325523 -52.029861 11.205396
-53.676533 -56.524506 111.312279
-28.278156 -51.599808 160.385635
-103.798546 -53.047451 27.852917
-106.308945 -54.801151 44.655457
-130.610291 -56.502918 6.580024
-44.912743 -53.625538 157.893051
-119.006157 -59.236984 9.817122
-123.568413 -57.158344 18.361002
-134.272415 -60.460564 -4.120967
-122.020744 -51.594589 8.388773
-131.305176 -55.374825 4.574543
-50.879921 -59.083931 146.999374
-116.699692 -55.779373 52.498486
-148.165863 -54.460445 -11.290283
-148.514069 -55.812958 -13.513283
-125.826607 -56.749081 48.711254
-159.375916 -54.583126 1.353883
-176.974319 -50.254192 -1.999400
-97.437286 -54.449486 136.750992
-128.519104 -58.479450 70.928276
-134.250946 -54.591732 63.837784
-131.509415 -50.783936 80.406273
-178.949799 -54.645969 -3.508221
-167.720001 -55.199600 4.815346
-85.845955 -59.922478 164.025925
-107.536888 -52.813053 139.863632
-91.225067 -53.695541 165.722855
-140.047989 -52.311344 98.882980
-189.961868 -54.091171 7.596531
-101.733475 -52.006176 151.055283
-98.794800 -52.924274 162.625168
-113.907852 -59.097206 142.537796
-148.376205 -52.647335 74.944649
-183.794098 -56.129826 11.814088
-193.376724 -59.565819 10.291042
-93.929398 -53.712234 162.018402
-109.938087 -56.683163 167.263000
-163.439774 -60.471115 97.039543
-108.412575 -52.268314 164.111542
-119.442123 -53.266819 143.776260
-140.079453 -52.577690 111.476852
-198.304672 -54.422199 14.784007
-149.274399 -55.443737 108.160820
-129.285370 -54.891376 143.351990
-145.922974 -55.800854 112.074631
-201.309830 -52.700848 18.125969
-127.304474 -47.650417 150.973099
-157.272369 -49.612801 82.592422
-206.054962 -51.860744 15.042964
-124.233971 -49.807922 170.386551
-143.205978 -53.706738 142.360596
-201.509842 -45.653770 31.872400
-162.830719 -52.860157 93.035011
-208.643326 -56.622261 19.698736
-136.877090 -58.157646 155.184525
-210.677689 -50.381786 26.225157
-129.307007 -55.931488 171.325073
-143.183823 -58.092400 143.928406
-96.288483 -53.033199 241.942291
-129.222382 -54.337177 173.201675
-87.201454 -54.104469 249.931290
-146.796280 -54.138577 150.003342
-171.720169 -52.855598 102.439026
-214.452438 -52.334007 31.830393
-148.254364 -52.695148 152.467270
-167.299759 -50.246040 116.570251
-185.450211 -54.685680 113.272148
-92.133087 -59.578079 248.362549
-222.386551 -50.239441 39.689922
-161.962311 -55.445614 138.645432
-213.783920 -47.100281 41.097126
-165.889557 -46.228611 111.461319
-104.274193 -54.206879 246.359406
-107.032387 -61.009933 254.421417
-214.983231 -52.128223 43.940430
-166.639252 -53.507553 143.158295
-164.224869 -53.651661 142.999359
-182.904785 -54.599636 121.782654
-105.036232 -48.912769 258.708221
-109.825066 -56.905437 258.981812
-221.187454 -53.807209 39.680042
-141.204422 -52.414810 201.641891
-159.423294 -55.286476 163.460983
-190.959000 -53.941097 122.981461
-176.381607 -59.615658 157.459839
-145.087753 -58.559261 203.120438
-229.441605 -52.903698 55.459175
-145.721680 -55.388542 210.361511
-114.474907 -60.258572 271.121704
-149.256653 -57.493214 208.168015
-174.778992 -53.182968 153.577377
-175.626572 -50.801216 159.193542
-194.320694 -55.027012 116.932480
-186.640549 -58.949028 144.470032
-146.646271 -55.937065 218.350113
-227.025131 -55.002476 59.507107
-137.211685 -56.276237 225.040375
-115.163185 -56.910458 273.618225
-185.742615 -51.347481 160.938553
-196.439468 -55.354794 122.494293
-152.872208 -51.777931 224.847839
-192.643311 -56.696976 136.199875
-171.225616 -60.559338 158.318481
-237.463333 -52.821297 71.174614
-123.090988 -62.526337 271.540588
-195.924637 -50.668064 139.539932
-192.416122 -51.613003 150.335190
-200.360825 -56.907001 121.002975
-231.019073 -55.968578 72.259285
-196.554779 -45.665516 150.917328
-126.305023 -50.927414 254.482300
-189.914200 -56.493870 158.106918
-211.627289 -55.704994 133.404404
-131.963455 -58.787163 246.059692
-126.966965 -55.101395 277.664429
-129.432526 -54.738720 266.910370
-129.845078 -48.251328 260.883850
-186.704819 -60.697971 159.362640
-232.541275 -59.651695 82.414711
-129.309158 -55.194992 272.651062
-235.781418 -52.460312 81.440460
-192.063065 -47.571686 162.310547
-124.033699 -61.158394 262.932220
-239.440125 -49.397896 76.049812
-211.252716 -52.587753 136.103714
-124.061165 -50.753117 269.835114
-123.579765 -58.535419 277.336365
-215.203049 -58.614307 127.854355
-194.911209 -54.209091 148.013443
-188.815201 -53.806110 175.494934
-211.627502 -55.679512 153.751419
-126.035469 -55.011059 291.787903
-220.205948 -51.891975 144.352707
-119.569565 -58.913914 288.207306
-202.405380 -56.536625 162.674500
-237.693848 -54.989765 99.361191
-200.766495 -53.136909 153.668991
-198.826813 -53.687195 170.111221
-196.272156 -52.685673 169.370193
-205.267746 -60.833904 165.471405
-135.932541 -55.045925 272.886749
-219.936630 -56.427647 149.690735
-236.636078 -53.322784 93.054337
-222.387421 -51.318798 143.197357
-124.702492 -61.255219 289.118286
-190.598923 -57.634762 192.398163
-216.408813 -57.034176 153.167480
-224.237701 -47.767895 136.512177
-185.973145 -50.004429 203.618790
-211.060181 -46.456848 157.858246
-224.424423 -52.835495 135.203598
-124.912636 -48.716881 298.308533
-186.515015 -59.727882 219.678970
-190.381226 -52.469082 194.425964
-177.640091 -55.472065 217.279831
-139.475616 -60.334942 290.184235
-147.321747 -56.471966 283.253937
-187.111099 -54.491875 207.192261
-184.884018 -56.179871 223.877930
-140.959839 -56.948963 286.273895
-139.709213 -49.679623 288.546173
-180.091614 -47.618118 222.659683
-176.374893 -52.297333 236.499741
-132.374222 -55.843994 302.241547
-150.985947 -57.840652 297.405334
-156.834457 -60.283993 277.803589
-175.422256 -56.269043 226.887054
-137.007004 -60.097481 300.213562
-158.836411 -59.768917 276.403168
-180.137421 -50.949303 227.108917
-176.437683 -51.997559 245.843689
-148.335632 -48.745922 287.968781
-175.121140 -57.530151 242.935104
-145.354004 -54.377430 288.668396
-172.752609 -54.908165 242.003082
-140.618515 -55.235111 299.134521
-135.941422 -52.999649 295.980804
-157.305176 -54.466412 271.850616
-151.636566 -51.954697 294.011627
-169.946320 -50.553703 259.205933
-221.318893 -51.862846 178.705154
-155.373993 -54.145073 282.019165
-160.391846 -54.136627 262.767242
-144.480392 -53.778263 291.779266
-246.762131 -55.502220 147.651642
-169.311142 -45.578625 293.786469
-159.517029 -51.761806 313.332275
-233.027664 -51.963688 176.789764
-166.352066 -53.440922 298.488586
-240.367859 -58.686184 183.222534
-254.681549 -56.468311 161.193695
-183.990265 -57.921635 296.272339
-220.145920 -55.058296 239.450134
-230.301468 -52.643532 203.878159
-189.332825 -48.537556 277.908417
-202.545074 -55.110023 263.143646
-206.739639 -51.663906 249.161453
-227.014984 -51.295197 218.940842
-190.100586 -49.070152 272.246155
-198.533295 -52.900997 265.125916
-233.088028 -58.396770 210.523071
-194.591171 -53.958549 274.701843
-193.637634 -49.246502 285.079926
-185.339050 -55.779198 307.149689
-262.994659 -47.301617 172.351318
-261.657715 -50.081932 166.862732
-176.993149 -57.399490 312.457397
-186.150406 -47.308907 318.857697
-193.679337 -57.551933 311.155823
-195.106873 -47.170071 315.011230
-192.563797 -51.073681 314.365051
-31.354486 -57.903347 13.273124
-22.426565 -53.791187 21.318319
-21.755972 -51.808186 17.756241
-50.789543 -52.748329 26.714769
-14.883586 -55.130676 103.026367
-7.598484 -49.628441 107.171135
-24.539331 -55.251686 93.021431
-19.525148 -51.371078 129.170593
-107.224358 -49.676170 -5.615312
-51.537418 -52.062954 83.775719
-106.151085 -58.533421 -12.321987
-121.684685 -51.980465 -19.620564
-23.002571 -44.297306 146.573364
-104.101486 -56.171196 12.184745
-58.785934 -51.904499 108.847961
-123.096817 -53.752438 -11.742900
-57.839535 -54.065216 121.133308
-113.134193 -49.527546 36.136047
-121.302742 -54.102524 7.535493
-112.476738 -54.441921 29.342669
-110.233086 -54.882465 27.622520
-118.045547 -54.386818 19.279476
-121.102180 -49.819450 41.882439
-137.205811 -55.062805 -14.502989
-143.434631 -52.552963 -8.395533
-130.582626 -49.426151 8.675322
-128.131668 -56.254562 -1.498958
-134.203247 -55.715668 -7.770361
-136.224548 -56.714443 -13.014704
-108.956070 -54.505558 43.149624
-162.576385 -48.759109 -14.021461
-154.878784 -54.176746 -12.550321
-117.725906 -59.579746 64.665077
-128.485703 -58.981205 46.826004
-163.102615 -58.791870 -2.917163
-124.355736 -56.368397 56.272812
-170.404037 -52.021290 0.163379
-155.766846 -54.230644 -6.026627
-132.609024 -58.375256 82.366287
-93.792679 -55.378918 145.054291
-97.051323 -52.329643 135.100220
-174.629974 -47.406322 1.083644
-94.196037 -49.699135 164.567413
-85.278267 -59.724747 161.201462
-89.952347 -55.829750 151.287613
-139.313797 -54.761028 75.267479
-182.721085 -49.678352 3.148993
-91.649544 -47.985359 168.027191
-101.235306 -52.465164 140.916351
-145.926743 -56.817902 77.202827
-94.683655 -55.421459 154.123306
-185.540375 -53.053291 2.818063
-194.881165 -50.672165 11.631988
-184.386963 -52.725266 0.386053
-114.937386 -59.117119 139.306671
-106.987007 -59.282421 172.186905
-99.639061 -52.876282 169.566422
-147.908463 -55.146309 76.223152
-138.622955 -60.387012 115.906532
-195.669998 -51.297058 13.319500
-193.915894 -53.982803 10.068237
-189.228836 -48.161060 11.851500
-110.276978 -53.092663 168.954193
-119.341484 -53.295441 150.413910
-139.161697 -51.101036 113.124977
-134.287704 -51.726360 137.765579
-199.443054 -48.423668 19.386322
-121.120567 -52.900841 139.451965
-206.441483 -54.247383 24.842842
-133.701584 -53.951702 154.739380
-200.731476 -48.993313 16.560896
-88.114182 -54.692997 246.734161
-134.199997 -52.681671 142.107651
-158.482574 -52.564240 147.295975
-163.282532 -58.324509 95.396980
-165.639374 -58.813957 108.125687
-169.116776 -56.195766 96.927864
-207.461151 -48.606129 28.904058
-79.087959 -49.651482 252.255035
-153.093277 -58.888187 137.649353
-212.117447 -54.828587 28.850113
-217.000381 -56.899914 33.719769
-208.962906 -56.082298 28.796663
-217.124634 -52.771835 47.771923
-93.504547 -53.728439 258.267975
-225.876343 -49.979141 38.803661
-157.919540 -48.853302 144.186417
-220.965378 -50.911541 43.252884
-110.802727 -52.120747 237.805298
-152.786011 -52.755569 153.440033
-106.343010 -59.490490 252.659134
-221.438171 -47.238651 44.033672
-179.396927 -55.236610 119.525078
-184.398926 -50.467316 104.487053
-107.066353 -47.284996 256.447876
-105.547417 -42.735401 245.245285
-175.883926 -57.511040 145.575882
-108.581192 -58.736736 234.809601
-111.299515 -63.514816 251.514053
-174.743195 -51.304523 117.975662
-163.810257 -50.197475 148.557526
-187.209869 -48.766716 113.006027
-187.108246 -56.939007 129.967728
-214.707870 -49.798870 49.276360
-175.941483 -50.697517 156.256699
-227.514435 -55.489029 49.750706
-222.911972 -52.082760 50.190754
-116.527786 -54.159744 263.647888
-231.871323 -51.763481 48.382530
-187.016403 -52.735760 131.911011
-183.367279 -57.420567 125.819847
-168.718414 -54.010548 159.394394
-140.354935 -54.999760 221.945007
-170.019150 -51.410477 160.070206
-227.942459 -60.107044 56.175148
-233.699173 -50.595211 67.502335
-168.031265 -47.780746 162.740814
-149.029648 -49.359879 209.154495
-188.380539 -58.158520 138.214111
-236.877045 -52.313660 58.668972
-119.349846 -51.394089 275.946198
-101.846664 -51.735054 282.575928
-113.673889 -54.090450 278.606049
-189.609634 -56.451054 164.548508
-114.934578 -54.323708 273.385010
-195.556824 -54.027184 145.222290
-199.323669 -52.139866 135.585220
-109.647217 -55.151787 280.518402
-119.921349 -47.571518 280.573090
-241.819809 -54.665260 74.112846
-196.629257 -55.702412 143.764679
-124.916885 -57.045082 271.943756
-127.426109 -54.342682 257.925476
-186.855453 -55.732548 159.612350
-198.297150 -51.646923 138.606644
-234.929199 -51.172527 74.035767
-132.500778 -45.758736 287.365906
-127.331146 -46.937325 266.792847
-135.757034 -53.754414 250.870667
-233.858276 -52.290985 77.114120
-134.307556 -58.724327 238.939056
-129.102859 -47.807285 269.649994
-130.724747 -54.147778 276.723816
-130.984482 -53.410568 277.122314
-123.064934 -52.343300 279.779205
-112.614983 -51.657539 290.121521
-133.294312 -53.357159 263.456940
-133.753296 -50.401646 262.600983
-123.779137 -50.406200 279.933228
-131.647781 -45.001221 264.122650
-130.769684 -52.842087 282.092072
-235.839752 -52.796745 83.240555
-244.956894 -48.716621 93.320305
-121.335815 -53.574295 288.422394
-241.458038 -52.779957 86.576492
-201.131485 -54.483986 159.035126
-214.097931 -49.283504 130.904510
-211.916061 -53.899338 138.246384
-138.524506 -50.878174 287.498627
-216.361420 -56.270603 139.944870
-240.869278 -51.580978 90.517807
-219.514069 -53.649132 138.474777
-217.848801 -49.700489 138.080322
-211.897110 -52.750763 154.539215
-197.681229 -52.501060 166.798523
-215.420273 -50.352821 150.464600
-207.636902 -46.190765 141.737183
-239.787491 -47.683884 100.549767
-185.094315 -51.218529 200.076859
-220.477783 -51.976315 137.050354
-183.466278 -52.129913 203.711563
-211.429352 -51.357082 163.034714
-180.058533 -53.297832 210.396576
-178.051743 -54.258541 227.285538
-171.190155 -53.603664 225.591644
-208.222290 -60.214554 172.074539
-164.063034 -48.598312 267.411743
-207.889084 -59.548092 173.637558
-160.662766 -57.106693 264.899231
-164.215591 -49.011665 260.029358
-174.426285 -49.601776 253.125839
-157.282242 -54.992897 289.040527
-156.078064 -58.340252 280.355011
-143.926544 -58.313820 303.067963
-242.354279 -59.023441 156.584457
-223.531677 -54.554535 217.727844
-216.375275 -63.213062 231.757401
-224.327148 -51.596531 211.634720
-230.466400 -56.058533 197.405975
-204.064285 -53.593037 251.823120
-236.730408 -53.879742 205.272507
-246.207825 -53.419121 181.017670
-162.553391 -53.100506 318.157654
-242.189606 -52.115921 187.943634
-245.660370 -46.765278 165.237427
-258.731323 -61.741959 160.719055
-223.516602 -51.068493 217.386337
-238.387955 -57.087288 197.441055
-261.813507 -45.305717 159.717865
-215.052628 -53.287415 233.352814
-233.636169 -57.195469 203.210144
-247.495743 -54.963745 187.264755
-256.295197 -55.995625 154.406448
-249.108658 -58.201557 181.321655
-259.094635 -46.790733 169.736221
-259.016235 -58.880039 156.032288
-193.474625 -53.151073 296.051147
-193.095657 -61.089031 302.611938
-198.174927 -53.355339 313.653778
-34.309944 -53.327332 1.852558
-24.492617 -47.421291 3.525263
-42.277187 -55.253456 3.098289
-27.501041 -51.159161 22.018715
-43.445984 -54.086090 6.118355
-23.300831 -55.998943 14.257651
-35.318146 -49.196606 23.577227
-44.198612 -46.456314 28.145393
-49.946190 -48.021591 11.503428
-44.460690 -45.945332 24.770800
-45.312569 -50.514706 9.632514
-50.290588 -50.530613 22.902346
-48.054951 -50.859898 15.330235
-50.517929 -54.472172 23.394382
-55.139629 -48.638603 8.246428
-57.360882 -53.969521 17.309784
-23.980921 -48.342628 89.931252
-29.553642 -44.636364 86.492348
-2.590552 -47.652573 134.742416
-7.350863 -57.221756 136.034836
-96.039688 -55.226097 -4.520349
-103.153709 -58.278217 -6.189395
-51.480152 -48.855618 79.742210
-18.521879 -58.797630 142.805115
-54.741211 -57.743366 87.150932
-49.561859 -48.418240 114.515182
-107.939499 -54.884491 13.554591
-105.616814 -49.341888 33.090450
-126.185295 -50.969807 -8.144377
-116.551163 -51.854977 14.970530
-44.783310 -59.263958 128.185272
-49.379131 -56.390736 136.567978
-110.992294 -54.211021 36.687122
-127.707008 -47.418137 12.334363
-118.664848 -58.916180 37.849976
-131.103943 -49.831051 -8.654655
-41.817337 -54.877739 166.168747
-122.555344 -51.062965 54.689117
-149.309662 -52.586147 -5.577199
-123.575958 -51.635082 46.738892
-144.162506 -44.645035 -6.504865
-53.554733 -55.321648 166.770691
-111.079971 -48.629627 49.244076
-149.520386 -53.814510 -5.588193
-151.483719 -52.144268 -2.334655
-152.227493 -50.765793 -5.883656
-160.239197 -57.563229 -10.908956
-119.096382 -51.961407 50.497288
-120.058716 -54.357227 62.381207
-120.399017 -48.763741 50.585934
-158.473190 -49.947884 -9.917485
-130.398468 -60.872013 55.224216
-173.880142 -50.268299 4.683557
-170.714752 -51.426968 -6.150544
-124.425079 -50.748657 65.146774
-75.860954 -53.507816 162.888885
-173.310410 -46.404980 -1.297708
-91.033577 -51.982300 146.387909
-138.945313 -49.476475 70.217361
-81.215271 -60.261585 157.056351
-132.250641 -54.978188 71.061623
-75.085060 -50.225491 168.636734
-94.511963 -54.964500 142.608994
-86.326096 -50.782738 162.169876
-173.257324 -54.423706 -3.593435
-178.376022 -53.011314 1.993824
-187.347366 -59.090530 -1.207678
-88.209190 -46.563488 158.119492
-136.325455 -51.115227 92.890099
-104.696861 -47.794991 155.205917
-112.295990 -49.309540 146.503784
-189.138397 -51.182190 15.399746
-108.892227 -50.716892 151.230438
-143.424881 -51.973244 93.927887
-149.905228 -57.300407 83.291702
-195.455948 -57.014267 13.446669
-154.910629 -53.604343 78.378830
-142.390396 -53.514156 113.948975
-145.401199 -53.102345 86.400429
-96.147667 -45.268757 164.235336
-102.903496 -51.734409 160.737885
-109.331787 -51.795013 172.373154
-203.872467 -52.471939 9.544897
-113.116486 -51.590881 152.439133
-154.390182 -50.865414 94.776108
-113.684708 -54.396820 163.290985
-122.388222 -55.059418 162.436844
-116.194580 -57.304085 141.891129
-129.384155 -55.278671 141.410263
-204.884064 -55.052479 13.634523
-132.029114 -53.737522 153.510513
-160.872467 -57.378174 108.492027
-212.337875 -50.100704 22.771988
-78.694183 -53.400753 241.790939
-73.695099 -49.832428 239.615585
-76.932281 -52.597656 249.020187
-82.015106 -54.521893 248.953888
-141.660522 -53.006588 150.897552
-154.789856 -46.312229 146.400955
-171.424408 -57.296780 99.391418
-89.562317 -54.297077 246.876480
-87.529991 -58.213982 249.929779
-155.384460 -48.521217 143.947327
-161.780884 -48.428608 111.522141
-88.610435 -54.073845 257.978821
-144.510910 -50.256622 147.702530
-210.324539 -52.513378 42.995377
-221.793335 -51.187893 31.777813
-177.332718 -51.472012 105.625893
-152.359161 -57.256561 145.071289
-163.593750 -50.179619 146.779007
-85.097054 -57.276272 265.130219
-101.376198 -48.660435 239.022995
-108.083694 -50.670364 237.535080
-109.753250 -56.396965 235.443832
-162.292160 -52.762741 145.520615
-169.828049 -51.420250 110.737511
-224.324020 -52.683384 49.252560
-99.431129 -55.358135 262.080414
-100.457550 -52.623859 258.146637
-104.852341 -53.576508 261.866974
-94.626976 -53.034225 265.828308
-163.396393 -53.207703 153.713348
-166.694717 -57.437595 140.723236
-98.473640 -48.093994 254.165009
-161.702820 -58.909744 142.898209
-87.151199 -53.118729 260.800354
-108.668861 -55.400040 245.354202
-183.137177 -51.917957 119.689682
-95.766975 -53.736462 280.733521
-105.323746 -48.996841 253.023178
-183.860519 -52.155052 121.717445
-91.038857 -54.203358 259.695404
-153.457214 -51.225555 145.023956
-227.247513 -52.239719 45.129898
-106.234604 -45.823204 274.626221
-108.656776 -50.322647 278.627655
-143.174881 -49.716560 200.288544
-223.221085 -50.716400 58.322479
-185.474396 -51.608955 139.758102
-109.570412 -50.846779 270.927399
-145.834412 -52.916283 215.310760
-181.593811 -55.541576 141.144745
-202.624390 -49.633652 128.915054
-116.135422 -48.820793 263.706512
-179.956116 -51.449177 143.385590
-184.948792 -52.623135 156.343964
-189.592514 -44.226261 153.725601
-228.604492 -53.420761 58.846695
-178.816254 -52.635834 158.839249
-167.147461 -49.557537 161.439133
-138.021118 -49.014122 228.699341
-188.649246 -47.569172 152.076111
-240.063583 -51.241299 70.252968
-227.791595 -48.937950 65.878288
-190.447937 -56.361073 138.037704
-192.526047 -49.318707 146.114700
-230.337967 -54.397686 71.043633
-130.123322 -58.048897 247.630112
-184.602753 -49.740185 154.592773
-145.981918 -46.766502 224.932922
-141.130417 -49.244553 233.789871
-128.659195 -50.780670 255.719269
-238.722351 -53.197834 73.699005
-132.910507 -58.111923 249.835938
-197.218338 -49.914761 139.619873
-231.626465 -53.379070 70.086304
-193.403915 -50.454216 160.956177
-195.707657 -53.704472 159.786026
-197.157867 -57.859734 145.113052
-198.489990 -49.573383 132.120438
-235.541077 -53.218769 62.748989
-207.148376 -54.982986 140.986786
-200.274826 -48.963490 141.845947
-194.537781 -55.629913 149.867188
-197.424774 -47.843472 150.687912
-206.993134 -54.558285 132.449341
-202.279907 -57.574291 157.483337
-246.899155 -50.825909 81.500908
-200.619110 -41.978088 154.350204
-213.833633 -51.880615 133.736176
-120.903809 -51.828129 296.495789
-204.611755 -52.767345 149.867188
-208.838928 -49.195957 154.490845
-133.983597 -51.475536 297.801178
-209.731979 -55.005848 160.436890
-225.619354 -52.866688 137.486206
-152.552704 -57.324146 281.246155
-179.155533 -49.319489 210.825912
-183.230423 -53.333675 195.499420
-240.487991 -51.150211 102.876541
-179.799637 -54.421959 221.348541
-225.706558 -50.828609 136.458588
-185.495605 -47.014565 217.594803
-210.960663 -48.913933 165.377945
-143.163376 -44.143131 285.257111
-244.046692 -45.671040 107.896217
-179.969193 -51.954891 221.242096
-167.766373 -56.324627 242.208725
-165.206528 -54.104786 244.308228
-169.486481 -53.654957 262.787018
-165.405396 -53.705784 247.885452
-166.466568 -56.262749 250.394394
-239.754013 -56.586529 146.309708
-160.299530 -53.181808 271.853088
-234.160782 -54.451130 183.983566
-175.062256 -54.987457 300.628510
-164.351303 -49.647793 319.067535
-186.290436 -58.705780 283.673523
-183.544891 -44.166626 273.671661
-216.844925 -53.008114 243.715881
-223.464767 -51.205700 224.817596
-229.938461 -54.718575 210.516907
-237.400391 -51.245758 186.187729
-245.228897 -49.743313 184.035446
-234.486420 -54.191635 206.504227
-234.947784 -56.973488 203.312790
-248.944138 -51.532555 191.367752
-216.743683 -51.382236 231.304916
-228.504272 -50.363121 213.685501
-245.055038 -46.157967 198.526505
-245.632645 -56.309944 184.983841
-257.881714 -55.114044 183.408218
-253.100708 -53.685749 174.878769
-209.245667 -44.643654 253.481689
-182.264404 -53.727737 303.674133
-194.152023 -52.485611 278.978546
-184.347977 -57.968346 310.915771
-179.174744 -50.171940 306.306030
-190.989517 -49.516182 304.669403
-41.289886 -47.350937 -7.649512
-27.278866 -49.552391 25.115438
-46.848377 -53.001343 5.688385
-56.253132 -49.618729 9.207091
-103.363319 -53.331486 -8.522166
-105.091469 -59.203144 -18.692924
-119.863922 -47.243317 -18.649708
-125.579803 -51.478432 -19.379662
-103.201927 -53.813850 21.913036
-109.910660 -56.199497 36.102558
-109.581772 -56.173908 12.298078
-49.080128 -53.130348 126.985687
-112.885521 -48.329315 10.861587
-135.702515 -51.256229 -15.300225
-124.273193 -54.294849 17.215498
-129.830292 -50.781311 -1.468009
-55.410324 -49.212608 144.208145
-111.776970 -52.157925 48.352779
-53.289234 -53.158428 147.075195
-127.244545 -55.822754 32.637241
-113.720566 -49.111259 46.287106
-145.487152 -54.011288 -10.200250
-114.771965 -47.807289 49.555000
-117.533638 -50.886986 52.063568
-124.248329 -49.091660 49.364086
-153.524429 -48.556194 -8.780158
-66.191414 -49.233437 163.606308
-162.951447 -49.631054 0.693051
-120.183372 -44.116131 63.542793
-130.223373 -44.142670 60.536724
-125.250763 -49.450153 56.694508
-80.999374 -50.503559 146.872223
-128.800980 -53.148705 69.220940
-73.755272 -56.159313 164.731827
-86.719604 -52.668304 144.361420
-75.803246 -50.003761 169.749634
-130.099854 -48.848347 61.961594
-86.071907 -46.440525 151.176559
-133.455841 -52.199532 78.589806
-86.556549 -52.115387 157.616653
-90.153076 -57.416187 153.020813
-128.787399 -50.302910 71.882149
-174.998581 -49.775490 6.517180
-172.171753 -47.960632 5.579064
-138.196716 -57.168297 65.739342
-103.690842 -54.077351 142.054153
-182.767944 -55.257080 14.755082
-88.978767 -49.619164 159.218201
-95.844109 -51.677643 151.856781
-144.879913 -46.433975 74.293839
-86.953079 -57.748055 171.497650
-97.082642 -53.936592 170.644836
-188.848923 -47.784809 6.291050
-105.583260 -52.822090 160.491165
-110.254829 -51.599152 134.680954
-136.342514 -50.388248 77.486984
-92.780838 -43.100422 173.172180
-141.546783 -53.438576 96.720802
-150.675278 -48.585335 84.909737
-142.285339 -52.216747 76.462128
-137.867218 -48.202797 94.196976
-114.898003 -52.095486 146.572968
-147.343613 -53.985588 79.308624
-114.147179 -46.256527 143.064728
-138.211456 -53.092247 100.694069
-136.573318 -51.199326 87.818092
-103.681526 -54.840393 167.969437
-111.634369 -51.355690 148.668274
-103.668503 -54.581348 167.101151
-145.429977 -52.811543 95.948219
-143.216370 -52.549179 80.149963
-137.869003 -49.034782 110.276443
-151.211136 -53.228275 97.591888
-161.886902 -51.050282 83.278893
-113.905502 -49.608139 151.910843
-126.423401 -56.487728 137.394135
-121.925377 -50.918179 143.460938
-155.559753 -46.688358 85.199608
-124.781029 -56.980022 148.804306
-114.000572 -48.802322 143.032516
-159.817429 -43.946018 98.237831
-137.687729 -47.924160 152.750565
-155.243393 -51.547859 95.716568
-199.570267 -52.690155 13.168212
-136.458496 -50.044785 143.158386
-201.295135 -49.450089 30.708590
-148.225388 -53.732597 145.908432
-134.806915 -45.950691 150.933105
-154.036591 -49.798279 100.545280
-207.093689 -51.032349 37.450012
-140.780304 -50.842453 149.670319
-127.859688 -57.226200 149.261505
-152.222214 -44.685986 143.944092
-94.081894 -56.109375 255.534653
-166.607635 -45.520672 104.075668
-210.374634 -56.267422 35.867306
-89.798340 -48.849113 256.340881
-155.041687 -51.529316 157.090729
-112.386803 -49.075630 229.981842
-103.360825 -52.199387 243.300110
-120.800117 -53.434975 228.720444
-118.532356 -49.560177 218.793259
-160.138336 -46.728256 133.784424
-182.629654 -46.664486 107.244331
-168.597702 -52.393887 143.501358
-120.167740 -57.992470 237.001556
-163.626907 -50.655090 159.874695
-108.055710 -46.190517 246.021408
-176.904892 -50.066959 139.401672
-101.458656 -51.129967 259.828644
-230.051437 -49.879265 50.535740
-89.018021 -54.163303 272.474487
-181.915649 -56.603966 140.074463
-182.312912 -48.659626 123.882309
-197.092575 -50.432571 127.730309
-230.324051 -41.957832 67.842033
-189.268646 -49.233734 127.470734
-193.696243 -45.192459 126.304550
-184.457474 -49.126514 150.389984
-143.283157 -52.844837 221.231781
-135.453247 -50.438118 223.773300
-190.211517 -51.604321 137.636475
-107.808846 -45.341015 284.511810
-199.974594 -54.631870 127.220848
-122.430817 -50.458641 265.200958
-201.045059 -55.056335 129.136902
-128.583954 -56.157982 255.782852
-134.799179 -52.567616 238.079300
-200.662201 -48.206520 134.582764
-232.916611 -52.060276 78.689705
-196.669250 -51.745377 136.352432
-143.104691 -45.493271 241.855347
-236.654602 -48.027611 79.378326
-235.586929 -55.174389 74.291069
-139.368347 -49.730976 248.344498
-137.732758 -53.184742 244.099411
-193.318008 -51.660034 153.224426
-234.000183 -46.575245 76.305145
-231.495255 -60.533653 91.758446
-239.312851 -49.545208 74.319038
-144.159271 -43.586506 263.944244
-232.037720 -54.330547 86.566620
-230.919861 -48.235180 91.048515
-107.761147 -54.218117 286.712799
-205.976334 -50.617058 143.947037
-221.984589 -57.312424 135.221237
-207.929291 -55.805252 154.310211
-220.804459 -53.525768 139.091827
-246.984909 -47.935875 97.046021
-211.588623 -47.258808 143.599792
-208.203125 -50.181232 162.960236
-205.706924 -55.073357 149.264755
-245.374649 -49.528435 98.366051
-211.397964 -47.621258 151.184692
-202.764175 -56.056545 154.922531
-217.932083 -52.026951 145.134384
-122.045189 -48.678234 295.942230
-242.314621 -50.772156 104.345314
-245.762436 -51.221947 109.069344
-234.293961 -48.023998 104.872742
-207.060089 -49.725132 160.042953
-243.659637 -58.472221 104.340912
-179.458176 -52.792934 212.134125
-238.424500 -43.740887 105.956985
-174.174164 -54.751644 238.091156
-162.089508 -49.240692 260.679871
-148.927856 -49.784229 269.331207
-245.285477 -50.909252 106.633591
-149.808548 -55.585625 277.304230
-167.186691 -48.778652 254.081192
-163.323517 -52.274761 256.949127
-174.336990 -43.230556 229.804688
-163.013657 -55.715630 258.209442
-166.941910 -52.454876 267.303772
-157.702454 -52.014320 293.652710
-218.419235 -50.810066 166.938202
-147.554077 -49.602051 310.132721
-230.186829 -57.267479 179.081451
-154.887085 -50.328693 305.613342
-162.881027 -49.498726 296.429077
-158.822113 -55.009155 315.201141
-224.644562 -46.578651 171.957520
-184.694122 -50.350040 284.004669
-168.521210 -47.642319 307.081573
-173.278519 -49.118221 293.791260
-179.747742 -54.541824 291.917816
-245.211029 -55.221416 182.237701
-179.549271 -55.026997 280.666443
-173.314972 -56.677116 287.397400
-188.767639 -50.746704 276.843079
-210.758011 -53.567043 236.593796
-209.442307 -50.574150 223.737747
-249.917450 -51.216751 177.639511
-223.810043 -42.917812 215.967545
-221.994049 -52.716393 221.641815
-218.904739 -46.414013 234.853958
-210.501953 -53.346756 255.408783
-205.621414 -53.680199 257.472351
-170.725235 -45.854042 310.169373
-172.760010 -58.764069 308.979828
-195.142929 -50.814323 277.079285
-179.814285 -56.235893 304.285278
-179.759964 -52.025013 309.123108
-190.281479 -43.181599 317.397125
-38.374954 -42.460251 -5.479858
-34.648556 -49.778072 27.104174
-56.971474 -48.770763 0.598549
-53.290695 -54.435627 79.526176
-97.422562 -51.618061 -5.099337
-103.936737 -46.115948 -14.369780
-88.254700 -53.631428 -9.632151
-97.366638 -51.187332 2.515095
-102.812080 -45.554714 -15.267995
-17.800432 -49.601692 142.862701
-94.392082 -53.680302 5.244182
-44.097401 -56.730469 96.696815
-127.061790 -52.306232 -10.776186
-107.995949 -52.276264 19.522703
-138.872482 -53.762299 -14.126776
-140.877930 -52.409252 -15.117562
-126.245461 -50.012714 17.882793
-43.734726 -48.829636 149.135239
-110.284721 -56.200909 35.238731
-145.907379 -50.024021 -12.980999
-122.943367 -52.912075 42.966045
-124.387115 -54.494705 17.394014
-113.236984 -44.795124 43.890930
-145.080551 -44.485790 -8.921871
-114.954811 -47.009769 35.436832
-152.777328 -51.939430 -2.213670
-148.748474 -54.202160 -5.405067
-59.261292 -48.692997 158.623123
-61.228638 -48.615284 166.086411
-128.411682 -52.090649 50.594383
-163.589294 -56.099556 -12.369538
-160.664047 -43.164211 -5.614542
-61.320023 -55.863678 166.389526
-160.979218 -48.953873 1.183156
-84.767044 -53.169041 142.773102
-71.562714 -60.887642 161.818314
-81.874474 -49.376648 150.364502
-84.314491 -51.371643 144.811783
-127.894203 -46.274723 69.333534
-128.489120 -49.837704 69.609863
-79.660812 -56.563786 168.636429
-135.781860 -52.302212 68.685402
-177.180145 -49.710442 4.129879
-103.879051 -49.431107 138.236496
-143.683945 -43.389671 78.159821
-179.612213 -52.995457 0.125117
-143.003204 -50.129288 67.946892
-176.671341 -48.771057 5.025566
-95.849380 -55.180447 139.182724
-94.722458 -46.230267 163.882950
-107.227371 -56.064896 144.460251
-124.054779 -48.835701 148.321335
-142.275620 -52.529945 104.763283
-192.478745 -47.566521 10.977671
-189.741074 -53.544270 16.594826
-142.470947 -47.985104 99.893616
-147.915268 -59.569054 105.659561
-143.129028 -57.216835 99.288963
-148.179398 -52.164715 84.654396
-196.589890 -48.691826 15.465775
-196.856506 -50.736454 17.068233
-156.586792 -49.100292 94.646133
-149.397003 -53.097355 85.088074
-198.652939 -51.218731 17.663248
-141.263077 -55.577011 141.759338
-204.048645 -54.172783 18.667881
-153.263855 -60.624142 95.340469
-152.521576 -49.299889 95.519630
-208.445328 -49.005817 25.274225
-156.664825 -49.112930 93.242149
-206.709351 -55.204437 26.711781
-137.172195 -48.531700 144.996582
-161.228973 -48.039150 95.981834
-205.855743 -49.025169 24.927280
-170.384949 -41.810738 105.135727
-83.871666 -53.674889 261.503448
-154.613556 -49.621262 148.661545
-173.614563 -54.925049 96.992958
-115.345406 -45.960575 221.106796
-114.761261 -44.053440 222.163406
-166.384323 -55.890053 102.867149
-168.687393 -51.408176 108.220741
-150.199142 -43.332359 148.631027
-147.443024 -50.607338 152.848831
-148.773697 -50.044483 145.667755
-159.345322 -47.717514 96.916512
-85.549515 -48.281528 249.754242
-98.984604 -54.963673 249.347382
-100.250008 -49.992184 248.232147
-152.488678 -51.753361 141.964020
-184.216721 -55.435345 115.455521
-223.650986 -54.664162 36.402985
-117.605003 -50.536045 226.757492
-181.550812 -51.675659 114.700348
-160.570877 -54.151192 144.028763
-166.736572 -47.038418 144.956116
-227.548264 -52.843803 38.488651
-178.411896 -45.921913 118.791344
-158.636536 -46.032017 137.516403
-105.819267 -53.188091 238.390335
-110.684029 -46.807163 244.813843
-121.817879 -48.939083 229.242966
-108.532242 -51.659233 257.357819
-175.086609 -48.290321 110.049225
-231.104523 -50.572422 44.693737
-92.224129 -54.066612 278.243378
-226.767197 -47.418571 44.102634
-174.348740 -49.258999 149.815964
-234.487885 -53.154968 54.460598
-222.409393 -48.521179 59.897823
-193.243134 -49.745426 116.772766
-193.428101 -56.342747 119.625015
-186.153610 -57.464622 116.003441
-178.193466 -51.563801 154.974731
-144.152069 -58.850330 224.691589
-182.853821 -49.934628 139.075439
-225.612442 -54.595501 54.983662
-145.555130 -49.386669 220.899277
-136.913010 -55.438900 231.210434
-145.240479 -57.321617 219.496552
-235.056503 -44.859035 60.715759
-131.951370 -50.173306 259.492096
-136.053085 -53.540203 259.375214
-134.469696 -49.136257 244.457123
-134.767624 -50.325077 242.157806
-127.047836 -52.698174 259.034149
-141.316620 -53.613419 230.898438
-140.469070 -59.565350 242.159836
-197.405670 -56.529636 145.887985
-182.206055 -55.144451 161.443939
-197.947083 -48.466091 137.779800
-196.041351 -49.955700 151.307205
-208.919464 -49.082493 134.259125
-189.474960 -53.012329 149.211227
-115.483101 -55.572479 284.823120
-194.465652 -47.499115 148.947205
-245.140869 -45.726982 72.319099
-216.640244 -51.239613 139.846680
-206.258377 -45.544724 152.356659
-124.735191 -48.614235 291.524017
-130.954758 -45.735756 263.181793
-234.176117 -51.541729 92.713509
-207.973694 -53.366276 147.936432
-204.910339 -49.327972 145.050049
-238.329498 -45.591698 83.365540
-237.297394 -51.043941 81.731895
-242.779388 -46.642277 85.454422
-204.033676 -50.900909 153.019501
-232.816345 -56.547642 99.346901
-195.173431 -55.390762 169.948547
-203.618576 -48.017548 162.887238
-212.333099 -47.574020 137.782974
-237.252945 -50.852936 91.861534
-237.055511 -50.998291 97.228477
-238.457367 -48.048870 104.654572
-238.773727 -53.839645 86.091438
-208.507416 -50.828804 169.591705
-175.493423 -54.898209 229.758850
-180.899414 -48.310375 224.442657
-231.038193 -56.452858 117.296227
-147.000549 -48.823059 280.826935
-241.035873 -45.890903 128.311752
-176.172470 -47.735367 226.745041
-146.460464 -51.935623 285.346802
-145.102097 -52.949787 274.776703
-244.591202 -52.195435 108.663956
-156.723236 -38.769371 266.057495
-168.047653 -42.337467 260.665985
-177.531296 -47.721298 233.136612
-216.842026 -49.604229 172.266174
-240.302307 -49.018032 140.750290
-241.342850 -42.245323 140.190750
-146.851257 -48.818031 292.668762
-171.702850 -53.307201 263.614838
-217.538940 -55.165512 175.827499
-163.493820 -44.943821 280.883148
-233.306808 -49.775150 186.774704
-156.089737 -48.348011 318.322968
-240.635040 -48.215153 172.777618
-169.769379 -55.365833 317.414337
-163.721619 -46.082062 315.384613
-173.076630 -48.555553 293.061432
-165.989182 -44.092106 316.061615
-256.262726 -52.300617 165.228790
-198.649216 -53.170135 264.746429
-201.523621 -41.046024 253.311417
-163.430054 -48.430019 323.307587
-206.825180 -47.386703 250.887863
-171.550964 -47.300976 305.114594
-211.480484 -53.649696 235.817062
-220.574280 -46.948238 234.852829
-213.100220 -45.613457 252.682846
-249.378952 -50.945461 183.720917
-205.445541 -47.161579 251.501587
-199.870239 -55.767002 258.268951
-198.354492 -49.676830 272.861572
-191.834961 -48.400070 275.669922
-188.751648 -54.941105 297.429077
-193.583633 -52.624855 304.936890
-196.078629 -56.174335 312.920837
-24.477922 -49.084145 15.585621
-31.713285 -48.733421 8.106227
-28.067028 -50.847233 19.057150
-45.107056 -52.163254 -0.393228
-42.288925 -53.521843 24.105501
-0.838297 -51.114166 119.095505
-100.447357 -48.651096 -11.855033
-49.345394 -53.650536 75.988388
-109.802193 -55.497288 -15.998505
-121.200615 -56.497364 -23.630898
-98.803207 -53.788780 6.039501
-103.693314 -55.555660 11.330366
-52.816307 -50.125179 107.267876
-107.542343 -51.601757 14.434149
-30.013342 -48.183826 156.909973
-47.616264 -51.454777 120.646889
-55.950256 -56.754097 127.381241
-135.691422 -52.598354 -14.666139
-108.066170 -50.031700 28.788067
-115.417267 -50.119644 24.481165
-45.183872 -44.343533 167.391006
-144.674789 -58.978443 -15.506988
-109.946381 -47.539055 38.760693
-132.889938 -42.778500 -4.243873
-145.393097 -48.437454 -3.874031
-145.206528 -49.734344 -14.378168
-126.511665 -49.783703 22.189793
-143.096344 -48.624554 9.560901
-123.024124 -50.779083 44.034267
-149.740646 -47.770535 -15.885766
-109.372688 -45.133221 55.329510
-107.889397 -52.813091 41.490654
-150.382339 -47.073124 -6.360470
-53.968517 -53.255638 162.150162
-121.574364 -49.994911 44.937729
-116.450920 -50.919273 61.736614
-144.747955 -47.188278 0.816620
-122.273521 -40.414379 48.200474
-54.194878 -48.006569 169.407120
-50.656986 -53.315495 165.457397
-159.353638 -49.403152 -0.340975
-53.102825 -57.206619 170.541672
-126.934258 -50.251411 54.444294
-119.164085 -51.044434 54.642445
-69.111183 -41.748455 166.686462
-140.494080 -49.954479 69.198326
-166.571213 -49.243542 -1.768096
-87.212898 -45.391125 139.272705
-67.715370 -52.425308 174.192474
-133.732788 -51.340469 59.790928
-73.878365 -54.073597 178.659592
-74.531509 -53.270935 176.582977
-93.039482 -50.174145 139.746887
-86.309868 -46.859394 153.900101
-91.492371 -49.648525 140.852264
-183.389664 -51.235447 -0.828082
-88.025566 -48.849678 158.978058
-125.578529 -47.957111 65.828079
-86.336624 -50.923717 158.226074
-85.530106 -45.488712 165.849289
-76.991699 -51.500969 174.518997
-101.092735 -51.007519 145.312912
-145.535660 -48.082687 78.460640
-145.731903 -39.154400 78.238098
-137.135834 -43.751236 84.816078
-184.087204 -49.034111 5.595109
-86.012650 -50.208214 186.569305
-144.609238 -54.799324 88.051399
-98.595474 -47.967773 163.630188
-137.101517 -52.978542 89.603676
-110.354828 -49.768520 147.145432
-138.866837 -59.060863 101.066978
-144.253540 -47.363613 98.934181
-153.774689 -50.995823 91.568497
-116.652527 -49.300156 152.865051
-114.207001 -50.577278 140.097809
-115.176956 -43.573284 150.177017
-100.195457 -49.517536 207.643265
-159.200714 -46.992561 97.478477
-134.949310 -47.869312 145.081406
-161.089905 -49.171246 111.574333
-74.215591 -49.334385 242.821121
-131.950195 -50.729675 144.277985
-76.642029 -45.167225 248.234375
-170.642197 -56.863976 100.650803
-136.551208 -47.569004 143.622849
-100.482697 -50.761047 207.922195
-97.217575 -48.356544 208.195007
-146.367294 -47.830727 146.736328
-148.700180 -51.526459 138.016586
-175.974457 -55.521782 111.695526
-187.388412 -50.214870 102.374214
-166.083542 -48.626987 109.906746
-95.509377 -55.350330 245.783936
-171.423035 -49.682938 109.268745
-174.945709 -49.886253 119.865662
-102.218971 -45.670128 248.109985
-108.955139 -49.920551 229.959259
-175.438965 -49.232250 114.421349
-115.549347 -51.439194 228.325546
-114.330734 -42.435032 221.325760
-92.159981 -54.697803 273.083466
-165.928757 -46.173145 158.106644
-179.977081 -50.867306 115.500984
-103.897552 -47.740253 259.272491
-107.062515 -47.911587 247.437454
-172.261200 -48.370899 148.614960
-173.041122 -53.054359 144.547653
-179.761047 -45.169788 143.538315
-110.006348 -52.681335 252.185410
-177.572784 -53.725647 149.185715
-184.341980 -47.768330 143.694962
-186.229736 -53.447865 119.248642
-174.527817 -46.073406 138.994278
-185.714493 -52.304939 122.182251
-185.060654 -49.889297 147.112717
-176.152115 -52.794762 146.810684
-199.388672 -49.069828 129.822159
-192.939926 -55.169338 137.012650
-203.489166 -49.316029 132.830643
-191.291321 -40.346527 144.582565
-114.802200 -50.759964 274.334351
-231.449631 -51.747871 67.263535
-123.880707 -37.476120 259.215454
-127.424377 -46.775970 258.634552
-192.787186 -53.875271 148.146179
-207.481522 -58.667519 132.276672
-108.666473 -50.240532 276.151001
-232.776901 -45.004459 68.698235
-196.605896 -48.905247 144.972733
-192.044846 -50.031731 144.392807
-232.534592 -47.430649 78.767578
-196.359131 -50.842617 147.737259
-190.801178 -48.570171 158.028351
-142.588257 -50.289177 257.391235
-202.757553 -46.740116 148.270447
-200.909744 -46.727242 150.695068
-243.431458 -53.058823 91.174812
-127.674248 -48.549866 286.876587
-202.191193 -52.736103 158.081818
-125.707909 -56.591045 295.603973
-216.934570 -43.650024 145.922913
-128.186066 -45.914165 296.120209
-131.024475 -49.260376 289.595093
-235.603378 -50.203037 105.691498
-246.794403 -50.811188 95.578262
-228.432465 -48.123978 99.891472
-243.568893 -51.630268 105.775993
-132.838058 -50.508160 293.675476
-144.889557 -46.653336 285.228302
-212.861801 -49.853355 163.029587
-140.737732 -54.996597 286.035187
-231.011383 -52.221542 138.173233
-141.053665 -51.928391 304.077789
-125.330559 -45.939857 303.426056
-172.154160 -47.410217 227.447983
-142.844620 -54.263729 306.588409
-175.696320 -43.557068 230.335297
-247.213196 -47.149830 119.351593
-236.282944 -56.754055 134.720062
-144.211288 -47.778427 299.332489
-173.027496 -49.366882 244.041138
-237.867050 -46.824287 123.405281
-171.498306 -52.824619 249.304596
-152.350510 -50.443001 293.529419
-170.798401 -43.778484 256.029755
-146.281281 -52.583218 295.519714
-170.349106 -50.910835 252.825500
-155.543701 -51.846001 291.261719
-148.503448 -50.136623 299.708191
-146.763855 -58.529003 303.463989
-145.699677 -54.382641 295.717590
-147.709076 -47.017227 299.470215
-151.867401 -48.466969 302.596130
-248.707275 -50.101612 135.826462
-150.730469 -54.668430 296.168304
-175.443436 -46.017960 302.496552
-247.370087 -58.711842 149.888947
-232.066315 -51.188221 180.430817
-185.697220 -50.177265 286.998871
-180.493530 -50.617256 287.188141
-184.709717 -48.460510 290.426636
-189.768539 -49.948563 276.874115
-188.789749 -45.058140 273.281067
-197.191711 -53.200054 266.069824
-261.281616 -53.525517 158.111679
-208.729904 -45.753193 242.965088
-176.649399 -49.308701 312.868835
-200.865967 -51.908852 264.184998
-190.574875 -47.333054 277.889008
-256.392090 -57.521576 168.745667
-199.914581 -45.709133 275.083527
-248.844162 -47.489124 172.142426
-179.695572 -51.280884 296.717102
-177.513702 -49.270416 313.683624
-193.789001 -44.654301 315.975006
-198.462601 -51.219978 322.946472
-49.165787 -48.598015 5.027565
-40.456760 -48.517879 26.703691
-52.991829 -47.611446 21.709248
-13.215957 -43.829128 96.082726
-43.419960 -45.238560 71.355843
-113.048813 -44.757576 -11.828879
-101.688774 -46.046551 5.360500
-64.311333 -49.353848 89.953606
-25.718393 -53.227768 152.830215
-50.782753 -47.799046 104.976891
-104.681503 -55.100677 12.406114
-104.049179 -46.558895 21.256128
-97.929413 -55.055332 20.535769
-48.765606 -51.121254 117.415352
-109.053589 -48.403206 15.822053
-106.659149 -53.833530 38.716972
-116.873253 -55.479343 15.355188
-52.804501 -45.124851 135.248444
-111.866814 -45.996304 38.284733
-102.665680 -53.667118 35.281742
-137.840088 -45.725060 -12.911919
-52.307098 -40.652630 145.519302
-138.676636 -43.743099 -16.787186
-51.895927 -52.159168 146.625931
-119.551506 -47.362961 33.076763
-104.298103 -42.682392 33.572769
-137.308029 -49.748768 -2.662032
-136.277420 -45.758488 8.777169
-118.139702 -54.301640 34.596970
-56.562977 -52.736038 150.316177
-60.170307 -48.043827 148.485352
-60.480595 -56.743557 157.455566
-55.267105 -47.720196 162.130295
-153.086929 -45.279819 -2.746397
-58.783314 -49.400261 156.322372
-71.525551 -47.155018 159.138458
-158.445175 -45.721992 -11.096319
-65.153557 -49.770321 144.021500
-167.512329 -45.765934 0.542668
-163.904404 -43.192593 0.002877
-157.875916 -51.033443 -5.154430
-71.224640 -46.028873 172.961136
-94.353645 -49.640156 137.869781
-85.851074 -50.230545 164.958847
-96.881996 -50.466618 167.225723
-83.936523 -49.521244 160.089325
-92.511360 -48.587097 147.859070
-99.789993 -54.015423 151.750473
-130.208115 -50.523003 86.448952
-79.331345 -48.748959 184.680191
-106.606117 -42.604786 143.465744
-102.908600 -49.922310 146.581558
-121.702507 -51.915630 146.507233
