# This PCD file was generated using the MATLAB® pcwrite function
# from Computer Vision Toolbox®.
# .PCD v.7 - Point Cloud Data file format
VERSION .7
FIELDS x y z
SIZE 4 4 4
TYPE F F F
COUNT 1 1 1
WIDTH 1454
HEIGHT 1
VIEWPOINT 0 0 0 1 0 0 0
POINTS 1454
DATA ascii
69.593903 98.501823 -67.020248
102.835884 107.545715 -64.505981
75.203346 109.508469 -67.399994
96.457222 110.921997 -65.446289
-80.327469 110.641258 -66.482094
44.459721 111.555626 -66.105820
-83.526215 115.735832 -66.200722
50.792229 120.586044 -67.407288
40.229797 114.404114 -65.807823
106.830315 113.077110 -65.356743
38.654213 118.262466 -64.758224
39.540436 124.621376 -64.533775
43.818333 122.937378 -64.204636
108.176399 123.863861 -64.969498
-82.083870 130.733948 -65.157173
111.517159 136.161484 -64.937119
37.754360 133.720718 -65.065186
41.958996 130.700821 -63.971664
36.531708 132.487106 -65.082237
-56.557095 139.824234 -66.263885
31.422144 133.820435 -65.443092
-76.059937 146.643936 -67.345291
-55.529537 142.898727 -65.729630
-79.105957 144.791946 -64.940437
33.920799 138.627014 -64.802353
-58.636444 143.951202 -64.651985
35.253628 144.056061 -64.865173
-72.853928 149.568558 -64.834282
-58.821171 148.056625 -67.211967
29.319946 149.478928 -65.073959
109.511223 153.445480 -66.992271
116.210457 146.309769 -64.358063
31.622940 149.318695 -64.638107
-45.098404 151.115326 -64.365204
109.983452 161.402878 -64.978416
-73.699631 154.207077 -65.369438
-58.475388 152.689896 -65.829208
31.678776 159.775635 -65.993134
-75.971428 156.619247 -65.579430
-70.876434 161.113403 -66.327011
116.879120 159.994385 -65.730034
-64.653328 164.229233 -66.880501
-38.717247 163.325195 -65.619743
28.005896 158.401184 -64.232323
-74.791969 159.489120 -65.313004
12.607375 161.405777 -66.516724
32.041428 164.507523 -64.734978
30.660177 157.579239 -64.841080
12.055074 165.062012 -67.770439
-48.250854 163.810150 -64.809937
27.880142 163.240234 -63.944683
-44.561317 158.682693 -64.936615
7.218224 163.800552 -65.754211
22.560036 159.992203 -65.170357
-71.507751 165.690720 -65.934402
-45.255280 164.142548 -64.002159
-67.275040 166.899994 -64.252060
14.879203 168.226974 -64.957741
25.481405 160.135254 -64.936668
2.805881 171.236893 -65.269562
20.597771 166.149628 -66.930122
31.114498 174.502655 -66.431061
-47.295479 171.793533 -67.137978
-33.719822 171.233276 -65.976570
-39.279488 170.387985 -64.895233
28.185265 170.657364 -64.897926
-43.538963 177.734787 -66.072647
-40.416706 172.385864 -64.746635
20.774414 176.532928 -65.429344
-40.042614 183.190765 -65.675873
29.046717 180.172272 -65.326149
114.044823 177.448410 -64.905472
-32.099075 181.742676 -64.932419
107.239166 182.889328 -64.634689
-34.410725 186.607574 -65.058411
-36.341530 190.240555 -66.223206
18.495436 184.866257 -66.862724
104.742516 192.093674 -64.660088
-28.685951 194.706131 -64.991386
-33.584782 183.995956 -64.519936
-23.843130 195.749191 -64.890121
-148.703705 197.819656 -66.609352
16.004662 193.329712 -65.643402
106.638321 199.152328 -64.548622
-155.618210 204.316376 -65.282211
-26.359730 201.878250 -65.537025
-115.475044 206.333801 -65.687408
-133.872589 207.266098 -65.823631
-109.947586 209.165131 -64.780495
-111.532425 210.286728 -65.758629
-14.201746 206.422791 -65.241859
20.691780 206.463699 -66.450867
-15.562243 211.559174 -63.889145
-123.881004 214.456116 -65.764580
-21.510548 216.136002 -64.402153
-131.575089 212.945358 -66.788628
-13.220338 212.937363 -66.244507
-144.155548 215.102142 -65.233940
91.995720 217.303467 -64.766960
-165.023941 212.053513 -65.698418
-4.032039 223.629929 -68.000328
10.265710 219.170166 -65.140030
10.624370 226.613052 -64.667381
83.328178 227.905228 -64.973839
6.970009 222.533188 -65.722351
14.855575 224.269394 -65.164093
-15.768500 226.836212 -67.998238
-90.507652 227.334244 -64.585419
-96.974289 226.381012 -65.806206
-3.840657 230.923203 -64.334686
-166.149796 233.255310 -65.835365
13.347439 232.316208 -65.260429
-144.294876 233.240524 -65.259384
11.890068 235.064758 -65.204262
-133.409470 234.677643 -65.630310
-116.725487 235.167358 -66.187126
15.935264 232.104767 -64.672539
76.577927 234.626785 -65.154617
7.764671 233.168045 -64.154175
-111.569817 239.996994 -66.051010
77.042168 238.466415 -65.235794
81.423004 239.696671 -65.354355
-123.168228 242.088791 -65.820442
-113.901184 241.291916 -66.200684
-11.212068 240.893112 -65.259384
72.002312 238.826813 -66.129944
64.863770 244.912384 -65.959999
75.310532 241.388062 -65.040466
-133.112793 244.607727 -64.893021
72.008492 245.429779 -65.641579
67.018036 246.026703 -65.132080
-166.365891 238.896957 -66.144539
0.423193 248.859711 -67.972435
17.171810 250.352127 -65.707375
-5.790713 249.276825 -64.899803
13.671947 249.439667 -64.560501
64.662872 248.982468 -66.040504
11.434657 251.220276 -65.482666
-9.763207 251.911713 -62.004154
1.639397 250.913345 -64.113426
65.182816 253.167099 -66.274025
5.846515 252.931396 -67.018158
-8.538424 253.261871 -66.049355
13.673260 254.728180 -65.641174
-167.275803 251.160172 -65.156425
59.053734 257.638062 -64.076088
52.113029 257.563843 -64.307541
55.712612 252.450226 -66.155037
-11.963106 258.005676 -65.866318
57.499073 257.137238 -66.434425
-72.727760 258.128845 -64.984863
51.748436 259.775513 -65.786659
-90.775009 261.807404 -66.643616
-125.523216 264.238373 -67.015930
-133.160477 264.099609 -65.192726
44.032944 262.765900 -65.921974
-135.752289 265.674561 -66.625305
-110.478233 266.934845 -66.330109
-113.632019 266.751343 -64.229385
-82.617638 265.142212 -66.347855
-111.760201 270.847473 -67.071480
-123.858780 271.958984 -67.086426
-145.166397 275.959747 -64.299622
-15.395139 272.117371 -65.598152
-167.780624 273.718842 -65.538704
-14.070788 281.946960 -66.374016
-159.669052 277.415802 -64.620560
-152.666962 285.183075 -64.668785
-168.279678 287.189026 -65.890938
-12.642473 285.057556 -64.550072
-133.760544 293.770691 -66.726196
-159.847839 295.958679 -65.523788
-145.443649 291.715485 -65.482567
-134.948456 294.673676 -68.338997
-8.246308 295.136292 -63.926998
-125.433228 294.342316 -68.576302
-141.613144 295.124329 -66.498970
-116.519554 296.041656 -65.698441
-75.709389 296.356812 -65.990021
-62.491940 297.390900 -64.671677
-5.487690 298.182831 -65.641624
-52.872730 299.321869 -65.197075
-58.031441 298.654510 -64.697067
-68.973083 300.420166 -64.625282
-86.599670 301.321960 -66.283958
-98.203918 300.876099 -63.401608
-162.194931 301.191376 -64.240761
-162.626251 302.041351 -66.787186
-125.655334 304.685944 -66.888504
-145.274841 305.946472 -66.820526
-155.732132 310.851654 -67.171257
-147.475708 323.074646 -65.799240
47.528313 27.687115 -64.035751
20.122057 36.999123 -65.971245
41.429642 43.917427 -64.909065
-16.702948 76.920357 -67.440865
82.419708 75.537407 -64.306343
85.934723 76.135445 -63.309830
76.852432 76.329575 -64.287506
74.116447 78.370514 -64.624863
91.862526 83.266930 -67.760674
-93.424065 80.194969 -63.955753
70.904869 86.034767 -66.125046
-36.624298 86.770241 -63.303749
100.350739 96.874191 -65.513542
59.979649 100.338097 -64.924576
106.362007 106.174774 -66.332069
105.090988 107.843262 -64.799797
70.663811 109.392670 -64.175255
-77.168510 109.212082 -67.456398
54.364990 111.645973 -66.343674
105.438324 114.980225 -64.594284
49.058674 119.775993 -67.009346
80.576088 114.127655 -64.353889
42.213818 116.483337 -64.734200
107.112076 113.600517 -63.942677
47.984062 117.708984 -63.786629
109.506760 121.274368 -65.006226
109.257988 123.775131 -64.357384
-78.082832 123.767448 -64.793564
-82.184082 127.270592 -65.013329
44.458115 130.766083 -66.387215
114.283836 128.640106 -65.160828
114.448662 133.916962 -63.379784
-84.173195 137.250336 -64.796097
107.656441 133.612061 -64.411133
-58.633667 141.378418 -66.247482
-85.901009 136.006653 -64.814163
-75.274185 137.719620 -63.920197
-57.393921 136.509735 -62.131351
31.182232 138.992828 -63.860920
39.617489 142.758423 -66.286331
-75.662651 147.045563 -64.651924
28.817211 142.706329 -64.816483
110.065552 149.855042 -64.415810
-43.142387 156.048721 -64.290024
25.800043 157.701813 -62.651531
115.398262 155.615738 -63.580753
34.919682 153.339355 -64.380821
111.546295 152.832291 -63.417923
-53.123600 158.702698 -66.113884
-67.520706 159.780289 -64.436928
-51.020332 164.877899 -65.202042
-40.984543 174.671417 -65.059944
6.802840 166.005692 -63.515259
111.691643 164.412003 -63.469986
110.109352 167.735291 -64.238411
8.751769 168.390518 -63.214401
5.641904 172.530136 -66.050278
16.163538 166.962723 -65.989319
25.246820 165.625015 -63.922565
111.277618 176.137344 -63.444271
107.607254 178.065201 -65.394226
23.952623 181.526779 -63.091743
26.459232 171.661545 -64.045990
113.589119 171.821381 -63.599205
-27.632856 184.205795 -64.332603
109.810440 178.431747 -63.746727
17.203190 181.732391 -65.204041
22.274605 175.321960 -64.083466
109.655090 183.470551 -63.648277
25.785599 180.940369 -64.060066
110.206871 191.609863 -65.010468
-37.513447 184.623093 -63.819920
27.115465 183.775650 -63.479401
107.132210 192.537247 -63.826550
24.148912 190.947189 -64.854378
-152.532654 196.857132 -64.558929
-28.459679 198.094711 -63.072079
25.510714 194.302078 -64.186638
-110.808983 200.909744 -64.556786
-109.003059 198.804947 -64.216408
22.117933 199.635468 -64.389687
13.335652 195.505341 -65.082329
-26.416380 199.578674 -64.565102
-30.503784 198.868607 -65.422615
-26.299528 195.310715 -64.392815
18.055662 189.675659 -64.074112
-150.760895 203.345764 -64.886017
-143.551987 203.517654 -65.136620
-140.794861 206.275421 -65.088562
-21.531229 201.109650 -63.981590
12.622352 209.193008 -64.240593
99.757965 204.661469 -64.562759
-113.793678 207.964523 -64.835121
21.585066 209.184692 -64.764908
-17.660789 206.588821 -64.254425
-18.278641 208.930084 -63.161434
100.238495 208.563553 -64.045792
9.480112 210.910263 -64.262894
-21.405111 205.933929 -63.339962
-122.346107 210.856430 -66.069847
-133.514282 213.194611 -64.235100
-113.535400 212.939087 -63.933929
-141.898163 213.460098 -65.232788
18.893108 207.452179 -63.991997
95.867760 215.044846 -63.789433
-166.526932 213.388611 -63.374313
99.940132 213.398529 -64.690758
-18.733154 217.172943 -64.722519
94.615242 222.725998 -65.004311
87.936760 224.842087 -63.715565
14.744793 220.298416 -64.051392
18.354671 220.472519 -64.968407
12.131323 217.105392 -63.863144
-10.718789 230.346313 -65.019676
-95.301163 226.616577 -64.124550
-7.483844 223.959717 -64.830338
91.014168 224.617477 -63.552292
-92.080147 229.398956 -64.655525
-103.045654 229.732285 -65.084091
-91.548851 230.106827 -67.093102
86.817375 231.294327 -63.656567
-134.358002 234.894150 -64.229111
-134.391006 234.894577 -63.684513
-116.846931 234.838470 -63.945698
-112.604187 235.772675 -63.097206
-134.255020 235.871964 -65.245972
-109.123863 236.167267 -66.628380
-113.626175 237.343414 -65.676399
-6.468454 235.848022 -64.779671
-17.087439 233.191025 -64.461098
-1.166275 241.502441 -64.465607
-10.404744 237.289490 -63.786884
14.917769 242.720428 -64.429405
-16.449429 238.636734 -64.249435
-166.777847 234.597275 -63.664814
-2.022626 242.948166 -63.082703
80.457993 239.749161 -63.981270
9.355800 244.388657 -64.866264
-6.691214 243.859589 -63.888271
-156.440292 247.314285 -63.471924
-140.640701 243.253693 -64.348274
65.161644 244.988922 -63.118164
-5.742559 245.691223 -65.302666
6.537108 243.305908 -65.183327
69.289536 245.145081 -64.218948
77.149429 244.031464 -65.775383
70.069649 249.898788 -64.821938
-0.977682 247.312790 -64.884232
57.218258 250.189529 -64.414276
-18.487875 249.031494 -65.031364
-16.733398 251.424469 -64.671722
8.931219 250.870407 -64.512108
66.087631 250.098999 -64.990456
62.210209 249.611710 -64.141876
51.128521 257.005402 -63.999447
61.443157 253.191940 -65.321861
-15.906431 260.813965 -64.963516
-83.133316 260.155823 -64.431732
-76.748589 261.707703 -63.867020
44.637238 259.289215 -65.151146
-144.752640 261.792603 -64.310226
37.140453 265.111053 -65.148087
-91.551933 261.816437 -64.530762
-154.735992 265.564880 -63.886566
-141.140976 265.154846 -64.339462
48.166859 262.822296 -65.188606
-124.110497 266.691376 -62.264271
-115.588219 266.389984 -63.247414
-93.575783 267.724091 -63.080833
-14.715737 264.444580 -64.582054
31.489054 268.856995 -64.614609
24.842319 270.504456 -63.718708
-157.125504 269.053436 -64.331833
-115.076050 272.525055 -66.359192
-14.690183 271.719635 -63.910187
-134.221603 274.591125 -65.007744
-13.532300 280.514984 -63.785225
-167.008850 284.390808 -63.886398
-9.449534 291.356201 -65.245285
-162.440994 297.962738 -63.964962
-162.361679 287.322357 -63.566326
-143.255051 295.330017 -64.233139
-167.854080 294.740662 -65.057045
13.188329 296.906342 -64.417702
-103.375816 296.776917 -64.833580
-86.580444 296.917297 -64.457542
-166.511673 295.303406 -63.795372
-91.020042 297.661591 -63.437363
-150.520996 297.447235 -64.274933
-73.031738 298.596710 -63.754475
-68.398338 298.718536 -64.274452
-81.414452 300.433014 -63.813263
-4.270210 300.621460 -61.313259
-84.622536 300.978485 -64.608749
-98.839317 301.804810 -64.186554
-113.892502 302.297241 -65.112427
-116.598000 302.521271 -64.488945
-134.407532 303.729034 -62.408424
-143.818069 310.950958 -65.956841
-144.009918 321.206909 -66.112068
24.025822 26.605728 -64.978203
31.400742 27.618305 -63.638290
29.255024 29.113758 -64.868279
43.750740 32.497097 -64.884590
27.158373 41.843716 -64.976929
-74.670639 57.917778 -61.920086
90.338081 74.265083 -62.102917
-14.770175 78.672989 -65.189690
100.545433 82.069862 -61.714424
97.537231 85.843246 -66.023178
69.311874 88.112717 -65.819923
67.871925 93.712875 -64.862389
-44.804375 93.390137 -66.064224
62.273434 94.525810 -63.505253
-95.567009 97.332359 -64.430290
-51.355469 96.730362 -62.790524
-54.820061 101.508987 -69.981956
98.975540 106.294357 -65.764069
58.167233 105.214272 -65.661995
63.949734 101.556183 -63.232956
-97.219231 106.487106 -61.992989
107.837959 106.396965 -63.912975
46.840389 108.726494 -63.379726
100.376053 108.090248 -63.724739
106.239906 115.602478 -63.561573
103.240829 116.218811 -63.933414
73.555275 113.471504 -63.362206
88.088455 114.742210 -64.892891
49.634243 121.521729 -65.553795
110.945663 115.913986 -64.987038
44.320961 117.390938 -63.361382
43.867168 111.115585 -61.988464
111.901802 120.422035 -63.233608
-78.840950 120.991890 -63.918633
47.056267 123.305542 -63.964802
37.292873 123.800514 -63.583778
104.834045 119.587257 -62.434196
42.542610 121.650772 -61.627216
-89.208275 125.601456 -63.175758
-96.040634 125.653725 -63.471882
107.186981 128.225327 -62.931427
-94.437424 128.437057 -65.962753
38.358131 132.071335 -62.783646
37.725662 128.239365 -62.661774
-80.915268 134.892410 -62.985821
31.185684 145.963379 -62.630127
109.009064 141.317459 -64.703667
-51.589077 142.603821 -63.115879
-88.585869 139.524582 -63.622246
37.554157 143.772308 -64.145439
-92.329895 144.970383 -61.589123
-89.934296 147.899368 -63.554874
-48.728546 147.752808 -66.082863
-70.351982 150.597885 -63.460236
-50.541431 145.106094 -62.444859
112.933678 149.181412 -62.569290
-75.045891 150.250092 -63.605267
35.153599 142.624603 -62.628918
-78.760330 148.830139 -64.378235
-74.677338 146.572479 -62.512886
-87.423317 147.364700 -62.466373
-51.717045 159.329025 -64.420509
31.466509 155.709625 -62.559040
27.995077 160.567352 -61.904133
17.643505 154.355820 -62.267403
113.514145 156.792755 -63.147526
-96.800285 163.880188 -62.836346
16.113758 162.646988 -64.866341
-72.162735 161.037888 -63.257366
23.224239 160.931946 -63.917217
-48.679630 165.578125 -63.211163
9.331314 162.488785 -62.747597
12.777102 167.520447 -64.188393
19.078627 174.155563 -64.788078
-45.844788 171.272400 -64.000626
-39.935658 164.094620 -63.772945
-44.636078 169.376816 -62.595474
-104.172089 180.367828 -63.194183
21.729931 182.963287 -63.071861
-36.154591 182.930038 -62.596653
15.505802 188.438110 -64.101608
-145.257324 185.002930 -64.640701
-33.113354 183.414871 -62.483307
-152.885300 186.941330 -63.388912
21.622063 192.251343 -62.995167
-31.037329 183.198303 -62.798801
-108.762039 190.254349 -63.844063
-107.254944 192.301666 -63.791283
-28.966825 194.437943 -62.460030
-22.546295 192.103058 -64.363495
16.321053 199.800629 -62.984913
18.498259 204.943466 -63.065098
14.901221 196.390656 -62.217136
-143.196182 198.202606 -64.516457
18.017254 200.416580 -62.636566
10.311626 206.827118 -64.345924
-139.993774 205.730667 -63.111691
-116.582664 205.416092 -63.724285
14.894496 207.556061 -63.088020
-112.985161 206.458115 -63.959736
-107.903137 201.544662 -63.392475
-163.133163 207.452789 -64.378487
-24.082630 210.230560 -63.846489
16.092272 211.232529 -63.162167
-139.943359 213.337936 -63.079380
-132.861496 214.776917 -62.547298
-17.584194 216.441330 -63.124317
-11.047693 213.390427 -64.644142
-16.122944 216.138290 -62.754364
-143.805710 216.612366 -63.696918
-15.251942 222.996872 -64.702568
-12.395802 223.910919 -63.159683
16.899321 220.794022 -63.082462
-11.542414 221.109512 -63.091969
10.874285 221.583969 -62.119591
-9.171656 226.296158 -63.104118
-17.382370 222.584229 -63.547199
14.237589 231.564392 -63.348579
-0.132039 230.816284 -65.035225
11.425807 232.454590 -62.676285
-5.182415 234.837860 -63.184315
-156.218414 232.916672 -62.835930
81.424492 231.208527 -63.762337
-134.391006 234.865906 -63.275990
-134.475998 234.894897 -63.276012
-8.852184 235.538406 -63.836742
11.531128 241.740311 -63.862793
-154.708740 236.630768 -63.039059
86.032196 230.307114 -63.185635
-2.853872 234.839691 -63.185471
0.644384 235.569061 -64.198601
74.273453 237.349197 -64.049179
1.360935 242.873230 -63.236958
-15.931187 240.531189 -65.558304
-124.784576 244.825485 -65.259521
-2.568451 245.441010 -63.527172
2.520216 244.699112 -62.567787
66.061554 248.991699 -63.907654
-158.293182 249.320694 -62.457397
-11.062873 253.600052 -65.125916
-167.108429 248.035019 -63.826546
9.038382 253.239487 -64.790894
-165.821198 248.900253 -62.434116
-161.584442 254.248123 -63.237003
55.700523 256.167725 -62.314568
64.329918 253.851639 -62.909714
57.299549 252.995789 -63.036713
52.452160 258.681549 -63.233143
-158.644104 255.289978 -62.577518
-156.658722 260.684845 -63.952190
-14.271771 259.542572 -62.774796
-152.092026 255.418976 -63.562263
22.143421 261.720001 -66.224518
-167.320328 260.168640 -64.185768
-165.454651 255.071091 -62.424229
-81.834015 261.297882 -63.215374
-167.416061 272.074982 -64.059143
-85.541557 264.568390 -62.922482
42.139011 263.021454 -63.304256
23.243237 265.255249 -66.090981
-159.487015 269.516907 -63.070129
-100.039070 268.919312 -62.027412
38.600109 267.655518 -64.551270
-101.411980 270.047943 -64.632515
-154.705734 273.123962 -58.863682
-106.815025 270.908936 -62.330784
-165.434616 269.614807 -62.909344
-112.778580 272.258514 -64.531166
-152.581131 274.663971 -64.401169
-157.095200 274.398834 -64.422226
-166.354340 273.313202 -63.381580
-161.978897 272.019989 -62.282047
-165.380859 277.185699 -63.280308
-161.186584 276.397919 -63.412670
24.687895 275.109314 -64.410988
-152.168747 274.881989 -63.284973
-147.058182 292.413483 -62.581558
20.167667 287.975342 -65.769707
-10.449746 284.452850 -62.858047
-126.444817 293.599487 -64.627197
-136.079147 295.266602 -65.477310
-135.576538 296.857391 -62.167229
-124.820717 295.807648 -64.582443
-116.276772 296.748810 -63.019070
-106.997704 297.598969 -62.726765
11.666646 299.087219 -64.287056
-85.864449 298.706482 -63.325401
-149.551315 300.709717 -64.171410
-100.555656 300.117737 -62.551949
-124.451302 300.793121 -61.824017
9.066485 299.458801 -66.191971
-113.481010 301.734222 -62.846375
0.833098 302.334839 -63.719578
-143.037354 301.695313 -63.037048
-153.729095 306.819702 -64.708656
-155.894379 320.115906 -64.636917
-154.121628 322.574249 -65.040619
50.367165 34.487083 -63.908096
21.554888 43.253147 -64.962540
34.034237 46.996395 -64.897018
-48.278343 57.832283 -63.770863
-14.961191 71.068779 -63.301933
93.791748 79.471100 -65.108917
69.526276 81.004303 -62.753281
-22.213671 84.674522 -65.034843
-94.352303 93.277657 -65.778389
-41.789143 88.433098 -64.315567
66.574776 93.504921 -62.162827
58.766617 97.943687 -63.770927
56.514153 97.565353 -62.413418
-57.848503 99.417244 -62.284050
66.100555 99.673050 -62.217236
45.123947 107.025269 -64.328865
67.596428 104.336723 -62.896122
-64.646049 104.994118 -61.996391
48.761421 105.524185 -64.610313
44.400845 108.970772 -62.819199
103.710297 107.876030 -62.672455
-68.275322 109.534027 -63.288628
109.329720 111.559479 -62.720566
-78.761230 110.021187 -62.575588
55.892715 112.607521 -64.672516
47.982292 110.008080 -61.662525
93.400520 113.395714 -65.265404
86.522751 117.737625 -59.044403
52.473469 113.896561 -61.275520
-74.980827 118.940445 -63.373371
-74.300957 121.593338 -62.052509
-79.002228 128.813782 -64.431969
-91.686600 129.504547 -64.680717
107.973839 125.141594 -61.506020
-85.023987 129.597473 -63.447784
-78.558037 130.299057 -62.136353
110.651321 125.184677 -61.450115
-63.891056 129.021454 -59.584614
114.533615 141.370819 -62.867416
110.465919 139.102921 -62.567001
110.453377 132.962280 -61.826469
-92.659782 148.749054 -62.937294
-48.965714 151.381775 -62.718166
-75.809174 155.589188 -63.299797
-69.048157 159.569107 -63.235683
-72.324371 155.250977 -61.432354
-55.128502 153.083054 -62.315250
-48.193344 158.345551 -63.348179
20.779108 154.719574 -62.665741
-94.426239 155.093994 -63.041977
-44.369308 158.417099 -62.407784
-53.495876 158.898453 -62.444118
-41.257500 165.620712 -62.548294
28.802471 173.899918 -63.179771
-48.334743 159.666183 -61.341557
-97.271248 160.840179 -62.745094
-41.799171 169.397675 -62.253593
26.707832 161.620071 -61.920406
-102.068253 171.580261 -62.912354
22.523972 167.002563 -62.782120
-106.547806 181.213043 -62.982769
-99.952255 172.811081 -62.731739
22.763681 172.758118 -61.661949
25.945267 178.425522 -61.690456
-104.319916 184.143951 -62.988789
-141.217621 186.179825 -63.475082
-21.963634 197.285873 -62.675446
-26.800730 193.529922 -62.331856
-112.424126 197.051666 -62.666065
-143.613037 198.284714 -59.681915
-105.911972 192.025131 -62.359756
-155.205124 202.907822 -62.909760
-131.173370 204.619080 -64.013634
-133.369049 205.731781 -62.894482
-20.305527 202.498627 -61.593849
-122.239639 205.826447 -62.857998
-114.233482 206.716812 -62.009357
-24.012783 207.093414 -62.348270
-154.026764 211.295319 -61.981617
-131.165222 214.428116 -65.148727
-124.626381 215.558044 -62.459648
17.675539 211.948624 -61.696758
-160.865295 215.011826 -60.754265
8.545004 222.870544 -63.521626
13.455085 223.626068 -62.223904
-19.198032 216.903992 -61.781727
-4.943253 225.755768 -63.052937
-166.143661 219.246872 -62.071999
-158.420731 223.768799 -62.578094
-94.166496 227.560730 -63.395287
-101.277557 234.823212 -62.518547
-160.747589 232.497162 -61.547905
-102.507568 229.835876 -63.022312
-12.407845 228.044067 -62.059124
-125.901733 233.929520 -63.230270
-140.324570 235.657654 -63.889572
-2.817460 231.402695 -61.912781
-134.200531 235.774200 -62.534000
-123.682991 235.043243 -63.981110
-114.175262 236.341034 -62.062107
3.510371 236.518936 -62.524094
-106.466507 238.854202 -63.386833
-158.296066 233.461914 -61.631134
-147.870087 237.634598 -61.755840
-165.940216 233.989395 -62.224075
-7.169065 238.684586 -64.636665
-8.665257 240.985138 -62.098358
78.707199 236.388565 -62.448223
2.073538 240.500153 -62.493549
-142.239609 243.173248 -62.465351
-13.443415 238.788284 -63.025909
74.534447 238.983002 -62.484131
75.828110 243.120468 -62.678131
-134.598190 243.305954 -62.610455
-158.883621 238.337601 -61.734688
-114.518791 243.070084 -63.202438
-123.441338 244.184601 -61.561089
-164.986374 244.356857 -62.033394
-158.570511 246.106659 -62.232250
-144.495697 246.278473 -63.346027
-9.087440 246.821457 -64.462067
-3.866811 248.079651 -63.367512
-161.073624 247.714783 -61.322407
5.427494 250.038895 -63.821342
6.239055 244.447006 -62.016262
-161.242294 251.038910 -62.551876
14.583367 254.843842 -63.864616
50.801975 254.224777 -63.630280
53.087563 255.700058 -62.272751
-13.870944 256.612946 -63.656994
49.718994 258.317139 -61.593811
-163.642090 261.939850 -62.666203
-162.360367 258.674805 -62.265446
-159.285965 259.976929 -62.546040
53.182888 260.733307 -63.431927
-89.620125 262.870728 -62.505543
-125.680298 263.911072 -63.480713
-105.067558 265.216766 -63.707447
29.304262 267.240662 -63.584171
43.795559 260.694214 -62.473972
-101.094177 265.449524 -61.721973
-94.345741 265.225677 -61.572788
45.180035 263.020447 -63.005974
44.208500 266.142700 -62.471375
-155.804047 268.742584 -64.258667
33.164909 268.052765 -62.510899
-141.771301 273.218445 -65.178284
-114.619530 271.882141 -61.852859
-135.230667 273.299622 -64.587959
28.757366 272.615387 -63.591869
-126.090019 274.635376 -61.912754
-10.874005 270.596313 -62.562523
23.562302 280.876465 -64.499290
-8.316992 277.084351 -62.273949
20.739698 289.108643 -63.390709
-151.458069 292.404785 -62.299576
-9.876008 290.304474 -63.440346
-154.067062 293.867523 -65.142548
-126.060844 295.025757 -61.640079
-155.947311 296.449768 -65.334328
-114.326790 297.326172 -63.174072
-105.925087 298.423615 -62.252483
-7.037073 296.561218 -62.144897
-109.396378 300.538330 -62.363770
-115.845245 298.210754 -61.400482
-116.529488 301.072205 -61.720573
-135.739731 299.251556 -61.560722
-124.877792 302.283630 -63.814991
-156.396194 300.589233 -64.221344
-146.337204 304.859985 -63.973782
-151.889877 309.803558 -62.587791
-153.707031 321.315582 -61.913754
-155.105560 310.701691 -63.670685
-145.321289 321.216095 -63.335560
-150.806885 322.226532 -60.956566
36.503376 21.761780 -64.475357
44.775536 25.078035 -64.494286
25.722176 35.840233 -58.529266
50.271591 39.491882 -63.900093
29.752794 44.650379 -65.185051
35.529366 46.679161 -64.951645
-57.297970 55.136917 -60.963203
84.781380 73.689293 -61.879520
79.448845 75.494301 -63.123192
-90.637848 70.691971 -61.683636
-11.301180 73.807228 -61.375572
-91.623558 76.998512 -64.569305
96.816833 80.951065 -62.925709
-15.553143 78.766655 -60.427067
68.416466 84.771362 -63.508324
-37.851852 86.107430 -65.844261
-27.943010 87.957367 -66.814194
57.714508 95.370819 -63.274197
-44.818069 95.143166 -71.472214
65.354698 96.056465 -60.723167
54.548603 97.204102 -63.923782
51.750797 102.179222 -64.503174
62.556160 100.997765 -62.295738
58.615265 105.635757 -63.571907
101.742607 106.608887 -62.112904
104.966675 106.739235 -61.910049
59.054169 108.351494 -64.091415
106.332748 107.710190 -60.524052
-74.815300 109.392059 -62.603546
-70.841301 109.629433 -60.754688
101.081909 108.531609 -61.340622
53.859577 110.273506 -62.226898
71.326950 110.574326 -62.609554
-73.586197 114.379715 -62.161861
-83.544113 115.166115 -61.478848
93.328102 115.942162 -62.559299
42.842583 116.275490 -61.520657
103.662178 113.161293 -61.012730
44.695526 122.919487 -62.389015
109.501717 115.566101 -61.475201
-79.436768 118.614784 -60.717175
107.498222 118.031189 -60.568859
-85.322327 129.702011 -61.017075
-58.382942 138.624268 -63.431618
-53.628647 135.674393 -60.420189
-73.759979 138.296356 -61.634766
-51.178856 139.850403 -62.977753
-83.784721 140.248154 -63.075237
-76.897072 144.241104 -61.627804
-82.131927 137.455948 -60.902893
-58.185131 149.597260 -64.300415
-72.587425 148.680161 -60.741444
-58.785851 147.504440 -60.814796
-60.388214 149.639847 -63.060646
23.071754 150.846054 -61.062103
-90.110725 153.761368 -61.359123
-46.091290 152.670593 -62.010292
-98.811455 158.666702 -60.165161
-99.116768 161.105942 -61.552814
17.873505 161.750641 -62.249916
13.187516 166.414185 -62.883736
-96.552536 167.571823 -61.456699
-102.185913 167.392426 -61.038246
-101.192085 178.837891 -61.479420
23.096077 178.570023 -61.130466
-107.911171 180.987900 -61.555260
19.734009 178.469788 -62.550690
-146.849045 185.389435 -61.512333
17.608831 186.541534 -62.271626
23.082340 195.233047 -61.782452
-152.993271 196.908554 -61.440968
22.170471 188.266983 -60.763813
19.274601 188.690689 -60.868492
-141.016617 197.283310 -63.455231
-151.624313 198.287842 -62.028004
20.277205 198.983795 -60.835808
18.376368 198.801132 -60.663307
-142.867126 202.429108 -62.359329
-108.004395 207.376373 -62.159607
20.621519 206.693207 -62.460114
-123.728195 204.515594 -60.341908
12.575239 207.795517 -61.733238
-132.177170 204.596359 -61.052513
-154.979675 203.647125 -60.588577
-163.004517 206.932587 -62.947395
-161.777588 207.820313 -60.636494
-18.261003 210.007614 -60.634720
-165.441422 210.051971 -62.831348
-24.119740 201.936493 -61.523388
-14.858935 209.081131 -62.366692
14.727717 204.751831 -60.958229
-159.162354 209.492157 -60.521385
-110.280869 211.058014 -61.716763
-18.594025 214.624741 -60.784710
-158.145325 212.414490 -62.233803
15.824733 209.893234 -60.812073
-165.082047 213.123993 -60.799942
-122.140167 213.172592 -63.387264
-114.340477 214.382172 -60.277424
-123.213249 214.888367 -60.002235
-12.930491 214.913712 -61.795143
-14.400444 215.716324 -60.857693
-164.491623 219.079208 -60.899525
-160.429810 223.602631 -61.331703
-164.803192 229.523041 -61.478020
-144.211044 224.695755 -61.993927
-143.802994 232.080963 -63.319923
-5.720799 231.274902 -60.894833
-10.533721 226.469147 -60.977226
-98.334450 231.306259 -62.110626
-5.343760 237.196457 -61.564144
-164.047104 236.309387 -61.507729
-109.612778 239.464066 -60.477993
0.146625 236.547287 -60.992905
4.241169 240.373276 -60.155785
-111.480675 241.639404 -63.258297
-1.197282 240.986938 -61.110920
-116.148636 244.599014 -61.188313
-6.970074 245.335251 -61.021469
-2.841191 244.529617 -61.095367
0.083529 245.395676 -62.448467
70.492783 245.767288 -61.432964
-12.564299 247.260162 -63.352348
3.182730 248.996521 -61.833447
11.065605 251.002121 -60.875896
6.094930 248.804947 -60.819218
0.096363 249.963470 -61.778896
66.000816 246.590637 -61.167358
69.339279 249.210129 -62.335972
11.315054 253.885818 -62.410175
57.843098 251.301498 -60.817505
56.286976 250.907867 -62.582924
47.260864 256.311554 -61.464119
39.802467 260.415405 -62.550957
40.773537 262.391022 -61.278332
-134.584732 264.493896 -62.431885
-12.648824 263.493042 -62.223255
25.126762 268.591034 -62.601711
47.390240 261.736633 -62.124557
24.260239 265.426666 -62.240139
-100.853584 267.143829 -61.271236
33.307510 266.368011 -61.445576
-150.230820 269.175354 -63.051067
-115.884888 268.040161 -60.625511
-105.464684 266.691162 -61.219833
-6.357047 269.116547 -61.098225
-147.793121 267.546356 -62.827862
32.538574 269.650757 -60.398857
-112.541817 268.039429 -61.094856
26.936094 269.730865 -61.393253
-135.334503 269.503876 -60.322144
-116.129181 270.116028 -60.480900
-107.047096 269.152588 -60.823616
-116.686127 271.928925 -60.259460
-137.265854 272.075836 -61.857418
27.889311 271.906860 -61.605244
-118.062653 273.759186 -61.906639
-143.640533 273.294189 -63.046093
-5.264557 280.904297 -61.237751
-152.254288 292.690308 -63.430290
-7.480422 291.523376 -61.569336
-5.159616 295.330475 -60.344654
-134.301437 294.887207 -62.269917
-124.715187 297.486694 -61.975780
-135.984283 302.153229 -63.073048
-126.379585 304.641022 -63.626019
-153.260468 304.661530 -63.575840
-153.445648 310.652069 -61.733723
-147.005096 309.844727 -63.027538
-150.695221 310.952942 -60.453163
-145.396835 310.824127 -62.649601
-147.547211 311.240021 -60.897026
-147.396103 322.048279 -61.677422
20.346586 39.842083 -64.982674
47.973942 44.736893 -64.093292
27.678034 49.594345 -65.286392
33.791283 50.395527 -64.765137
-43.393555 56.597603 -60.494175
-78.853989 60.855488 -62.870865
81.284805 71.679581 -59.560177
76.435143 73.304649 -61.142536
70.535332 78.565811 -60.921696
-96.427887 84.228676 -61.102070
101.027840 86.308334 -61.698078
-33.828957 88.297020 -60.107887
65.924553 88.695702 -61.197643
-44.377693 90.687546 -60.310635
-50.474045 94.369080 -59.280632
50.075893 100.414291 -63.232254
102.607231 100.180038 -63.047863
66.080360 105.557907 -59.314022
58.158596 105.282516 -60.339630
50.146645 110.423592 -60.950657
57.604450 107.692993 -59.245258
104.360229 108.228973 -59.847088
71.408478 113.896263 -60.518532
47.701511 115.345184 -60.297779
78.343819 116.004997 -62.482643
90.971077 118.537476 -59.146786
-76.761398 115.521317 -61.300365
-86.810036 120.120361 -62.641525
-82.274170 123.644585 -62.389835
-59.203396 128.062195 -59.101536
-56.632919 135.146637 -63.170372
-94.130409 132.029541 -61.371956
-76.590645 130.072815 -60.280415
-75.933334 141.162827 -63.007500
-61.164722 139.108551 -61.215496
-89.097260 139.821762 -59.094566
-89.400986 138.674423 -61.716961
-47.332417 145.534851 -64.651665
-52.314613 145.142044 -59.859974
-76.342888 148.549545 -59.548813
-52.518112 151.622299 -61.242531
-75.287384 151.617523 -60.685200
23.985775 147.614914 -59.617649
-56.380959 155.549423 -62.617428
-53.531784 154.463821 -59.912876
9.871697 164.791718 -61.598621
15.931420 161.469635 -59.516109
-143.347595 185.216934 -60.456688
-110.473915 188.458069 -61.873829
-107.010078 198.584824 -60.021313
-151.496674 203.171143 -61.714634
-112.419151 194.766068 -60.468910
-152.906357 205.214294 -60.143757
-113.762276 207.494843 -59.479122
-148.954010 208.876328 -60.774639
-151.651474 215.363144 -62.224930
-151.383591 221.528839 -62.333958
-145.611038 232.525787 -60.788094
-151.717331 233.320679 -62.720985
-104.433960 232.245514 -61.194992
-104.543411 234.793320 -60.632797
-123.599480 237.532135 -59.648052
-109.305115 236.833084 -59.629673
-155.055267 240.232147 -63.231190
-2.132140 237.961258 -60.748257
-134.760239 241.736526 -59.826832
-152.837936 244.244995 -63.361034
-133.776031 244.220215 -61.101120
-12.201102 248.858337 -61.773109
8.915756 251.155807 -61.785610
63.135849 251.377686 -60.457603
19.072035 256.961304 -61.363979
58.943233 255.602692 -60.371750
42.543488 259.181976 -60.353451
54.619759 259.791290 -61.414627
-150.901901 262.210999 -61.087650
-152.671173 263.522888 -63.913898
41.540531 267.207703 -60.238449
32.043503 267.692505 -59.984341
46.766438 260.860382 -61.263081
-143.858658 264.195221 -63.201477
-134.106415 266.250824 -59.878487
-126.040771 265.563568 -59.912212
-134.913040 266.004395 -62.124454
-141.986008 267.339630 -60.976112
-124.445541 268.474731 -60.754192
-141.974457 270.229431 -60.644543
-124.472794 271.419250 -60.889500
-125.717880 272.999603 -59.777637
-124.930405 273.676910 -61.880527
-117.451241 273.512177 -60.044632
-5.212019 274.916351 -61.197994
25.970978 273.023956 -61.551605
-146.886139 275.793732 -61.874889
26.298834 275.716370 -59.265533
-2.891781 281.105499 -60.412746
16.509724 293.960052 -64.217690
-142.361313 298.363281 -61.567635
-126.565872 297.344299 -59.782833
-134.461334 299.452301 -60.089924
-156.603165 300.164948 -59.100082
-124.926720 298.812134 -59.575493
-118.141075 299.367584 -59.326149
-127.103844 302.407074 -60.531929
-148.515259 305.948914 -62.168045
27.394526 23.854834 -64.696762
35.354847 26.667578 -64.816536
39.375595 27.743353 -65.012451
49.500565 33.904125 -56.674435
25.869690 37.586479 -64.893440
23.145691 45.727516 -64.883926
-34.834843 57.297832 -59.013088
-83.992424 61.983364 -60.385441
-14.847655 67.056763 -60.002785
71.059883 74.884743 -59.605522
98.895363 78.316017 -59.735119
65.342445 91.386383 -61.036205
62.109814 91.226677 -57.978382
104.288368 93.911110 -58.658989
-63.066967 99.408440 -58.824661
-63.916180 103.308250 -59.513405
47.789169 105.345451 -59.986721
-65.801788 105.645241 -58.753998
-68.839088 108.879211 -60.184246
-98.815872 105.797928 -57.487850
-74.763748 110.937080 -59.533264
47.092316 110.474922 -59.521408
-70.121017 112.958778 -60.598862
52.251480 110.911079 -58.930424
97.579826 114.085678 -60.747581
92.902145 117.277794 -59.023979
-74.518967 122.259537 -60.094559
-80.858276 122.629242 -59.466213
-61.482742 129.156830 -60.244102
-96.639389 129.787079 -59.675053
-77.112404 136.921463 -60.290318
-92.285744 132.818161 -57.730389
-61.783512 129.228714 -57.940071
-59.904362 128.264099 -56.882076
-86.383888 137.786697 -58.380947
-62.245884 138.450745 -62.767151
-84.258492 140.589905 -59.221123
-73.172646 141.956299 -60.949333
-63.362175 140.738312 -59.963146
-61.456997 145.212341 -56.990299
-53.719288 147.797287 -59.445324
-91.727707 143.892227 -59.422302
-96.069695 152.778671 -60.982273
-84.490707 142.641586 -60.486301
22.960520 154.956680 -60.788071
-49.107475 153.721771 -60.198776
15.588993 157.905655 -58.344219
-98.148315 172.554718 -59.984943
-102.058411 181.940842 -60.634342
-102.155846 181.102814 -58.731312
-106.674202 176.649750 -59.991821
-104.949944 190.525223 -60.718304
-110.319725 186.941376 -59.727898
-141.237259 197.506699 -60.708160
-112.198944 197.189789 -59.074059
-132.762253 206.065353 -58.116413
-146.701035 207.927750 -60.568264
-122.642479 207.026489 -60.019566
-154.272980 207.847885 -60.838840
-146.933304 211.037872 -60.959568
-122.539360 211.038925 -58.708141
-133.874466 213.523056 -61.101963
-144.127594 215.793961 -61.174118
-133.647217 234.219284 -62.391800
-112.862526 237.598190 -59.758083
-146.563599 239.433868 -61.362854
-116.164940 238.969528 -58.940456
-113.799324 240.958664 -59.577778
-124.369118 244.025864 -59.755764
-126.424980 244.807159 -61.163261
-116.384445 243.179184 -59.212944
3.242239 244.198929 -59.573101
-150.759979 245.442200 -61.211147
7.672058 242.166473 -61.889790
8.123751 248.145630 -59.083881
1.470812 248.936630 -60.236481
15.810568 249.812149 -57.314373
-145.873016 245.585907 -61.318661
-3.297562 254.641495 -58.756084
19.897093 253.623947 -59.161499
47.261570 257.867340 -59.161354
51.028919 257.711578 -58.820831
-146.555115 262.206573 -61.221390
-6.519608 261.959839 -59.328648
25.849463 267.585632 -59.778530
-134.011810 268.996368 -58.833515
-126.928291 271.147766 -58.699162
-126.267616 267.718109 -58.608028
25.714590 270.060425 -60.062195
-134.714890 273.728851 -61.217300
26.753759 272.125427 -59.245083
30.141272 273.594421 -60.632977
-151.320709 275.212036 -62.077274
-148.095352 297.826935 -64.179848
-151.370499 298.885712 -60.483662
-143.793915 301.680267 -57.958065
8.243465 301.918213 -62.076401
-154.589157 303.909363 -58.968170
44.603996 36.066349 -64.630432
34.946381 50.742004 -64.879295
-64.558685 54.703926 -59.951630
-73.288483 55.197979 -58.538807
-27.561121 59.738941 -59.697605
-20.787170 64.027802 -60.930557
-14.209950 76.049728 -56.932499
-24.020332 78.868675 -58.548210
65.587883 82.393486 -58.573662
-98.258316 87.430298 -57.789524
-47.354034 93.471710 -59.231522
54.784805 95.800339 -59.508644
55.474072 97.865776 -58.615616
65.127678 99.422920 -59.341312
104.606430 101.131203 -58.661053
51.928616 103.646225 -56.383461
100.107208 110.964729 -60.075272
-79.528069 111.648972 -60.412510
-97.669525 112.946335 -60.678841
76.653954 119.253342 -57.641956
-75.693687 113.117058 -57.320152
-77.780075 127.807167 -61.238075
-83.347832 127.911728 -59.148155
-55.372993 136.840927 -60.132576
-79.117249 137.618225 -61.090843
-61.152798 141.509857 -59.752876
-80.128967 143.416626 -60.306019
-75.123978 142.893295 -58.723186
-80.364403 135.414597 -55.047588
-86.819885 141.237503 -57.763134
-62.974613 142.490036 -58.031944
-90.530174 144.509430 -57.817558
-49.309845 144.670776 -59.718773
-56.560875 149.021576 -60.003887
27.580217 146.178207 -59.170979
-58.073410 148.064301 -56.724442
14.948029 156.025436 -60.057789
19.933987 159.171494 -59.948780
18.260845 162.036896 -57.759453
-96.560867 154.713226 -58.370609
-93.409134 161.913101 -59.800941
-95.408669 162.620575 -56.738312
-102.563538 167.445435 -59.091351
-96.095421 167.826294 -59.093102
-150.988647 184.898209 -63.965439
-153.192200 186.490738 -60.035408
-105.997314 191.104584 -58.562412
-142.886185 188.483078 -57.240631
-110.089378 189.784821 -57.937485
-151.918564 196.940018 -58.476158
-111.520035 204.454590 -58.242958
-109.230392 197.617172 -57.773544
-141.059906 206.604828 -59.677326
-133.552017 206.596313 -59.666714
-109.192238 207.665161 -59.178444
-115.491531 209.779770 -58.191544
-111.768486 210.418518 -57.993668
-114.788315 212.649536 -58.620083
-133.916107 209.011841 -58.008274
-133.754883 211.801422 -58.719963
-132.498596 213.980774 -58.903454
-125.132446 212.916565 -57.023079
-127.245552 214.978973 -59.854229
-116.616638 213.926407 -57.961941
-145.836212 225.986542 -59.557858
-150.318695 232.964554 -60.179276
-152.504471 234.150894 -56.772877
-142.004318 235.817749 -62.179245
-132.504181 236.364334 -58.476604
-124.725105 234.793152 -60.221092
-141.262177 237.556274 -59.722565
-149.784958 238.849731 -61.607800
-134.809494 237.151382 -59.714218
-133.324493 239.055237 -57.811184
-148.283615 240.882614 -62.013943
-133.222260 242.346817 -58.613846
-125.332947 238.511780 -57.281937
-7.264287 246.787460 -61.570297
4.389898 248.789337 -58.421360
12.923175 252.140701 -58.289806
9.866106 253.987167 -60.247574
-9.647326 253.762238 -59.456715
-10.548306 257.255280 -59.068851
41.786922 262.192169 -58.070381
49.521988 261.452759 -59.357418
-144.018051 264.615234 -57.235851
41.294682 265.937927 -58.607967
35.989861 263.260406 -58.697968
-156.208923 269.228668 -58.971428
-151.475540 268.875824 -57.254219
-147.924789 270.542786 -62.915318
2.086723 274.382263 -58.546219
-151.217758 275.650879 -58.476955
0.165263 284.920837 -59.018509
-147.250763 284.051910 -59.306427
-147.698654 292.705780 -58.247875
-151.446884 292.454407 -58.774330
-149.797684 294.573822 -58.803020
-144.334061 294.805420 -58.670048
-156.007385 296.134155 -58.310364
-151.081802 296.159637 -57.477932
-149.704666 296.744080 -59.117607
-146.668533 295.839966 -58.312809
-143.676163 297.828827 -57.714287
13.186739 299.079895 -59.283676
-147.689224 299.739929 -58.945911
-155.439651 299.771332 -58.303719
-152.578232 299.637390 -58.077000
-152.107147 303.983398 -58.129814
-150.582123 301.610992 -57.754234
-146.303818 301.576569 -58.162880
0.224291 302.697327 -59.227451
-144.853455 303.813141 -59.125954
-147.525452 304.511780 -57.717220
28.797827 29.741625 -54.174370
41.516800 29.308666 -62.552528
42.935760 32.231262 -56.776085
20.905659 41.083355 -64.970940
30.021095 45.251984 -54.650764
39.533497 45.311195 -64.566818
-57.985638 52.873795 -56.619297
-51.171906 53.969482 -58.160629
88.870857 71.463173 -59.037369
-96.373444 75.279617 -57.223595
94.915306 75.713707 -61.117847
67.362709 77.367142 -57.489666
103.160927 86.246346 -59.686928
65.089447 85.653496 -58.749535
-41.147686 87.965034 -60.205570
60.995529 91.545631 -54.982235
-58.212036 90.718018 -56.236115
64.009369 95.587059 -57.225143
61.294693 93.516403 -58.134239
-98.028488 92.243988 -59.209549
51.721649 99.581932 -58.123917
52.377720 102.697289 -59.310280
63.896751 102.632843 -59.737057
52.734203 105.763947 -56.489754
-81.771507 116.144806 -57.492012
83.505112 115.317848 -60.131512
-77.296638 123.476120 -58.262627
-75.892021 119.012520 -57.082554
-79.696007 130.326477 -59.251328
-87.209244 122.409386 -58.665600
-91.071259 129.649124 -60.649815
-78.710869 135.679718 -58.732937
-55.552708 137.511032 -55.583778
-77.707634 143.243607 -58.194855
-56.426544 143.025757 -55.328098
-87.572853 146.047302 -57.756630
29.378042 147.511780 -57.467709
19.993446 150.079208 -58.730343
-91.079391 148.786774 -56.789845
18.892456 158.419830 -57.941677
-90.625549 154.725357 -58.410648
-93.472946 157.135269 -56.673203
19.910843 162.415771 -57.916687
-95.580322 154.581131 -57.155476
-96.548981 158.957397 -56.626217
-101.717743 168.322556 -57.111153
-98.471664 169.027893 -56.879833
-105.345894 184.272842 -57.097900
-106.508759 177.566360 -58.324345
-102.474815 174.749268 -56.667309
-106.443481 181.620224 -56.966339
-141.260056 186.554108 -59.589317
-107.551453 188.547440 -57.171223
-143.170822 197.233658 -57.648067
-148.645599 198.334839 -58.081902
-149.854691 202.975800 -58.863403
-124.303314 205.990265 -57.609013
-132.234039 208.474045 -56.794838
-122.604828 208.864441 -58.443829
-141.000824 212.406998 -59.660118
-124.014023 213.992493 -58.339939
-145.172638 215.908249 -59.853703
-149.803940 216.147110 -59.007458
-155.270538 238.904282 -57.228886
-141.314117 241.306686 -59.927349
-125.971725 242.832123 -58.230057
-154.801086 241.966476 -56.242519
-2.931907 247.158051 -60.595539
13.521044 250.234314 -56.932362
-4.028069 252.694992 -59.098866
-146.928757 254.806274 -57.690536
-6.217339 256.285248 -57.120064
-146.968781 262.945709 -57.691280
-5.548524 258.214355 -56.765350
-150.856552 262.613434 -57.780277
24.222361 263.633728 -61.234390
-152.854874 265.150940 -57.223377
-147.980911 264.785828 -57.578465
-154.044830 264.453400 -57.616016
-149.451538 266.612762 -56.663074
36.178551 265.893372 -57.358032
29.460880 271.347534 -56.793091
-146.904083 268.499451 -57.064365
-150.173828 271.350220 -57.125336
-154.885498 270.137268 -57.283840
-147.945404 271.557343 -56.613956
26.484118 272.128235 -57.085651
28.693169 273.548401 -58.183956
-150.072205 273.560852 -57.794708
-142.911621 272.596039 -57.536617
-151.690628 274.309357 -56.885635
-145.145340 272.546234 -57.206875
-147.084656 275.635071 -58.414997
-150.774689 275.686584 -57.318184
-148.648285 275.144775 -56.668316
-149.774277 293.619995 -57.163433
-150.790100 292.563507 -57.568417
-148.607910 291.196472 -57.440216
18.548758 293.248169 -59.488419
-153.898727 293.875732 -58.037083
-147.031662 294.235291 -57.217087
-3.167630 298.645660 -59.013355
5.298167 302.992706 -59.003448
-150.109848 305.899078 -59.278080
27.044813 32.082932 -64.905777
43.975914 39.046776 -57.835495
49.328926 42.268272 -64.085373
42.939121 41.810722 -56.450157
24.658089 47.278118 -64.664986
44.188259 48.575165 -65.035896
81.892395 69.990936 -57.656952
76.217140 70.591042 -58.278969
-12.176074 76.170830 -59.427929
65.603523 80.376274 -55.536774
-28.445734 85.775276 -61.764565
-31.244646 87.645653 -60.145302
-55.135715 88.321014 -55.835209
-52.036911 89.679451 -56.617298
65.402573 92.814522 -59.454746
103.897339 97.066917 -61.554661
-61.907017 97.458702 -57.467449
55.054493 104.892509 -58.367264
61.089027 101.176895 -55.653152
103.385277 105.645561 -59.590439
-66.272011 104.729935 -56.967506
55.584606 105.707321 -56.133137
-70.401108 115.438576 -59.393143
67.725380 108.119591 -60.516693
68.968437 112.338753 -56.974529
-72.497086 117.597183 -57.609730
-98.231644 120.114281 -55.093040
-69.655472 118.269913 -55.013256
-83.471642 121.671677 -57.798264
-65.351753 123.343529 -57.432362
-84.470192 121.869339 -55.860081
-79.568634 126.760872 -57.485806
-76.268898 128.538361 -57.489052
-65.843254 130.585312 -58.497185
-83.114372 134.541946 -58.708298
34.427635 136.197739 -56.436146
-52.634796 137.605347 -57.906921
29.227243 140.904755 -57.248589
30.763130 143.235382 -58.008175
32.438911 144.223999 -55.714058
-52.001705 146.770264 -57.138580
19.489445 155.446442 -56.499527
25.079445 153.337051 -57.534935
-145.148621 186.771729 -55.743858
-149.293930 185.875702 -55.825108
-151.665649 188.788986 -57.521004
-148.856949 197.038818 -56.450394
-145.986359 197.186890 -56.401485
-146.704193 202.639740 -58.318012
-144.329025 203.372238 -59.526154
-145.740189 207.942856 -54.332104
-124.299072 209.886536 -56.150238
-132.301422 211.248596 -56.827915
-145.926224 220.092239 -56.968555
-148.381119 234.729279 -56.619537
-152.008209 235.080444 -55.769562
-146.597916 237.770370 -55.307491
-154.215973 236.186371 -55.982407
-150.084122 241.257980 -56.063324
-150.284378 238.257553 -56.284252
-146.839340 241.272583 -55.681206
-142.942886 243.586624 -56.686001
-147.606628 243.486206 -56.787975
-153.279343 243.898972 -56.538750
7.481104 249.924744 -58.610855
-10.514766 250.614273 -60.917603
-146.593292 246.016663 -57.269714
-150.492584 245.966125 -56.933929
-149.579407 245.926086 -55.769848
9.535838 254.909363 -57.566204
-150.479523 250.687637 -56.992981
-147.971619 263.921906 -56.375854
-1.676486 260.965088 -56.304886
-149.792358 262.349304 -56.150921
-148.829391 262.957214 -55.998703
-145.023773 266.158478 -56.876026
-142.767166 267.292725 -56.564518
26.302368 269.710663 -56.756943
-149.581116 275.726257 -56.645119
25.239046 279.169464 -59.410488
15.973683 296.818665 -60.057816
0.783915 300.596466 -56.751610
7.313686 301.787750 -55.220188
31.643486 27.865499 -55.098881
46.182583 46.863586 -63.834820
33.924988 49.215305 -64.612038
-42.819237 56.044231 -55.538742
-88.997482 61.961227 -54.906403
-93.819496 68.427826 -55.365639
-20.513395 76.044769 -56.289818
101.623749 80.511230 -57.565022
104.365601 86.655220 -53.789452
103.764900 88.824432 -59.521484
-51.173328 93.147026 -58.078316
-61.944553 94.176918 -55.371151
58.800114 97.952728 -54.017258
