106.956436157227 -72.016738891602 -106.861175537109 0.745696842670
47.897998809814 -71.729965209961 -110.478202819824 1.712780475616
103.684677124023 -71.958137512207 -107.288337707520 0.120355077088
-86.003295898438 -73.639381408691 -112.215812683105 0.973836719990
36.890136718750 -73.989463806152 -110.033760070801 0.860310435295
106.071846008301 -72.707954406738 -116.346122741699 1.791451334953
105.283714294434 -70.948303222656 -114.564407348633 1.388102412224
108.591056823730 -72.247825622559 -114.481613159180 1.612517714500
110.123886108398 -72.359222412109 -114.981887817383 1.580892324448
38.589225769043 -71.245300292969 -112.965469360352 2.104437589645
32.083786010742 -73.735351562500 -119.530220031738 0.967272996902
44.205131530762 -72.154823303223 -116.380035400391 0.121769294143
109.987205505371 -72.061103820801 -122.537483215332 1.390194535255
39.084499359131 -71.936965942383 -125.602287292480 2.309772729874
108.522491455078 -72.398193359375 -130.829437255859 0.244519189000
113.015632629395 -71.689765930176 -130.364532470703 1.429585456848
34.074924468994 -71.983757019043 -123.531394958496 0.124441973865
-76.709297180176 -71.033035278320 -128.912536621094 1.567239284515
116.598411560059 -72.275665283203 -134.642028808594 0.300248533487
-56.116413116455 -72.501800537109 -136.183471679688 0.958835422993
37.050457000732 -72.866065979004 -135.390899658203 0.522617459297
-72.400650024414 -72.831550598145 -138.001098632813 0.857591927052
29.568979263306 -72.205673217773 -134.151824951172 0.618727087975
-77.187934875488 -72.233787536621 -141.049468994141 1.452870965004
-44.794227600098 -74.459945678711 -141.720733642578 0.352754682302
-71.298706054688 -70.548301696777 -137.332855224609 2.158832073212
112.230125427246 -71.813934326172 -138.031036376953 0.758193016052
113.427314758301 -71.887756347656 -141.680786132813 0.131730735302
116.939033508301 -73.891609191895 -143.890838623047 0.973456799984
-72.028694152832 -70.272964477539 -144.126831054688 0.133134856820
10.390321731567 -70.341331481934 -150.770568847656 0.929186820984
-53.808975219727 -73.177322387695 -151.658966064453 0.873786270618
-48.773757934570 -72.682403564453 -155.819763183594 0.645605087280
108.684211730957 -71.960220336914 -158.670715332031 0.134979009628
-42.164882659912 -72.589561462402 -150.672241210938 0.688615262508
13.481548309326 -72.360633850098 -156.455963134766 0.693041384220
22.412925720215 -72.617950439453 -157.958221435547 1.510971188545
115.481491088867 -73.639717102051 -163.388427734375 1.973683476448
29.306095123291 -73.042594909668 -163.182800292969 0.266033113003
-0.723449230194 -73.029792785645 -162.847564697266 0.583831191063
31.995971679688 -73.309997558594 -161.437530517578 0.130124181509
-67.692665100098 -70.873916625977 -159.973754882813 0.168755710125
-64.256851196289 -71.528282165527 -159.111968994141 0.282458603382
-67.245384216309 -73.035057067871 -164.530761718750 0.994986414909
115.447006225586 -71.155761718750 -160.537933349609 1.422765612602
-43.972839355469 -72.085006713867 -162.801116943359 0.156083866954
20.453670501709 -72.986007690430 -166.108947753906 0.132449269295
-63.731491088867 -72.816040039063 -169.107940673828 1.938987493515
-60.251102447510 -72.663719177246 -170.980468750000 0.761902809143
-38.194484710693 -71.871665954590 -159.254425048828 0.153044879436
-31.372484207153 -72.111961364746 -169.961273193359 1.283038854599
114.063423156738 -72.865913391113 -170.594726562500 2.169434547424
-36.192901611328 -72.126121520996 -176.444000244141 1.389279961586
16.272960662842 -73.304130554199 -174.244598388672 2.258102893829
111.356132507324 -73.695770263672 -181.154571533203 0.410100311041
-147.942001342773 -73.468917846680 -175.911834716797 0.465554326773
-144.843612670898 -73.152725219727 -175.950195312500 0.816738486290
-151.008224487305 -72.061805725098 -177.279937744141 0.224155992270
-142.591506958008 -71.783576965332 -180.379699707031 1.337008237839
-30.035285949707 -72.346710205078 -186.441711425781 0.521861910820
-22.362598419189 -71.818572998047 -186.110839843750 1.332917213440
23.094438552856 -72.383911132813 -188.928283691406 2.236784219742
-142.209701538086 -71.933876037598 -186.854766845703 0.216270923615
-145.900009155273 -72.428047180176 -188.000183105469 0.219074741006
-19.721557617188 -70.027931213379 -188.039581298828 1.330792546272
13.953324317932 -73.885284423828 -182.282440185547 1.025532841682
-147.579635620117 -72.752845764160 -192.174468994141 0.708671867847
-31.111024856567 -74.379364013672 -185.735382080078 1.853246212006
101.053970336914 -72.071060180664 -188.196533203125 3.138615608215
108.289131164551 -73.459098815918 -189.598052978516 0.797363758087
23.371982574463 -71.240325927734 -193.363922119141 1.466021299362
-17.910537719727 -73.345733642578 -188.453430175781 1.516458988190
-25.882328033447 -73.867576599121 -194.197448730469 1.197681427002
-153.363235473633 -71.602622985840 -195.707885742188 0.222889676690
-131.768737792969 -72.952804565430 -196.889709472656 0.544912219048
-123.925659179688 -71.683166503906 -195.574890136719 0.888109982014
-121.956275939941 -70.974189758301 -197.848266601563 0.200100362301
-22.955749511719 -70.280853271484 -197.826293945313 0.435581773520
10.740313529968 -72.810470581055 -192.915222167969 1.839398145676
94.899566650391 -71.997962951660 -200.862396240234 1.835410118103
-147.577133178711 -71.369796752930 -197.190582275391 0.747811079025
-145.867355346680 -71.760787963867 -198.408660888672 0.632061600685
-149.044006347656 -71.004920959473 -198.584259033203 0.219003766775
-154.645111083984 -71.397415161133 -199.100830078125 1.132484197617
-25.577884674072 -73.368194580078 -199.458618164063 0.639296591282
-13.946156501770 -75.008682250977 -196.166320800781 1.093570947647
-148.178466796875 -71.833061218262 -200.848876953125 0.350837290287
-15.343626976013 -72.187698364258 -199.210601806641 1.071883201599
-162.138931274414 -71.635597229004 -198.598602294922 0.228909164667
-133.471099853516 -72.516311645508 -199.720428466797 0.375820249319
17.335771560669 -71.544662475586 -207.201293945313 0.778502762318
-163.518218994141 -71.756805419922 -203.642700195313 0.229244440794
-145.246459960938 -72.183143615723 -206.040832519531 0.255259990692
10.951526641846 -72.142280578613 -200.329864501953 1.754588127136
-153.225112915039 -71.499473571777 -203.161560058594 0.965724468231
-22.771860122681 -73.110145568848 -200.261291503906 1.328516244888
103.048667907715 -72.138771057129 -199.839691162109 2.140428781509
-155.610443115234 -71.964965820313 -215.381317138672 1.121323108673
-164.289443969727 -72.250831604004 -209.754028320313 0.484672278166
-78.190338134766 -71.731925964355 -211.015197753906 0.560875177383
88.437873840332 -72.138130187988 -210.524841308594 0.143165603280
-3.284158229828 -71.107582092285 -216.139617919922 0.288195222616
-150.850036621094 -71.728683471680 -213.004913330078 0.461269944906
-87.825088500977 -71.315849304199 -214.738525390625 1.756948828697
-7.913084983826 -72.903312683105 -211.916992187500 1.811475396156
15.243271827698 -72.961746215820 -222.759643554688 0.191871166229
-145.777404785156 -72.871688842773 -218.580810546875 0.670962512493
-2.511507987976 -72.867393493652 -220.999114990234 1.810096383095
-21.905391693115 -71.066619873047 -221.129730224609 0.783326745033
-14.299540519714 -70.411415100098 -218.943786621094 1.306602716446
88.663703918457 -72.376533508301 -215.892089843750 0.144875884056
-21.556167602539 -71.859458923340 -218.111022949219 0.844405591488
-28.412113189697 -72.274398803711 -215.811523437500 1.466831207275
-106.830680847168 -72.004135131836 -223.385345458984 0.255601018667
-15.074106216431 -71.829612731934 -222.256439208984 1.372689962387
90.358718872070 -71.187194824219 -219.205657958984 0.610503911972
81.703247070313 -72.300842285156 -218.727569580078 0.143648937345
5.574308872223 -73.221511840820 -220.553710937500 0.977542698383
-10.227814674377 -73.267974853516 -225.234039306641 0.442627191544
78.295410156250 -73.745849609375 -222.749267578125 1.039921641350
-123.494331359863 -72.137664794922 -224.860992431641 0.793595492840
-23.052820205688 -71.680343627930 -222.560607910156 0.147399514914
-99.328468322754 -71.433631896973 -224.093963623047 0.288447618484
-104.913337707520 -72.265335083008 -226.298370361328 1.004428863525
-134.489807128906 -73.172462463379 -227.595153808594 0.206637710333
82.071342468262 -71.697860717773 -224.500976562500 1.495743513107
-123.589782714844 -71.957313537598 -227.046386718750 0.198721125722
5.979113101959 -72.835548400879 -228.012023925781 0.464221119881
80.511016845703 -71.834228515625 -224.171905517578 1.901145935059
-14.092307090759 -72.596366882324 -225.708251953125 0.374289274216
-11.769148826599 -72.742942810059 -230.838470458984 1.357979178429
-4.552526950836 -73.338790893555 -229.816162109375 0.144502475858
8.602344512939 -72.396560668945 -226.941375732422 0.682101011276
86.292144775391 -72.822471618652 -224.750762939453 1.158483028412
11.446787834167 -71.887985229492 -232.108184814453 0.140825480223
3.727580308914 -73.637039184570 -229.018585205078 1.396019697189
-8.575534820557 -72.765197753906 -230.179595947266 0.328874766827
-6.436783790588 -71.969985961914 -233.505981445313 0.144040718675
16.981019973755 -71.694847106934 -231.703277587891 0.908726811409
-11.921823501587 -72.280731201172 -233.934448242188 0.145613953471
71.694389343262 -72.903617858887 -238.136230468750 0.146694466472
-7.708082199097 -71.056274414063 -237.738922119141 0.143919110298
18.859329223633 -73.598899841309 -235.922332763672 0.573203325272
-166.090118408203 -72.861381530762 -241.606353759766 0.226469501853
-4.517364978790 -72.110336303711 -239.179290771484 0.144375860691
-9.056073188782 -71.027046203613 -241.985290527344 0.596220791340
-167.676696777344 -71.459587097168 -251.505432128906 0.942921876907
-10.108008384705 -72.717964172363 -245.270568847656 0.146689444780
17.173246383667 -71.800300598145 -246.580749511719 1.015214920044
-146.293090820313 -73.905799865723 -251.890319824219 0.181345775723
-68.598335266113 -70.743156433105 -247.907257080078 1.097721934319
-60.354606628418 -71.777122497559 -246.640808105469 1.051298499107
54.342029571533 -72.814941406250 -246.855041503906 1.922658681870
-76.979217529297 -72.383438110352 -248.057189941406 1.879156351089
18.658321380615 -73.526947021484 -249.156433105469 0.763230025768
-73.246673583984 -70.967033386230 -252.269073486328 1.394592285156
-14.161488533020 -72.956588745117 -251.013885498047 0.830615937710
-145.517929077148 -72.944763183594 -252.909484863281 0.552811563015
49.118206024170 -72.428604125977 -248.615631103516 0.968725442886
-78.218574523926 -71.205299377441 -253.819641113281 0.983993589878
-101.693519592285 -71.589157104492 -254.570343017578 1.153157472610
-97.370124816895 -73.560409545898 -255.017242431641 0.483998298645
-117.162094116211 -73.376487731934 -255.420227050781 0.734352886677
-105.034561157227 -73.232101440430 -256.865447998047 0.860642015934
-106.730613708496 -73.209220886230 -259.270263671875 0.230585500598
22.794004440308 -74.161407470703 -260.451385498047 0.442683190107
-127.218322753906 -71.632110595703 -264.861785888672 0.432004153728
-11.045511245728 -73.297988891602 -276.535705566406 1.524657607079
-145.545623779297 -72.299118041992 -281.748779296875 0.260018706322
-168.446060180664 -72.563102722168 -283.460266113281 0.222853139043
-124.615615844727 -72.768981933594 -286.019256591797 0.687878668308
-114.022140502930 -71.151268005371 -286.953216552734 0.158442273736
-75.187606811523 -70.131843566895 -287.201202392578 0.080793984234
-56.704902648926 -71.103385925293 -286.692291259766 0.954419493675
-42.869491577148 -72.191909790039 -286.693847656250 0.158008143306
-14.862557411194 -72.093421936035 -287.703887939453 0.151860982180
-13.832909584045 -71.354202270508 -289.093292236328 0.832091510296
-37.576541900635 -71.454216003418 -288.948760986328 0.987029790878
-34.030250549316 -71.627578735352 -288.873291015625 3.050343513489
-18.324796676636 -71.547744750977 -289.141357421875 1.170936822891
-69.227088928223 -71.663299560547 -290.927429199219 0.166827753186
-54.008987426758 -71.950965881348 -290.603363037109 1.829387307167
-15.395359992981 -71.304641723633 -290.955383300781 0.151630416512
-13.400989532471 -72.323547363281 -291.032714843750 0.152297258377
-3.834632396698 -71.293479919434 -290.634704589844 0.150260075927
2.336301326752 -71.805374145508 -291.129913330078 0.940583288670
-89.500656127930 -72.566200256348 -291.847564697266 0.837290227413
-142.248413085938 -71.263305664063 -292.712951660156 0.953676879406
-117.627052307129 -72.900062561035 -292.382476806641 1.396240115166
-153.767959594727 -73.968696594238 -296.954711914063 1.164675235748
-154.392318725586 -72.154052734375 -299.500976562500 0.211821511388
-145.670532226563 -73.416259765625 -299.548370361328 0.860489249229
46.935073852539 -71.526611328125 -18.694093704224 1.106454849243
20.211635589600 -71.348548889160 -23.405475616455 0.400202900171
49.356445312500 -71.558395385742 -26.669887542725 0.687628746033
47.643966674805 -71.690834045410 -33.874961853027 1.486831545830
87.031631469727 -71.600090026855 -67.467430114746 0.110101364553
95.367088317871 -72.046653747559 -72.714904785156 0.111703909934
101.273803710938 -69.954994201660 -80.434326171875 0.112040795386
98.784355163574 -73.140014648438 -82.006713867188 0.114875525236
58.831203460693 -72.149902343750 -88.016494750977 0.555597543716
48.997215270996 -73.291053771973 -93.617767333984 1.570889711380
63.568935394287 -70.564460754395 -90.497985839844 0.818927884102
-64.206222534180 -68.255775451660 -91.667518615723 0.171547457576
69.478919982910 -72.939941406250 -88.555358886719 0.712635159492
102.721549987793 -70.450912475586 -97.603858947754 0.116569586098
75.086097717285 -73.319419860840 -99.563163757324 0.854962468147
96.341461181641 -71.383941650391 -100.979476928711 0.842441678047
-80.444084167480 -72.262680053711 -100.668319702148 0.184189826250
44.343273162842 -71.996925354004 -101.604324340820 1.589345335960
-83.643470764160 -71.976028442383 -105.762191772461 0.185604497790
50.673042297363 -73.299713134766 -110.636466979980 1.800495386124
40.113117218018 -71.693809509277 -104.451927185059 0.121051169932
106.714256286621 -71.302589416504 -103.136360168457 0.916569769382
38.537792205811 -70.640968322754 -108.309509277344 0.900053203106
39.423103332520 -70.414268493652 -114.668464660645 1.024719119072
43.701587677002 -70.089736938477 -112.985054016113 1.521975755692
108.058799743652 -70.911384582520 -113.923164367676 0.392462551594
-82.202812194824 -70.926589965820 -120.760047912598 0.182062685490
111.397445678711 -70.876098632813 -126.221336364746 0.827199399471
37.634967803955 -70.939743041992 -123.767738342285 0.144922286272
41.841102600098 -69.851402282715 -120.748054504395 0.750530123711
36.412513732910 -70.956298828125 -122.533927917480 0.122911371291
-56.678604125977 -72.051658630371 -129.855346679688 0.545562326908
31.302398681641 -71.311965942383 -123.866523742676 0.641346454620
-76.183601379395 -73.112464904785 -136.672149658203 1.539893031120
-55.651111602783 -71.516853332520 -132.929748535156 0.163990020752
-79.227157592773 -70.705787658691 -134.818481445313 1.545749068260
33.800785064697 -70.671157836914 -128.673248291016 1.186544060707
-58.757240295410 -70.435943603516 -133.981170654297 1.945351243019
35.132610321045 -70.732566833496 -134.102539062500 1.679264307022
-72.975868225098 -70.602912902832 -139.596130371094 0.279031932354
-58.944961547852 -72.993797302246 -138.087799072266 1.486491203308
29.197797775269 -70.933486938477 -139.524475097656 0.126113146544
109.386665344238 -72.921211242676 -143.505981445313 0.474670559168
116.089485168457 -70.296371459961 -136.370178222656 1.652026653290
31.501207351685 -70.499755859375 -139.364440917969 0.125214248896
-45.220203399658 -70.157775878906 -141.147521972656 0.156307488680
109.859298706055 -70.903976440430 -151.462493896484 0.132490471005
-73.822860717773 -71.135101318359 -144.234741210938 0.585446417332
-58.598758697510 -71.609130859375 -142.720458984375 0.950234830379
31.554012298584 -71.849838256836 -149.822021484375 1.321730136871
-76.095260620117 -71.341918945313 -146.646636962891 0.888874530792
-71.001716613770 -72.091880798340 -151.142028808594 1.767222762108
116.754539489746 -71.662391662598 -150.055572509766 1.164497375488
-64.779647827148 -72.649414062500 -154.259216308594 2.352886438370
-38.842292785645 -71.412155151367 -153.359100341797 1.945582151413
27.882938385010 -70.086418151855 -148.446105957031 0.575526595116
-74.916061401367 -71.075164794922 -149.516571044922 0.174254179001
12.481863975525 -72.355690002441 -151.449096679688 1.795494437218
31.916955947876 -70.589744567871 -154.553375244141 0.721825301647
30.536821365356 -70.697929382324 -147.624908447266 1.853513479233
11.927808761597 -73.607170104980 -155.105834960938 0.279104173183
-48.375259399414 -70.593635559082 -153.842010498047 0.408792853355
27.756595611572 -69.796356201172 -153.285003662109 0.126777499914
-44.684944152832 -70.726043701172 -148.715240478516 0.792349755764
7.092973232269 -71.587242126465 -153.842559814453 0.443367809057
22.435968399048 -71.018852233887 -150.036621093750 1.694482564926
-71.633483886719 -71.696525573730 -155.719055175781 1.838996291161
-45.379028320313 -69.788368225098 -154.174530029297 0.155436247587
-67.399490356445 -70.017364501953 -156.928253173828 1.874154806137
14.753887176514 -70.795471191406 -158.269958496094 1.419061183929
25.357519149780 -70.787689208984 -150.180053710938 2.486852645874
2.679764270782 -71.095115661621 -161.277893066406 0.135168612003
20.471063613892 -72.773925781250 -156.194549560547 0.915529191494
30.986774444580 -72.280227661133 -164.549163818359 1.166167259216
-47.423351287842 -72.918716430664 -161.826660156250 0.226505964994
-33.846561431885 -71.769645690918 -161.268249511719 0.734458625317
-39.405120849609 -70.683769226074 -160.421447753906 0.152705505490
28.059576034546 -70.746322631836 -160.702636718750 0.653976202011
-43.666927337646 -71.853881835938 -167.768066406250 0.652073085308
-40.542552947998 -70.533203125000 -162.419067382813 2.297487735748
20.647228240967 -71.268341064453 -166.577148437500 1.805825352669
-40.171173095703 -71.457611083984 -173.224487304688 0.153368875384
28.918985366821 -71.170768737793 -170.217895507813 0.901203691959
113.917930603027 -70.826972961426 -167.508697509766 1.080758213997
-32.226722717285 -70.721916198730 -171.777404785156 0.148991927505
107.111564636230 -70.547538757324 -172.948303222656 0.137275844812
-34.539333343506 -70.843528747559 -176.641967773438 0.150129348040
-36.471809387207 -72.004867553711 -180.275177001953 0.716005384922
18.365520477295 -72.695716857910 -174.910766601563 0.888419151306
104.613288879395 -70.566322326660 -182.152221679688 2.264119863510
-28.815914154053 -70.777725219727 -184.741485595703 0.147531017661
-33.712455749512 -70.307029724121 -174.030242919922 1.274578213692
-23.973186492920 -70.680267333984 -185.785369873047 0.900884449482
-148.835632324219 -72.287475585938 -187.834808349609 0.404191195965
15.874355316162 -71.470138549805 -183.373199462891 1.872567534447
106.507957458496 -70.453163146973 -189.211151123047 1.231941342354
-155.750091552734 -70.951087951660 -194.329681396484 0.467549949884
-26.491428375244 -71.322006225586 -191.914276123047 0.147137328982
-115.607643127441 -71.391014099121 -196.354339599609 0.196264535189
-134.005462646484 -71.510429382324 -197.283477783203 0.185813561082
-110.079872131348 -70.487663269043 -199.186187744141 0.191713273525
-111.665779113770 -71.463851928711 -200.307983398438 1.262023925781
-14.333976745605 -71.035476684570 -196.460815429688 0.142572298646
20.558464050293 -72.275489807129 -196.508392333984 0.600584626198
-15.694167137146 -69.679100036621 -201.596313476563 0.801954567432
-124.015090942383 -71.456832885742 -204.475189208984 0.462335079908
-21.643726348877 -70.184631347656 -206.172332763672 1.781314492226
-131.709823608398 -72.474754333496 -202.963592529297 0.555313110352
-13.354597091675 -72.035881042480 -202.976013183594 0.198095083237
-144.289260864258 -70.907852172852 -205.117431640625 0.214646160603
91.861999511719 -70.649810791016 -207.359802246094 2.500578641891
-165.157531738281 -71.355232238770 -202.065368652344 0.500662624836
-4.169728279114 -73.794769287109 -213.671020507813 1.512298583984
10.131341934204 -70.949310302734 -209.212402343750 1.258465290070
10.489123344421 -70.473426818848 -216.655120849609 2.346070051193
83.192420959473 -70.843917846680 -217.960174560547 0.142602413893
6.834536075592 -71.527099609375 -212.575134277344 0.709885179996
14.720294952393 -70.975021362305 -214.312438964844 0.137198328972
-15.906744956970 -73.780708312988 -216.875244140625 1.464086174965
-90.642944335938 -70.301193237305 -217.358581542969 0.813022434711
-97.110496520996 -71.516685485840 -216.404815673828 1.442991614342
-3.976358413696 -70.125808715820 -220.962585449219 1.123873949051
-166.287216186523 -71.481048583984 -223.267028808594 1.889209508896
13.210668563843 -71.066169738770 -222.359039306641 1.087762594223
-144.431777954102 -70.924507141113 -223.255798339844 0.815245866776
11.752869606018 -71.007392883301 -225.107299804688 0.900244295597
-133.546951293945 -71.304428100586 -224.694976806641 0.650757610798
-116.863563537598 -71.875839233398 -225.187896728516 0.911189258099
15.799053192139 -70.480682373047 -222.147766113281 0.915363788605
76.440841674805 -71.015480041504 -224.680633544922 0.142762169242
7.628736019135 -69.954544067383 -223.209381103516 0.903088450432
-111.708610534668 -71.742004394531 -230.018341064453 0.423488706350
76.904342651367 -71.095237731934 -228.520385742188 0.143932849169
81.284858703613 -71.217102050781 -229.751434326172 0.145517021418
-123.307182312012 -71.500122070313 -232.108001708984 0.197733163834
-114.040344238281 -71.888984680176 -231.312957763672 0.609221220016
-11.350331306458 -71.039192199707 -230.931671142578 0.937029480934
71.863632202148 -71.984733581543 -228.880310058594 0.143591344357
64.724166870117 -71.805534362793 -234.964538574219 0.143453821540
75.172370910645 -70.896972656250 -231.441619873047 0.585393726826
-133.251358032227 -70.562652587891 -234.624755859375 0.185074910522
71.869087219238 -71.493217468262 -235.483032226563 0.906087458134
66.878982543945 -70.978996276855 -236.078857421875 1.462343573570
-166.504577636719 -71.787330627441 -228.908782958984 1.092910289764
0.281125158072 -73.758781433105 -238.901580810547 0.144981995225
17.031494140625 -71.507896423340 -240.395843505859 0.141175538301
-5.930120468140 -70.680427551270 -239.316131591797 0.218607559800
13.532810211182 -70.358352661133 -239.482238769531 0.140261322260
64.522491455078 -71.883911132813 -239.034637451172 0.570800006390
11.294390678406 -71.277671813965 -241.262878417969 1.136114239693
-9.900498390198 -67.779983520508 -241.948944091797 0.141864106059
1.500402450562 -69.899871826172 -240.953582763672 0.534518241882
65.041503906250 -72.115898132324 -243.219482421875 0.824331462383
5.704584598541 -72.807380676270 -242.973754882813 0.910312712193
-8.679548263550 -71.825630187988 -243.301239013672 0.145384490490
13.532238960266 -71.436500549316 -244.771240234375 0.723167240620
-167.415740966797 -70.792549133301 -241.171356201172 1.514782547951
58.913589477539 -69.910377502441 -247.688293457031 0.755075514317
51.972694396973 -70.135688781738 -247.612976074219 1.140016198158
55.571525573730 -71.988830566406 -242.500915527344 0.634157359600
-12.104895591736 -71.637275695801 -248.044342041016 1.326006293297
57.356918334961 -72.267570495605 -247.188323974609 1.095652461052
-72.868782043457 -70.701736450195 -248.156463623047 0.642407715321
51.606399536133 -71.613426208496 -249.825317382813 0.144525423646
-90.918144226074 -72.342681884766 -251.832672119141 0.459525793791
-125.667106628418 -72.682929992676 -254.257751464844 0.198083549738
-133.302719116211 -70.853004455566 -254.116760253906 0.201635107398
43.890270233154 -71.740455627441 -252.814392089844 0.731254577637
-135.896072387695 -72.282524108887 -255.691955566406 0.441249817610
-110.621978759766 -72.009201049805 -256.956512451172 1.025482892990
-113.773864746094 -69.905761718750 -256.771453857422 0.462660104036
-82.761093139648 -72.052581787109 -255.168762207031 1.077834486961
-111.905288696289 -72.747566223145 -260.869293212891 0.628729522228
-124.004074096680 -72.751220703125 -261.978668212891 0.225816190243
-145.309906005859 -69.943557739258 -265.974365234375 0.207623362541
-15.539152145386 -71.359321594238 -262.155334472656 0.349709242582
-167.924850463867 -71.163604736328 -263.730133056641 1.431508302689
-14.217206954956 -72.131660461426 -271.985504150391 1.125645399094
-159.813095092773 -70.250900268555 -267.428039550781 0.583081722260
-152.812408447266 -70.301643371582 -275.196563720703 0.682385146618
-168.426559448242 -71.508956909180 -277.200378417969 1.233577966690
-12.787812232971 -70.307502746582 -275.095489501953 1.062950491905
-133.909317016602 -72.371765136719 -283.788482666016 1.290884375572
-159.995925903320 -71.145111083984 -285.971313476563 0.143861249089
-145.590972900391 -71.118728637695 -281.730651855469 0.354766279459
-135.098815917969 -73.983078002930 -284.692016601563 0.202395886183
-8.392853736877 -69.683525085449 -285.174682617188 1.419991016388
-125.583755493164 -74.229003906250 -284.362426757813 0.178861171007
-141.761962890625 -72.136909484863 -285.140655517578 0.242428690195
-116.667816162109 -71.358253479004 -286.061950683594 0.926321923733
-75.857978820801 -71.685974121094 -286.384399414063 0.169508725405
-62.639533996582 -70.378890991211 -287.420166015625 0.464041143656
-5.636292934418 -71.399147033691 -288.222534179688 0.634693384171
-53.021129608154 -70.911918640137 -289.353057861328 0.484822064638
-58.179279327393 -70.407638549805 -288.684539794922 0.161514222622
-69.121162414551 -70.325286865234 -290.448272705078 0.219718098640
-86.749382019043 -71.967857360840 -291.347778320313 0.260055243969
-98.350982666016 -69.075401306152 -290.898498535156 1.335633277893
-162.342788696289 -69.857498168945 -291.203002929688 1.041507959366
-162.776535034180 -72.403137207031 -292.054107666016 0.354485034943
-125.806167602539 -72.536064147949 -294.705230712891 0.866232693195
-145.425811767578 -72.450035095215 -295.962310791016 0.233817964792
-155.884292602539 -72.789123535156 -300.865814208984 0.292047232389
-147.628768920898 -71.418609619141 -313.089599609375 1.120823979378
47.428340911865 -69.969665527344 -17.735380172729 0.485427618027
20.018741607666 -71.876335144043 -27.043514251709 0.933726489544
41.326065063477 -70.829795837402 -33.965038299561 0.105705931783
-16.814533233643 -73.294136047363 -66.959007263184 1.679338097572
82.311141967773 -70.248413085938 -65.591888427734 1.208227515221
85.826934814453 -69.254745483398 -66.190071105957 0.107816107571
76.743743896484 -70.224250793457 -66.383079528809 0.109213598073
74.007102966309 -70.558197021484 -68.423698425293 1.003912568092
91.749534606934 -73.707450866699 -73.324722290039 0.413422882557
-93.533119201660 -69.739242553711 -70.218536376953 1.593490242958
70.792854309082 -72.051864624023 -76.088104248047 0.119995109737
-36.733921051025 -69.134597778320 -76.803436279297 1.528848648071
100.237365722656 -71.461364746094 -86.932388305664 1.093964099884
59.866203308105 -70.834846496582 -90.388954162598 1.599698424339
106.246284484863 -72.280792236328 -96.234413146973 0.499135285616
104.976341247559 -70.746597290039 -97.901939392090 0.117307819426
70.549453735352 -70.090698242188 -99.445030212402 0.872037351131
-77.285736083984 -73.240470886230 -99.240158081055 0.729511916637
54.248310089111 -72.243545532227 -101.696517944336 1.768611669540
105.322616577148 -70.537979125977 -105.038864135742 2.138711214066
48.939983367920 -72.900619506836 -109.825927734375 0.563075125217
80.460746765137 -70.275886535645 -104.181831359863 0.524306356907
42.097728729248 -70.620956420898 -106.530990600586 0.119830906391
106.997177124023 -69.888519287109 -103.659141540527 1.929293155670
47.868602752686 -69.677932739258 -107.757194519043 1.147288918495
109.389587402344 -70.950531005859 -111.333915710449 0.121751144528
109.140953063965 -70.300277709961 -113.834327697754 1.307109355927
-78.200233459473 -70.569869995117 -113.794090270996 1.085542798042
-82.302284240723 -70.784317016602 -117.296623229980 1.848289728165
44.338062286377 -72.269142150879 -120.814918518066 1.550544857979
114.165237426758 -71.105865478516 -118.700553894043 2.026557445526
114.330718994141 -69.322448730469 -123.976600646973 1.199739933014
-84.292953491211 -70.560546875000 -127.275901794434 1.106332302094
107.537635803223 -70.347900390625 -123.670997619629 0.123951025307
-58.755432128906 -72.032669067383 -131.409149169922 1.645488142967
-86.020561218262 -70.577667236328 -126.031944274902 1.282527685165
-75.393241882324 -69.692337036133 -127.746330261230 0.329473435879
-57.511180877686 -67.919967651367 -126.538719177246 0.481519073248
31.062992095947 -69.727111816406 -129.038116455078 2.501253604889
39.495433807373 -72.158226013184 -132.806365966797 0.735272586346
-75.783988952637 -70.419258117676 -137.072570800781 1.580593228340
28.696474075317 -70.678794860840 -132.751678466797 1.578553438187
109.943908691406 -70.346954345703 -139.914398193359 1.866837263107
-43.264980316162 -70.081977844238 -146.081237792969 0.154885694385
25.678613662720 -68.503997802734 -147.745605468750 1.105638504028
115.276359558105 -69.513893127441 -145.675628662109 0.378302127123
34.797473907471 -70.243484497070 -143.385559082031 1.384610414505
111.425025939941 -69.348968505859 -142.891418457031 0.129340916872
-53.248271942139 -71.895690917969 -148.734313964844 1.747892141342
-67.644073486328 -70.205421447754 -149.808593750000 1.675146102905
-51.145275115967 -70.982772827148 -154.909454345703 2.023944854736
-41.111068725586 -70.844917297363 -164.704650878906 2.602411031723
6.679195880890 -69.346870422363 -156.046569824219 0.301983088255
111.568305969238 -69.395622253418 -154.471191406250 0.132632777095
109.984748840332 -70.161056518555 -157.794586181641 0.821974933147
8.627976417542 -69.046600341797 -158.431579589844 1.484038114548
5.514866828918 -71.877731323242 -162.572021484375 0.371677726507
16.037525177002 -71.828788757324 -157.006408691406 0.766007900238
25.122877120972 -69.770759582520 -155.669311523438 1.399183511734
111.152259826660 -69.363937377930 -166.196441650391 0.654385864735
107.479820251465 -71.309707641602 -168.124603271484 0.410770237446
23.826644897461 -68.931182861328 -171.570465087891 0.637563109398
26.334125518799 -69.892372131348 -161.706115722656 0.192752033472
113.464370727539 -69.522994995117 -161.880981445313 1.881500124931
-27.760400772095 -70.124893188477 -174.241027832031 1.187402963638
109.684402465820 -69.663993835449 -168.490753173828 1.006091952324
17.075298309326 -71.037384033203 -171.775878906250 0.131991922855
22.148826599121 -69.924377441406 -165.365814208984 0.129279732704
109.528266906738 -69.562995910645 -173.529479980469 1.707023143768
25.658859252930 -69.901420593262 -170.984832763672 0.129214018583
110.077415466309 -70.921791076660 -181.669525146484 0.946932733059
-37.640605926514 -69.603225708008 -174.656341552734 2.058801174164
26.988748550415 -69.320579528809 -173.820068359375 1.521130561829
107.003639221191 -69.734695434570 -182.595825195313 0.996795475483
24.019720077515 -70.689491271973 -180.991729736328 0.581651508808
-152.662597656250 -70.234107971191 -186.870635986328 0.198886662722
-28.588525772095 -68.857002258301 -188.129211425781 1.522357821465
25.381528854370 -70.021362304688 -184.346527099609 2.390486717224
-110.939628601074 -70.267135620117 -190.930541992188 1.869800925255
-109.133033752441 -69.929367065430 -188.825897216797 0.191806167364
21.987640380859 -70.218841552734 -189.679412841797 0.906262874603
13.205465316772 -70.905647277832 -185.548095703125 0.134075954556
-26.546812057495 -70.351127624512 -189.614227294922 0.801733016968
-30.634855270386 -71.205345153809 -188.903869628906 0.581058681011
-26.429063796997 -70.180984497070 -185.346221923828 0.476755291224
17.927389144897 -69.904418945313 -179.718750000000 2.636349439621
-150.892257690430 -70.559677124023 -193.359741210938 0.220812529325
-143.683593750000 -70.816604614258 -193.533020019531 0.199124038219
-140.926910400391 -70.769683837891 -196.291229248047 0.278844058514
-21.661411285400 -69.771232604980 -191.145782470703 0.461395651102
12.490524291992 -70.056739807129 -199.235260009766 1.278310656548
99.626625061035 -70.458557128906 -194.719085693359 2.414034366608
-113.925804138184 -70.539443969727 -197.984924316406 0.181184500456
21.452774047852 -70.589027404785 -199.228729248047 1.414345622063
-17.792171478271 -70.044883728027 -196.625762939453 0.142918571830
-18.409460067749 -68.950233459473 -198.966400146484 1.186741232872
100.106933593750 -69.940147399902 -198.621032714844 0.141659900546
9.347965240479 -70.075424194336 -200.951965332031 1.274878144264
-21.535566329956 -69.127410888672 -195.969787597656 0.143470257521
-122.479835510254 -71.765182495117 -200.875946044922 0.439285784960
-133.646789550781 -69.919387817383 -203.211273193359 0.206816405058
-113.667587280273 -69.636108398438 -202.959106445313 0.268250405788
-142.031600952148 -70.909492492676 -203.475769042969 0.213280677795
18.761804580688 -69.814552307129 -197.495391845703 1.628228902817
95.735305786133 -69.676811218262 -205.101409912109 1.105952978134
-166.658706665039 -69.029151916504 -203.399078369141 0.159307241440
99.807151794434 -70.582542419434 -203.456237792969 2.259443998337
-18.866800308228 -70.506973266602 -207.209899902344 0.144182547927
94.480369567871 -70.886901855469 -212.782928466797 0.144553720951
87.802658081055 -69.591209411621 -214.897216796875 1.487130641937
14.611195564270 -69.864120483398 -210.340911865234 2.109230279922
18.220228195190 -70.784263610840 -210.516082763672 1.540152430534
11.998450279236 -69.675071716309 -207.147338867188 2.086608886719
-10.854997634888 -70.804962158203 -220.384826660156 0.933480620384
-95.435920715332 -69.836402893066 -216.639862060547 0.627582490444
-7.618770599365 -70.621551513672 -213.998687744141 1.473807096481
90.880256652832 -69.430778503418 -214.673065185547 1.680274367332
-92.215866088867 -70.368911743164 -219.423065185547 0.629610359669
-103.181800842285 -70.787567138672 -219.754669189453 0.928715765476
-91.686859130859 -72.806625366211 -220.132202148438 1.643742203712
86.682205200195 -69.528129577637 -221.349243164063 0.143375575542
-134.494277954102 -69.902282714844 -224.910644531250 0.204795330763
-134.526809692383 -69.357650756836 -224.910827636719 0.204467758536
-116.982955932617 -69.634468078613 -224.857910156250 0.193080231547
-112.739624023438 -68.789299011230 -225.792449951172 0.352294206619
-134.392379760742 -70.918762207031 -225.888977050781 0.205283164978
-109.262512207031 -72.323379516602 -226.189331054688 1.373951554298
-113.764183044434 -71.366828918457 -227.364257812500 0.343699932098
-6.605410575867 -70.566108703613 -225.887176513672 0.822981715202
-17.223648071289 -70.239356994629 -223.228149414063 0.643806517124
-1.303939819336 -70.254051208496 -231.542358398438 1.893053174019
-10.541069030762 -69.569129943848 -227.327453613281 0.142272114754
14.779922485352 -70.231575012207 -232.763153076172 0.851372301579
-16.586399078369 -70.025665283203 -228.673858642578 0.456148684025
-166.913574218750 -69.309295654297 -224.607849121094 1.691878557205
-2.159312963486 -68.869697570801 -232.987274169922 0.140317261219
80.321052551270 -69.843139648438 -229.803131103516 1.726583361626
9.217274665833 -70.662689208984 -234.430603027344 0.311593443155
-6.828776359558 -69.670684814453 -233.898254394531 0.142095148563
-156.578063964844 -69.119522094727 -237.326568603516 0.218005686998
-140.778533935547 -70.011863708496 -233.269165039063 0.385526031256
65.024566650391 -68.963928222656 -235.039794921875 1.724202275276
-5.881699562073 -71.085044860840 -235.730743408203 1.171122074127
6.398488998413 -70.977760314941 -233.347503662109 1.227429509163
69.151443481445 -70.068305969238 -235.197204589844 0.142915844917
77.010147094727 -71.632263183594 -234.085693359375 1.307691574097
69.930191040039 -70.669715881348 -239.951324462891 0.144815102220
-1.116733193398 -70.670066833496 -237.352935791016 0.649238824844
57.079113006592 -70.250488281250 -240.239624023438 1.014736771584
-18.627357482910 -70.800811767578 -239.068634033203 1.613589525223
-16.872976303101 -70.441589355469 -241.461761474609 1.340864658356
8.791876792908 -70.305061340332 -240.912109375000 0.919299066067
65.947990417480 -70.834602355957 -240.150909423828 0.654165923595
62.071411132813 -69.982803344727 -239.662567138672 1.484281182289
50.988555908203 -69.826988220215 -247.054229736328 1.745571255684
61.302680969238 -71.160400390625 -243.243194580078 1.087705731392
-16.047906875610 -70.729629516602 -250.851531982422 0.485068470240
-83.274200439453 -70.138381958008 -250.181365966797 1.662465333939
-76.889244079590 -69.578605651855 -251.734069824219 2.188988447189
44.495853424072 -70.971824645996 -249.337463378906 1.433749794960
-144.893676757813 -69.961296081543 -251.807312011719 0.677653908730
36.998058319092 -70.959320068359 -255.157989501953 0.879056930542
-91.693191528320 -70.229133605957 -251.840545654297 1.600689888000
-154.877319335938 -69.526962280273 -255.577636718750 0.931601762772
-141.282638549805 -69.992141723633 -255.170196533203 0.913032710552
48.024822235107 -71.010734558105 -252.871154785156 0.144173160195
-124.250587463379 -67.931358337402 -256.708709716797 0.525485098362
-115.729125976563 -68.922225952148 -256.409301757813 0.259573012590
-93.716781616211 -68.774581909180 -257.747161865234 1.007602810860
-14.857507705688 -70.347488403320 -254.482177734375 0.248329535127
31.346477508545 -70.419021606445 -258.902648925781 0.143352165818
24.700252532959 -69.516426086426 -260.548522949219 0.589438021183
-157.267822265625 -69.968437194824 -259.066009521484 1.490404248238
-115.220794677734 -72.031524658203 -262.545928955078 0.293998777866
-14.832625389099 -69.672172546387 -261.756896972656 0.146633028984
-134.365509033203 -70.662063598633 -264.608001708984 0.480617284775
-13.676166534424 -69.544036865234 -270.552368164063 0.340359866619
-167.153457641602 -69.506881713867 -274.401428222656 0.221018433571
-9.596592903137 -71.002548217773 -281.395019531250 0.149305328727
-162.588043212891 -69.583023071289 -287.974182128906 0.593640625477
-162.506515502930 -69.189544677734 -277.333648681641 3.339223861694
-143.401885986328 -69.869522094727 -285.344940185547 0.495912939310
-168.001541137695 -70.671829223633 -284.751678466797 0.221173897386
13.041034698486 -70.192443847656 -286.948730468750 0.147956937551
-103.523437500000 -70.504730224609 -286.799133300781 2.920633792877
-86.727767944336 -70.143562316895 -286.942260742188 0.173136308789
-166.658111572266 -69.411087036133 -285.314056396484 1.753922700882
-91.166587829590 -69.119079589844 -287.685272216797 1.492778301239
-150.668228149414 -69.903839111328 -287.460906982422 0.208973243833
-73.178733825684 -69.451736450195 -288.623718261719 1.203093767166
-68.545814514160 -69.975776672363 -288.746582031250 0.165073171258
-81.561813354492 -69.502197265625 -290.458557128906 1.566343665123
-4.415389060974 -67.070701599121 -290.659332275391 1.206919193268
-84.770698547363 -70.294570922852 -291.003845214844 1.994013905525
-98.987243652344 -69.859336853027 -291.827484130859 0.178802952170
-114.041336059570 -70.771591186523 -292.317718505859 0.229282721877
-116.746322631836 -70.145591735840 -292.540985107422 0.188426285982
-134.554199218750 -68.048660278320 -293.744659423828 1.403331279755
-143.969161987305 -71.585258483887 -300.966613769531 0.434123903513
-144.162933349609 -71.735412597656 -311.222625732422 0.204291641712
23.925201416016 -70.891731262207 -16.650335311890 0.125013828278
31.301137924194 -69.557891845703 -17.663558959961 1.235641598701
29.154064178467 -70.785255432129 -19.159223556519 0.369587868452
43.649173736572 -70.812843322754 -22.545104980469 0.865111052990
27.055095672607 -70.885963439941 -31.888866424561 1.139293193817
-74.773994445801 -67.730895996094 -47.943656921387 1.192831516266
90.231697082520 -68.052642822266 -64.319900512695 0.871711313725
-14.880063056946 -71.043838500977 -68.710899353027 0.143993020058
100.438026428223 -67.669494628906 -72.126281738281 1.706017494202
97.425331115723 -71.973770141602 -75.901199340820 0.112442329526
69.199768066406 -71.744331359863 -78.165634155273 0.112980328500
67.759689331055 -70.782844543457 -83.765083312988 0.439972013235
-44.917610168457 -71.884635925293 -83.423210144043 1.340363621712
62.162265777588 -69.420341491699 -84.576385498047 1.035692214966
-95.679473876953 -70.203681945801 -87.355773925781 0.863847434521
-51.466369628906 -68.603515625000 -86.760726928711 0.454433172941
-54.938190460205 -75.789581298828 -91.542182922363 0.617707490921
98.860298156738 -71.706169128418 -96.352439880371 0.718382179737
58.052280426025 -71.568321228027 -95.265159606934 0.116489060223
63.837581634521 -69.146179199219 -91.606925964355 1.495370984077
-97.331115722656 -67.760536193848 -96.509078979492 1.692224383354
107.724349975586 -69.862907409668 -96.455711364746 0.116750061512
46.726860046387 -69.274307250977 -98.774307250977 1.269802927971
100.262313842773 -69.667228698730 -98.147590637207 0.143797293305
106.125000000000 -69.505683898926 -105.660766601563 2.312713623047
103.125488281250 -69.874565124512 -106.276748657227 0.118204094470
73.440925598145 -69.278274536133 -103.523979187012 0.794475436211
87.972526550293 -70.821273803711 -104.797958374023 0.869279563427
49.516540527344 -71.444740295410 -111.571067810059 1.573684096336
110.829437255859 -70.935188293457 -105.973777770996 0.908421814442
44.205936431885 -69.249580383301 -107.438301086426 0.481402635574
43.754459381104 -67.879257202148 -101.162208557129 0.999011337757
111.786346435547 -69.180450439453 -110.481155395508 0.120652578771
-78.957092285156 -69.695594787598 -111.017982482910 1.992669463158
46.939670562744 -69.852607727051 -113.353675842285 0.118882589042
37.176532745361 -69.462661743164 -113.846755981445 0.822416782379
104.719444274902 -68.375152587891 -109.644760131836 0.118069522083
42.428382873535 -67.511795043945 -111.696998596191 1.130199551582
-89.324554443359 -68.941299438477 -115.625381469727 0.902217507362
-96.157180786133 -69.231323242188 -115.676597595215 0.870497941971
107.070434570313 -68.870353698730 -118.283470153809 2.227561473846
-94.556678771973 -71.722282409668 -118.461402893066 0.436373680830
38.241054534912 -68.659530639648 -122.117378234863 0.120438769460
37.609367370605 -68.538925170898 -118.285224914551 1.211410403252
-81.033004760742 -68.754295349121 -124.917686462402 1.471919894218
31.066322326660 -68.492996215820 -136.008087158203 0.293029069901
108.888656616211 -70.637954711914 -131.376770019531 1.478523850441
-51.708271026611 -68.906745910645 -132.634277343750 1.836858510971
-88.704978942871 -69.381683349609 -129.548828125000 0.956167817116
37.433830261230 -70.015014648438 -133.818847656250 1.776554942131
-92.448143005371 -67.342628479004 -134.993011474609 0.742855727673
-90.054801940918 -69.309112548828 -137.923339843750 1.101519465446
-48.851280212402 -71.873809814453 -137.785186767578 1.057290196419
-70.472877502441 -69.230598449707 -140.625244140625 1.656022667885
-50.660469055176 -68.235458374023 -135.136413574219 0.158474460244
112.813796997070 -68.503311157227 -139.240386962891 0.852407872677
-75.166854858398 -69.371620178223 -140.276702880859 0.933862328529
35.034820556641 -68.496910095215 -132.670013427734 2.261675596237
-78.881736755371 -70.141960144043 -138.856445312500 0.177263170481
-74.796691894531 -68.281326293945 -136.598632812500 0.173565447330
-87.542762756348 -68.223098754883 -137.388580322266 0.881124734879
-51.840320587158 -70.203269958496 -149.360076904297 1.926149964333
31.345508575439 -68.417503356934 -145.754364013672 0.595305800438
27.873809814453 -67.757186889648 -150.611175537109 1.420252561569
17.523002624512 -68.114219665527 -144.397979736328 0.126998394728
113.392417907715 -69.078430175781 -146.852111816406 0.730124950409
-96.922943115234 -68.576843261719 -153.902618408203 1.656602025032
15.989497184753 -70.707832336426 -152.690124511719 0.593626737595
-72.285278320313 -69.021133422852 -151.064819335938 1.457967996597
23.101121902466 -69.765853881836 -150.975891113281 0.127533897758
-48.802921295166 -68.993637084961 -155.609130859375 1.599404335022
9.208966255188 -68.583137512207 -152.529724121094 0.130414783955
12.652594566345 -70.024589538574 -157.562683105469 0.703153371811
18.952426910400 -70.626708984375 -164.199188232422 0.812335193157
-45.969779968262 -69.782905578613 -161.304290771484 0.155432030559
-40.059192657471 -69.563903808594 -154.127441406250 0.640059828758
-44.759487152100 -68.379730224609 -159.408233642578 0.770677983761
-104.297935485840 -68.920249938965 -170.389129638672 0.189969047904
21.603719711304 -68.908638000488 -173.006561279297 1.976440906525
-36.280364990234 -68.381973266602 -172.962951660156 1.173873424530
15.377720832825 -69.930236816406 -178.480773925781 1.263261318207
-145.385253906250 -70.328018188477 -175.017730712891 0.219347223639
-33.239116668701 -68.271102905273 -173.448272705078 0.147477284074
-153.012451171875 -69.068519592285 -176.954223632813 0.356083035469
21.494298934937 -68.827415466309 -182.294555664063 2.384645938873
-31.163331985474 -68.588546752930 -173.232208251953 1.908889174461
-108.890190124512 -69.561325073242 -180.275177001953 1.645174384117
-107.383407592773 -69.508903503418 -182.322723388672 0.191074654460
-29.094490051270 -68.246246337891 -184.472045898438 0.404114931822
-22.675245285034 -70.156532287598 -182.139190673828 1.074391007423
16.191980361938 -68.808837890625 -189.842895507813 0.132056772709
18.368217468262 -68.888504028320 -194.986175537109 1.747225642204
14.773427963257 -68.041427612305 -186.432312011719 0.131274834275
-143.326309204102 -70.199295043945 -188.217712402344 0.215849488974
17.888383865356 -68.461708068848 -190.458984375000 0.462152838707
10.180119514465 -70.161148071289 -196.868988037109 1.546989202499
-140.123962402344 -68.793785095215 -195.745666503906 0.211652845144
-116.713356018066 -69.427345275879 -195.435485839844 0.195827156305
14.763978958130 -68.906974792480 -197.598144531250 2.248133659363
-113.116241455078 -69.665496826172 -196.478240966797 0.888323962688
-108.032859802246 -69.105102539063 -191.565399169922 2.394837856293
-163.264785766602 -70.039176940918 -197.464355468750 1.068663239479
-24.214282989502 -69.629501342773 -200.266174316406 2.354410886765
15.961047172546 -68.980422973633 -201.274841308594 1.949153184891
-140.074844360352 -68.757881164551 -203.352905273438 1.125451922417
-132.992767333984 -68.231414794922 -204.792877197266 0.205097377300
-17.716289520264 -68.910140991211 -206.477722167969 0.142374634743
-11.180608749390 -70.437232971191 -203.428680419922 0.695562303066
-16.254659652710 -68.541633605957 -206.174774169922 0.648750543594
-143.938323974609 -69.370422363281 -206.626983642578 0.213254809380
-15.386585235596 -70.487335205078 -213.034423828125 1.193330168724
-12.529232978821 -68.946556091309 -213.948242187500 0.141228035092
16.766496658325 -68.896873474121 -210.836425781250 1.081497550011
-11.675296783447 -68.880935668945 -211.146972656250 0.140727072954
10.742181777954 -67.928260803223 -211.624877929688 1.417776584625
-9.305454254150 -68.892715454102 -216.334014892578 0.253800630569
-17.515914916992 -69.330268859863 -212.620880126953 1.563786387444
14.102650642395 -69.155471801758 -221.606475830078 1.117119550705
-0.268345504999 -70.829696655273 -220.856658935547 0.702468991280
11.291312217712 -68.480255126953 -222.495849609375 1.049010396004
-5.317777156830 -68.972373962402 -224.876464843750 1.246829152107
-156.353103637695 -68.490608215332 -222.928710937500 1.402796030045
81.289245605469 -69.629142761230 -221.262542724609 0.141920134425
