23.051038742065 -60.324890136719 -139.960067749023 0.903958380222
-49.728519439697 -76.245140075684 -151.179611206055 1.947332143784
116.361251831055 -72.731140136719 -132.838256835938 1.068791031837
-42.263835906982 -78.332458496094 -84.807159423828 1.793506741524
-71.860084533691 -84.672966003418 -86.698295593262 1.633536696434
-10.669706344604 -76.291778564453 -207.861801147461 1.079841136932
79.101379394531 -72.255020141602 -68.524391174316 1.560760974884
-145.128753662109 -76.206718444824 -209.375289916992 1.862982034683
28.712123870850 -75.014999389648 -172.504974365234 1.594300985336
31.467451095581 -64.312950134277 -35.698356628418 2.752381563187
-65.184913635254 -60.298797607422 -106.445434570313 1.786255478859
-94.748649597168 -63.453479766846 -152.256134033203 1.500055670738
-145.747375488281 -74.491355895996 -200.150756835938 0.914339065552
-57.635723114014 -62.280559539795 -134.620086669922 1.992914795876
-53.361682891846 -66.378295898438 -45.252502441406 2.508710622787
-31.861139297485 -65.186172485352 -48.454673767090 1.524610519409
-38.976661682129 -78.639923095703 -200.895172119141 1.628806829453
48.002624511719 -71.509490966797 -29.925348281860 1.760677456856
103.144447326660 -67.403541564941 -90.148506164551 0.951768159866
-155.519912719727 -74.138854980469 -295.101440429688 1.113139390945
-147.442565917969 -64.225883483887 -275.704589843750 1.602663874626
-77.489219665527 -68.735267639160 -117.101242065430 1.738375067711
-16.749307632446 -73.869964599609 -236.949783325195 1.056045770645
12.971519470215 -77.418289184570 -205.298904418945 1.859373331070
15.996952056885 -72.514686584473 -214.487106323242 1.908637285233
-77.440177917480 -67.452796936035 -106.812690734863 1.704134345055
25.391372680664 -64.277725219727 -26.666978836060 2.432056188583
-146.701400756836 -76.769973754883 -186.436004638672 0.764812469482
-4.126041412354 -76.554008483887 -280.795410156250 1.972878217697
-37.469757080078 -80.329399108887 -205.449768066406 1.107841372490
-158.145339965820 -67.293434143066 -201.641143798828 1.041807889938
17.543163299561 -67.482360839844 -178.994689941406 0.949586510658
99.450637817383 -73.732391357422 -201.523422241211 1.479311466217
-154.082885742188 -73.843750000000 -267.651611328125 1.998025059700
-151.581787109375 -84.108795166016 -298.785461425781 0.640876591206
-138.312896728516 -70.064285278320 -196.260787963867 2.068778514862
81.426490783691 -71.725860595703 -101.265472412109 1.781123518944
38.868598937988 -67.915542602539 -12.285833358765 2.195692777634
-139.097076416016 -65.084426879883 -230.262893676758 2.133079767227
-152.777832031250 -74.008255004883 -271.764831542969 1.624848127365
-24.075868606567 -67.419181823730 -189.990509033203 1.282753586769
-18.438066482544 -76.176681518555 -204.856445312500 1.952784895897
23.636419296265 -64.562713623047 -136.855529785156 1.091720342636
77.461647033691 -73.883995056152 -224.307952880859 1.029403805733
-107.709983825684 -62.765148162842 -177.066177368164 0.949814677238
-151.627853393555 -63.260364532471 -181.168884277344 1.066249728203
-52.929084777832 -71.238182067871 -133.687255859375 0.333746403456
-0.236277237535 -71.404380798340 -290.924530029297 0.854669094086
-76.156433105469 -85.325691223145 -101.453926086426 1.190106511116
-111.582237243652 -66.453445434570 -258.553344726563 0.845703899860
-57.773441314697 -78.169425964355 -246.093307495117 1.265780806541
-152.867568969727 -79.568580627441 -293.769531250000 0.878325641155
-140.098831176758 -72.125518798828 -226.555068969727 1.176608562469
-64.759109497070 -78.608833312988 -63.077125549316 1.680477261543
38.183498382568 -70.988655090332 -123.972106933594 0.731177151203
79.296134948730 -77.370254516602 -89.921562194824 0.742324650288
-36.411148071289 -75.025283813477 -175.949157714844 2.082896471024
9.853963851929 -75.784683227539 -208.231735229492 0.547458052635
-111.530143737793 -72.577285766602 -257.896881103516 2.012658834457
-85.102699279785 -76.375083923340 -111.594642639160 1.842016577721
-97.663864135742 -65.938308715820 -81.829338073730 2.078333854675
-148.169631958008 -67.512191772461 -312.447479248047 0.851224362850
-65.317070007324 -74.322250366211 -152.586486816406 1.740470767021
28.326604843140 -61.874408721924 -139.007751464844 2.246146678925
21.038642883301 -69.952178955078 -277.697052001953 1.564471721649
-17.480337142944 -76.953727722168 -239.975067138672 0.811052918434
-157.925811767578 -69.841247558594 -293.217285156250 2.075500965118
-56.669059753418 -66.246101379395 -139.171752929688 0.739241778851
-80.770713806152 -61.702392578125 -126.213104248047 1.822095990181
-17.906459808350 -70.836235046387 -238.782562255859 1.158002018929
116.343307495117 -74.045875549316 -138.412048339844 3.314288139343
-43.620292663574 -73.870819091797 -53.571914672852 0.957201004028
68.909851074219 -69.592529296875 -73.774032592773 0.842022299767
49.755920410156 -64.529708862305 -25.344572067261 3.273561716080
-4.448686122894 -82.921531677246 -267.332611083984 1.790058016777
50.898117065430 -68.661621093750 -106.402984619141 1.236235857010
-65.631263732910 -76.254425048828 -97.980430603027 1.108291625977
15.252232551575 -80.831115722656 -228.390014648438 0.582496404648
-97.032951354980 -64.058326721191 -145.926452636719 1.752035140991
35.749271392822 -80.447296142578 -133.200225830078 0.713880062103
-25.482023239136 -64.757591247559 -69.834197998047 0.145132765174
37.979854583740 -75.269973754883 -112.742485046387 1.525950431824
-81.240013122559 -62.535533905029 -47.527160644531 1.464190959930
-146.020187377930 -83.852989196777 -236.672241210938 1.633693218231
95.627113342285 -70.962112426758 -210.899795532227 2.141152620316
-166.329589843750 -69.035133361816 -265.034606933594 0.704686105251
81.568473815918 -76.494567871094 -77.881095886230 0.803078413010
-150.017013549805 -83.362190246582 -258.791290283203 0.537436127663
-45.860832214355 -79.766166687012 -243.399856567383 0.786290705204
12.800392150879 -68.139312744141 -216.856735229492 1.963846683502
-145.626907348633 -76.796051025391 -186.786834716797 0.808193027973
-18.483470916748 -77.848831176758 -223.070907592773 0.888028502464
3.516720533371 -84.284774780273 -255.298507690430 1.836115002632
7.223520755768 -77.810195922852 -217.660720825195 2.014213323593
-6.878982543945 -81.032379150391 -268.299621582031 2.115391969681
-57.306262969971 -76.833297729492 -57.295410156250 1.683636784554
0.923202514648 -60.497772216797 -250.929458618164 3.057591199875
-152.690704345703 -76.705207824707 -283.398956298828 2.188862323761
8.134277343750 -74.809730529785 -160.044174194336 1.351383209229
-11.878181457520 -79.225463867188 -216.093399047852 1.530527353287
-34.977054595947 -78.564758300781 -161.355758666992 1.091793537140
87.504585266113 -75.860679626465 -220.856063842773 2.611156225204
25.900503158569 -79.443328857422 -168.870742797852 1.811871409416
58.447681427002 -72.343238830566 -240.764755249023 1.907790780067
-149.842727661133 -77.960754394531 -205.981155395508 1.521574139595
-71.229492187500 -86.869430541992 -93.950050354004 2.148680686951
-89.852333068848 -78.866317749023 -104.619102478027 1.519248247147
-105.950042724609 -72.009048461914 -223.130645751953 0.891080081463
-66.170516967773 -76.794563293457 -166.979431152344 0.846019566059
-150.627136230469 -78.074424743652 -249.803634643555 2.398786783218
18.305231094360 -76.599510192871 -251.144485473633 0.998205244541
-93.737068176270 -72.234031677246 -221.017089843750 1.115479230881
109.450485229492 -70.039489746094 -132.613861083984 1.048436880112
5.807167530060 -74.975662231445 -239.103393554688 0.753431499004
-150.478027343750 -66.229835510254 -303.625457763672 2.628728866577
-156.158370971680 -65.851264953613 -290.454498291016 1.320364475250
60.080883026123 -72.631729125977 -90.297775268555 1.502420186996
13.226262092590 -74.948974609375 -282.817016601563 1.398551821709
89.063804626465 -69.410011291504 -216.789199829102 1.150625109673
-42.038925170898 -82.661552429199 -78.048072814941 1.909793853760
-92.953208923340 -75.152099609375 -105.169136047363 1.874871134758
83.197128295898 -71.667282104492 -222.337799072266 1.163731932640
-65.675643920898 -84.151321411133 -80.631217956543 2.005186319351
-65.919212341309 -80.534553527832 -99.496498107910 0.920428574085
-57.577461242676 -70.336540222168 -140.138381958008 0.603976607323
78.128784179688 -68.984550476074 -230.935409545898 0.636811852455
-92.370513916016 -71.744758605957 -252.368301391602 1.506450653076
-10.178127288818 -79.284393310547 -210.077072143555 1.013020753860
52.893112182617 -76.274414062500 -103.663909912109 1.706548810005
22.409946441650 -79.137390136719 -179.477096557617 0.843381822109
-134.673416137695 -67.405403137207 -256.110961914063 0.888931512833
41.347450256348 -73.781593322754 -102.702453613281 2.037618398666
45.871791839600 -71.057266235352 -95.613868713379 1.414977788925
-117.802276611328 -69.548698425293 -292.484161376953 1.399716973305
-65.534172058105 -70.135162353516 -287.504882812500 1.137777686119
102.971511840820 -67.966392517090 -97.305809020996 1.123412370682
-101.196220397949 -70.563522338867 -218.875350952148 1.185636520386
-166.086685180664 -69.295227050781 -276.665618896484 1.197877764702
-41.199275970459 -70.165184020996 -150.276199340820 1.837442159653
-83.127571105957 -75.369094848633 -288.032775878906 1.235628843307
-82.082260131836 -62.018939971924 -115.984535217285 0.341797620058
-149.460235595703 -73.083885192871 -213.345733642578 1.857140183449
7.834480762482 -62.931266784668 -242.571548461914 1.984386444092
-145.767715454102 -65.280975341797 -221.845458984375 1.129538893700
-151.002410888672 -81.692344665527 -265.207427978516 2.415857553482
-146.930175781250 -65.073638916016 -289.614044189453 1.342948436737
-92.670783996582 -62.635280609131 -58.076751708984 2.301826238632
-163.096832275391 -73.649024963379 -256.107635498047 1.711918592453
-119.688446044922 -72.022895812988 -255.415237426758 2.125277996063
-112.043609619141 -67.847328186035 -231.948593139648 1.181704998016
-98.217361450195 -59.502014160156 -67.121780395508 1.101022839546
-145.245559692383 -72.702407836914 -277.207183837891 0.704876005650
-62.987812042236 -76.052734375000 -157.516250610352 1.759524106979
108.413772583008 -70.790077209473 -99.137664794922 2.064383745193
-14.951786041260 -71.702941894531 -262.360534667969 0.458644032478
-66.284805297852 -62.712867736816 -112.516944885254 1.495810389519
-57.455818176270 -84.536308288574 -80.299774169922 2.582922220230
28.972869873047 -78.471519470215 -132.048278808594 2.035832643509
-106.765892028809 -65.720817565918 -167.536560058594 0.850641846657
-68.651641845703 -60.503761291504 -120.575088500977 2.653781175613
-86.866806030273 -71.636459350586 -255.975967407227 1.628279805183
-145.260833740234 -73.489074707031 -208.050888061523 2.343870878220
-11.578871726990 -73.574310302734 -224.440338134766 1.027145624161
43.380756378174 -66.384887695313 -14.410860061646 1.990633726120
-6.644003391266 -80.832702636719 -171.021591186523 0.981673657894
-125.626724243164 -61.944705963135 -199.197280883789 0.611052751541
-1.319253444672 -77.136795043945 -231.230484008789 1.694568753242
-96.382064819336 -65.970756530762 -118.908905029297 1.054040670395
18.118114471436 -75.912437438965 -223.954925537109 1.530414223671
-158.128036499023 -68.312858581543 -218.323898315430 2.648694038391
-69.402473449707 -70.993408203125 -247.646163940430 1.748026609421
12.516133308411 -82.728485107422 -242.982864379883 2.474168062210
-84.297721862793 -67.107727050781 -131.005371093750 1.084538340569
-54.592990875244 -64.452606201172 -141.566696166992 0.819563508034
65.525093078613 -70.279022216797 -237.243988037109 0.895214080811
-163.103897094727 -73.386787414551 -237.778472900391 1.826717376709
-41.951168060303 -80.862487792969 -199.176132202148 1.361937999725
-73.413131713867 -81.924598693848 -211.076278686523 1.101912975311
-74.239257812500 -73.069496154785 -149.803314208984 1.972177028656
-18.887245178223 -79.758239746094 -195.236251831055 1.241472482681
13.926676750183 -80.163192749023 -213.005004882813 2.570060014725
105.933769226074 -67.723930358887 -110.620155334473 1.598386049271
-32.394649505615 -70.295730590820 -174.706848144531 2.419204473495
43.575630187988 -76.353195190430 -119.185180664063 1.505159139633
0.327393919230 -77.074241638184 -221.728118896484 2.516266107559
-160.845275878906 -73.535354614258 -237.543655395508 0.504091978073
28.650114059448 -64.891410827637 -39.965110778809 2.069428920746
-22.226951599121 -76.767280578613 -185.985717773438 1.054940462112
114.007217407227 -75.113807678223 -168.209960937500 1.039075016975
-13.027389526367 -79.389533996582 -204.605484008789 2.013734340668
62.448635101318 -70.698753356934 -239.628784179688 1.379822611809
83.569366455078 -74.769515991211 -217.624649047852 1.473109126091
-152.115264892578 -77.680847167969 -311.022521972656 0.819797873497
-130.011505126953 -72.393348693848 -225.440734863281 2.406642675400
49.682682037354 -65.288612365723 -91.815780639648 1.611452698708
-20.209619522095 -74.513549804688 -67.127853393555 1.359066724777
81.349578857422 -69.865501403809 -220.760330200195 0.580805599689
-63.354202270508 -76.944282531738 -249.378463745117 0.983415186405
-150.023178100586 -66.189537048340 -303.047637939453 2.149755477905
30.282384872437 -72.227088928223 -132.299377441406 0.718621969223
32.800643920898 -74.984062194824 -148.636611938477 0.621066033840
55.077526092529 -73.546722412109 -95.506355285645 2.086136341095
20.776067733765 -64.440055847168 -147.284820556641 1.339203715324
49.330802917480 -72.108200073242 -111.932296752930 1.165017247200
-41.101554870605 -75.957710266113 -57.674705505371 1.613993406296
32.022174835205 -77.715339660645 -146.342742919922 1.494577407837
-30.857595443726 -74.381309509277 -206.761245727539 1.677360892296
-147.372528076172 -60.195659637451 -205.191711425781 0.397874772549
-10.517682075500 -71.572944641113 -207.862579345703 2.344791889191
11.901722908020 -69.268936157227 -227.849578857422 1.851810097694
-87.063812255859 -73.133865356445 -218.024765014648 0.714010417461
-29.875816345215 -68.334144592285 -176.405349731445 2.272517204285
-77.258010864258 -84.801658630371 -91.610687255859 2.144838571548
-3.556407928467 -75.173675537109 -284.698608398438 0.722567677498
113.529174804688 -69.442222595215 -160.211029052734 1.681423068047
-101.636207580566 -74.117103576660 -287.806945800781 1.285159945488
-64.098655700684 -63.916660308838 -115.025268554688 2.063069820404
-153.895751953125 -74.393737792969 -199.329574584961 2.802793741226
84.011085510254 -77.394821166992 -88.435737609863 1.696931004524
-84.838638305664 -66.844787597656 -132.652191162109 0.643245398998
-6.921049118042 -78.161155700684 -212.165008544922 2.116032838821
-68.166847229004 -60.348468780518 -95.721031188965 1.204110741615
29.587244033813 -70.114669799805 -164.231063842773 2.133692502975
102.862632751465 -76.260932922363 -185.993972778320 2.481866836548
-25.040586471558 -68.308044433594 -194.452163696289 1.384945631027
-103.591728210449 -71.123924255371 -220.408447265625 0.885661005974
-147.452026367188 -67.993530273438 -259.954925537109 0.479668587446
-12.839879035950 -67.828010559082 -62.437034606934 1.874059677124
-153.498916625977 -63.022266387939 -259.779754638672 0.818249583244
69.175666809082 -72.057212829590 -231.265472412109 2.064735889435
-29.222465515137 -77.776527404785 -189.777404785156 1.600114107132
-28.410722732544 -77.794403076172 -185.782592773438 2.108995914459
-160.359664916992 -70.349090576172 -280.533996582031 1.435315489769
-61.492424011230 -79.282798767090 -64.937057495117 1.583100795746
41.949008941650 -71.464035034180 -118.618057250977 2.294114589691
41.109951019287 -63.030689239502 -33.596298217773 1.030530095100
-79.998756408691 -72.378890991211 -248.950729370117 0.704985380173
28.712329864502 -68.066444396973 -153.620269775391 1.311987519264
-35.808994293213 -76.277610778809 -80.298408508301 1.025728464127
101.588012695313 -69.319236755371 -97.106529235840 1.119516372681
-148.564270019531 -61.149463653564 -224.648162841797 0.748359262943
-41.737358093262 -70.508163452148 -169.074020385742 2.062848091125
-149.572418212891 -61.381618499756 -235.468124389648 0.545264840126
-39.421356201172 -74.381622314453 -171.016006469727 1.530704855919
-85.481117248535 -69.451347351074 -131.615173339844 1.297955870628
101.421485900879 -65.444877624512 -72.283699035645 1.928135037422
4.071385383606 -75.723365783691 -239.102844238281 1.241144180298
6.885976791382 -62.098377227783 -241.388656616211 1.157895684242
-23.912801742554 -76.129180908203 -177.524978637695 0.956459879875
-37.328998565674 -68.324485778809 -49.116348266602 0.939410030842
14.530090332031 -82.544929504395 -263.198303222656 1.598698019981
-94.353942871094 -68.538192749023 -145.014663696289 0.417096108198
-148.287429809570 -77.180183410645 -198.222610473633 0.592358112335
-80.557464599609 -68.882095336914 -131.660461425781 0.974811851978
25.544391632080 -74.976379394531 -145.965072631836 1.787306189537
31.100143432617 -73.112640380859 -155.266250610352 2.084410905838
-145.555801391602 -74.277572631836 -215.681945800781 2.106856107712
93.254089355469 -71.922050476074 -203.056976318359 0.342467159033
-162.011001586914 -66.945930480957 -225.013198852539 1.007214069366
-148.774627685547 -77.631874084473 -230.293151855469 1.446654438972
42.293846130371 -77.509399414063 -104.973442077637 0.226750448346
-103.805999755859 -69.272232055664 -291.822418212891 3.475737333298
11.264544487000 -74.501235961914 -285.385681152344 1.982752680779
4.101003646851 -82.614624023438 -275.592987060547 1.174429535866
-149.545440673828 -76.178703308105 -218.977569580078 2.296381950378
-78.401535034180 -65.512397766113 -101.857948303223 0.949946761131
-24.364236831665 -73.054580688477 -238.925979614258 0.997179865837
101.194122314453 -74.206619262695 -198.098587036133 1.460491657257
-5.815063953400 -64.968566894531 -252.833572387695 1.009837627411
-75.863792419434 -67.830711364746 -124.746566772461 0.636351585388
-147.350326538086 -70.242149353027 -175.455520629883 1.871263742447
29.990413665771 -79.903053283691 -134.282363891602 2.532902479172
-70.307907104492 -68.385406494141 -143.472290039063 1.755045652390
3.924944162369 -77.703239440918 -231.067459106445 1.923853039742
23.901521682739 -75.061119079590 -153.273452758789 0.565236449242
85.061729431152 -66.113945007324 -62.400672912598 2.034254550934
-32.473354339600 -80.146827697754 -174.371368408203 1.526577949524
-147.286224365234 -84.129966735840 -290.121429443359 0.495002418756
-47.639240264893 -67.255661010742 -137.681350708008 3.109492301941
-26.426443099976 -68.728317260742 -192.824295043945 2.699287891388
7.424122810364 -83.695358276367 -253.233169555664 1.426958322525
19.731397628784 -75.147377014160 -235.481185913086 1.745604753494
-166.393020629883 -70.779006958008 -223.312881469727 1.970590472221
-25.368112564087 -69.991355895996 -189.627059936523 0.940571188927
-163.562530517578 -72.865028381348 -232.304580688477 0.773549675941
14.220252990723 -71.849800109863 -224.232574462891 1.274465560913
-153.984008789063 -83.894645690918 -289.254943847656 0.880398750305
49.793952941895 -66.142532348633 -251.957565307617 2.157160997391
8.399223327637 -70.059555053711 -242.444366455078 0.241947919130
70.641685485840 -69.631034851074 -230.413360595703 1.381568670273
-145.824645996094 -64.046348571777 -219.169296264648 1.401491761208
90.034271240234 -60.694240570068 -60.000534057617 2.015282869339
-7.339764118195 -80.145324707031 -269.903869628906 2.741969823837
-20.819168090820 -69.146011352539 -56.958541870117 0.504360914230
-3.818407535553 -65.894210815430 -288.683654785156 1.075339078903
23.698278427124 -67.390762329102 -160.548828125000 1.644966363907
-57.442970275879 -65.866729736328 -141.962890625000 1.507314562798
42.057155609131 -64.746330261230 -250.215835571289 1.905175685883
-47.527519226074 -83.520446777344 -83.657379150391 1.089381456375
31.925695419312 -68.333564758301 -140.020919799805 1.366891622543
-117.129646301270 -64.937660217285 -197.839935302734 2.614353179932
-153.394454956055 -76.360626220703 -303.650695800781 2.298404455185
71.136466979980 -69.309234619141 -230.292480468750 1.340013980865
24.907461166382 -70.867721557617 -177.558029174805 2.791218280792
-95.669044494629 -60.434730529785 -60.925407409668 1.940292954445
-150.589599609375 -64.152923583984 -247.145370483398 1.902166485786
-162.503524780273 -73.569465637207 -254.556442260742 0.486179143190
-143.431961059570 -73.500755310059 -293.125610351563 1.026822090149
114.606063842773 -76.013526916504 -138.151351928711 2.796905994415
-14.859399795532 -79.707153320313 -204.091186523438 2.109459638596
38.247032165527 -60.731121063232 -125.685729980469 2.412533521652
-87.712661743164 -66.725509643555 -138.836090087891 2.055223703384
30.457773208618 -64.402221679688 -35.292236328125 2.695329427719
13.155149459839 -70.253868103027 -213.842941284180 0.972848713398
-99.298896789551 -64.446586608887 -150.457229614258 1.515053391457
-38.441909790039 -74.555015563965 -240.948013305664 2.001292228699
-134.178253173828 -67.478897094727 -263.493225097656 0.930664479733
17.261381149292 -78.183929443359 -218.946289062500 1.263838529587
105.741287231445 -70.835868835449 -177.131591796875 2.034578561783
4.572205066681 -60.843536376953 -256.426666259766 2.006532907486
43.171382904053 -77.122451782227 -124.692123413086 1.225735068321
-16.540174484253 -74.578247070313 -191.022109985352 2.052212476730
-166.317596435547 -68.441642761230 -208.525039672852 1.039054274559
-69.408180236816 -65.688102722168 -101.547119140625 1.033436417580
14.883584022522 -68.907958984375 -286.136779785156 1.442787289619
-19.724927902222 -75.449684143066 -237.297409057617 2.169414997101
22.433546066284 -75.358978271484 -188.117263793945 2.260250329971
-33.184154510498 -74.055519104004 -205.213516235352 1.434818148613
51.641117095947 -66.878562927246 -99.744255065918 0.866528749466
-74.018951416016 -75.589973449707 -251.564224243164 0.758966863155
4.337558746338 -66.355232238770 -230.008834838867 0.811743259430
-41.198051452637 -79.943695068359 -163.060501098633 1.332426309586
-29.339279174805 -74.857818603516 -167.587203979492 0.773967564106
63.397918701172 -69.687347412109 -235.763473510742 0.891805291176
-55.038490295410 -73.287620544434 -139.105743408203 0.882368206978
-122.093856811523 -64.102973937988 -200.966659545898 1.181408047676
-118.254920959473 -72.145118713379 -228.385284423828 3.404548883438
-39.555397033691 -74.959983825684 -154.663757324219 2.288440227509
11.182659149170 -61.147701263428 -242.912933349609 1.255368232727
-34.081268310547 -72.705413818359 -77.122192382813 1.679045677185
-43.587688446045 -76.011283874512 -57.060531616211 1.527505278587
-8.821918487549 -73.365432739258 -234.653472900391 2.224144935608
12.703022003174 -68.349571228027 -193.214553833008 0.938752710819
-143.731918334961 -65.105781555176 -234.618240356445 2.400906324387
94.798614501953 -73.732849121094 -209.092498779297 1.428244948387
-32.783065795898 -66.859947204590 -49.165611267090 2.080803871155
-23.367048263550 -76.667190551758 -72.320098876953 0.515986800194
47.061458587646 -68.977149963379 -249.460037231445 1.735713720322
-142.875869750977 -84.796981811523 -287.450164794922 1.629962205887
29.266193389893 -61.369953155518 -34.558212280273 1.320774793625
-36.938224792480 -76.024482727051 -239.644531250000 0.985726773739
23.044765472412 -61.820529937744 -143.528869628906 1.612711787224
40.739772796631 -77.225692749023 -106.536354064941 2.009161472321
-58.768077850342 -77.422279357910 -174.360610961914 0.798346757889
1.894286870956 -72.762252807617 -241.215515136719 1.757432699203
-150.254821777344 -67.838470458984 -297.636627197266 1.857395648956
-47.516361236572 -61.168880462646 -44.210945129395 1.673853993416
2.843190908432 -72.323135375977 -163.809631347656 0.562095463276
-61.249217987061 -71.859069824219 -50.015533447266 1.572110772133
-18.188348770142 -72.328948974609 -63.985862731934 1.614239335060
-160.160095214844 -68.276641845703 -252.394821166992 1.418506383896
96.073974609375 -70.400840759277 -208.849258422852 3.133853197098
12.391199111938 -82.631599426270 -237.197647094727 0.945826470852
108.205001831055 -72.016716003418 -111.628952026367 0.599660515785
22.819601058960 -67.507087707520 -184.871307373047 1.990804314613
-140.858520507813 -78.375289916992 -287.318298339844 1.609753131866
-145.780624389648 -74.762031555176 -220.322082519531 2.012650966644
-146.534011840820 -73.070251464844 -192.757705688477 0.545679390430
-87.405448913574 -68.083824157715 -136.973907470703 0.532532870770
-67.787414550781 -60.300281524658 -114.632469177246 0.670277893543
-148.360748291016 -83.907859802246 -236.343215942383 1.588152766228
-9.962569236755 -66.681259155273 -253.045578002930 2.508013725281
-1.765875220299 -72.544158935547 -240.813247680664 1.076883554459
-144.702590942383 -68.732231140137 -237.458358764648 1.443962693214
-144.234390258789 -80.586647033691 -190.158966064453 2.844161272049
-4.687521457672 -77.192512512207 -247.722763061523 0.996282458305
-49.906204223633 -76.527526855469 -57.635887145996 2.122400522232
-77.824714660645 -74.370811462402 -100.080810546875 1.199348926544
14.055094718933 -82.976715087891 -242.039657592773 3.205400943756
90.582801818848 -67.422332763672 -106.643585205078 0.849075138569
108.637847900391 -72.367797851563 -130.072723388672 0.930029213428
42.560340881348 -61.043579101563 -21.959131240845 1.360195279121
25.916210174561 -71.260009765625 -184.675964355469 2.408509016037
55.727741241455 -70.368431091309 -245.108367919922 1.440894365311
15.454554557800 -70.390541076660 -234.354721069336 1.778015017509
111.621757507324 -76.156669616699 -139.680541992188 1.401920080185
-99.101791381836 -62.642875671387 -92.796325683594 2.066095829010
-155.433502197266 -71.296844482422 -196.361953735352 1.403305411339
-8.604395866394 -67.928230285645 -277.409393310547 1.025281190872
-61.325698852539 -64.668457031250 -116.954429626465 1.646341323853
-6.000229358673 -81.128448486328 -269.230621337891 1.503959417343
-118.430732727051 -73.458374023438 -255.670028686523 1.268803834915
6.186235427856 -73.226989746094 -221.199264526367 1.320623993874
17.921226501465 -73.114242553711 -220.792999267578 1.472287297249
22.396181106567 -76.224868774414 -245.545761108398 1.502002239227
39.383621215820 -68.438896179199 -117.964477539063 0.938267886639
-38.196929931641 -76.314056396484 -286.601806640625 0.260407298803
-86.891853332520 -59.878551483154 -49.700454711914 2.429909467697
17.993696212769 -75.832405090332 -201.657196044922 1.550996184349
94.018524169922 -73.280792236328 -74.151268005371 2.395545482635
31.103345870972 -71.879325866699 -162.287277221680 0.930802226067
18.881824493408 -67.840263366699 -143.298339843750 1.693216800690
33.010517120361 -75.785438537598 -124.509536743164 0.942400515079
4.376663208008 -75.176605224609 -241.204910278320 1.126178979874
-21.861415863037 -75.907249450684 -71.379104614258 2.212076425552
-147.494125366211 -66.859275817871 -228.301712036133 1.014404892921
10.455533027649 -67.139221191406 -152.614273071289 0.726168096066
25.767978668213 -78.503524780273 -143.768188476563 1.205800056458
36.182022094727 -64.230552673340 -253.431625366211 0.893394410610
1.187058925629 -70.904487609863 -225.404129028320 1.869440793991
26.999961853027 -67.544128417969 -31.783041000366 0.713196933270
-25.484001159668 -82.905525207520 -188.091384887695 2.256107330322
-57.361427307129 -76.427879333496 -168.287261962891 0.348132073879
-130.611129760742 -67.393249511719 -264.407379150391 2.718122720718
-31.229022979736 -79.559577941895 -73.692268371582 0.652267634869
113.858055114746 -72.929496765137 -149.658340454102 0.915788173676
-145.038848876953 -71.430053710938 -274.131561279297 0.587100028992
-84.662040710449 -67.233505249023 -132.261825561523 1.039956331253
-147.354690551758 -73.949737548828 -192.865783691406 1.575899720192
-130.620101928711 -64.869750976563 -204.143569946289 1.517996907234
-20.508220672607 -71.793914794922 -207.728286743164 1.761727213860
16.180561065674 -81.599639892578 -262.208221435547 1.555167675018
-39.988571166992 -78.015159606934 -194.305511474609 2.055254697800
-150.072448730469 -80.989715576172 -235.522903442383 2.810352563858
10.955908775330 -71.086547851563 -193.552947998047 1.375801920891
-39.007007598877 -71.332099914551 -288.592926025391 1.777794957161
97.589973449707 -74.890739440918 -202.994567871094 1.662680745125
66.598625183105 -69.981491088867 -238.814010620117 0.824279308319
-25.275506973267 -73.168571472168 -179.750213623047 2.166163682938
17.846830368042 -69.901710510254 -210.562698364258 1.464079260826
42.635391235352 -78.268325805664 -114.488739013672 0.482897609472
-75.890907287598 -63.328151702881 -122.807373046875 0.371223151684
-42.244377136230 -68.425811767578 -153.124771118164 2.266421556473
-63.192756652832 -73.616790771484 -171.049270629883 0.581217408180
-6.048600196838 -63.193073272705 -240.569824218750 1.751679539680
106.743721008301 -71.888862609863 -170.291152954102 1.967051744461
-155.424057006836 -69.565299987793 -286.261291503906 1.645686507225
-65.496734619141 -63.273872375488 -95.844062805176 1.207489132881
-132.451599121094 -72.982124328613 -254.945510864258 1.644341707230
1.541173219681 -62.529430389404 -286.587768554688 1.699449777603
-158.045593261719 -68.167434692383 -240.472106933594 1.128944754601
-133.526443481445 -75.776344299316 -292.232971191406 0.967108368874
35.295497894287 -78.577957153320 -125.170745849609 1.673052787781
86.589233398438 -69.157157897949 -220.101104736328 0.682006001472
33.569629669189 -74.774475097656 -122.283340454102 1.419550418854
-71.179969787598 -70.368011474609 -137.990112304688 1.537630319595
112.789230346680 -72.809288024902 -160.895019531250 2.097068786621
80.149551391602 -74.660148620605 -73.026618957520 2.459677696228
-93.172790527344 -67.634941101074 -137.790679931641 0.862458705902
-75.595832824707 -73.381752014160 -141.795883178711 2.210597515106
-81.330947875977 -73.531982421875 -213.184722900391 1.023892045021
49.050968170166 -67.391113281250 -96.259742736816 2.279881954193
24.744640350342 -77.514297485352 -171.607772827148 0.571554362774
7.135799884796 -81.073623657227 -248.795639038086 0.976430356503
-124.106651306152 -65.650184631348 -262.652648925781 0.522696733475
-52.822025299072 -78.150009155273 -189.007522583008 1.208648085594
-20.236955642700 -68.413764953613 -206.069503784180 1.582256555557
39.122222900391 -75.544136047363 -110.970863342285 2.168400287628
-165.913497924805 -72.023208618164 -232.238967895508 2.149706602097
39.970451354980 -70.818061828613 -12.849336624146 0.914414048195
-100.703140258789 -66.729843139648 -168.398025512695 0.927905261517
-13.420620918274 -72.503845214844 -287.162170410156 1.461930632591
-130.673248291016 -72.269989013672 -254.650009155273 2.840348243713
-145.058959960938 -71.814620971680 -278.817108154297 2.370738029480
-44.319221496582 -77.775146484375 -158.052352905273 1.421671986580
-27.204515457153 -62.940277099609 -48.928321838379 1.518108367920
-68.888336181641 -63.555358886719 -102.497573852539 1.142788290977
-143.862564086914 -62.287200927734 -225.003173828125 1.239301323891
-8.706476211548 -67.361221313477 -233.152816772461 0.869055747986
59.405132293701 -63.753662109375 -82.367149353027 2.143074512482
-53.157859802246 -84.115257263184 -205.034881591797 1.088427066803
-6.532728195190 -81.780952453613 -257.513061523438 0.923597633839
-67.148056030273 -78.714141845703 -63.729728698730 1.040956258774
72.176826477051 -67.677230834961 -103.033401489258 1.620298385620
-5.326815128326 -66.927818298340 -267.272216796875 0.548266589642
-148.231033325195 -62.147914886475 -176.140090942383 1.379572868347
-87.544921875000 -69.302009582520 -255.988540649414 0.447585970163
-96.892242431641 -73.660125732422 -217.247360229492 0.800881385803
-153.287673950195 -77.055351257324 -232.502090454102 1.558061957359
19.467134475708 -73.659461975098 -208.734771728516 2.156759262085
26.058477401733 -63.576194763184 -23.500619888306 0.865556955338
-20.099615097046 -72.082374572754 -287.413055419922 2.940678596497
-8.457674980164 -75.313301086426 -172.294921875000 1.947388291359
-15.337825775146 -73.861724853516 -230.323883056641 2.223467826843
-54.620903015137 -77.188690185547 -186.412902832031 2.916677474976
4.031419277191 -73.181907653809 -157.205551147461 1.637829542160
-81.868049621582 -71.554527282715 -102.725044250488 2.682639122009
-33.006809234619 -70.441520690918 -172.127090454102 1.028081297874
24.189241409302 -65.792289733887 -253.188796997070 1.325068593025
-38.822841644287 -80.329490661621 -71.566665649414 1.075074315071
-50.312156677246 -79.566558837891 -200.323974609375 1.586816191673
-70.740745544434 -68.947723388672 -140.627578735352 1.299614548683
-90.092041015625 -75.117294311523 -288.239715576172 2.260598659515
-76.172698974609 -80.035072326660 -72.746208190918 1.466228842735
-56.863674163818 -66.543006896973 -122.643707275391 2.085311651230
-61.432662963867 -60.858676910400 -133.663070678711 1.312796115875
46.761009216309 -66.712455749512 -106.758644104004 1.736808657646
-1.624055862427 -66.553901672363 -238.240402221680 1.620962738991
-92.831123352051 -73.657218933105 -85.324890136719 1.091947674751
-145.378173828125 -84.156822204590 -259.056182861328 1.389205932617
-49.632247924805 -78.498229980469 -63.119934082031 1.767912507057
-62.218429565430 -64.148155212402 -128.818084716797 0.579638123512
21.300973892212 -78.163024902344 -164.857589721680 2.135906457901
-135.339172363281 -75.557838439941 -290.253570556641 0.674008786678
43.301540374756 -68.239181518555 -30.424295425415 1.450696349144
-136.887496948242 -69.027519226074 -255.831649780273 1.949136853218
-125.100326538086 -64.522956848145 -233.366134643555 1.412947416306
-150.794265747070 -78.424079895020 -249.320358276367 1.824653506279
-148.987426757813 -80.320785522461 -194.156860351563 0.532307684422
-126.346153259277 -71.564010620117 -203.877120971680 2.101322650909
-152.531433105469 -65.125549316406 -180.284301757813 1.514387488365
35.257247924805 -68.522300720215 -125.710693359375 2.579769611359
0.018959939480 -82.027648925781 -250.988754272461 2.061755180359
-27.803449630737 -71.137580871582 -55.600479125977 0.528674662113
19.184810638428 -78.622100830078 -193.484039306641 1.900871038437
10.028073310852 -74.263923645020 -157.721633911133 0.336429089308
-150.812515258789 -66.659706115723 -295.714630126953 1.641429305077
65.017532348633 -67.935302734375 -242.454238891602 0.266107559204
-71.327331542969 -69.637245178223 -137.457626342773 1.669659256935
-65.376472473145 -82.866905212402 -206.300277709961 1.131066203117
-11.441277503967 -78.501335144043 -264.624359130859 1.329905867577
50.249149322510 -70.858169555664 -245.372390747070 1.044323682785
17.307729721069 -80.721099853516 -261.896667480469 0.182286173105
-10.504133224487 -71.863586425781 -207.665496826172 2.391383886337
-39.366493225098 -75.667083740234 -151.403106689453 1.437686204910
-117.123565673828 -67.746177673340 -291.520172119141 0.936886131763
-38.359123229980 -68.659004211426 -159.468612670898 2.498984575272
-38.504993438721 -65.542175292969 -47.064369201660 1.402796626091
-39.212146759033 -62.370365142822 -46.274665832520 2.271628856659
47.339008331299 -70.051918029785 -97.339912414551 1.327714562416
-76.207283020020 -65.461502075195 -103.724990844727 2.157766819000
-145.310882568359 -82.978012084961 -236.024230957031 2.817445278168
-33.582180023193 -71.987571716309 -179.650222778320 1.923300743103
11.205639839172 -79.767723083496 -278.494506835938 1.756272912025
15.440034866333 -69.621269226074 -245.173095703125 0.933683931828
85.044662475586 -69.973609924316 -66.634864807129 1.225923418999
21.497772216797 -72.447196960449 -29.080465316772 1.678238034248
-63.271903991699 -78.746879577637 -94.637542724609 1.363800525665
36.139190673828 -67.291961669922 -254.740463256836 1.181389570236
-15.840869903564 -71.229171752930 -198.488082885742 0.303748100996
-1.167217373848 -68.908752441406 -291.582519531250 1.510281324387
-73.204238891602 -66.258079528809 -137.757598876953 1.341925263405
-136.382324218750 -80.085456848145 -290.398132324219 0.719628632069
71.893798828125 -71.743362426758 -73.279747009277 0.411445826292
111.009689331055 -77.231101989746 -172.560974121094 1.821413397789
-54.594707489014 -63.563613891602 -140.067428588867 1.932432055473
21.979803085327 -67.295181274414 -167.258300781250 0.259559512138
-60.708118438721 -66.359138488770 -132.378509521484 0.298735737801
-143.347549438477 -74.377006530762 -263.352600097656 1.624232888222
-153.294281005859 -70.241096496582 -281.658630371094 0.998959243298
103.798095703125 -71.742309570313 -197.731491088867 0.577682554722
-158.999969482422 -70.833557128906 -282.319549560547 1.133633613586
-136.707611083984 -75.386642456055 -287.791107177734 1.317012429237
-4.298553466797 -66.541847229004 -225.211502075195 1.263759732246
31.924272537231 -78.442924499512 -154.922714233398 1.054231405258
-32.773223876953 -68.378479003906 -171.151794433594 0.857561290264
19.267416000366 -72.691802978516 -243.993133544922 0.832199573517
100.992454528809 -61.905632019043 -68.495124816895 1.032432317734
37.142116546631 -70.174468994141 -135.412460327148 2.380695343018
-119.361434936523 -64.131095886230 -203.314865112305 2.745066642761
-61.129856109619 -72.217063903809 -167.455322265625 0.257704705000
70.206932067871 -74.322929382324 -237.076110839844 2.002006530762
-22.109817504883 -76.828422546387 -186.348968505859 1.378093361855
46.875507354736 -62.446182250977 -17.988904953003 0.999618351460
-142.819717407227 -68.424797058105 -188.201217651367 1.633836269379
34.646644592285 -80.718078613281 -125.936813354492 1.535197734833
-47.812171936035 -65.343811035156 -83.470321655273 0.644710123539
9.624748229980 -71.763259887695 -197.840209960938 0.669622778893
-5.708576202393 -65.323348999023 -253.935562133789 2.123483419418
36.543869018555 -70.783622741699 -40.969985961914 0.436502844095
18.333465576172 -69.014633178711 -181.944992065430 1.954863548279
-20.295591354370 -73.289497375488 -183.016143798828 0.764701902866
-6.872335433960 -69.417640686035 -229.646987915039 1.138687252998
-68.162445068359 -70.736831665039 -159.206390380859 1.023597002029
-7.194780826569 -77.350967407227 -288.530853271484 2.125807285309
21.466918945313 -67.759536743164 -249.671859741211 2.194292545319
-61.656299591064 -61.920352935791 -130.224304199219 0.877903878689
32.264701843262 -73.671287536621 -119.270156860352 0.860724329948
-76.910224914551 -66.396224975586 -129.539291381836 1.113678932190
16.825626373291 -81.079864501953 -246.641921997070 1.475437998772
94.152305603027 -74.036041259766 -75.893333435059 2.133537769318
17.362480163574 -65.018661499023 -284.783172607422 1.312746524811
28.506345748901 -72.259307861328 -165.031875610352 2.110137224197
-85.133735656738 -75.441101074219 -288.927276611328 2.375111341476
22.766124725342 -61.543022155762 -276.038360595703 1.534669637680
-151.186035156250 -81.221336364746 -280.757995605469 1.841868638992
-146.848831176758 -62.723636627197 -243.242645263672 1.791130542755
-38.451957702637 -75.567512512207 -80.426879882813 0.385019570589
-10.527123451233 -67.431579589844 -209.007171630859 2.246849775314
94.322708129883 -77.211471557617 -206.166259765625 1.747369766235
-23.289775848389 -75.655685424805 -223.315261840820 1.258181333542
88.389854431152 -76.191444396973 -219.478271484375 1.685274600983
20.115091323853 -61.748126983643 -142.165786743164 1.120693445206
-16.090890884399 -73.328651428223 -196.790069580078 0.488951474428
-18.467685699463 -72.103492736816 -219.406768798828 2.638028621674
-10.549510002136 -70.684440612793 -208.478012084961 2.516652584076
-67.116477966309 -86.391433715820 -97.101264953613 1.027972340584
18.122417449951 -68.614837646484 -173.312820434570 2.275154829025
13.240686416626 -67.151977539063 -203.391815185547 1.742663264275
-49.457145690918 -81.152656555176 -184.471511840820 1.321341156960
-76.808563232422 -79.036010742188 -101.973487854004 1.120324969292
-69.055305480957 -80.885902404785 -212.029464721680 1.158616900444
18.073505401611 -77.326263427734 -237.748245239258 1.547859191895
100.886764526367 -76.456924438477 -190.817321777344 1.519167304039
-76.776565551758 -69.880592346191 -249.535690307617 1.526823520660
78.268089294434 -73.076667785645 -228.883682250977 1.466465711594
111.898208618164 -69.004806518555 -111.901885986328 1.431700706482
6.637836456299 -70.394233703613 -233.582305908203 0.666924953461
23.783746719360 -78.914916992188 -155.347137451172 1.717885851860
-3.983153104782 -69.220558166504 -236.597885131836 1.130142211914
40.656562805176 -69.984710693359 -104.428855895996 1.363175988197
33.678367614746 -77.875129699707 -149.326004028320 1.101844310760
-31.944940567017 -61.400642395020 -71.716888427734 1.371581792831
-161.490173339844 -68.399375915527 -256.122100830078 4.016055107117
-150.225830078125 -62.792373657227 -242.781158447266 2.281646013260
14.109768867493 -68.145683288574 -212.732208251953 1.807413220406
-98.163436889648 -64.890106201172 -162.305999755859 1.011382579803
-6.914444446564 -72.619438171387 -291.394683837891 1.384408473969
-145.210296630859 -68.260406494141 -246.429122924805 1.821733474731
-57.977046966553 -75.699584960938 -173.636032104492 0.685891509056
49.407878875732 -77.764892578125 -108.666999816895 1.625628471375
-7.266674041748 -81.828041076660 -264.287536621094 3.051048755646
-165.535537719727 -67.996261596680 -238.170684814453 1.394233942032
-140.491485595703 -67.421203613281 -289.605590820313 1.814888358116
48.139339447021 -63.506229400635 -32.937133789063 2.793408870697
-162.147430419922 -66.866683959961 -215.431137084961 1.106720447540
-110.429275512695 -70.446388244629 -195.641357421875 2.552558660507
15.627367019653 -81.549278259277 -232.416641235352 1.482759952545
-30.261842727661 -75.350723266602 -61.646591186523 2.137764453888
-128.782989501953 -64.396759033203 -226.117172241211 0.727143645287
-57.480163574219 -61.216178894043 -116.246849060059 0.518824040890
-72.814918518066 -70.604545593262 -100.951705932617 1.001753211021
37.109104156494 -62.646183013916 -35.871253967285 1.714450240135
35.815876007080 -68.418930053711 -11.770954132080 2.071690559387
-147.828628540039 -82.461219787598 -196.262710571289 0.346376955509
-81.590667724609 -67.393959045410 -102.932159423828 1.627229452133
-59.556907653809 -79.037528991699 -177.286911010742 1.800251126289
-149.371505737305 -82.202682495117 -223.046478271484 0.935153841972
-91.440589904785 -76.751594543457 -97.350074768066 2.580209493637
-16.189601898193 -76.184097290039 -192.645950317383 2.236404418945
17.979240417480 -74.631912231445 -248.661148071289 1.283238172531
-62.334571838379 -78.561279296875 -62.591445922852 2.683274507523
-92.193321228027 -73.672401428223 -286.909759521484 0.891203463078
-146.941604614258 -66.298759460449 -277.874389648438 2.186843872070
-131.619537353516 -64.208816528320 -226.735458374023 1.670667529106
110.128303527832 -72.809143066406 -171.583648681641 1.898649573326
-145.728103637695 -74.103569030762 -219.223526000977 1.767571806908
-60.654552459717 -76.611831665039 -93.754180908203 2.879383087158
30.981273651123 -67.679542541504 -258.316619873047 1.772476673126
-7.866905689240 -74.086959838867 -207.277114868164 2.052227020264
-55.060554504395 -71.326515197754 -290.191955566406 0.568935692310
15.308670997620 -80.845611572266 -242.207733154297 3.068260908127
-66.949584960938 -76.715705871582 -165.362014770508 1.452251195908
-28.898464202881 -72.209892272949 -287.072357177734 1.204919219017
-113.803718566895 -66.911064147949 -258.023254394531 1.288097977638
41.133590698242 -71.748542785645 -120.762695312500 2.093354463577
-150.489715576172 -80.510696411133 -288.485290527344 1.161345005035
14.751130104065 -76.814125061035 -279.433715820313 2.005151748657
79.703186035156 -69.667701721191 -65.382453918457 1.514016270638
43.669651031494 -61.496322631836 -28.384752273560 1.478298783302
15.347090721130 -66.674423217773 -193.681777954102 2.325508832932
-161.455383300781 -72.606636047363 -228.981124877930 0.826035559177
-76.609886169434 -78.803413391113 -101.626861572266 0.686441779137
-150.902786254883 -78.083839416504 -310.911926269531 1.826153159142
47.476455688477 -64.259201049805 -34.157951354980 3.176850080490
-69.119491577148 -76.833808898926 -209.218307495117 0.683227658272
82.945549011230 -71.694618225098 -217.338745117188 1.155100941658
5.840260982513 -74.976852416992 -292.533691406250 2.152609109879
110.192481994629 -69.914695739746 -175.362030029297 1.198712706566
-24.381032943726 -78.119720458984 -186.698867797852 1.413297414780
-158.844879150391 -71.822547912598 -210.841552734375 2.537016391754
46.550022125244 -79.269371032715 -108.010536193848 1.958577513695
-155.781204223633 -69.817962646484 -294.594421386719 1.495155692101
42.165302276611 -63.824253082275 -13.894041061401 0.520471513271
-145.204376220703 -69.374359130859 -265.892059326172 0.725069582462
106.310340881348 -72.625869750977 -193.168579101563 1.976514577866
43.579982757568 -60.047019958496 -26.119127273560 1.782637834549
28.482793807983 -61.434226989746 -19.626953125000 1.706956028938
47.189014434814 -65.461799621582 -101.337570190430 0.182142660022
-158.585067749023 -72.505371093750 -293.727294921875 1.609346389771
6.316225051880 -72.000450134277 -154.965576171875 1.225658655167
106.044433593750 -66.802925109863 -97.188194274902 0.865607142448
20.797651290894 -63.693496704102 -146.709243774414 0.627795040607
-16.574699401855 -72.754066467285 -224.148284912109 2.313528299332
-19.382680892944 -66.639961242676 -197.050033569336 0.781676054001
4.363926887512 -63.903003692627 -237.720932006836 1.167024850845
26.626237869263 -66.327796936035 -257.053619384766 1.057226061821
-110.624244689941 -71.049224853516 -261.803161621094 0.979746937752
8.274844169617 -77.335693359375 -289.031921386719 1.510900259018
26.789220809937 -67.732940673828 -165.224197387695 2.497795104980
-48.195560455322 -75.793540954590 -286.184356689453 1.518303036690
-7.930119514465 -69.045188903809 -209.927932739258 1.126778006554
-73.915061950684 -71.239654541016 -290.971008300781 2.036051273346
-55.193046569824 -73.606758117676 -176.589553833008 0.990644454956
-54.464439392090 -81.634101867676 -200.237380981445 1.153585672379
6.550675868988 -85.647369384766 -264.112365722656 1.592578530312
88.685928344727 -70.796249389648 -211.098220825195 1.421185374260
2.551187276840 -63.086334228516 -278.787506103516 1.730484008789
-70.235534667969 -68.887695312500 -99.917503356934 1.499681591988
37.045032501221 -75.070335388184 -135.650192260742 2.419142723083
-23.218729019165 -72.727203369141 -240.722091674805 1.345418691635
108.979354858398 -71.524284362793 -134.089111328125 1.393913507462
-38.051204681396 -68.129776000977 -165.652908325195 2.772669315338
-37.170772552490 -77.499076843262 -288.380065917969 0.643418788910
-18.503131866455 -82.036293029785 -177.192657470703 1.256525039673
-40.531955718994 -61.957885742188 -79.450965881348 1.462861537933
33.308544158936 -75.311378479004 -146.614868164063 1.336909294128
-51.494659423828 -68.438018798828 -145.656890869141 0.797037243843
-1.194067478180 -65.408760070801 -271.542449951172 1.346810936928
-86.033866882324 -64.301498413086 -110.822494506836 1.258144497871
9.383342742920 -73.121009826660 -230.996582031250 2.375326871872
-52.975486755371 -72.597419738770 -132.021987915039 0.418742895126
-68.320953369141 -60.767105102539 -108.071846008301 0.795833528042
4.908183574677 -62.679912567139 -265.311828613281 2.191249608994
-7.830726146698 -75.729400634766 -223.518829345703 1.253761172295
-3.266243934631 -77.087837219238 -288.126586914063 1.194475769997
50.855369567871 -71.733314514160 -249.512161254883 0.959917008877
7.285033226013 -83.510948181152 -252.844894409180 1.454876899719
-83.976203918457 -78.283866882324 -110.134635925293 0.755701422691
8.569840431213 -59.672607421875 -261.417816162109 3.294294595718
