# This PCD file was generated using the MATLAB® pcwrite function
# from Computer Vision Toolbox®.
# .PCD v.7 - Point Cloud Data file format
VERSION .7
FIELDS x y z
SIZE 4 4 4
TYPE F F F
COUNT 1 1 1
WIDTH 1414
HEIGHT 1
VIEWPOINT 0 0 0 1 0 0 0
POINTS 1414
DATA ascii
-129.099350 -51.274750 -177.838181
35.852444 -62.111099 -170.288177
-23.338089 -52.324905 -172.027145
-16.062702 -52.965607 -172.828522
-23.783955 -47.992798 -172.803925
-24.599751 -59.967026 -171.092758
118.674736 -52.533112 -172.148788
-2.688242 -47.017578 -171.266953
-135.992493 -48.669418 -173.876221
30.724638 -42.873123 -169.741516
-62.342178 -46.596680 -173.053070
-136.238037 -47.341492 -177.809540
111.587242 -46.445114 -171.136948
-12.307653 -46.575928 -173.213715
-7.189308 -41.547073 -171.068024
20.652517 -44.225739 -172.080338
-57.021645 -42.720840 -170.520599
-14.163765 -45.232254 -174.525543
13.237940 -42.306808 -172.883514
-57.948509 -43.433640 -176.354828
2.368337 -42.320847 -174.046494
21.284628 -39.165497 -171.495316
31.551981 -33.726196 -175.109268
-129.725998 -40.561981 -171.856705
11.191970 -38.399963 -172.349289
-78.434410 -35.631546 -169.656082
-8.538631 -32.238266 -173.628723
110.624496 -44.850281 -171.908264
20.345720 -23.828491 -171.235657
29.943684 -39.255066 -167.114365
99.500679 -33.842621 -170.164597
16.235111 -25.626663 -171.262756
102.984970 -35.716965 -169.814438
-4.399916 -35.701340 -169.343445
28.317551 -31.715988 -175.549469
-128.055252 -30.583344 -176.586670
-1.599262 -30.932495 -175.048141
20.129686 -30.409744 -173.587357
-140.545486 -25.560303 -172.865509
-120.740860 -27.832962 -172.358414
23.813042 -29.734329 -173.026825
13.855169 -23.463577 -171.070694
-119.621918 -22.155319 -168.908890
-129.004807 -18.813644 -171.759506
-127.943741 -18.038681 -174.132797
-13.979038 -13.063522 -170.302917
-128.302505 -15.851074 -171.410889
35.803169 -11.385223 -172.737442
19.501907 -15.494446 -167.405731
-136.648041 -17.499542 -173.463364
-132.241821 -11.626831 -172.729446
-35.048985 -11.528458 -172.621918
-15.689156 -13.701447 -172.163620
22.325201 -4.145355 -178.281235
-24.844906 -9.957382 -171.737732
35.277462 -6.459900 -173.321228
6.057940 -2.799347 -171.591858
-138.480728 -2.586975 -171.805939
8.604392 -6.066193 -173.704651
-129.621964 -4.834839 -172.423111
-49.470558 -7.789612 -173.993637
-133.891815 7.161072 -175.739166
-109.902275 4.606567 -168.400848
-132.693481 4.895111 -167.861954
-0.915756 8.241669 -172.498978
-131.409729 8.413361 -170.242233
-133.085312 10.147491 -181.084579
7.910790 13.488098 -172.671051
-129.754974 18.724274 -173.138901
11.612130 22.679321 -175.995789
-33.890289 28.176605 -174.897095
-121.377899 34.111938 -173.249954
-117.820602 34.512482 -173.625656
-114.613052 32.804413 -168.599045
-36.020927 37.018005 -167.903473
-98.392555 30.463989 -174.106110
33.013924 31.162140 -173.646896
-46.473484 35.231750 -174.600204
-122.925476 38.753143 -170.817810
-45.140915 37.565796 -173.927444
-129.215271 37.450317 -174.127914
-104.533600 30.785767 -174.602737
-29.904434 36.872864 -172.132309
-20.766827 32.452850 -176.474121
-119.126877 36.964508 -174.888214
4.870298 36.122406 -171.918549
18.718603 39.014160 -174.323334
22.367449 37.756409 -172.921402
33.591629 38.840179 -171.770874
-135.494492 41.478210 -169.622467
-133.423325 46.715454 -176.817108
-51.379318 -195.251526 -170.806778
102.633339 -184.818695 -175.703995
96.098648 -183.855316 -171.553635
-12.727699 -177.865494 -170.130295
98.177444 -176.079315 -169.960297
-18.169056 -176.345169 -173.068375
103.337982 -171.225983 -173.343628
106.849518 -175.483658 -172.180832
-49.341171 -162.890411 -168.359344
96.877869 -159.807693 -173.438156
99.587128 -155.340622 -173.860870
109.422462 -163.436615 -169.860611
74.095924 -154.108002 -171.761765
-57.072289 -153.411438 -175.528839
-63.554413 -155.056580 -166.336792
68.927818 -146.991379 -169.711609
-75.947433 -147.682098 -173.768509
58.176651 -140.278641 -170.176086
123.098457 -137.569839 -173.519226
129.234436 -119.601257 -172.573624
44.028553 -114.962433 -175.874725
129.319260 -123.534454 -170.400696
37.438263 -119.154724 -171.270477
129.200607 -124.204147 -168.409653
52.878799 -117.520508 -171.011612
-36.419857 -105.311981 -180.916870
54.930550 -113.144547 -170.025467
127.454056 -113.444305 -168.839371
-33.985336 -105.947128 -170.977158
48.463596 -108.272919 -171.259674
-36.215000 -112.212189 -173.155853
-30.766567 -104.778839 -174.564026
-32.498657 -105.078842 -170.618500
-48.906601 -100.406418 -172.486786
129.123428 -106.486359 -168.333649
-32.626846 -104.020355 -167.867249
38.822273 -100.471786 -175.210678
122.665161 -97.130829 -171.998398
-50.256165 -98.673401 -174.626160
-29.123619 -99.263336 -170.635742
16.803972 -98.426300 -168.399094
-51.663887 -94.362091 -173.462708
-43.599762 -90.810272 -169.635437
14.849498 -91.524597 -172.786530
-27.277470 -90.981644 -171.838791
46.314686 -90.913193 -164.465195
-43.356739 -84.089539 -172.389511
-34.684696 -80.324860 -172.234680
36.506371 -92.403229 -171.690277
-16.362938 -85.899811 -168.174088
-18.174286 -86.881989 -172.344589
34.291119 -80.671539 -178.653427
-21.256290 -79.470886 -173.739685
0.114774 -79.390762 -171.844437
-46.820263 -81.602798 -173.134048
8.842080 -80.688889 -173.556458
-4.086229 -69.198318 -174.207886
39.292088 -75.176666 -174.435410
-20.552746 -85.838684 -168.578995
34.780910 -78.197220 -168.658646
-5.438612 -74.564148 -167.381821
-18.010647 -70.917068 -169.600174
-134.401062 -69.969727 -170.655991
-5.267719 -67.059647 -172.863510
-125.694763 -65.357117 -175.480698
-134.204285 -70.976257 -168.723541
-29.274483 -68.553970 -168.754913
116.072792 -56.209732 -169.227493
-127.522797 -63.203873 -173.574387
-138.684067 -54.667770 -173.342697
34.094070 -54.725937 -173.260254
-120.683487 -56.872925 -167.754410
35.447979 -56.473648 -171.875000
-122.516647 -52.163147 -173.683914
29.572424 -57.142548 -170.621033
-113.026230 -52.764526 -169.755569
20.301622 -51.470779 -166.677826
-131.794556 -47.911362 -169.410339
109.858032 -48.960114 -169.494461
0.549512 -52.434586 -169.368866
-15.729439 -45.972885 -172.634598
5.637959 -47.175903 -169.871521
-133.447968 -42.919388 -174.960175
-15.698654 -50.739929 -172.068298
-59.572739 -45.115906 -171.367905
-11.726902 -44.528000 -175.809921
31.022821 -46.178375 -173.359573
-136.135727 -42.737671 -173.685822
-76.039131 -35.691406 -171.600891
-11.114374 -41.014481 -169.167252
-10.482843 -35.310028 -176.976334
0.596203 -37.203949 -173.168030
-10.601877 -38.680222 -168.311096
-69.245476 -39.992172 -173.459183
-67.092247 -34.086823 -173.902130
-7.592512 -38.255127 -174.504684
11.822671 -33.001892 -171.762985
-131.491776 -35.709091 -166.806122
17.077719 -31.930435 -174.780960
97.904236 -35.428864 -171.622375
-124.860519 -23.087189 -175.495209
7.625426 -26.910187 -175.517090
-125.718048 -24.749741 -172.513412
-130.998260 -28.038010 -182.565231
10.704724 -18.062881 -170.072708
28.784044 -32.728378 -170.913666
-126.553635 -22.569199 -170.092682
3.589920 -23.813416 -175.543304
96.606194 -25.043106 -171.593658
90.148766 -24.152954 -170.618652
26.401310 -24.032318 -169.512131
-6.674679 -14.277420 -170.319351
-5.704916 -17.184464 -171.419510
23.063448 -7.106659 -167.188675
-32.690453 -14.442627 -170.819656
-6.953703 -10.166489 -169.387970
19.405657 -13.857559 -174.933701
-52.222885 -10.333496 -172.346466
-13.909689 -11.519653 -173.954086
-26.662457 -9.804886 -168.046204
-136.810486 -3.958069 -171.907440
-31.147854 -14.653839 -172.515289
-33.793884 -5.126526 -171.722443
-51.119423 -4.742584 -174.353973
4.998736 -5.869202 -173.480103
-63.507767 -1.299408 -174.302307
-137.463074 2.317474 -174.046768
-125.598892 4.713928 -172.805450
-110.953026 4.812042 -172.470108
-138.515915 12.690765 -172.359497
35.965656 7.409729 -174.296432
1.631773 11.171875 -169.925308
-135.207474 16.349487 -176.851379
-136.584106 21.462280 -174.828125
-130.746887 30.898804 -176.916336
-36.944397 27.020203 -173.367081
-21.976337 32.448639 -172.058289
-12.764917 37.117554 -168.450302
6.310921 34.137695 -173.470078
-48.332401 30.671478 -170.853195
-59.605057 31.037140 -170.879456
13.155716 36.748596 -171.571457
20.853224 33.196289 -174.753937
-116.758026 29.933075 -172.150711
-60.645714 34.855042 -172.318497
-132.043304 31.303131 -172.980896
-79.368729 34.946045 -170.283005
-64.975517 37.634491 -171.468643
-66.861412 33.175262 -172.271698
-45.385021 41.172577 -167.923965
-12.806322 37.766998 -171.955078
13.825817 34.986084 -167.633896
-132.635696 39.863007 -171.581757
-135.875595 47.164734 -169.061920
-129.673920 49.821472 -170.990677
-137.059647 48.030273 -170.273239
-43.296078 -202.148178 -170.867722
-30.428040 -200.038162 -166.976791
-22.581791 -198.858154 -171.713150
-60.040672 -194.683914 -172.492722
-9.115646 -188.225494 -175.484634
-19.299519 -174.500565 -172.023987
91.297653 -176.614944 -172.344879
94.032928 -178.123871 -170.933777
93.279076 -172.124252 -174.058426
109.851723 -164.290375 -168.585785
95.855225 -166.839050 -167.064301
71.012543 -165.382095 -171.625900
65.031158 -153.319183 -173.997314
-49.548409 -157.938919 -172.476486
-55.916435 -150.363831 -163.666870
57.775806 -149.375885 -169.201126
-66.658112 -145.332397 -171.106171
-75.560707 -141.304092 -170.555038
65.474785 -148.580856 -168.451614
120.602226 -150.531906 -166.496460
49.361668 -133.519547 -173.195541
60.919304 -132.726196 -170.528915
58.524899 -130.527054 -174.457733
45.241302 -128.810272 -171.923355
127.434776 -132.782486 -168.137772
52.307869 -124.886703 -173.765686
45.246159 -126.496475 -171.102066
-32.298332 -111.594757 -169.805054
-56.483391 -107.389801 -170.020111
-40.878902 -111.382294 -171.067581
-51.895851 -108.504288 -168.687500
-24.547153 -107.516785 -171.116272
126.285011 -103.397308 -163.486984
-53.967979 -102.803879 -169.256165
41.603878 -106.530273 -168.064255
50.825703 -102.539200 -169.234985
130.770798 -96.929977 -174.220825
22.410376 -97.389389 -169.704468
45.018383 -101.448471 -174.970200
-45.234055 -94.496033 -173.898056
-29.543335 -85.109802 -171.936172
35.937508 -90.988174 -168.258179
-48.829933 -91.838852 -174.756287
-51.746437 -88.667908 -171.206528
122.397041 -89.816284 -173.564789
9.826563 -88.870514 -168.155792
-49.057037 -77.270386 -168.335724
-14.052689 -80.224503 -166.322144
-40.699997 -81.459137 -170.779404
43.113487 -88.323441 -170.899963
124.925896 -76.888046 -175.385880
120.568031 -70.954041 -170.155228
121.798874 -67.065781 -174.856277
123.684921 -73.166199 -175.025803
-38.611706 -67.423172 -173.617065
-37.447063 -71.906204 -169.767792
45.611820 -71.245834 -170.491531
-39.758343 -63.457443 -170.207886
-5.305305 -68.781921 -169.283691
-35.019131 -62.470688 -166.930557
-133.999329 -64.496246 -175.852875
118.964874 -58.189407 -174.675720
-30.446480 -61.829666 -170.261703
0.007106 -56.157272 -173.298386
-123.185104 -58.545334 -169.382889
-30.335060 -57.011612 -170.853851
120.974983 -57.055573 -166.346848
125.730545 -68.663422 -168.045013
-31.558525 -55.072418 -169.361725
-4.226713 -60.623657 -172.581757
-130.674408 -51.467453 -179.023636
-8.437975 -53.972229 -174.742828
-141.559372 -53.361649 -176.516968
-136.967789 -58.561615 -172.504395
-124.889420 -53.764771 -170.931259
-23.944923 -57.639389 -168.824356
116.673691 -52.677567 -170.920441
-27.413269 -54.746460 -167.724319
-132.409866 -47.556274 -173.920044
-21.683830 -48.876892 -171.287781
3.703827 -45.450775 -173.303680
108.766037 -48.852982 -170.115906
109.960709 -44.797440 -171.612061
-19.049042 -42.562775 -171.574799
-72.463753 -44.858444 -172.885025
-63.139008 -45.597183 -173.539200
-1.751888 -33.813385 -168.462601
-136.470215 -42.634918 -168.141541
103.912422 -41.089645 -170.725525
102.595863 -38.352005 -172.501251
108.448723 -32.358612 -174.956085
-79.451492 -31.518005 -172.597626
-138.008041 -31.635773 -177.511093
-6.783390 -35.406052 -170.550888
97.406494 -30.792572 -171.152924
-133.562469 -30.119263 -172.605255
-11.911045 -32.063065 -169.735718
-117.648987 -26.651535 -169.546738
7.541579 -27.583511 -170.505341
35.413483 -30.472946 -168.160202
32.694183 -22.098053 -171.663452
-137.109222 -19.649918 -171.570404
-106.135345 -21.797821 -169.284805
6.331066 -20.478683 -171.791870
15.917141 -20.410583 -166.894745
84.536987 -18.765442 -167.467117
87.747391 -21.020645 -168.176331
18.547009 -12.719955 -171.018646
28.812468 -17.594452 -175.525162
-14.593952 -15.527435 -168.717636
-20.086441 -15.130127 -168.612320
-27.917290 -10.264511 -170.044479
-22.119694 -11.772217 -166.518677
-3.526695 -13.236450 -171.152588
-36.311150 -12.089279 -168.423294
15.791850 -13.547318 -168.721420
-50.130539 -5.368683 -169.872055
36.441410 -9.545242 -167.099243
-129.181931 -6.355927 -174.411789
-52.292580 -3.569000 -170.787094
29.105297 -5.649689 -170.798325
-144.476074 -4.465302 -168.699265
35.228691 -4.006042 -169.996689
-58.034935 0.437744 -171.434555
-59.996086 -5.865784 -174.024673
40.278099 0.447418 -167.560471
-71.981422 -1.454620 -174.762634
-110.354027 1.482239 -171.257584
-121.559708 6.818604 -173.964523
-117.313965 0.401764 -173.805557
-133.559479 9.099487 -167.158081
-126.559219 5.636078 -172.794067
-118.991791 4.766144 -171.003098
-145.986816 10.412292 -168.795837
-113.158112 11.167542 -167.039291
-120.954483 6.975739 -171.481781
-151.715073 7.953491 -169.027649
-144.931503 5.275848 -170.119827
-135.198166 9.476288 -174.610825
-129.744400 13.736908 -170.420212
30.140226 22.550873 -169.414063
-147.973846 14.661926 -171.096664
-135.430054 17.334198 -171.831345
10.969484 18.395203 -175.859268
-146.070068 10.548431 -169.307159
23.051458 21.798157 -177.177505
-134.647659 29.836121 -171.021622
-146.993332 30.155670 -169.194168
-137.042236 28.855011 -169.888489
-150.810043 30.568695 -168.984512
16.294333 33.971497 -168.147400
21.469696 32.501801 -174.614685
-81.526558 31.131348 -168.564178
-133.752762 31.342743 -169.802277
-132.418213 30.684692 -172.219238
-92.024155 33.941925 -167.282959
-135.369324 34.238800 -172.527710
-128.530518 37.626648 -168.796906
-51.325760 37.636902 -169.792969
-151.473648 35.117401 -165.864334
-111.229042 33.082397 -171.460876
-31.385296 35.041962 -170.719009
-140.575775 37.357544 -173.856522
-116.421585 39.085480 -165.146622
-6.396297 37.557617 -171.594269
-111.286301 38.801697 -172.576752
17.910566 40.764740 -172.112976
26.802443 35.733948 -166.230209
-121.163635 36.355347 -168.280350
-132.346466 40.555634 -168.266525
-141.242554 59.033051 -169.707962
-61.315948 -203.294846 -163.868271
-7.519947 -190.444046 -169.095779
-3.644419 -189.289627 -171.548035
90.736786 -178.834244 -170.800125
105.866890 -178.753342 -170.618698
-22.982250 -177.439011 -174.298080
91.495575 -181.193787 -171.578186
101.653755 -172.731995 -179.130035
85.005676 -171.662109 -168.164627
85.931015 -166.503738 -170.735001
-34.292431 -168.551254 -170.983841
-78.208588 -170.212097 -168.505722
75.047050 -159.638519 -166.267181
65.837486 -157.655334 -169.725266
110.232979 -157.452316 -170.719742
-83.398567 -156.027557 -167.835205
100.265007 -159.849106 -166.651123
94.211800 -161.356796 -172.791626
111.474998 -155.238556 -172.529144
102.079529 -156.303696 -171.666687
101.965317 -159.898529 -170.205078
-72.583687 -154.864838 -174.989883
57.776871 -146.065887 -174.379562
121.381042 -141.689163 -168.001648
124.329941 -137.559555 -169.557175
60.844803 -141.598068 -167.692703
126.687950 -131.122726 -165.100204
133.457748 -125.470413 -172.508301
-36.356148 -120.714371 -170.748352
41.913460 -120.079895 -169.538696
54.946106 -123.255875 -165.269318
42.356548 -107.558578 -169.880127
129.843002 -111.917923 -172.192505
125.021881 -121.044434 -174.190140
-57.622429 -104.895401 -169.785416
-31.950672 -108.904327 -172.430222
-54.617958 -100.166992 -173.612015
36.338303 -103.878220 -164.593079
124.767723 -103.997192 -169.598587
-35.237732 -107.108170 -170.872375
-54.165092 -104.727264 -168.319046
-22.015572 -98.831970 -170.139984
50.252983 -104.425888 -168.999344
128.311890 -98.421783 -165.476791
127.680450 -95.619644 -175.113281
-53.894363 -100.332108 -169.210403
-49.574852 -96.102325 -166.901596
33.977562 -94.713135 -172.126221
-45.869209 -88.076492 -170.697830
-15.506620 -93.590088 -171.570511
21.489323 -93.208710 -170.882339
124.929459 -91.399704 -166.429840
21.344635 -92.099945 -173.489975
-17.151386 -89.197037 -165.736069
17.643358 -86.094986 -170.240433
124.995911 -85.713791 -167.302170
-25.643837 -83.287506 -165.550003
42.226803 -83.485565 -168.203339
124.098412 -80.425018 -168.479095
-40.162739 -75.080292 -171.163742
-13.907028 -80.674271 -166.730835
115.720612 -83.642502 -170.996918
43.579693 -87.908920 -169.502411
123.578262 -79.032318 -171.736771
-23.346481 -82.985733 -174.595352
118.497780 -76.855423 -170.570313
-41.798866 -79.861923 -171.157059
-12.569355 -77.674973 -170.024216
-131.021835 -74.677139 -169.584961
-41.512829 -72.015167 -169.466492
-130.562256 -69.147919 -166.212524
-15.387112 -63.589401 -172.150925
38.978371 -69.959000 -168.337738
124.314575 -68.290756 -166.518555
-12.979406 -68.848450 -170.912201
28.415226 -62.151520 -166.589493
31.998596 -51.161316 -168.304184
-132.509094 -61.425385 -170.966354
120.073067 -61.141907 -169.705185
-0.555363 -61.947601 -167.413712
117.785179 -65.332184 -171.708160
24.822821 -69.361038 -168.063522
-115.000565 -52.136032 -168.172211
-124.160217 -54.658997 -168.419189
111.616440 -54.081055 -169.877884
1.083693 -60.443481 -172.198883
-1.728033 -53.277252 -169.382339
22.082449 -48.863403 -169.582840
-132.365829 -46.531464 -168.273697
-129.769012 -47.580460 -169.222992
112.079018 -51.198578 -174.703766
-59.705154 -45.563782 -171.948318
-23.396927 -51.031174 -173.915405
35.357346 -42.016800 -167.816650
-9.929558 -45.962708 -170.542969
-61.503288 -42.238312 -169.313156
106.899979 -42.035858 -171.635681
-70.011147 -36.889755 -169.121216
-131.819275 -34.515640 -172.038986
-64.948502 -42.394241 -169.096420
0.565222 -40.948181 -165.954178
-9.874426 -39.636200 -166.461945
39.231251 -45.425217 -168.797806
11.248504 -38.881927 -172.754318
-69.878242 -33.065277 -173.344727
104.870636 -41.204544 -169.303909
-80.285355 -38.868973 -171.154053
-129.896347 -32.839401 -168.636841
-4.945921 -27.498352 -168.629242
30.509493 -39.270615 -169.301865
-78.706070 -32.637527 -169.497711
20.237356 -27.075531 -168.355148
-5.245800 -39.870331 -169.738861
97.682747 -25.810898 -167.690536
-133.904694 -31.996490 -168.007217
20.111183 -32.029404 -164.941956
6.808412 -31.037933 -171.242477
29.544460 -31.844330 -171.056122
96.082344 -31.785339 -171.166214
6.250920 -27.516541 -169.011444
-116.029617 -30.830383 -171.644653
2.335701 -29.420349 -170.079269
29.187998 -21.901031 -169.790894
-111.523514 -21.375854 -166.560440
-130.530334 -27.016846 -168.374359
-123.773773 -24.378418 -167.928940
-114.338852 -27.463348 -167.316193
3.483727 -23.132187 -168.791946
92.044739 -23.618256 -173.050873
-127.844040 -21.654587 -170.185593
90.141685 -21.284592 -170.493332
-6.755846 -31.169174 -172.933990
-128.239273 -23.148499 -172.363205
97.770630 -23.892792 -166.907166
19.611408 -19.816635 -171.528046
-127.296921 -22.789566 -175.367401
-131.493088 -22.215424 -174.131500
34.647820 -21.721802 -164.207794
10.863710 -16.634277 -168.795120
-10.027906 -14.291260 -171.577911
12.051735 -15.408920 -168.449356
-146.690216 -17.406662 -167.927567
27.236996 -11.323700 -169.785370
-152.381531 -19.408585 -169.055649
2.928564 -15.121582 -170.490128
79.843147 -9.711121 -170.800018
3.005488 -12.938736 -168.465897
-6.051188 -10.235504 -166.219589
-8.747202 -14.529663 -167.712357
1.599950 -10.445206 -166.438065
-128.218033 -20.142746 -169.396042
25.503807 -10.341187 -164.497955
80.855576 -10.965912 -165.898056
31.487169 -7.544434 -170.009659
-147.634674 -16.920120 -168.095551
-32.646797 -11.085251 -170.226120
14.928847 -9.153183 -177.789139
31.179741 -3.168549 -164.747910
-42.431526 -3.969177 -169.432678
7.540987 -9.224442 -164.484650
38.923847 -6.845947 -172.358734
-149.371094 -7.788696 -170.732880
-53.755653 -7.671295 -173.317413
-37.691589 -7.367981 -166.554535
-67.786568 -3.452820 -169.639740
-145.626358 -6.688446 -171.210846
-134.286346 -0.965149 -169.119995
-42.432415 -3.585938 -171.413116
-49.664268 -5.404144 -172.308167
-136.053467 -4.162567 -168.634827
-137.134506 -0.827698 -169.046188
-62.286476 2.661499 -171.811737
-75.513626 -0.670715 -167.548950
-150.991104 -7.150848 -168.965683
-137.871033 5.249268 -168.461624
-114.769012 0.406494 -172.865829
-64.711769 -2.312134 -168.627945
-143.965942 3.932159 -168.993576
-125.044449 1.554901 -171.742142
-72.579781 3.268860 -166.571014
-81.724434 4.985687 -168.728745
-134.709244 1.987701 -167.407104
-77.192123 4.331207 -169.088684
-133.269974 2.200409 -163.190842
-81.777336 5.718628 -171.950470
-151.856567 3.680542 -168.873062
-144.456543 3.917511 -169.334518
-106.968697 -3.037506 -174.414001
-136.298569 5.942627 -174.122238
-94.329559 10.458862 -169.589310
-1.227255 8.450531 -169.917740
-126.666275 4.843079 -174.528076
-112.454613 5.828369 -174.860703
-140.390411 8.554840 -165.852722
37.599701 10.783936 -171.812408
-129.188904 24.428680 -169.568588
-151.545242 18.443573 -165.516647
9.031401 27.653137 -173.149109
-134.918152 26.365509 -171.902313
10.138321 29.803345 -167.860260
30.952606 31.537048 -168.463455
-122.089447 33.037842 -172.035416
-58.537712 34.551727 -165.614243
-19.883888 33.953735 -172.010696
-99.161858 33.026520 -165.564667
-76.180084 36.412720 -168.539612
-79.165634 38.272583 -170.732758
-35.028435 38.402161 -171.572906
-100.410660 35.260315 -173.328979
-93.817764 38.171875 -167.981857
-16.990261 40.397919 -169.214417
-96.957260 41.328003 -169.097366
-114.446655 36.630768 -167.844604
-127.608795 41.800323 -170.112839
23.685112 41.834167 -168.458511
27.315105 40.411743 -175.338501
-139.833069 40.551727 -168.930161
-139.924530 49.389679 -171.022278
-127.111908 53.774200 -167.936783
-133.417496 55.762573 -168.007874
-131.313721 56.219635 -173.548004
49.052532 -238.945953 -169.543854
37.566750 -232.397430 -167.237061
42.688042 -231.765091 -167.275742
45.936420 -215.294113 -163.706573
-42.966343 -209.821930 -162.835495
-49.764595 -205.130646 -168.302277
-25.000092 -202.869293 -170.766479
-67.516220 -195.788284 -166.316147
102.555290 -182.479141 -169.037186
-2.623318 -188.682877 -167.599808
103.129974 -183.457672 -167.875748
115.106255 -177.729065 -164.706375
-72.734390 -179.122818 -168.340958
84.735374 -175.599518 -169.716019
-25.928932 -173.828995 -171.858566
115.867905 -171.029282 -165.293320
-38.698059 -164.409485 -166.092102
63.483028 -165.526627 -167.177872
91.955086 -161.868500 -169.812576
72.365959 -160.152328 -168.313278
69.095421 -157.764618 -172.748291
87.853600 -160.622070 -165.599625
58.529697 -155.152878 -170.062286
119.182533 -159.942017 -165.431915
118.491943 -152.115417 -169.495438
97.919388 -149.541321 -165.039658
101.183098 -154.012817 -172.903503
120.062523 -154.986740 -167.945679
120.266708 -153.135696 -170.125900
55.333752 -144.543274 -170.505676
123.158470 -132.995056 -165.357727
128.259705 -142.424820 -166.270233
52.097923 -131.302292 -169.693634
61.756298 -137.882843 -171.389374
130.823227 -127.426315 -170.636520
55.052666 -127.729919 -172.328903
130.560623 -125.406372 -170.227997
125.095558 -133.631744 -169.510803
37.930698 -117.843018 -170.165344
-36.867302 -119.290512 -166.024490
-36.921726 -122.908951 -164.846939
131.230301 -119.462448 -167.564240
-56.217842 -109.713974 -173.355057
-55.761467 -114.575165 -169.867844
-39.493393 -110.125275 -169.645569
53.638371 -113.476288 -165.512650
125.974152 -112.344940 -171.735840
-50.689682 -113.553345 -171.724579
-31.561310 -107.585846 -166.024734
48.848495 -106.047867 -169.957153
-53.751144 -107.555588 -167.271820
132.703629 -114.920792 -170.039093
131.587204 -99.329224 -171.439026
128.810379 -106.064133 -168.549118
-23.343685 -101.009064 -170.116699
-52.054863 -88.631287 -167.556107
-57.353401 -95.156845 -170.889648
45.875069 -103.713943 -169.851456
13.394616 -89.567749 -170.401230
126.542709 -95.808777 -168.660278
129.130508 -98.546600 -164.286606
130.034637 -97.375519 -169.345154
-47.809029 -91.275665 -169.932892
-29.569012 -92.474930 -170.180786
15.251270 -87.811234 -168.597412
-7.695374 -83.240677 -166.385223
123.631203 -87.366867 -170.153885
-16.119740 -93.446411 -168.360886
126.792366 -82.771423 -166.210785
-24.672718 -79.847168 -167.646713
127.416916 -87.860489 -169.675293
-132.039474 -72.845764 -170.697311
-9.773535 -76.391708 -174.293259
-4.379066 -75.664246 -170.297760
41.766273 -75.158630 -170.067368
28.427658 -77.983307 -166.439468
46.286015 -69.596329 -170.663803
124.523010 -68.179474 -168.214630
-134.951584 -67.906998 -169.651428
-3.603319 -58.832489 -172.105423
119.391342 -76.118744 -173.669708
122.730942 -67.243561 -169.051346
124.908920 -72.371933 -169.770294
112.412697 -60.355820 -166.198425
-133.161453 -60.873199 -171.979630
116.037384 -47.917114 -169.862000
-11.234386 -58.718536 -166.451797
117.442635 -56.981705 -164.159943
-103.602898 -57.404175 -170.925430
-15.229601 -65.722855 -171.953003
-126.039078 -53.114761 -163.779556
110.032646 -52.849014 -168.810608
25.071766 -56.673889 -167.131165
42.592388 -60.304306 -166.745590
-135.158081 -53.468826 -164.986404
-125.281845 -48.454926 -167.046799
3.082831 -47.355957 -167.633530
-113.213501 -55.614685 -170.809479
-124.961365 -48.311356 -172.806168
24.479578 -50.641434 -170.357361
-2.744970 -51.239944 -170.985886
35.494312 -48.799072 -165.774948
27.739870 -46.874237 -166.690613
104.285805 -43.925034 -167.395721
-3.432743 -43.584106 -167.914658
106.635887 -45.456390 -167.716492
109.009361 -45.759827 -167.372757
-133.951431 -41.030945 -170.975449
115.791618 -39.137741 -169.449448
21.148355 -40.421127 -168.096161
23.233337 -38.893280 -169.272293
-21.364758 -38.786011 -166.257050
-73.005524 -44.807251 -167.930618
-10.066853 -43.134308 -170.008545
101.509460 -37.308289 -168.372635
102.262024 -36.487823 -170.490967
-16.729076 -46.267410 -172.474365
-72.811310 -37.787323 -169.284897
11.375998 -39.807831 -173.216293
104.601952 -37.785507 -166.423370
-137.117737 -32.740189 -170.119781
-149.692825 -42.609955 -169.781616
-143.664124 -31.748703 -169.192917
-4.515354 -26.845337 -170.475128
-134.304535 -30.621338 -166.092896
4.901917 -26.747116 -172.880188
20.713724 -36.554123 -167.323364
-154.994675 -31.438995 -170.528839
-144.945908 -25.918381 -173.640854
91.325279 -22.725601 -169.761383
17.970337 -29.170395 -170.019028
-138.673264 -31.689362 -168.134827
-125.233582 -26.954132 -166.940399
-0.790667 -28.998962 -170.930191
14.991626 -30.579468 -175.513245
95.836281 -30.902023 -168.785080
-143.906158 -26.763657 -163.241547
-135.641876 -24.972794 -167.308823
-109.063171 -23.921616 -166.314423
98.658249 -25.292587 -169.232941
-98.675430 -25.269363 -167.186691
-132.198456 -22.216904 -168.842804
-128.564285 -24.133743 -170.653549
-128.629959 -20.996948 -168.972992
-136.863174 -23.405075 -167.747162
-146.269852 -24.907654 -170.420593
-118.780792 -21.772766 -169.142151
-118.360641 -24.131943 -172.501663
-138.448654 -23.051407 -168.544373
-128.945313 -14.172546 -163.921768
-138.523422 -21.418381 -170.217545
90.355537 -24.396194 -169.407761
81.463654 -13.620056 -166.344513
-139.462982 -18.162079 -166.654678
79.737999 -17.215805 -168.000763
-1.316946 -17.295181 -171.993927
25.920027 -18.339737 -166.459351
22.085697 -15.447952 -169.108582
-136.377945 -8.512650 -168.475403
31.471647 -12.538208 -167.869049
82.425125 -21.837036 -170.484192
30.097878 -17.621445 -166.444489
19.355431 -9.823486 -167.724533
11.367029 -17.241669 -169.600372
-6.627905 -9.192154 -170.155518
12.923904 -10.720779 -168.778473
18.691673 -14.134201 -171.034912
73.155563 -14.984329 -172.087845
-37.219757 -12.765106 -167.680634
32.828636 -9.315689 -165.086823
-46.814350 -10.663849 -166.317917
9.498350 -5.091125 -167.678986
-47.248306 -2.115692 -165.782852
-69.093613 -3.534210 -171.220032
-66.276520 -8.367279 -165.330536
4.182037 -1.928375 -165.825974
-104.263535 3.995911 -166.790726
1.192575 2.464081 -168.507446
-101.383392 5.127747 -167.799423
-97.236389 5.491882 -171.187119
-89.705025 2.094696 -168.997131
-133.170013 9.470062 -167.005203
-133.667313 11.404694 -171.603287
-151.129944 12.088593 -170.753433
33.401680 24.819489 -170.761307
-35.990215 27.650177 -167.839294
-50.466301 25.282104 -167.899139
-25.563557 33.406860 -165.372437
-16.334284 34.393768 -170.538544
-84.821289 31.107666 -169.061188
-16.138626 35.605652 -164.004425
9.778334 35.272644 -168.973343
-148.155319 33.397888 -170.157166
3.935306 32.810638 -167.495514
20.727150 35.915070 -171.136444
29.412256 35.474976 -168.757370
-38.819988 34.191925 -169.891449
-14.454821 34.183350 -172.503922
31.452291 36.812531 -167.561035
-54.752319 35.288818 -168.625824
-20.466282 39.893188 -170.013214
-2.788948 35.176636 -166.508667
35.043766 41.838287 -170.276077
5.967200 36.734131 -169.619720
20.052513 37.706604 -167.056198
30.719511 40.923981 -169.538513
-116.176743 35.495636 -167.163193
-134.370453 48.079071 -171.423294
-130.537186 58.405579 -173.636505
59.277905 -242.320129 -173.115601
48.250980 -237.428467 -166.491943
55.013813 -238.329697 -166.951080
39.910755 -237.627823 -163.623886
63.714985 -234.503387 -164.686569
40.333839 -227.759415 -168.300812
41.120174 -222.949631 -166.660507
41.222546 -218.556610 -165.219269
63.162838 -220.889084 -165.914337
47.786842 -217.772339 -162.687149
60.255924 -218.883148 -167.384674
49.004356 -217.319016 -165.705978
52.686497 -216.742874 -169.154739
46.291622 -215.043732 -168.190735
57.111626 -211.790329 -164.697021
53.703709 -212.766266 -167.477951
-24.062492 -201.898575 -162.453690
-16.744564 -205.910355 -167.926743
-68.381813 -195.659470 -160.837189
-71.500748 -193.018021 -169.914307
96.229630 -186.430740 -170.283936
98.398315 -178.956009 -174.155289
1.613417 -187.325043 -168.241745
-72.541748 -178.288605 -167.904556
-9.942457 -178.804459 -165.513611
-34.938751 -169.084946 -171.297180
82.338402 -171.064178 -164.319839
73.042198 -161.380737 -165.544159
114.668488 -164.740891 -168.090240
88.663292 -160.224670 -163.757156
-49.118484 -160.821625 -166.395325
-47.496140 -155.594849 -170.313538
59.140274 -158.335251 -169.038452
94.583687 -150.357178 -165.959061
71.838470 -145.602249 -167.833267
116.915611 -157.356888 -168.183243
-79.684944 -147.838577 -168.484390
54.238956 -143.861481 -169.426788
122.382957 -147.618317 -165.700378
61.981228 -140.354721 -170.646896
120.899353 -149.018021 -165.123383
-68.528702 -142.225220 -167.369736
52.712364 -145.690033 -167.823471
122.008537 -136.708282 -167.609955
119.290321 -138.442154 -168.872925
128.357376 -140.850861 -167.166107
122.628616 -140.303024 -171.262070
57.369022 -140.694107 -167.508667
46.990791 -138.288498 -165.567001
56.199276 -136.927139 -165.993484
125.453751 -132.958115 -168.376892
55.936546 -130.066895 -164.621826
126.348320 -122.413635 -166.469742
126.852470 -125.380417 -169.452301
51.021008 -131.836029 -166.986252
-58.290611 -125.946869 -170.231232
134.024628 -116.788055 -170.132431
-41.586395 -119.547943 -164.870804
52.177044 -120.313568 -169.130646
-55.079865 -119.326843 -166.152328
44.787189 -118.208847 -167.294266
-61.291039 -111.097214 -164.522339
-32.646408 -111.811172 -166.326904
-54.126205 -117.733597 -165.965820
130.662186 -116.172348 -168.745010
131.722458 -108.201813 -170.644241
131.311340 -111.765717 -167.696701
-55.898926 -110.841019 -164.622025
25.824938 -98.630188 -165.083374
-41.205879 -104.029358 -168.610413
-36.240826 -94.933060 -167.274292
126.013924 -93.247543 -168.390762
-25.311813 -105.255692 -164.122437
27.489456 -97.132462 -171.073837
42.469067 -99.475143 -167.431946
134.740234 -94.665787 -168.066711
44.803921 -88.959106 -169.659546
16.384457 -91.212372 -169.383911
48.513771 -91.584869 -169.804749
-53.684784 -96.021927 -165.405869
-47.756973 -96.528992 -162.320892
-50.705849 -90.252701 -173.111252
131.708511 -93.951385 -168.345032
-25.943569 -94.201172 -170.720261
37.861389 -86.642395 -171.673859
-49.099304 -83.548416 -167.489929
-41.639305 -82.060699 -168.407394
-22.195873 -96.010132 -164.851318
-15.274153 -84.598373 -170.707794
127.405235 -83.160599 -168.132217
-21.074524 -76.871155 -164.582214
34.618210 -81.524734 -167.428925
125.042252 -69.935013 -172.035553
-132.073318 -74.780380 -172.214478
-129.803070 -77.773132 -173.495346
-134.471359 -78.274384 -170.127518
-128.492371 -74.245819 -173.799500
-14.689781 -67.207397 -170.404480
-7.398367 -67.805328 -165.864105
39.208916 -62.777267 -165.399094
-127.417435 -63.463882 -166.634842
-132.598816 -64.425049 -168.207596
-1.782135 -67.703598 -164.878143
29.350943 -74.410904 -173.204407
-131.117889 -60.332977 -164.824524
-13.077785 -72.356766 -169.571838
116.404800 -62.355804 -165.162460
122.910927 -65.571808 -167.383850
37.489292 -61.330643 -166.553085
2.166980 -66.024887 -170.948761
-8.019646 -62.638367 -170.637924
-133.158340 -57.728653 -168.157990
-112.657425 -57.472443 -171.171677
-112.082657 -59.889252 -167.528061
-110.414192 -52.345901 -165.320419
-8.472425 -54.644867 -167.459656
22.796095 -57.184326 -167.444122
109.885788 -55.321564 -168.986511
-131.323212 -54.775223 -162.869507
-128.641968 -57.156601 -168.518707
-131.565399 -56.105103 -163.355423
-140.501556 -51.736206 -166.951965
-15.317928 -54.549271 -167.875198
0.929812 -54.020233 -168.920486
-136.051285 -45.051254 -164.769775
0.655059 -56.709213 -165.367447
-147.877258 -58.949539 -169.723755
-119.300735 -51.762650 -171.074860
30.617609 -46.398315 -167.745712
-148.789139 -51.098557 -168.993057
-131.251968 -45.504303 -170.478455
24.214104 -53.147964 -167.036804
-136.694107 -48.333878 -168.944214
-7.206081 -55.964325 -168.937881
121.175117 -51.158829 -163.395523
-140.901443 -33.991470 -169.136169
-147.551590 -45.843719 -166.121140
-62.645172 -47.823395 -171.048233
105.699844 -43.954071 -168.401550
14.697038 -35.482147 -167.348724
-137.657242 -39.611069 -170.515610
-75.960350 -41.086182 -169.839432
4.839356 -47.944626 -166.747818
35.577721 -28.102524 -166.983856
-126.784836 -37.016510 -169.332291
13.826866 -32.403809 -168.446823
-4.345224 -31.006836 -164.438049
0.194770 -38.660767 -164.155319
101.805672 -34.118759 -168.107834
-3.538113 -37.819107 -168.857956
-9.332838 -36.021210 -170.980820
-92.185020 -28.609787 -167.602386
2.216578 -28.632813 -162.571411
108.718422 -39.916885 -168.646683
96.644089 -38.252319 -166.390594
19.288872 -29.880142 -171.324310
8.005552 -30.671188 -172.984055
92.109703 -33.258926 -165.383240
-103.824997 -28.230042 -166.584335
-6.559639 -31.220490 -169.711411
-83.918167 -29.748688 -164.845581
-90.100410 -28.653214 -169.939514
-120.760849 -26.135605 -172.403000
100.472572 -29.017532 -169.334229
-107.517616 -25.811203 -164.012360
21.321941 -27.599457 -168.226608
101.741119 -29.583740 -166.371109
2.836265 -30.515335 -165.455841
3.527001 -21.738586 -169.296158
6.374796 -23.550659 -170.153625
29.664303 -32.886261 -168.670151
104.316086 -26.492966 -164.748093
26.078964 -24.115494 -163.341187
17.758005 -21.977341 -166.926315
4.817880 -23.415909 -174.255295
6.095547 -17.868317 -171.927246
32.427593 -26.262756 -164.675934
0.374821 -19.782608 -169.149796
90.194473 -16.910385 -165.854355
6.771570 -14.087631 -169.218903
35.414364 -17.767563 -172.906982
-147.991760 -9.593414 -166.535431
12.852369 -17.064392 -166.574707
3.290130 -13.304977 -167.545944
-157.715240 -2.151794 -166.005936
11.049249 -9.464706 -172.822784
32.809616 -8.369781 -164.907364
-129.172104 1.320831 -170.760117
-51.241470 -7.556854 -163.522263
-47.744907 -5.437592 -169.498856
70.485985 -9.035614 -166.335175
-66.660568 -3.230347 -167.620361
30.639656 -4.918488 -172.253983
-55.732040 6.032318 -170.408585
4.009200 -5.134308 -167.244217
-129.911362 -0.786072 -169.480774
67.507011 -4.044830 -165.937790
-61.998993 0.089447 -169.178894
-85.835304 1.605194 -166.247818
-83.015877 -0.580872 -167.871262
-103.942032 0.212830 -171.107559
-92.030350 2.712067 -166.696732
-90.591415 5.896240 -168.405029
43.129475 -1.208160 -169.943619
-112.173538 17.930420 -168.802719
3.495504 23.653229 -167.998077
-131.688553 24.488007 -168.083710
-155.584641 27.767639 -167.247681
-108.856514 33.523651 -168.730515
-99.377449 31.724670 -171.002975
-56.113876 33.884735 -168.218094
-43.964096 34.158508 -165.082031
-24.223675 32.484222 -167.406967
1.524467 29.923737 -170.430298
2.939492 35.298523 -167.730728
-20.317898 32.948578 -166.134171
-18.577602 32.075287 -169.667740
-1.955233 33.145477 -166.006927
-54.252823 36.870667 -167.933105
-39.550938 32.676361 -167.992004
4.299882 33.136169 -168.296555
3.593448 34.516022 -167.736679
13.076931 38.327850 -163.641113
17.734827 34.162323 -165.671402
-75.958794 39.019806 -170.489426
-127.167450 40.611053 -169.125565
-98.648064 40.534180 -172.666260
-138.950226 42.290619 -169.675262
-141.691437 45.513489 -167.841309
-128.037643 50.250854 -170.267761
64.517700 -232.557678 -165.393066
37.906662 -228.653763 -165.510345
64.653900 -228.218933 -167.642227
66.641350 -219.181686 -167.758804
105.099884 -181.888550 -167.071487
110.393150 -178.436768 -168.611069
117.636696 -170.703644 -168.531769
114.256752 -173.705322 -170.888702
77.129005 -167.752670 -167.785675
64.263863 -162.636810 -177.261383
78.652176 -163.629837 -166.274658
-53.182381 -162.697922 -162.619690
84.851753 -165.332520 -168.510422
117.200912 -157.244370 -168.233612
91.076775 -154.550293 -172.787704
111.359390 -153.325256 -163.648270
-60.622673 -153.978867 -165.350571
61.829803 -149.460434 -171.186096
-68.953644 -145.377213 -168.274719
67.701012 -144.036530 -166.474991
55.031609 -150.435944 -165.035126
125.906113 -149.717987 -163.407516
54.114155 -144.132553 -168.833038
57.948170 -140.705231 -168.924164
58.055595 -136.636169 -165.380142
123.625763 -145.547806 -165.864487
-66.436760 -135.374023 -166.014496
123.087936 -131.203705 -166.533600
52.397011 -130.975967 -163.540192
59.892483 -130.981339 -167.239609
51.382549 -130.423737 -165.041595
-37.693134 -122.105179 -166.327362
48.910530 -128.710403 -173.773621
-59.178871 -119.959747 -162.470779
-43.070763 -123.943390 -170.034149
-63.999191 -120.604080 -166.303391
54.109310 -127.308456 -165.572876
-44.066620 -116.564713 -167.287033
47.620613 -124.749451 -165.805740
-57.399544 -113.876083 -165.146484
-42.147861 -117.439346 -167.345261
40.992680 -119.828156 -167.259384
128.419327 -113.266357 -169.762146
126.158066 -119.518951 -163.187927
49.729694 -112.343933 -164.242920
-29.232162 -112.900726 -160.855698
124.681625 -103.775757 -168.098389
-55.887390 -108.576599 -167.124069
-40.081028 -120.090561 -170.278763
45.102802 -99.690430 -170.256287
-59.439987 -107.489532 -168.312088
-54.507370 -105.925858 -168.029114
131.974747 -102.129486 -166.954697
-50.156631 -97.666275 -166.250977
-21.084484 -100.304657 -165.670624
43.951561 -106.962738 -165.171280
-60.985886 -102.160263 -167.550232
26.594397 -106.792160 -169.572723
48.590477 -99.360031 -165.542847
52.429768 -106.571045 -165.351242
25.861120 -99.707367 -166.682358
-33.854733 -100.444580 -166.316101
44.043533 -98.841812 -166.398148
-26.473438 -105.699188 -170.587601
19.733339 -100.580948 -171.607239
36.555721 -106.038330 -163.432510
-53.701958 -100.483078 -168.081665
-27.073578 -104.087631 -166.792282
-48.468681 -101.159622 -168.959717
31.301540 -98.434570 -161.997299
42.204880 -107.106689 -167.617188
19.893324 -95.002579 -164.761810
32.657303 -99.569565 -168.593506
47.367180 -89.546173 -166.109207
-33.052288 -90.405869 -171.470535
-16.146629 -91.413620 -164.676941
-25.530598 -94.606491 -170.498566
40.584755 -93.154572 -167.328400
-31.510044 -84.404663 -165.984680
-21.603981 -93.390274 -169.558868
35.399609 -85.976852 -162.881531
-26.579548 -83.708771 -168.378235
45.761368 -82.199127 -167.211044
132.455032 -86.865036 -166.699448
-16.458572 -80.435623 -165.122986
125.116058 -80.965973 -162.427032
-15.560509 -80.042206 -168.449036
-19.436615 -75.529022 -169.065170
37.852345 -80.013000 -168.371002
116.661987 -71.143646 -166.313446
-18.165699 -70.850754 -164.952240
-18.543690 -84.614670 -168.477432
-11.565115 -66.068649 -167.896530
-133.257935 -66.600174 -165.281738
31.701927 -72.009186 -167.397308
123.273933 -66.613037 -166.814224
-141.934906 -56.586029 -170.504120
-12.804523 -63.434692 -174.683151
-103.027634 -57.543365 -164.281754
-114.321625 -54.819519 -162.994812
-95.846016 -59.328339 -166.662323
-96.127472 -54.874756 -164.317368
0.441236 -55.487274 -164.252808
35.306145 -61.601730 -170.923584
2.094758 -55.589371 -164.695877
-112.384453 -48.451492 -167.632904
-7.947063 -47.779068 -162.265289
-120.644592 -49.458710 -166.880890
2.112933 -54.526123 -165.917465
-131.882935 -49.661331 -166.672119
106.780449 -48.489365 -165.645508
-151.728104 -53.914215 -164.290237
11.935307 -41.522827 -170.870895
27.922758 -47.040848 -163.967438
27.456593 -35.879044 -166.810287
93.730125 -35.973450 -164.235977
24.507635 -45.942429 -167.341171
29.499392 -36.712646 -164.845871
-1.592840 -39.142487 -167.306305
-74.866547 -35.137299 -166.861938
-81.176521 -39.438675 -164.721466
11.895144 -30.848602 -164.071426
-150.457626 -29.370071 -166.809784
29.172979 -32.330185 -166.185074
-129.020721 -30.859283 -162.468765
28.946991 -33.973282 -168.506241
-122.893326 -25.051971 -166.982727
-100.144936 -26.654633 -165.221527
31.152761 -32.418045 -171.091034
94.127739 -27.214523 -164.394516
21.151384 -29.781052 -164.345444
-97.384117 -21.058395 -168.897400
90.029312 -29.246201 -168.144943
99.128571 -26.379227 -165.435883
-108.638351 -23.537216 -162.399643
-98.077881 -23.678711 -168.057144
6.332977 -23.177444 -161.909409
88.291901 -27.601425 -164.442871
79.145706 -19.227417 -169.676102
88.815887 -21.477478 -171.014374
-116.746384 -19.230652 -166.203171
84.913185 -17.307144 -169.708282
84.977234 -18.538712 -167.049042
-149.071594 -24.956299 -170.261002
13.655963 -16.569275 -162.972916
35.704689 -10.623108 -170.717682
11.864374 -14.537140 -167.974411
28.530756 -16.213837 -169.359497
84.236282 -16.939896 -164.977661
28.118773 -11.972321 -170.967987
4.182066 -11.680038 -161.756592
15.962734 -15.772858 -165.077805
82.024132 -6.028198 -169.903412
22.815432 -15.205887 -168.449677
6.087041 -17.123871 -164.790558
28.057755 -12.004776 -169.181076
-155.091141 -14.603714 -165.694183
74.480766 -8.154083 -165.670303
71.532234 -6.276825 -167.142334
69.783585 -14.897552 -171.826981
6.237521 -2.549164 -170.626297
71.913544 -8.777985 -169.819885
-51.891167 -6.263641 -167.705124
71.622879 -1.473511 -171.263596
-76.927086 -3.936859 -169.465622
-107.150002 -0.556458 -168.705795
-113.576019 -2.855591 -166.971100
57.715656 -4.666443 -169.161346
-122.394196 0.064117 -168.481140
-93.416054 3.889496 -170.005707
-98.219528 2.261261 -164.381195
-70.602394 0.868225 -166.067337
-97.893028 2.956909 -166.034424
-106.933517 11.068634 -165.661652
-131.797180 12.701385 -164.771973
-1.571764 6.873901 -167.809921
-150.632431 9.777618 -168.066528
-3.754463 18.699249 -167.840561
-140.628311 12.257935 -167.867813
-139.260559 23.356506 -164.069580
-152.039688 22.363953 -165.492981
4.199870 19.446411 -168.294327
-118.144073 33.551697 -169.387100
-144.946548 33.499695 -167.791199
-133.795807 30.714630 -165.228195
-117.804993 33.452972 -166.886124
5.867850 30.853577 -163.451538
-106.941109 31.417969 -171.653061
-127.574738 28.366852 -172.627869
-98.419655 27.313263 -167.100327
-62.095551 31.624146 -166.849091
-47.096291 27.646637 -168.764832
11.064523 34.246399 -163.701004
-38.446449 38.368256 -163.203827
-42.179955 34.716400 -166.277344
-49.099251 37.271667 -163.489792
-66.043129 39.592194 -168.860535
-83.959045 35.393280 -165.593643
-143.736603 34.854767 -165.612015
-149.517563 41.559631 -170.233780
-114.175888 39.366058 -165.987869
-129.509583 38.987396 -166.695755
-135.857834 46.725800 -171.847244
-133.326218 54.715149 -166.102539
63.020695 -235.175613 -167.377777
33.613136 -227.260757 -166.877914
62.163429 -219.328598 -164.202087
5.159704 -188.888046 -164.435379
100.310799 -194.951233 -166.163620
102.076187 -185.467407 -166.412064
90.192116 -190.400543 -164.049179
89.399704 -187.061661 -167.305222
107.059624 -182.872513 -168.297775
-77.963257 -176.479279 -163.184189
88.723877 -177.653946 -171.414032
-19.959705 -178.008087 -162.369110
118.199837 -169.172485 -164.980667
75.071983 -167.054245 -166.649200
118.980293 -160.507858 -167.866928
117.562248 -156.115494 -162.850876
84.562416 -156.143463 -168.626953
-62.901848 -159.685791 -170.107239
70.199600 -151.129379 -168.246780
120.406342 -151.024384 -167.548996
59.932159 -144.450546 -172.057434
95.899910 -146.380753 -165.078812
55.288033 -146.639389 -164.017990
121.529343 -150.291138 -164.718170
65.879272 -148.760132 -163.130875
124.500320 -142.538574 -167.800552
124.282082 -138.409714 -167.699951
-63.085083 -143.148346 -163.633987
-68.754585 -136.964172 -164.390671
56.794384 -134.659485 -169.541306
128.772614 -135.289917 -165.747772
129.204300 -132.210526 -166.246185
-71.289375 -125.799164 -166.862793
123.139984 -130.796799 -167.997116
-42.952404 -121.618973 -167.274902
-74.312370 -128.770050 -165.882599
-59.257660 -126.422592 -164.164734
-39.456509 -125.163910 -164.681076
45.058582 -128.027115 -164.710007
51.573605 -121.778427 -165.758026
-57.072136 -116.422913 -165.792648
42.947411 -118.218826 -165.713013
122.875961 -109.760483 -168.537735
-28.820980 -109.133270 -168.431015
41.351646 -109.109619 -161.335495
133.092072 -107.918274 -165.626663
48.499592 -111.206787 -164.046158
120.793015 -112.461609 -165.890106
-36.009975 -107.839233 -168.841751
-50.507584 -103.177734 -159.798370
-35.047787 -102.277405 -164.657089
-29.680168 -91.333313 -167.289246
20.230024 -98.277542 -163.745926
130.169373 -98.938614 -167.894882
125.374130 -98.460907 -166.273758
23.936527 -95.305359 -163.897324
20.012243 -91.319107 -168.426270
28.971989 -99.662170 -164.413101
40.156055 -98.027969 -163.119476
127.601883 -91.355392 -164.580643
121.521408 -89.541214 -169.024414
40.099659 -82.603531 -163.738098
42.327763 -98.295105 -164.180908
130.365601 -91.055511 -165.964676
-12.298599 -81.242157 -166.020996
126.756805 -84.169144 -164.852356
29.998383 -79.942825 -165.164185
38.455730 -90.555817 -167.109467
119.210983 -83.175278 -167.625259
41.735188 -83.904785 -163.997437
125.603195 -77.800415 -161.210999
-27.817417 -81.873428 -164.999603
41.782558 -78.182419 -163.964233
119.755272 -72.303986 -164.239014
40.830650 -71.648621 -162.572342
-135.975403 -68.368149 -161.186340
-15.171356 -65.679001 -161.819733
40.208908 -67.310547 -158.589264
-94.669876 -60.450867 -167.668976
-92.264725 -64.937378 -166.394592
38.452724 -69.140457 -160.589233
31.021053 -72.594955 -162.000717
-14.293434 -67.127991 -167.570160
-8.275755 -61.291122 -168.623230
-15.821869 -65.797455 -165.827652
35.892593 -76.885529 -164.048294
-136.651306 -60.941666 -164.945877
-129.785187 -58.949326 -165.483780
-128.528168 -59.525604 -168.270599
-3.544144 -63.745209 -165.139313
27.235952 -52.825745 -167.053070
115.202484 -61.366592 -162.852982
-93.578575 -57.533371 -166.909271
40.329899 -57.359955 -167.330383
1.693990 -61.452225 -168.184341
-5.974194 -56.738602 -165.418213
111.843246 -58.191040 -164.638412
29.571888 -50.289398 -167.524017
-5.860853 -60.575638 -166.439697
-108.141586 -52.127045 -162.469284
-117.786346 -48.913483 -165.354340
-96.502190 -53.260605 -168.908035
-124.374420 -47.231323 -165.642685
33.330574 -57.116440 -163.329987
109.014923 -46.783600 -167.508331
-150.418884 -52.400314 -161.435806
116.411873 -51.879135 -163.900757
-3.025507 -47.276535 -164.108810
109.239006 -42.201309 -170.440475
103.417633 -39.653305 -164.646133
25.944614 -43.652664 -167.065155
35.411568 -41.902420 -166.495758
29.735523 -48.373154 -164.999893
4.346420 -36.222443 -166.841415
-81.028084 -37.834793 -165.388504
9.456209 -42.417877 -168.797760
110.153877 -38.658218 -164.954285
-76.355667 -36.546829 -166.435165
-88.303596 -36.425400 -166.093231
-74.289886 -34.470779 -168.757492
103.095314 -33.787827 -163.133041
-117.811951 -30.130661 -167.220520
-118.073227 -28.478592 -163.861115
-104.962021 -32.780670 -167.072113
-94.029800 -33.280212 -166.774857
-125.011810 -27.595978 -169.800095
-98.353271 -26.772446 -169.451004
-100.545547 -26.524719 -171.426315
8.654453 -29.719177 -167.014587
-2.006628 -31.434296 -163.834290
14.942612 -22.595963 -165.207672
7.019166 -26.623383 -164.280502
