# This PCD file was generated using the MATLAB® pcwrite function
# from Computer Vision Toolbox®.
# .PCD v.7 - Point Cloud Data file format
VERSION .7
FIELDS x y z
SIZE 4 4 4
TYPE F F F
COUNT 1 1 1
WIDTH 1455
HEIGHT 1
VIEWPOINT 0 0 0 1 0 0 0
POINTS 1455
DATA ascii
106.617783 210.441315 -67.462212
-135.567429 205.360397 -62.531303
98.466301 205.986755 -69.546547
-10.808638 213.212234 -66.776527
12.763816 210.806076 -65.677101
-34.514164 209.550323 -71.900795
93.365738 211.353241 -63.231667
95.061394 215.449661 -68.208626
2.483278 220.506958 -69.580467
104.302017 216.506485 -68.163063
91.879974 216.619385 -63.949093
-20.521753 219.129913 -64.771431
-76.837112 221.354858 -65.571396
-26.329334 221.437454 -67.137070
-30.297770 222.640594 -71.757851
102.138863 226.329773 -66.361214
-76.779320 223.442947 -71.076935
-154.237091 227.801178 -61.730087
-5.248570 224.820541 -67.544006
-91.770180 223.406387 -65.808632
-15.214355 230.052963 -65.341537
5.010531 222.209839 -69.979874
84.207977 231.005524 -65.465378
-20.174807 234.834122 -67.809273
-148.890137 227.922836 -71.355545
-10.882091 231.326233 -70.834282
12.167528 241.514267 -66.939178
77.261276 236.232269 -74.016792
-166.329880 233.641495 -67.826965
82.103996 235.002670 -68.179047
-135.701660 231.524063 -64.633217
-18.732882 233.053055 -68.584595
5.215265 235.589340 -67.667641
-135.536682 243.107956 -68.142433
-152.399307 232.187866 -64.067467
72.548790 234.282608 -62.123104
-141.353271 238.682449 -65.427254
-134.208710 243.411163 -64.158211
-145.870697 250.181122 -65.034966
67.337654 238.713898 -69.067329
-133.752075 247.017303 -65.777832
-126.752136 246.136307 -64.304489
5.449876 251.995483 -65.026138
-13.415952 239.454453 -63.149971
-160.509521 239.576950 -63.862373
-151.581787 245.520691 -63.899029
18.713852 246.446243 -69.584297
-160.327896 242.705582 -70.506096
-0.781590 245.518661 -65.267677
-8.110312 250.711227 -67.631828
-144.222504 242.226868 -65.548363
55.470428 247.997635 -63.239262
-29.644636 249.238174 -67.150482
-148.193039 251.856873 -65.687096
-159.847855 250.088547 -71.664833
-172.267120 252.364029 -63.750999
11.748874 244.115082 -70.401192
-5.856544 250.697433 -69.036362
20.886539 250.208206 -62.383865
-58.944462 254.464020 -66.618004
-45.543720 256.664307 -73.277084
9.973607 246.260513 -62.471680
62.949020 249.889252 -66.795334
-39.125328 257.924652 -68.577454
1.701440 261.158722 -65.350082
-152.338379 258.636353 -67.922523
-68.870827 262.558533 -63.282394
15.422529 257.482605 -66.564980
-151.115738 261.244965 -65.030212
-158.654236 251.925919 -72.876030
20.504288 258.522949 -67.623253
-167.771301 259.354370 -71.569908
-148.012314 255.343582 -69.506317
-154.300919 260.119720 -68.334755
-156.536469 263.300598 -72.555672
-128.401810 263.086548 -69.586075
-12.956035 261.514038 -62.458279
-156.334305 269.185883 -65.045532
-120.507881 272.284882 -64.238731
-101.968872 266.997772 -65.900642
-121.688553 265.039307 -69.798004
-101.780113 262.755432 -65.737457
-93.848412 260.688416 -60.727085
-92.126892 265.487244 -74.541512
-148.421036 261.108643 -68.889297
-110.032417 263.263275 -71.486725
-149.714508 272.364380 -66.871323
-111.739403 270.295715 -69.005424
-12.969878 275.782318 -62.495090
-157.641388 268.136017 -69.756729
-145.550232 271.430878 -65.250404
-172.250076 274.763672 -68.146416
-10.589920 284.628937 -69.507957
-168.092194 292.942413 -66.026741
-138.993851 295.088501 -69.750389
-69.099304 297.668152 -65.011147
-32.960648 299.621368 -66.169350
-24.454426 299.146912 -67.253876
-116.947235 296.627258 -66.128906
-0.102447 296.748535 -62.575550
17.834753 298.109039 -70.314316
11.232086 297.708008 -73.030289
-46.246044 310.377747 -69.709244
-73.504944 303.578217 -71.243683
-111.255630 306.158752 -65.677574
-27.945570 303.390594 -59.351963
-16.401356 297.185333 -71.289932
-120.704590 299.000763 -66.492798
1.622004 299.402740 -69.059021
11.621761 302.075653 -68.589752
9.400294 305.160767 -64.192764
-156.829117 309.421326 -64.123497
18.561300 26.554182 -61.913399
30.391369 29.042576 -67.973297
20.143167 34.010876 -62.818451
13.724880 39.807079 -71.174370
19.538061 38.325451 -71.250252
22.935511 35.076744 -62.248398
27.273060 41.433716 -65.186508
42.792461 49.306461 -63.548069
14.551301 45.311634 -65.537567
33.074772 53.632042 -69.301216
37.936558 52.889744 -69.370972
30.042965 46.857941 -68.583504
-77.890877 77.077866 -60.536255
-21.193769 66.974152 -61.955070
-81.232910 81.105835 -66.648163
-14.304183 85.855324 -61.664894
70.427361 77.808105 -68.917374
-24.833538 86.600708 -71.525734
-39.059139 93.681877 -70.331360
95.863998 94.971642 -64.341454
103.812920 100.308655 -68.361221
65.093575 106.805931 -66.701294
47.314053 102.795006 -65.372131
61.040073 110.634583 -66.698608
-77.094414 114.246185 -61.270290
94.424728 112.203789 -66.474060
-74.283806 106.092415 -61.166912
-76.052422 112.266541 -62.240093
72.685356 120.364975 -64.058174
52.407871 109.925392 -60.746990
48.013073 121.208252 -58.997654
52.031883 116.522987 -72.070457
107.676216 122.797005 -63.866165
38.470234 128.785416 -69.281364
-90.874901 128.493835 -72.258743
114.612892 128.349075 -59.463264
110.713997 130.117966 -65.955338
39.868206 131.939331 -65.066597
37.821247 140.282471 -60.016697
112.865280 137.129120 -64.132416
-52.454144 142.974838 -63.569172
114.936943 143.317459 -67.323524
-77.159065 142.284821 -61.700485
114.973846 142.234680 -66.423843
-46.553486 141.719604 -67.723732
109.047005 146.276917 -70.261185
33.225845 151.558655 -65.644585
-41.118591 152.542007 -61.805611
113.253159 148.857880 -71.174660
-69.884148 150.505753 -64.925041
29.549894 149.791000 -67.258957
-50.288250 153.362900 -71.113594
-74.479561 157.971664 -62.176613
32.214714 156.892029 -66.182579
105.487694 152.917465 -66.661758
-73.027420 159.059158 -64.685753
8.173025 162.882065 -66.763985
8.979239 168.511368 -71.123283
116.021614 168.213196 -70.265366
-62.714371 159.159073 -63.513996
-45.351463 164.182693 -66.779564
-62.838112 165.036545 -63.755085
116.547661 170.918976 -65.814743
116.506050 172.633835 -59.199886
19.287569 168.125870 -72.233849
-69.424805 166.842606 -65.676979
-42.380112 168.417175 -71.972221
108.244850 170.776276 -61.534500
-47.108280 173.298523 -65.445389
-61.632244 174.554840 -69.643723
111.654251 168.235138 -64.308655
-62.524662 170.782883 -65.857864
25.236429 177.921661 -71.683464
110.721100 176.607483 -64.396576
-43.991646 174.018616 -66.668991
-40.064449 182.878632 -72.053841
-31.659880 180.527100 -74.324333
-149.510010 189.544861 -69.546898
-146.850967 183.899826 -63.370468
99.847687 188.945221 -70.566223
101.541718 189.022110 -63.049095
15.942361 190.174103 -69.009964
103.108368 197.066513 -63.214409
27.820246 196.950897 -68.010208
-24.611336 195.072098 -61.173656
-144.049225 197.971344 -61.979187
13.848588 201.011398 -74.501579
108.773346 196.600708 -66.122559
103.034081 197.989456 -64.962563
-17.563843 200.820847 -70.283539
102.086060 196.793839 -66.741142
-148.988983 197.933792 -62.048092
-141.598938 199.699753 -68.464958
102.209259 207.985458 -60.450535
-25.461748 209.203629 -67.596642
-133.817978 202.215332 -63.071472
-118.635872 203.553116 -74.418388
17.892866 202.887375 -66.939598
-139.717178 204.804977 -65.256859
-133.284622 210.120117 -70.022484
-139.401367 213.550537 -67.079132
98.162003 214.668289 -62.559151
-132.641602 213.865509 -67.283577
-15.247662 213.590546 -67.197495
-25.053711 213.556030 -63.425770
-137.917725 216.381042 -69.239456
-125.253471 206.497528 -66.511337
99.197624 220.812775 -65.938301
-149.293610 215.784698 -64.855415
-148.619507 219.521606 -66.569489
-7.581556 221.458588 -65.911194
13.897382 226.668457 -68.767754
3.173881 213.715302 -67.598122
-17.008015 213.608780 -69.088470
-168.299118 213.056717 -60.090382
17.105371 221.517792 -63.960213
94.959267 224.848969 -67.599838
-11.612674 226.400192 -69.322067
90.674179 217.868149 -66.673149
-31.740612 227.279068 -58.452259
-15.798141 227.050751 -67.747482
86.051338 223.757294 -64.982834
-165.869675 227.637619 -67.921814
-167.844986 226.535049 -65.208939
-19.240246 228.960007 -67.832520
-84.245903 229.703186 -70.473747
-148.574493 226.074814 -66.240326
80.593567 228.071701 -67.139465
12.570704 228.438095 -64.966118
81.953705 231.963531 -61.525482
-106.862389 225.518707 -66.242599
-145.647202 234.339951 -72.203110
89.464699 238.160431 -73.969040
-160.505905 236.199219 -65.531044
-151.474503 229.775269 -64.945061
-16.153492 234.581024 -64.553978
76.920235 235.744354 -64.962532
-105.530167 235.335632 -70.314667
-128.742218 234.164871 -67.634132
85.383827 232.059158 -69.162582
-144.992432 234.641418 -67.434097
-168.657349 238.261169 -73.929962
-152.884033 237.803757 -62.029701
-20.397224 234.554993 -69.958443
15.593028 242.960190 -70.736908
-156.565582 236.843399 -71.643105
-0.378752 233.088867 -67.801338
-0.386064 232.759155 -67.890800
-127.634392 235.931351 -63.377686
70.803619 236.423813 -72.276146
-157.196945 243.491623 -62.518024
-13.840251 240.762817 -70.805054
-107.054329 246.386093 -66.333389
-5.302371 245.210495 -70.851814
-147.753479 238.829971 -70.247147
-120.678986 239.764862 -63.442051
-150.815063 234.299683 -72.715477
-123.973900 246.259293 -70.941322
-4.169611 239.269653 -58.658474
77.419647 240.858276 -66.895218
-137.214859 242.449783 -74.315681
-130.068558 243.755692 -62.014992
-170.554108 241.689270 -68.274559
-147.928421 247.354172 -69.263016
-148.324448 246.521744 -69.119789
73.277374 250.912277 -69.201378
-0.363595 244.793198 -62.568501
74.572342 245.915909 -63.916798
13.107470 250.534973 -67.654495
-18.342649 246.956207 -63.339050
23.733713 246.983658 -66.855797
64.961220 247.879166 -69.612518
-4.859553 253.043259 -62.538494
-20.905579 249.824707 -70.108925
16.505880 252.340790 -68.870026
-22.839380 248.866898 -67.008316
-2.075819 255.517807 -63.961620
-10.067030 254.642303 -70.953911
54.816761 261.547974 -74.230766
-59.232185 259.550079 -65.524216
-2.361556 259.419250 -67.705803
48.486526 261.435364 -63.754627
21.886055 269.396088 -63.083637
-15.645406 267.596008 -70.667953
-13.739261 263.727539 -67.747467
24.328999 263.519867 -63.562168
-95.049217 265.588074 -71.115349
-127.770798 266.705353 -71.330956
-96.646790 263.569763 -63.952812
-84.164085 265.297821 -62.308479
-146.894867 264.439728 -66.214828
-85.167328 258.900818 -64.530396
-106.326973 273.228760 -65.814964
-110.903549 264.429138 -65.456390
-108.941025 267.829834 -65.941750
-119.533119 276.164337 -75.321953
-133.430038 275.854065 -63.733395
14.817774 270.882538 -64.341103
-166.881332 267.031250 -63.170345
-16.658640 275.747314 -63.986176
-136.601288 277.387512 -65.693810
-143.104553 290.026642 -71.784149
-11.069149 282.367340 -74.558380
-132.945343 296.712463 -71.234688
-143.772522 293.050690 -63.362278
20.055590 294.393951 -65.710953
-53.610455 294.303467 -68.981277
-121.513313 296.762756 -64.283020
-98.985481 296.475128 -73.484871
-42.440453 298.356842 -67.424217
-32.814728 303.762756 -67.591957
-167.403290 289.753723 -68.168854
-110.491745 299.088104 -73.957497
-23.591503 292.391022 -66.672348
15.012297 307.021088 -66.685783
-50.672497 300.828552 -66.312271
-49.897625 296.056824 -67.281830
-34.341743 297.664917 -63.746674
-17.876734 299.065765 -66.181519
-13.829805 295.828278 -68.950027
-163.182739 306.974579 -67.366241
-94.785332 295.811401 -61.033665
6.055076 301.245117 -63.689278
16.941597 296.196106 -62.155884
-131.612000 306.102997 -61.496120
-140.984787 303.957886 -64.619324
-152.374527 311.593719 -62.262398
-158.278488 306.238312 -64.996712
-155.747406 311.270935 -75.075676
-157.487244 318.611206 -70.975723
37.695038 19.063505 -63.975262
41.333958 26.216845 -67.356628
27.011728 32.304695 -63.264355
41.524242 30.819811 -62.717434
37.113884 34.673893 -65.912460
45.409901 32.661140 -70.812515
44.695541 33.955612 -58.171059
51.360432 35.048500 -61.586975
52.906639 38.975487 -66.197159
44.238377 46.936352 -60.558910
46.027153 45.524391 -66.937561
30.634510 52.020470 -66.396530
-70.504753 64.473190 -72.148621
-72.833969 61.164890 -68.648949
-38.404167 56.917088 -68.960922
92.256645 76.116982 -67.648643
82.845451 73.820229 -69.046745
-41.446148 88.487709 -68.580948
-26.642183 83.031227 -71.781654
-41.287449 83.185608 -68.162857
-53.081734 101.364784 -68.831421
56.895618 91.971069 -73.432220
67.900154 101.549889 -63.315269
-61.179634 101.556702 -68.564491
55.699257 102.134697 -65.582283
-65.985130 98.863640 -64.816902
54.979675 102.983055 -71.033363
113.103661 106.712372 -67.202179
43.884632 113.209717 -65.211212
103.904900 104.656479 -61.478207
95.425758 114.468033 -70.186005
37.700397 113.259232 -64.320755
108.297638 121.282784 -65.085136
48.442299 118.693787 -61.743790
104.261894 119.809578 -64.411690
108.082260 128.581284 -65.628029
47.650772 123.350624 -63.463985
-89.543831 133.085449 -67.032036
44.435017 127.354294 -64.515472
109.437263 127.266151 -71.113289
37.185284 137.085724 -67.648254
111.957748 131.252914 -63.697258
114.344330 137.005920 -61.436951
-47.602959 137.904343 -64.468231
122.121063 144.707794 -67.262878
115.462990 143.369675 -65.533936
39.434162 133.180969 -64.454025
-64.269524 145.385117 -65.920807
33.469608 144.713272 -64.765244
35.101700 146.558868 -67.623077
-70.893379 144.544373 -66.770683
108.006081 153.117661 -67.609627
-43.620785 148.318573 -61.639351
-75.435677 151.906601 -62.644314
-57.253246 141.181625 -67.159088
31.418356 145.750397 -70.820335
-46.478310 153.425568 -63.183193
113.703957 150.882584 -67.847183
-46.607857 151.577637 -67.055351
-70.264442 150.638428 -63.262463
-69.749664 152.922668 -65.892059
-38.706718 151.535736 -65.819351
121.995155 160.720764 -64.369270
-75.124161 156.961731 -61.462067
-63.133125 163.175323 -62.867580
-69.998993 163.151688 -66.174767
-71.981918 160.423431 -59.747143
-54.704693 161.654968 -69.682007
18.470116 160.118500 -67.180389
17.713289 155.439148 -63.895382
25.579432 157.062531 -64.890633
28.038734 161.153275 -67.915337
2.331694 165.151764 -68.425140
15.941087 165.920273 -65.452477
34.750019 171.407898 -65.172066
-5.284565 169.052750 -71.742088
-55.800076 171.840424 -69.179962
-34.546337 169.122681 -61.953678
7.905221 171.473892 -69.256874
3.785504 175.042694 -62.491737
112.790230 173.814163 -63.919628
30.858166 174.195419 -63.436241
-33.986046 175.142242 -66.205276
16.957531 179.715897 -61.238701
104.645744 181.849670 -70.559776
-46.528603 182.956711 -66.262688
113.654839 180.847656 -64.649078
-38.542374 190.831436 -62.938206
-154.777649 188.336136 -64.161263
-24.691227 192.386108 -71.220169
28.288471 189.734299 -66.416367
-138.044708 189.522949 -67.677727
-36.806522 191.899765 -72.239174
-18.570135 198.460403 -69.355217
-32.260380 188.397919 -63.117912
-28.710514 191.896469 -68.605484
97.447731 190.075287 -65.602036
-133.397842 198.057068 -56.511486
33.883781 203.979660 -68.478111
-23.268118 197.741211 -72.124329
-22.884666 206.685196 -63.069004
4.415048 202.400208 -73.673195
-152.434891 207.907364 -63.961102
-112.863777 205.479065 -61.508347
-139.843124 202.637360 -69.529915
97.153801 210.242233 -70.371895
-162.660767 201.391983 -63.749130
-149.555634 211.875061 -66.537575
-123.902130 208.453934 -62.180981
104.934959 202.014084 -66.409943
30.441153 205.667480 -72.351639
-150.003403 209.911972 -71.043968
-155.607758 208.159134 -65.894897
11.932132 205.471786 -66.614716
-122.483490 208.995850 -68.486595
-148.632706 207.689850 -61.673046
-144.443619 209.429550 -60.199551
-116.912376 211.112488 -66.705757
-19.162388 208.912979 -70.228500
-137.513565 216.000183 -69.481247
-160.398331 206.219330 -66.303169
-154.867462 212.790085 -60.471233
101.412941 213.363220 -64.195953
-16.002058 216.537628 -61.878517
87.828278 215.092941 -70.900085
5.708467 224.642853 -65.642899
-148.837479 222.106140 -66.280922
97.364174 219.559570 -63.011070
-9.790506 226.433807 -63.379372
17.932192 224.336151 -61.849876
87.850426 232.005096 -67.977943
-96.736282 229.800247 -59.374630
4.767859 230.210953 -64.408875
4.812029 231.468689 -66.648575
85.592117 229.625000 -60.527946
-17.472162 232.341537 -67.657028
0.563536 230.601379 -61.480377
-98.390778 230.605179 -69.464111
-21.794834 236.637009 -63.002197
-142.237564 238.704529 -64.443810
-8.933391 236.742737 -69.135017
-18.281721 234.184647 -72.264755
-109.318634 242.722031 -64.348839
-116.202393 236.600464 -60.145451
79.789261 236.966141 -62.620125
-106.649025 240.866760 -61.850235
84.790245 241.606964 -63.422276
-11.909416 243.596619 -63.567211
6.904169 239.188293 -65.082779
70.917671 243.541580 -70.525269
5.475538 237.377487 -65.294662
-18.972939 244.879745 -74.867409
-120.601860 240.599976 -65.891800
-121.424156 236.318527 -64.396400
-140.592026 244.883224 -57.756527
13.014847 247.677414 -71.639130
-127.755440 247.234955 -64.806854
-132.887115 247.032425 -69.678688
-148.225998 243.720642 -70.693695
72.150566 238.874237 -61.334522
-163.246231 252.235794 -63.761440
-3.062987 247.704620 -64.037056
71.201653 251.875580 -68.826576
19.337368 249.167969 -65.712959
71.147141 245.601700 -66.681435
-15.098524 253.736206 -62.088860
-11.337213 251.629700 -64.013176
7.902054 249.526718 -67.516403
-11.176548 257.590759 -64.803963
19.176466 251.661819 -67.308586
17.576025 261.051025 -65.128639
-70.159119 254.440140 -68.277245
-74.155861 252.434555 -63.195396
46.179050 260.131439 -67.401588
-74.605141 268.606384 -64.741562
47.979008 261.019440 -66.473557
-69.953049 261.297028 -70.886353
-170.156845 260.263092 -67.957069
-85.195694 263.154816 -56.884174
-73.964561 262.245972 -67.880043
38.228054 261.035431 -62.670444
-142.575409 264.426971 -71.207474
-119.911697 264.023407 -68.156525
-94.401787 269.569366 -67.669640
-127.444633 270.897675 -72.516937
-133.956818 276.072479 -69.046715
-168.166504 282.542938 -66.136635
-17.812819 292.395264 -70.490883
-159.690857 299.730988 -62.487988
-82.877411 300.505402 -66.659378
-69.073494 305.445068 -64.355133
-59.430801 303.228851 -67.419579
-170.446106 297.032104 -59.039497
-2.161658 293.065369 -61.692341
-31.643904 297.769257 -69.602554
-40.686768 298.337067 -69.281601
-12.096879 298.530731 -70.054832
-40.983906 296.872620 -61.007256
-26.803490 297.263550 -65.296021
-5.220139 299.363159 -68.518456
-69.724579 299.986725 -67.504364
3.293789 298.624207 -64.548340
-96.659576 304.368408 -64.853508
-91.865814 296.124176 -71.290527
-129.404739 311.188293 -67.058624
-126.139381 301.890930 -63.740162
-145.328873 311.249146 -64.107307
-145.457703 317.612030 -69.507622
-146.535675 323.761780 -70.220421
27.464386 25.324627 -67.935448
41.080097 24.070368 -65.634453
23.212648 22.372658 -65.597031
20.715555 28.932608 -66.152855
17.044867 33.643230 -67.257881
14.077533 38.536819 -74.811783
22.840965 42.061863 -68.138695
17.515293 35.725288 -64.076790
25.071051 36.979076 -66.632286
29.215565 40.529678 -66.700691
25.081554 52.452965 -67.086052
21.422047 42.161583 -61.990837
23.592266 49.019211 -68.534157
30.673622 46.109280 -68.142006
39.706795 52.217598 -67.894165
-58.969185 62.528347 -62.015633
-30.374640 67.922302 -60.799328
-13.831706 72.764832 -65.637863
-20.070198 73.497917 -66.093758
88.714951 77.813110 -58.200428
-90.719521 75.163086 -64.961021
77.820480 70.127785 -58.107586
71.730949 81.590240 -60.424404
70.366966 86.141670 -62.696987
-24.426653 83.649361 -61.089119
97.489029 84.810860 -63.301815
100.823730 86.897392 -59.729435
-88.197952 89.745659 -62.357403
-45.551605 99.915047 -64.260529
67.855263 97.665672 -64.802734
99.392494 100.319298 -66.984131
100.717537 107.478119 -65.229317
107.262222 111.683342 -65.310921
42.772564 109.160400 -63.779087
55.967823 109.451309 -68.848984
45.287769 109.189407 -73.119614
86.109619 115.107582 -54.656998
50.964020 110.956985 -65.940186
109.713005 116.558662 -59.928844
102.712257 118.848824 -63.362156
40.178699 122.716629 -64.708809
47.266582 126.417046 -59.925655
-81.533890 126.321739 -63.349728
-82.160080 125.699333 -65.387337
104.606979 131.345215 -71.944679
39.076206 131.351349 -66.045334
113.132446 128.828415 -71.076645
-100.641006 129.750656 -64.066002
109.019135 128.231857 -59.864269
25.513323 127.570023 -61.425064
37.795109 129.448883 -61.551956
112.081512 134.122879 -67.347656
-87.328049 136.745529 -65.771271
34.604187 139.398941 -69.710159
-87.014534 134.252228 -65.767952
32.516605 137.900986 -63.057957
35.869102 134.978561 -72.633972
112.250862 143.153503 -69.428093
-65.858688 145.996521 -68.139442
-53.208706 148.782715 -70.011063
119.386322 141.051025 -62.420738
28.920513 145.468460 -63.025215
-60.832737 148.893356 -70.775208
107.604012 154.929138 -58.949512
28.437469 155.731979 -72.415413
33.282166 161.934341 -73.613197
111.625046 151.006836 -66.106682
-52.232044 155.963135 -64.218475
30.071054 161.519867 -66.129646
33.589588 158.028961 -66.026924
28.800528 161.192566 -63.312199
111.973145 162.219238 -67.019569
13.422329 170.989182 -62.004105
-45.436771 162.650772 -60.788681
-59.941830 168.120865 -60.021320
-39.865780 165.400574 -57.659073
-63.613853 173.538818 -67.597488
-33.825401 168.285355 -61.762680
1.654106 166.330139 -59.940689
103.229271 177.855927 -64.536812
114.669846 172.233154 -64.565430
-33.859314 175.544937 -61.234592
30.872889 173.462845 -68.003693
16.529665 175.416824 -61.651009
-42.027077 174.438324 -52.929173
108.520760 178.513580 -69.881218
-31.396261 179.960999 -62.020695
112.343002 184.200150 -67.490471
28.855833 184.470810 -65.347450
25.884628 186.143402 -56.916401
-35.013783 191.495163 -71.372406
104.835915 184.253586 -61.836044
19.245380 189.142685 -60.673546
-26.401974 194.976135 -71.326408
98.199028 185.852097 -64.427216
114.365517 193.908722 -68.182068
-29.340727 200.245453 -62.687332
-17.653534 196.507843 -61.368031
-150.926468 196.536087 -62.465828
-19.710178 195.375519 -67.035576
-23.483614 198.044403 -70.572983
-150.110641 199.540512 -67.489983
100.414978 196.478455 -60.892776
-28.894794 208.623489 -63.102657
-155.923355 206.219635 -58.984921
-155.431854 203.176208 -65.565414
-139.472794 203.695221 -67.932190
-157.903687 197.648026 -66.252281
106.673286 210.951233 -67.562103
-18.322052 201.643112 -64.941498
-112.462227 213.671356 -64.826256
-13.157527 203.022842 -62.679817
-25.563068 211.572159 -66.888885
99.334473 209.548813 -61.970814
11.220630 214.149246 -64.693642
-121.997398 211.560471 -65.249237
-164.886017 210.079758 -67.891869
-141.888992 216.132706 -62.955769
-144.377426 220.851364 -57.685307
-4.053604 223.324341 -67.056305
97.547081 215.827713 -64.904755
18.290228 218.101959 -66.902252
18.878880 224.876205 -65.826225
14.572611 232.131134 -65.656639
-88.914101 228.110275 -67.102562
-99.905838 227.234009 -68.239212
-97.791924 228.416656 -61.408722
6.480762 226.267090 -63.590271
-159.337830 226.519104 -59.247414
-6.388149 231.607635 -66.781975
11.755776 230.555878 -65.347862
83.553123 239.737671 -57.613743
-13.155328 234.013168 -67.259995
5.944785 238.695557 -65.586639
70.355431 237.993301 -65.909676
-122.613121 231.767441 -57.872452
-119.892525 236.089371 -62.580738
-130.465836 234.329544 -61.889828
14.136684 242.811111 -64.632584
-112.498764 233.344238 -62.274548
-162.781204 237.916458 -68.764862
82.365257 235.661316 -61.340141
-6.032043 237.978897 -70.708183
8.541531 243.533463 -56.730442
64.399635 246.383041 -63.148575
13.189410 244.608994 -65.902618
-142.426987 244.324112 -61.173119
-5.702169 252.469131 -73.036026
-1.642018 250.320419 -71.479912
-1.822021 245.289886 -67.842804
-3.129418 251.340378 -65.800018
9.922474 248.125320 -67.082863
16.064146 250.308716 -56.865143
52.579418 256.266815 -64.505478
13.174728 242.531006 -68.561081
-9.157138 253.405060 -62.100498
63.503216 260.815125 -67.495872
63.716633 251.616562 -66.380005
63.534039 259.203522 -64.334984
57.915348 254.637070 -66.842842
-70.165848 263.259552 -65.838120
-143.721771 255.895844 -63.933117
35.410805 258.196777 -67.369751
-134.940475 260.993835 -62.993217
-17.299997 268.008423 -66.728088
42.326595 269.726257 -60.416126
28.894743 266.123657 -62.913177
-149.817459 264.141357 -70.260208
-20.946524 274.245789 -66.128761
-114.071762 277.297791 -67.406998
-143.711456 268.987671 -66.494759
-115.689064 272.362610 -68.126373
-156.598328 275.980499 -66.497353
-121.511833 273.805908 -70.689987
-154.130615 274.182190 -56.935669
-144.121597 280.832062 -62.301384
-159.521362 279.637878 -62.951435
32.023613 273.857574 -64.859795
-16.971243 279.687286 -63.130764
22.874121 291.541656 -65.037766
-168.703583 282.184357 -69.469574
-160.786194 292.066803 -65.266594
-154.678833 290.500031 -66.599686
-170.549332 294.504913 -70.762466
-132.729416 290.636841 -64.531151
-142.819443 298.583801 -71.160950
-138.481430 293.043091 -63.751678
-112.094002 305.057098 -63.791496
-152.961014 293.640930 -63.932121
-99.286201 297.226349 -66.950951
-73.622986 295.367188 -69.304581
-65.019753 297.873322 -64.486168
-64.043266 300.220642 -64.973427
-56.008488 293.622375 -63.821060
-51.568993 299.772278 -61.453117
4.693595 301.044434 -62.141644
-63.855385 297.154327 -60.779427
-65.893707 304.267426 -64.811920
2.715709 302.643921 -61.771782
-166.939087 304.947784 -60.254353
-86.471657 303.833893 -68.962799
-110.176582 301.784729 -60.419319
-137.945374 297.325836 -64.634293
-116.963326 301.816772 -62.456272
-161.257065 299.687317 -64.591118
-157.047302 307.218109 -62.251560
-158.254761 320.883942 -69.379890
35.229271 22.076635 -63.262585
48.334595 24.289614 -68.815025
22.515495 34.014355 -67.950073
44.113518 25.444578 -60.334801
47.093292 32.936928 -69.073364
27.794260 29.830263 -66.971497
48.497192 31.183125 -75.461014
46.829201 40.249798 -62.034042
42.193245 34.176888 -63.988373
53.666668 44.334042 -63.762577
41.388248 40.604664 -63.230392
47.531891 45.401020 -62.927109
37.554768 53.778366 -64.872673
31.804768 54.457008 -58.983665
39.152134 50.266262 -71.330261
51.419144 50.605869 -60.983921
33.527374 49.445934 -62.945801
34.787285 49.130024 -60.320332
26.258560 54.204082 -67.315186
29.405443 47.850006 -63.073349
-65.237633 56.677696 -69.706017
-44.348007 66.643684 -67.172211
-15.545107 66.792740 -67.839973
-84.397148 66.478256 -66.734383
64.176529 73.805244 -60.822701
-21.932846 82.432129 -61.349686
68.719292 89.470276 -64.082077
58.231037 92.987755 -70.916702
62.354294 96.007164 -60.181068
60.637447 97.778305 -65.165421
63.363350 106.642776 -67.998230
-57.808201 98.555267 -65.094505
109.473106 107.780914 -68.400978
-94.696487 108.104248 -66.576126
103.514282 103.869644 -64.014160
96.432442 114.350060 -58.527695
-78.178581 114.342842 -66.954208
57.420341 112.385750 -69.867783
72.815681 109.472160 -71.857323
-86.177979 108.850060 -73.042427
42.122856 116.104500 -63.466209
101.874634 116.799255 -70.139977
56.920090 115.094589 -60.809578
89.270096 109.860291 -66.936584
-80.665794 123.012192 -63.097221
49.696049 112.924820 -73.921600
40.249561 120.653320 -62.406525
42.655788 118.267838 -60.479706
-79.491447 109.518791 -66.642296
-91.812721 121.336082 -70.306419
110.737610 117.952507 -61.547462
-91.036842 125.979019 -65.480690
117.459747 126.437508 -67.296654
51.467819 118.872345 -65.048042
31.692316 125.703011 -66.831276
44.876049 130.288742 -60.752087
120.501762 133.236923 -67.763954
-78.686401 140.039749 -63.629997
-55.214066 131.763367 -66.388451
-63.916721 138.632156 -63.937901
107.695534 139.027390 -61.431389
-58.541359 138.108688 -62.431377
24.994877 145.382614 -67.821228
-76.746971 137.107285 -63.175293
-89.872940 144.587799 -58.743763
116.274292 139.355103 -66.285896
-76.155342 145.075745 -61.051594
35.903004 140.662247 -70.662201
-69.882706 145.597580 -56.965488
117.365723 139.644943 -61.186275
-94.386223 143.141357 -59.111931
-70.916603 147.159622 -57.846275
37.686974 151.114594 -65.114311
-78.648468 153.818283 -66.628716
106.384949 155.949493 -61.828098
-71.078957 153.313446 -64.254196
26.288343 154.745438 -61.412994
113.487770 151.910751 -66.885590
-45.937443 153.133118 -69.703941
109.920456 148.135925 -72.284836
-45.282082 160.346313 -62.115490
-47.140018 160.998901 -61.808140
17.960142 161.305313 -56.513626
-73.628212 156.555313 -58.810978
-55.840591 162.043518 -66.772781
13.623866 163.796265 -64.490547
-34.423946 163.950287 -66.239204
9.215348 173.795334 -67.399284
-47.648258 163.229126 -66.328232
12.759538 166.915039 -67.535202
5.408067 163.608627 -63.096848
17.780855 173.739166 -75.273979
34.387733 175.707962 -63.462238
108.867622 165.642303 -70.519753
22.948311 172.420853 -63.122753
-34.895168 181.177673 -60.850910
29.371607 177.159225 -63.400127
108.511948 177.095261 -60.516342
-43.069710 179.508408 -65.356880
31.992664 179.745132 -64.778946
108.268379 177.312653 -58.755817
-149.090393 186.234406 -65.354782
-141.659515 184.569839 -65.240166
20.099840 181.540512 -66.859596
14.033579 184.729935 -64.423225
-116.850777 192.235733 -66.696747
25.494005 191.024551 -58.888969
-18.148029 188.440353 -62.998264
-108.833786 198.859207 -64.334091
-108.397507 193.937515 -69.595573
-29.669418 201.076492 -61.168053
-147.994156 201.246628 -60.506008
24.813387 197.615692 -63.954357
-22.651613 202.561096 -62.363571
8.057872 201.327530 -68.892151
-19.776083 202.305618 -61.402985
14.787341 204.439026 -67.370377
-135.576294 203.833679 -58.477253
28.917080 199.638962 -58.163090
-146.910263 208.901917 -64.108055
-29.781683 207.393661 -66.186089
12.163922 204.573730 -64.313011
-160.327957 208.717621 -60.757324
101.108246 207.832794 -66.681023
-107.160225 202.951157 -67.042053
3.487811 201.126282 -63.111427
-21.352940 208.574402 -62.081669
15.316287 203.594940 -62.901321
-136.051086 213.819595 -71.350716
-133.101501 208.879044 -71.625610
-125.593781 215.959488 -65.870964
23.469049 209.963501 -65.973045
-8.654264 213.679520 -66.316933
92.598579 222.316574 -66.924072
12.433507 217.970825 -68.547409
-13.328399 215.258606 -64.896202
93.177940 221.125000 -59.809929
9.730412 220.286606 -63.129269
-15.004036 220.861755 -64.412155
-6.677642 224.128845 -67.920006
85.620071 218.823013 -67.025795
87.604195 222.563675 -72.492249
-3.251014 224.432144 -62.125732
-1.704867 232.709625 -66.548393
-106.965080 230.944260 -64.678780
-147.525314 233.593948 -61.402660
-5.393953 229.148621 -66.378387
85.675140 226.807037 -68.104797
-133.902649 235.712479 -61.824471
-1.897927 238.566956 -64.134155
-144.708160 234.334015 -64.070435
-135.211365 239.052216 -63.974594
-138.038986 235.563385 -64.835899
-16.427197 240.922119 -69.180824
-15.546030 233.883377 -63.239571
-8.789580 234.642410 -71.106003
2.178196 240.563980 -58.543613
-0.047524 244.934952 -60.261902
-156.508469 241.440018 -67.543076
-9.409645 245.684067 -66.789467
9.819746 241.488724 -62.273167
4.481202 236.168304 -62.011379
-135.524719 238.743530 -63.951359
-8.203224 246.545502 -68.760681
-150.722107 247.241592 -62.587112
-128.781769 244.800430 -63.587116
64.213715 243.446701 -63.274040
73.943634 246.648315 -62.362831
71.616837 243.378159 -64.299858
-143.608200 246.829086 -70.807816
65.745438 242.227570 -64.033257
63.858135 248.650574 -66.701103
-154.107574 242.193497 -58.217609
-21.249317 250.581024 -73.039330
68.175377 254.749084 -65.413582
5.141637 252.689789 -62.809147
13.288337 250.641129 -73.424217
61.112701 250.080078 -66.062698
-169.197464 252.485733 -63.336655
67.232201 263.786346 -66.895805
-14.188996 262.401123 -63.298382
-157.020844 257.649109 -63.802227
50.386421 261.670166 -55.864265
-82.876083 262.685547 -68.490211
-77.929741 268.561829 -61.864922
-89.306908 263.422882 -68.948601
19.808678 261.736847 -60.002422
-153.591599 257.829742 -67.729401
-152.846008 269.548523 -62.343300
-154.031097 264.288757 -67.812515
-81.986382 266.214722 -59.916576
-103.841156 268.500702 -65.225883
-96.245392 261.262878 -59.650051
29.262596 272.558746 -65.646309
-101.119507 272.162750 -68.977783
-17.162804 278.033966 -64.455414
21.611979 269.182617 -62.393215
28.517628 268.728943 -68.303802
-121.948257 281.936859 -76.326729
-139.304550 274.317444 -63.656033
-170.349289 275.916016 -61.416378
-163.274490 276.840240 -61.243530
-137.553696 270.438293 -62.727097
-162.560577 277.990997 -64.562950
-167.399796 279.264099 -60.199181
-163.953583 275.030487 -71.642998
-143.038055 282.110168 -70.581001
-14.156402 274.680603 -68.631226
-168.385605 288.097443 -69.752129
20.534868 290.350372 -63.899612
-170.351837 282.126740 -61.204647
-167.407791 288.786804 -70.196907
-12.662696 286.183197 -61.775024
24.183084 293.975281 -55.454128
-165.123657 293.785461 -62.195061
-151.914536 293.299927 -67.081734
-123.853050 292.478271 -61.430233
-7.988992 292.323364 -61.825630
-124.067154 292.461243 -61.784805
-113.697205 295.895355 -53.359951
-118.981873 294.378113 -57.647514
-94.759468 289.115387 -70.138130
-147.008347 292.758881 -61.094986
-92.956787 295.663361 -57.141300
-67.130379 293.676300 -67.787880
-164.945786 300.767273 -65.595917
-80.749092 298.330292 -60.316021
-92.720795 303.071686 -61.962685
-163.376053 298.960571 -58.839340
-105.073982 300.849701 -56.742100
6.762271 301.183533 -65.152260
-154.997467 304.449371 -62.499027
-144.032532 303.134308 -65.814095
-137.343964 307.848389 -62.823822
-146.166458 300.550171 -57.131741
-153.218353 312.656494 -59.338287
-155.201263 327.363495 -61.374908
38.532635 23.169067 -66.149826
43.190361 32.351658 -64.855598
30.105019 46.790951 -64.515144
-72.168236 63.080650 -58.324066
93.832260 82.781227 -62.745552
-99.303085 86.427673 -60.372356
100.241150 93.838341 -65.071198
69.266075 87.989502 -65.871780
62.246387 96.968132 -57.986423
55.948994 91.869339 -66.347038
99.271545 95.174561 -61.445549
66.546112 95.468536 -62.718601
50.919296 100.053787 -58.839439
61.523621 106.420593 -63.758633
60.487053 102.372253 -58.034489
64.143898 101.358482 -70.164032
68.456421 105.528946 -66.084923
100.775291 102.755753 -64.837761
102.562660 106.529938 -66.034943
68.137672 107.217651 -66.992233
46.970192 120.834923 -61.744312
72.832100 112.262321 -59.977386
93.155495 117.451103 -58.537331
-80.973083 128.914749 -70.175453
44.465118 122.388702 -60.875534
35.031876 126.793571 -58.434383
108.567886 122.701736 -58.227695
-73.674126 125.868317 -63.389240
-92.514603 132.694458 -62.896179
-79.629097 134.984375 -59.299988
-88.396576 131.583405 -57.736729
36.216743 130.117798 -70.656975
-60.467907 136.339355 -58.395512
120.699623 137.861801 -58.871578
109.610725 137.839325 -61.128590
-85.575706 142.210876 -65.833298
110.112823 140.950882 -52.408566
-68.739113 143.788864 -64.191994
-76.823273 146.055298 -57.732227
-65.230797 154.326340 -54.794956
34.076519 150.097382 -63.520874
34.170338 146.491852 -55.441525
-78.678360 145.748230 -56.263763
114.717194 144.440002 -63.406361
-86.357643 152.064880 -58.280506
-60.553165 148.912796 -68.726341
-50.760891 152.213760 -59.406227
-79.336494 142.858276 -63.642906
28.016554 156.795074 -66.075233
-51.218502 154.956390 -64.917297
-48.957561 155.867584 -58.358299
-91.184921 154.768005 -64.496269
18.871859 160.591827 -65.163055
23.477022 157.236237 -64.314735
-52.022274 162.437180 -60.032597
-54.157047 161.884979 -67.265099
-98.734329 164.083618 -61.579662
-101.381622 164.462433 -62.971401
12.944244 161.709991 -64.477318
-44.005226 170.576920 -69.882706
-35.968609 160.879852 -63.142796
19.763765 170.387390 -65.176300
28.030424 168.634644 -68.716614
19.630995 176.584717 -63.155472
-103.591522 176.977646 -72.291206
-109.815063 175.587021 -59.852581
-37.120342 170.206329 -62.173080
-102.488457 179.590073 -66.751587
24.753599 181.136627 -60.098282
-102.795258 177.110397 -65.682014
-31.059988 181.297028 -64.743225
-36.981316 185.198227 -62.126743
-153.796661 190.181198 -67.377991
26.504299 188.542938 -67.436516
22.085161 190.593491 -67.303940
22.052130 190.858688 -58.867573
-25.752882 200.901550 -65.354156
-25.094343 190.018265 -59.276531
-134.730408 200.009445 -61.882137
18.221733 195.429337 -66.893295
-23.249414 198.872833 -59.973984
-112.889709 202.167633 -64.691780
22.838383 203.484238 -61.061852
-29.048643 201.922485 -60.633507
-116.477180 209.045944 -63.294010
-15.632260 204.109360 -65.836243
11.499004 205.301605 -57.325672
-15.236221 211.316132 -63.677349
-116.486305 208.360794 -64.250381
10.518672 216.946304 -65.291054
-152.657166 210.140976 -63.939968
-145.397705 214.337296 -63.000248
-7.325809 211.877502 -69.463058
-22.908569 215.797226 -69.020027
-143.151382 212.584137 -63.703300
-172.383270 217.277847 -65.696083
13.460912 226.755661 -61.649624
-18.224318 216.393280 -71.765472
-9.107317 219.132813 -63.496708
-159.274902 234.518570 -64.617020
-8.833737 225.216309 -63.398678
20.066313 221.076309 -62.307354
-8.778907 217.903961 -64.155495
11.788440 225.512985 -61.507996
-20.682667 232.101364 -64.566322
-102.565742 228.996582 -60.296631
-157.093399 229.282532 -60.565056
14.803933 234.133041 -59.850033
-92.630730 230.303436 -55.993557
86.206192 235.700302 -63.861496
-153.052063 234.078964 -56.055138
-123.780067 236.599930 -63.197037
6.655454 235.749084 -62.640450
-154.683273 231.152985 -59.567013
-136.690750 234.582779 -66.616570
-132.217270 233.090363 -68.851120
-124.517914 228.860535 -63.638332
-112.860046 243.249344 -67.110703
-0.574341 238.425110 -64.506821
2.632710 236.276962 -69.674347
-173.280731 234.809982 -67.297340
-5.669695 238.399475 -61.288841
-2.157468 241.214859 -66.889992
75.110863 238.299637 -61.226204
-10.842810 239.569183 -65.781151
73.249565 245.595184 -60.962849
-1.159479 243.617889 -64.765060
-6.608463 240.464447 -65.112183
-13.170212 246.297363 -65.891823
-156.508469 245.753326 -61.950890
-4.698342 249.984512 -63.450718
-170.745300 250.100845 -64.620750
55.499638 248.880783 -66.707001
-157.541840 258.858948 -63.794178
13.743013 256.301178 -60.019341
57.489616 249.227982 -62.578758
-164.923416 255.580719 -60.197006
-164.778000 252.949051 -63.519104
21.148106 259.140350 -60.625332
50.373959 255.695221 -64.153526
23.562359 253.104950 -61.261345
-17.610422 263.640198 -64.782524
41.279469 255.814163 -56.783428
-168.605377 259.906708 -63.618496
39.396767 258.838989 -63.057041
-155.445389 261.370544 -65.670082
-155.937469 252.736496 -60.729660
-143.084091 255.784439 -60.966164
-94.631294 264.546143 -59.421757
-132.179977 264.709564 -65.653328
-108.812981 264.193604 -61.656307
40.390774 258.499634 -63.457085
-16.968204 266.834412 -64.568565
-142.015472 258.130371 -65.794945
-133.452408 263.145660 -59.544926
-109.123718 266.632019 -68.966988
-113.526535 267.532867 -67.208984
35.049362 267.173767 -60.696896
-95.324867 268.501495 -61.282520
-157.140915 273.028137 -59.099319
-168.547958 264.991974 -55.235203
-163.878082 266.625702 -62.034859
-157.677948 275.038513 -61.711487
-156.146149 272.726196 -64.174423
27.558199 269.707001 -62.847668
29.281044 275.154327 -65.868179
-15.921204 270.934052 -61.310322
-154.907181 288.200348 -65.213295
-3.171916 289.293518 -64.327095
-135.437576 292.018585 -61.334209
-142.659042 297.297150 -64.954140
-112.435005 303.432190 -59.344547
13.305982 298.066498 -70.762604
-88.191254 300.585693 -69.147835
-147.495117 302.498505 -66.403313
-97.497498 302.952271 -60.847775
-4.692877 305.599609 -65.461288
-145.953873 304.110352 -68.771194
-110.331673 306.792603 -69.840416
-146.330444 303.946289 -62.474117
4.564601 303.316711 -68.449013
-132.759583 300.579071 -61.020500
-113.131287 304.549896 -58.586739
-122.915665 297.406219 -64.726746
-148.734451 312.838074 -58.171139
-143.962189 302.982330 -57.007019
-142.825516 316.385925 -66.475113
41.205433 41.939980 -62.419426
-25.569622 56.513290 -65.906006
95.512390 67.436668 -62.108067
99.115456 78.892365 -62.086666
72.673210 90.234474 -68.289345
-97.420296 91.568047 -67.770172
53.832085 99.765671 -54.052547
55.702976 106.336815 -59.984596
-62.079994 102.993195 -67.325920
58.889832 97.436775 -60.105495
65.151001 104.124130 -61.096169
73.895103 107.797089 -65.280212
47.377075 105.930252 -65.059090
50.978355 107.695656 -59.917942
103.035469 102.030304 -66.140396
-73.913315 106.246368 -57.925816
-77.186974 110.015648 -55.597206
60.297142 104.088287 -63.466061
75.177879 114.161568 -59.514503
-73.562950 115.430916 -61.464233
-68.448914 115.648186 -64.057701
-71.500908 116.981621 -57.183819
87.278244 118.459381 -62.084114
114.770241 112.214401 -58.820564
42.235401 119.893692 -62.006302
45.204567 123.368668 -62.129650
-81.095772 116.790176 -63.837646
110.250908 123.294136 -63.970123
107.191048 120.261421 -65.813713
107.285217 124.649170 -69.135628
-83.990913 126.345383 -63.917130
-74.323906 127.891144 -62.337708
-55.170002 135.310349 -64.750298
111.719208 130.909683 -60.114853
-85.265625 134.922791 -59.407394
-52.043804 137.873184 -67.910698
-63.748627 145.381546 -64.163887
-86.232285 138.898605 -55.594555
-70.196938 137.803772 -65.009392
-79.361755 140.952072 -63.821159
-75.644447 137.417877 -61.039066
-60.788830 144.203781 -67.040550
-47.687275 148.187714 -65.612976
-74.859901 153.063431 -62.298256
13.047886 155.297150 -63.513733
-71.321877 155.801682 -61.317070
-48.413208 162.626831 -63.418835
-94.715057 147.520554 -62.204254
31.391848 154.361816 -68.997849
-46.374863 162.751129 -58.389343
-38.464287 168.520676 -69.053574
26.504841 169.312012 -60.786358
29.237761 175.920532 -64.346390
28.761440 179.491943 -62.715118
19.810444 176.897141 -57.839680
21.605600 176.776215 -60.683151
-146.195221 184.839005 -63.118687
-110.500916 187.105057 -68.892975
13.556264 188.327545 -67.104721
-108.310448 184.347061 -65.711395
-105.370422 192.189728 -59.570824
26.718420 201.987717 -67.151947
-109.844589 193.250854 -63.646297
-141.106842 200.004822 -56.371929
14.114910 208.143539 -59.639996
-131.571167 197.833984 -61.884903
-138.575821 207.826126 -61.381466
-136.785538 203.884949 -66.415588
-159.794220 207.058380 -59.238548
-117.288986 212.938828 -63.817207
17.295673 209.288162 -63.812202
-109.889229 206.375641 -65.401077
-105.570969 208.823410 -65.487373
-160.564957 208.760818 -58.951427
-167.633759 210.257538 -60.764713
9.961223 211.998032 -58.921516
-161.362213 210.233444 -64.494530
16.993355 211.892761 -61.643196
-16.860989 216.538330 -65.147812
-118.581779 215.704468 -61.599613
-167.392853 212.357285 -66.622375
-126.696716 210.733292 -61.648563
-8.502913 213.532593 -64.148445
-144.334549 212.099136 -65.604668
-151.583923 213.405075 -69.808617
-18.630375 224.738190 -54.573124
12.299181 223.170120 -63.861382
-172.304214 218.806915 -62.015942
0.014855 223.070389 -57.739124
-160.855392 234.586899 -58.190144
-107.631935 232.527405 -58.407928
-102.031410 234.435410 -61.474724
-146.694916 241.210342 -60.102375
-142.488968 233.927902 -60.538868
-133.200897 234.766205 -62.060162
-170.170120 233.674408 -61.767159
-105.737854 232.197296 -64.616150
-155.886139 233.741806 -53.138805
-5.385009 238.840317 -59.856823
-144.947586 241.852539 -62.809082
-109.343781 237.381241 -64.945251
-148.157761 234.833252 -60.327148
-111.104141 244.217316 -67.117661
-153.404053 235.467712 -60.833733
-145.218079 240.431076 -69.109032
11.367189 237.798340 -66.846786
14.678211 240.521606 -63.726719
-161.402451 242.783112 -56.790638
-121.206757 250.619141 -61.860466
59.748947 248.421890 -60.559006
73.243172 243.685211 -64.219437
-159.798370 246.908005 -59.786049
62.833473 241.563004 -56.299580
-1.751162 248.006439 -57.499062
1.560598 250.143661 -60.912266
8.215858 246.621048 -61.370373
-158.981857 248.831787 -62.823288
-8.539745 253.081329 -58.539986
8.372392 245.832001 -63.808128
63.442062 255.006989 -68.738739
-9.882306 258.262146 -63.135822
50.797977 251.045578 -58.796143
64.701912 255.390030 -59.500607
62.009438 255.164825 -64.557556
55.677185 256.600494 -60.800522
-160.940079 254.252472 -58.976345
47.654079 258.099945 -60.411385
49.151726 262.076385 -65.626030
48.826656 262.407349 -65.463234
55.325829 259.917786 -62.733929
-135.361237 264.955078 -63.131584
-94.139458 266.830322 -56.433731
-91.128937 269.743713 -54.019733
20.466131 267.104797 -63.255875
43.684715 258.469635 -64.532776
-135.223465 264.112885 -65.160034
-126.845001 264.326050 -61.119537
-148.311356 265.955414 -62.561707
-153.313934 265.662445 -65.649727
40.762024 272.167999 -67.681847
-100.296349 269.190399 -63.323120
26.368275 276.262817 -68.707703
-153.275192 272.019348 -60.528671
-105.808296 270.019409 -60.253963
27.732162 274.535370 -62.351513
-139.161926 269.551270 -60.536835
-110.531029 269.821686 -59.871540
-134.907166 271.597351 -68.897156
30.600922 267.311890 -64.169411
-8.107094 271.331543 -67.959755
-134.355392 270.609283 -57.001316
-132.482605 271.578339 -62.839710
-149.290375 273.379974 -65.466850
-4.413133 271.499054 -60.228931
-150.586060 290.236938 -60.643032
1.506486 292.112457 -58.620621
-153.932755 298.057159 -59.821514
-128.560760 299.899750 -59.587307
-136.656540 296.359131 -63.467751
-127.939941 296.574493 -62.903389
-114.741882 302.433289 -66.714561
-115.200706 299.424957 -62.083027
-105.700294 295.544434 -63.141514
-130.799026 299.120209 -57.950760
-119.936310 299.306122 -62.868103
-120.904724 295.845367 -65.830139
-121.119576 301.949097 -66.569374
-154.539795 310.677368 -59.285011
-149.262604 308.463470 -62.161495
-147.524612 310.462769 -57.997578
-158.399399 311.206421 -61.182735
-141.250336 311.359711 -60.406971
-150.798538 324.901489 -59.650848
-146.229477 320.856445 -67.188438
-152.385208 323.644623 -61.401199
-13.857538 63.257603 -59.646526
-84.249123 65.140900 -60.317841
77.359680 72.074944 -61.344807
-11.835505 75.955055 -61.699108
-12.559105 81.686066 -66.646561
96.695358 78.983223 -61.462345
-18.932367 76.174194 -61.064690
-94.071999 88.548164 -56.831905
-35.253376 87.701477 -63.195686
-37.686951 85.328293 -63.805809
-33.241550 85.732735 -63.862125
65.634651 90.053101 -59.444759
46.896564 100.307953 -66.030243
100.191460 102.794540 -54.115616
-65.721054 105.979187 -63.335552
51.157246 107.791275 -58.633766
105.631447 106.094353 -54.942715
104.364998 107.082634 -62.396870
101.522499 106.007904 -58.347187
106.251862 114.028915 -58.633507
50.684917 104.471558 -60.000706
49.366333 110.649040 -61.317844
-70.805710 114.029808 -58.453461
54.733944 112.219513 -59.318645
-64.469460 114.134094 -68.789146
-85.222168 112.283165 -63.371849
50.849930 110.437531 -53.029179
102.584602 117.157455 -58.924030
42.381508 122.659958 -64.418938
107.077797 121.423584 -63.268017
-103.557617 123.767136 -58.631725
-102.731544 122.824631 -62.431595
-83.035881 134.200470 -59.626427
-56.483650 143.305801 -59.439068
-79.855232 140.063889 -61.004608
-88.295662 146.890518 -64.397133
-50.567314 144.076630 -61.738773
-81.790794 138.381042 -57.305222
-51.932465 142.488846 -59.038403
-77.513924 146.764526 -60.685055
-65.403313 146.705399 -54.801437
-78.846573 150.300232 -53.595043
-93.707939 145.890076 -54.252823
-45.313545 155.236877 -67.454575
-56.052559 160.334534 -55.979637
-99.289726 154.048492 -58.421459
15.416248 159.398148 -64.267380
17.819349 165.393478 -64.955528
20.722898 163.508713 -63.666889
-102.548546 166.052170 -61.630844
-97.480659 166.522995 -59.963314
-105.360901 173.901733 -58.547344
-102.436508 177.121185 -55.111168
25.487135 183.012421 -64.479691
21.628822 177.278900 -58.134533
-144.206802 178.679703 -55.912403
22.950287 195.700104 -59.838989
-107.184029 187.329315 -63.725567
21.007507 193.301376 -59.246639
-151.050812 196.003220 -59.265930
-146.053543 194.494858 -63.208134
16.735748 203.779175 -61.686306
-121.278671 201.552734 -56.160561
-153.791229 201.700623 -63.099823
-127.107170 206.864700 -63.234119
16.360668 207.652390 -64.102852
-156.737976 201.933197 -63.747696
17.582186 210.802002 -59.326168
-18.232859 209.200394 -61.657665
-159.872787 211.838913 -60.005241
-166.139069 210.293259 -56.071194
-157.973999 212.634033 -53.719070
-140.945801 205.097488 -56.591396
-115.083794 215.512650 -59.190399
-15.686170 202.763367 -54.633614
-138.426620 207.426117 -58.967007
-151.711151 214.382813 -53.595291
-17.613863 210.861176 -60.926811
-166.173920 215.603775 -59.052158
-15.933646 221.282639 -58.196892
-13.692478 223.917999 -61.656902
-162.495224 224.486267 -63.481415
-13.666076 225.911469 -57.305096
-166.411819 227.069931 -59.677525
-148.887054 236.329987 -62.437149
-6.098942 236.902588 -63.534473
-133.096771 238.055237 -60.467010
-113.859657 237.688217 -67.420486
-162.431076 238.535614 -60.944790
-111.648521 237.224503 -66.954353
2.759544 238.952240 -68.539101
-0.224186 239.556259 -57.159645
-149.384918 240.135880 -60.253845
-129.466690 252.576675 -65.855850
-122.510857 253.722809 -59.416035
4.028801 242.435974 -61.482605
1.654663 247.681320 -61.151882
-10.336169 245.167328 -58.667984
