-43.421504974365 -68.216178894043 -157.723175048828 2.217686176300
-97.368980407715 -67.893287658691 -169.901321411133 3.992042541504
20.582834243774 -67.699081420898 -174.277847290039 2.650771617889
-34.430835723877 -72.560890197754 -175.443176269531 2.047192573547
16.019796371460 -64.302696228027 -181.002349853516 4.644101142883
-143.434677124023 -72.824211120605 -170.519271850586 5.290126323700
-31.758638381958 -65.935379028320 -177.081314086914 4.548491001129
-148.460479736328 -64.825584411621 -175.654205322266 2.191733837128
21.715364456177 -73.318389892578 -183.619522094727 3.115865707397
-30.189697265625 -75.230743408203 -172.716430664063 1.573438763618
-105.623054504395 -72.384361267090 -182.702102661133 3.206271648407
-101.421478271484 -69.525146484375 -182.524353027344 4.676348686218
-30.956312179565 -68.701248168945 -182.310165405273 0.666808664799
-14.957801818848 -71.601013183594 -190.188659667969 2.882492780685
16.688314437866 -72.987976074219 -191.774154663086 3.291404485703
22.827396392822 -72.336303710938 -198.718200683594 1.519206047058
20.593273162842 -66.186973571777 -190.560974121094 2.816762447357
-136.764907836914 -68.932731628418 -184.494552612305 5.128820419312
19.268928527832 -72.172966003418 -196.665512084961 1.351415753365
12.915726661682 -73.282852172852 -200.305908203125 2.408496141434
-137.729141235352 -66.520835876465 -195.985885620117 3.233301877975
-115.652236938477 -71.088562011719 -199.205963134766 2.051950216293
18.214256286621 -69.957695007324 -201.022842407227 2.328457355499
-109.351249694824 -72.481201171875 -192.091583251953 2.828939676285
-106.152435302734 -71.717704772949 -191.844177246094 3.945741415024
-160.277236938477 -72.215164184570 -199.767868041992 2.100292205811
-14.580283164978 -77.377868652344 -205.559143066406 0.850773572922
18.608734130859 -68.600570678711 -205.043869018555 1.227333545685
-135.383728027344 -65.878555297852 -198.747314453125 2.426755905151
-131.720855712891 -70.901672363281 -207.560974121094 3.189169168472
-16.584196090698 -70.445892333984 -208.582489013672 2.542020082474
-9.499239921570 -69.800529479980 -206.370620727539 2.191107273102
-12.330554962158 -73.983253479004 -211.828414916992 3.436187267303
-143.604553222656 -72.601524353027 -207.224609375000 1.929351091385
-17.809803009033 -74.399467468262 -205.146469116211 2.169639587402
-9.886608123779 -69.528343200684 -211.926940917969 1.920546770096
18.070672988892 -71.816452026367 -211.554687500000 1.615467667580
-8.444466590881 -72.464675903320 -210.044265747070 1.721842527390
13.430558204651 -68.706863403320 -214.993103027344 0.862403154373
-5.110796928406 -75.385833740234 -219.068450927734 1.486567974091
-12.738425254822 -75.328521728516 -212.928283691406 2.116523742676
12.669985771179 -73.290351867676 -227.522216796875 2.735966205597
-2.114067077637 -73.515029907227 -221.204162597656 1.748078465462
14.849042892456 -71.753974914551 -224.453430175781 1.709459304810
-2.382899045944 -75.347038269043 -225.480010986328 2.723850488663
-156.606399536133 -70.437004089355 -219.864791870117 2.626640558243
86.742073059082 -75.769424438477 -225.650787353516 2.442305564880
-132.175476074219 -69.777503967285 -221.021728515625 3.277033567429
-132.081634521484 -69.988082885742 -223.946014404297 0.808374822140
-6.190961837769 -72.982933044434 -230.203292846680 1.733454585075
15.290719985962 -76.246147155762 -236.700424194336 2.412598848343
-148.473892211914 -68.233261108398 -221.020706176758 3.204719781876
87.408996582031 -71.715782165527 -225.855606079102 2.233558654785
-5.484284877777 -73.312492370605 -226.052490234375 1.970319151878
5.267498016357 -75.043846130371 -229.382064819336 1.408242225647
73.692901611328 -74.005851745605 -231.901077270508 1.851005673409
6.483132839203 -75.593704223633 -234.642761230469 1.227702021599
-15.592502593994 -70.553321838379 -232.829132080078 1.931031942368
-119.077888488770 -75.202857971191 -236.435745239258 6.139423847198
-3.008812904358 -73.621742248535 -239.878890991211 1.592080593109
1.333183050156 -74.731498718262 -235.230529785156 1.756202340126
70.324440002441 -76.635444641113 -239.365814208984 2.944647550583
-160.168716430664 -69.966911315918 -237.505599975586 2.838872909546
-7.687564849854 -72.782157897949 -248.765472412109 1.346831321716
-164.212768554688 -71.964309692383 -238.102737426758 1.580293774605
10.195458412170 -75.547035217285 -247.002380371094 2.233672857285
-164.947906494141 -69.845008850098 -236.925323486328 1.856622338295
-154.328781127930 -67.378791809082 -241.726547241211 3.531105518341
56.009212493896 -79.546867370605 -255.266952514648 10.537281990051
65.420219421387 -73.128517150879 -247.532302856445 4.106138706207
56.375209808350 -74.356719970703 -246.632308959961 2.700359582901
51.677291870117 -78.759590148926 -251.417510986328 7.175845146179
-158.578887939453 -69.893440246582 -244.827026367188 1.598749995232
-150.576797485352 -71.860191345215 -249.279953002930 3.159704923630
-13.780512809753 -73.137786865234 -249.036819458008 1.016009092331
-152.329986572266 -69.474098205566 -246.238357543945 1.913025617599
22.215766906738 -77.509017944336 -258.476440429688 2.166523933411
-163.882263183594 -69.817070007324 -249.909591674805 2.496189355850
-167.207992553711 -64.955879211426 -242.424804687500 3.852555990219
-78.661895751953 -70.540679931641 -252.469390869141 1.238415122032
-169.793090820313 -72.271980285645 -263.851593017578 2.905533790588
-84.629844665527 -74.180755615234 -260.112854003906 4.793174266815
38.792694091797 -69.790512084961 -252.784515380859 1.959284901619
25.933237075806 -78.510360717773 -258.501892089844 5.345935821533
-156.232833862305 -68.178543090820 -257.830596923828 2.152377367020
-100.537971496582 -68.826065063477 -261.007385253906 1.743913054466
40.728172302246 -74.525039672852 -261.510467529297 6.489031791687
-99.665740966797 -72.622528076172 -258.977539062500 1.352311730385
-150.205795288086 -68.421417236328 -257.875549316406 0.709701001644
-105.078941345215 -69.169174194336 -258.174499511719 2.719152450562
-161.298126220703 -71.021080017090 -257.253021240234 3.635543346405
-111.857826232910 -73.385803222656 -261.748840332031 1.323405623436
-153.200637817383 -72.815109252930 -267.190307617188 1.528888106346
-155.994567871094 -73.720512390137 -262.085968017578 0.868719041348
-165.731506347656 -74.521659851074 -263.355926513672 1.186672210693
-158.406127929688 -71.503440856934 -263.758392333984 2.065904378891
-164.323883056641 -68.074798583984 -267.122070312500 1.604349493980
-162.172348022461 -66.153175354004 -266.055816650391 3.348205327988
25.409633636475 -76.199440002441 -266.495880126953 4.375492572784
-147.800491333008 -69.998535156250 -266.729370117188 2.658412933350
-147.397232055664 -70.567436218262 -286.375152587891 2.149596452713
19.101768493652 -82.341041564941 -281.926666259766 7.305673122406
-6.872567176819 -73.838973999023 -277.713439941406 2.179611921310
-125.463096618652 -76.550849914551 -284.070251464844 2.103948593140
-136.466720581055 -79.145332336426 -287.552520751953 1.144201040268
-136.820205688477 -73.369125366211 -285.689666748047 1.541525244713
-127.945556640625 -69.521621704102 -284.481658935547 1.925727605820
-115.161537170410 -72.606872558594 -288.379852294922 1.709656953812
-107.169837951660 -75.541152954102 -287.044036865234 3.636547565460
13.111783981323 -74.848091125488 -294.313323974609 1.460869669914
-88.986404418945 -72.230186462402 -285.555053710938 2.210044860840
-145.464462280273 -74.461051940918 -293.766235351563 1.222694635391
-98.519981384277 -71.213630676270 -288.769531250000 2.068306684494
-128.003768920898 -72.286148071289 -291.381805419922 3.395039796829
12.421442985535 -81.947387695313 -290.764190673828 4.368171215057
-114.531570434570 -76.262008666992 -293.736022949219 3.632283210754
2.267445087433 -76.241722106934 -291.091674804688 1.839863896370
-141.801879882813 -74.935386657715 -288.394653320313 1.417908430099
-155.699081420898 -75.628654479980 -300.443115234375 1.586889743805
-163.276687622070 -74.096519470215 -306.655303955078 7.355431556702
-152.478881835938 -74.585563659668 -310.068817138672 3.044402122498
55.550788879395 -71.512115478516 -28.270853042603 5.672283649445
26.003911972046 -67.193916320801 -34.270492553711 2.400874614716
41.049125671387 -68.745300292969 -40.812885284424 2.047636747360
-44.427280426025 -64.467666625977 -52.769279479980 6.444028377533
-7.676619052887 -64.538124084473 -63.822723388672 2.437168359756
99.224159240723 -74.740676879883 -78.560638427734 2.635234117508
72.200431823730 -66.370040893555 -71.316215515137 3.353483200073
-14.817969322205 -68.467636108398 -76.198104858398 5.935742855072
-88.002273559570 -64.969375610352 -81.810890197754 8.876608848572
-33.374519348145 -67.505409240723 -81.354583740234 3.247496843338
69.181480407715 -69.880874633789 -84.139587402344 1.778814673424
61.207187652588 -74.947555541992 -86.892700195313 3.501129388809
62.200435638428 -70.981185913086 -90.343452453613 2.161009073257
-51.134990692139 -69.054634094238 -86.061805725098 0.787784993649
73.208686828613 -67.887321472168 -91.446357727051 5.709382057190
49.749404907227 -73.863937377930 -99.030616760254 1.759978294373
71.708473205566 -72.792495727539 -93.831672668457 2.337318420410
-58.146305084229 -65.458412170410 -98.006233215332 7.407812595367
58.771469116211 -65.642570495605 -100.307647705078 2.185298919678
51.394142150879 -71.168968200684 -100.897514343262 3.465441465378
108.569679260254 -73.981979370117 -98.854789733887 2.769416093826
-65.258171081543 -73.287338256836 -99.862266540527 2.600169897079
115.186790466309 -72.515892028809 -106.018371582031 4.405997753143
-75.242340087891 -64.546249389648 -95.371864318848 5.285581588745
60.965160369873 -71.677322387695 -109.908142089844 8.756298065186
54.674339294434 -67.840209960938 -104.976631164551 2.697180032730
100.482757568359 -70.493553161621 -103.368194580078 2.776236057281
92.562431335449 -62.546936035156 -117.843986511230 8.872502326965
60.629348754883 -72.875831604004 -107.229995727539 6.811449050903
-65.502159118652 -68.538558959961 -106.233970642090 5.743304252625
-74.938362121582 -67.987701416016 -110.177688598633 1.341704249382
-79.581207275391 -70.525123596191 -120.400680541992 1.647413372993
-89.987129211426 -75.496215820313 -116.124786376953 1.667454957962
106.875473022461 -72.737350463867 -118.609291076660 1.403077483177
-81.675918579102 -64.456604003906 -120.387145996094 1.205620646477
-75.154899597168 -64.644653320313 -120.352943420410 0.931649327278
115.605094909668 -69.181449890137 -120.783226013184 2.068398952484
-58.733940124512 -62.270755767822 -118.738677978516 1.669013261795
116.560913085938 -75.091361999512 -135.569244384766 0.993261456490
112.244606018066 -71.408416748047 -134.526473999023 1.599184751511
116.803482055664 -70.870506286621 -122.032379150391 2.579530477524
-89.689949035645 -65.528450012207 -134.476165771484 2.137521266937
-48.724922180176 -64.337898254395 -140.302581787109 1.863102316856
-72.142189025879 -71.035064697266 -146.848266601563 1.360324382782
-64.855377197266 -66.028030395508 -151.499252319336 4.986487865448
-69.651596069336 -66.633399963379 -144.549606323242 2.022395610809
-49.609676361084 -64.759017944336 -148.351318359375 2.889121055603
-43.984924316406 -66.866195678711 -153.178894042969 1.993115067482
23.851669311523 -72.390182495117 -147.267272949219 1.640804648399
-90.924240112305 -63.244342803955 -154.944458007813 4.269663810730
-39.561916351318 -72.358802795410 -149.124862670898 1.447605609894
-51.097087860107 -67.891288757324 -153.143234252930 2.208709955215
-40.521980285645 -64.688758850098 -157.406860351563 4.199138164520
31.669080734253 -75.147918701172 -162.378784179688 1.690565466881
-44.484039306641 -68.507225036621 -156.432342529297 1.777753591537
-92.270149230957 -68.862304687500 -148.692749023438 1.888782501221
-38.473091125488 -68.395622253418 -161.461013793945 2.150618553162
28.949819564819 -68.151138305664 -160.062423706055 2.169201612473
-97.153678894043 -69.227035522461 -163.900878906250 3.745703697205
25.638755798340 -69.380355834961 -161.179199218750 0.836319983006
-101.102767944336 -62.912929534912 -171.577529907227 2.408366680145
-96.782798767090 -64.135673522949 -164.261749267578 2.749520540237
26.044748306274 -65.173927307129 -171.176269531250 3.239169836044
28.948759078979 -68.404891967773 -170.487457275391 2.608386754990
-103.706474304199 -70.639976501465 -173.968170166016 2.910361528397
-140.589859008789 -67.611526489258 -174.710311889648 2.453728437424
-21.681694030762 -68.744331359863 -188.413696289063 1.130834221840
-19.073318481445 -67.386787414551 -185.401687622070 3.518635988235
-110.117179870605 -66.877227783203 -189.143585205078 3.272716522217
-138.247726440430 -66.972961425781 -188.357025146484 3.202803373337
-102.050498962402 -71.893264770508 -180.399688720703 5.349970340729
-147.660156250000 -72.375198364258 -196.779846191406 0.896244227886
-126.007522583008 -71.540214538574 -192.219894409180 3.681862592697
-133.949768066406 -67.536712646484 -194.758377075195 1.340711832047
-18.400009155273 -65.644683837891 -195.133880615234 1.962865829468
-117.106964111328 -69.310920715332 -191.519378662109 3.995126008987
-110.709205627441 -65.962860107422 -194.473495483398 2.518967866898
-15.337814331055 -73.916992187500 -195.810272216797 1.077896952629
-151.367950439453 -64.028518676758 -193.830062866211 1.831098198891
-133.004089355469 -71.526748657227 -209.941070556641 5.805463790894
-120.875190734863 -65.712966918945 -203.864395141602 1.613346219063
17.709915161133 -69.322479248047 -207.257858276367 1.389413475990
-158.250503540039 -68.384384155273 -204.434295654297 0.950914204121
13.668549537659 -75.602691650391 -212.955566406250 2.591091871262
16.402194976807 -78.055030822754 -216.236709594727 1.640755534172
-16.024513244629 -70.897285461426 -210.279907226563 1.229648351669
-3.231046915054 -72.686378479004 -215.194808959961 0.599120557308
-164.219604492188 -69.187225341797 -211.683853149414 2.345702409744
-156.422302246094 -66.507209777832 -216.469619750977 3.068924188614
-99.482185363770 -70.938224792480 -217.835098266602 1.393372058868
-98.183677673340 -68.550338745117 -227.127563476563 3.372268676758
-155.856536865234 -65.983924865723 -218.760559082031 4.160459995270
-103.864089965820 -69.871971130371 -221.853302001953 1.679404497147
-14.364221572876 -73.631813049316 -219.935363769531 1.855146765709
-122.244773864746 -69.161727905273 -228.367874145508 2.722844839096
-142.316070556641 -71.911865234375 -222.693481445313 2.038025856018
-5.416971206665 -75.509803771973 -229.154479980469 1.703590750694
-130.006149291992 -67.152626037598 -225.865020751953 1.429176926613
-123.319000244141 -64.804107666016 -226.501617431641 1.501701593399
-108.941726684570 -72.005546569824 -230.531890869141 1.600669741631
1.951069951057 -72.439796447754 -232.107650756836 2.752643823624
-106.058464050293 -67.809799194336 -227.027343750000 2.026602029800
-155.596054077148 -73.882965087891 -220.254959106445 3.035572290421
-144.430358886719 -73.826477050781 -224.670486450195 2.182318687439
-162.671508789063 -69.506729125977 -226.129837036133 2.910480976105
-4.714362144470 -71.615386962891 -230.843566894531 2.046279907227
-7.202575206757 -62.818653106689 -232.588150024414 5.009395122528
79.250885009766 -65.220985412598 -231.139419555664 3.619802474976
5.232851982117 -69.936218261719 -236.073593139648 2.583672761917
-141.352203369141 -68.008842468262 -232.519668579102 0.911154091358
-10.448825836182 -74.278076171875 -231.921508789063 0.936866760254
79.370620727539 -78.490867614746 -226.821899414063 2.277504682541
71.629051208496 -74.338874816895 -235.370239257813 1.436779975891
-127.823654174805 -69.574005126953 -230.447067260742 4.915904998779
-158.530670166016 -68.167770385742 -226.023178100586 1.014967441559
-109.007659912109 -66.597991943359 -231.534591674805 2.128087043762
-117.386985778809 -69.006347656250 -233.295867919922 1.260496377945
-166.936752319336 -64.512130737305 -232.400863647461 3.891087770462
-156.264038085938 -67.326988220215 -237.355316162109 1.963909387589
-133.453598022461 -68.872352600098 -240.039382934570 5.613994598389
-7.932938098907 -78.107833862305 -234.929290771484 3.819100618362
-0.917913973331 -71.636848449707 -245.390151977539 2.107607603073
-158.411743164063 -66.800056457520 -240.615447998047 1.924516439438
10.433926582336 -76.219436645508 -242.973937988281 1.732810020447
10.893055915833 -71.468315124512 -241.546798706055 0.662506937981
-162.045761108398 -68.521240234375 -241.018722534180 0.271163702011
15.040830612183 -73.072944641113 -245.009445190430 1.743349194527
53.242877960205 -73.322448730469 -250.947372436523 2.546631336212
54.406795501709 -70.956008911133 -255.497268676758 5.161561012268
-5.510919094086 -73.811622619629 -246.978393554688 1.599943637848
52.479274749756 -71.693832397461 -249.377899169922 0.867255449295
-161.043884277344 -70.335212707520 -254.279785156250 3.926880836487
-162.985748291016 -67.048446655273 -247.975158691406 1.366955757141
-161.207870483398 -71.518112182617 -245.559265136719 2.732622385025
56.707267761230 -72.560379028320 -257.853790283203 8.568308830261
-88.757064819336 -74.786331176758 -253.110015869141 1.279884696007
-122.434028625488 -69.450866699219 -251.916702270508 3.812264919281
-105.890106201172 -72.811592102051 -254.022476196289 2.486591100693
33.030956268311 -74.309036254883 -259.153289794922 4.201150894165
40.306198120117 -74.985504150391 -256.577667236328 4.448031425476
-95.430892944336 -70.953285217285 -253.005203247070 1.195572733879
-90.675544738770 -69.864051818848 -257.278564453125 2.621483564377
46.839572906494 -72.497627258301 -259.315002441406 6.456433296204
42.514789581299 -71.761802673340 -257.377136230469 2.029831409454
-155.556030273438 -71.293716430664 -259.013824462891 1.283842444420
35.288242340088 -70.663490295410 -257.048675537109 1.848730683327
-137.361465454102 -72.713897705078 -264.797882080078 2.486033916473
-115.985580444336 -67.315177917480 -259.232849121094 1.389307260513
-130.509109497070 -68.193550109863 -265.483459472656 2.022740364075
37.255935668945 -78.674758911133 -266.958618164063 12.022136688232
-126.228675842285 -73.633354187012 -263.445922851563 0.711322069168
-8.223427772522 -69.984107971191 -259.165618896484 3.284103155136
22.700149536133 -76.940200805664 -277.391113281250 5.952547073364
-11.783252716064 -72.095924377441 -269.884033203125 2.596186161041
25.491092681885 -71.630867004395 -286.811584472656 8.857144355774
-148.782730102539 -72.967010498047 -281.905273437500 2.982905626297
-10.376893997192 -77.469978332520 -277.770629882813 3.093789339066
-153.088592529297 -73.993118286133 -287.749206542969 2.657163143158
-125.853828430176 -70.612098693848 -284.295288085938 0.896012127399
-159.178848266602 -72.926856994629 -288.191314697266 2.575500726700
-121.264556884766 -71.431365966797 -285.509399414063 3.684479475021
-105.454010009766 -76.162681579590 -290.345092773438 3.542299509048
-7.626341819763 -74.661636352539 -291.201385498047 1.346616506577
-110.350357055664 -73.123649597168 -293.545745849609 3.092465877533
-117.527885437012 -77.510925292969 -289.525024414063 0.899945855141
-120.796562194824 -75.067024230957 -290.962249755859 2.239513158798
-136.393325805664 -68.963027954102 -289.531402587891 1.758872985840
-123.916778564453 -76.603843688965 -292.972473144531 1.862740874290
-158.543136596680 -72.565277099609 -287.902618408203 1.925029754639
-144.698318481445 -78.236724853516 -295.717285156250 3.125404834747
-152.068374633789 -71.230400085449 -296.436920166016 1.932957172394
-153.578948974609 -69.299278259277 -305.743591308594 1.672344088554
-158.445236206055 -70.074714660645 -300.544311523438 3.325569629669
-147.182250976563 -74.577453613281 -311.224304199219 1.787457227707
-149.525711059570 -73.652343750000 -312.281768798828 1.207657814026
40.773380279541 -65.194503784180 -20.040317535400 1.018511891365
51.508495330811 -67.713912963867 -22.046049118042 2.073357343674
37.181461334229 -61.658069610596 -34.429252624512 2.083894968033
58.527812957764 -64.281982421875 -34.032310485840 10.646250724792
38.523696899414 -63.832992553711 -40.634754180908 2.471112728119
47.750122070313 -70.940589904785 -38.577880859375 2.561046600342
-48.316894531250 -64.380058288574 -46.220252990723 2.215286493301
91.328941345215 -67.044563293457 -63.574916839600 1.608052372932
90.023803710938 -66.939712524414 -70.231285095215 4.593316555023
-87.527999877930 -60.116786956787 -64.222190856934 8.126102447510
-7.614264965057 -63.373687744141 -63.586303710938 2.473725557327
-80.898666381836 -67.992492675781 -67.303184509277 8.144878387451
103.326644897461 -66.241027832031 -73.870971679688 2.364006519318
-10.250790596008 -62.545665740967 -69.194580078125 4.278824806213
74.705314636230 -69.681228637695 -81.324645996094 5.053702354431
-33.441402435303 -67.830474853516 -78.205787658691 1.180358886719
-23.726354598999 -70.176269531250 -81.979171752930 5.603939056396
61.654861450195 -64.217086791992 -90.502876281738 1.278672456741
-41.570011138916 -75.978668212891 -89.107368469238 5.073234081268
67.956298828125 -63.043060302734 -84.249374389648 3.497433423996
59.362712860107 -66.454277038574 -88.402770996094 3.157181501389
54.936267852783 -71.819160461426 -95.371505737305 2.806204319000
71.235885620117 -66.692626953125 -96.115356445313 3.543962955475
63.910037994385 -67.491584777832 -102.719787597656 5.481151103973
109.269981384277 -64.806137084961 -99.956535339355 2.809738874435
109.233810424805 -72.466545104980 -99.897865295410 1.836795449257
63.427276611328 -72.523834228516 -101.399116516113 5.693052768707
114.349098205566 -67.444732666016 -104.648292541504 5.098063468933
-66.332656860352 -72.737380981445 -100.741195678711 3.374467849731
-66.189613342285 -68.754020690918 -103.861015319824 4.748146533966
110.213584899902 -73.336746215820 -101.232864379883 1.840441584587
59.758632659912 -66.696258544922 -105.326316833496 6.099328994751
76.852340698242 -70.985176086426 -105.766830444336 2.164210557938
-62.892803192139 -58.000980377197 -101.653839111328 2.577396869659
-74.828552246094 -63.170673370361 -107.201599121094 1.284675836563
100.171607971191 -67.858558654785 -115.373420715332 6.021581172943
48.483421325684 -68.133079528809 -106.728759765625 1.124139666557
106.795661926270 -69.122398376465 -106.310836791992 2.298302173615
48.832401275635 -66.662696838379 -113.925476074219 3.713359355927
118.869674682617 -66.090415954590 -113.819763183594 7.529832363129
-80.225601196289 -60.611953735352 -108.346458435059 2.271524906158
110.278724670410 -64.546470642090 -115.149520874023 2.812077999115
-81.397956848145 -62.173717498779 -116.443634033203 0.596103131771
-53.847297668457 -68.434547424316 -125.249328613281 1.193543314934
-54.309123992920 -65.589988708496 -129.952423095703 2.502908945084
-68.337471008301 -68.868980407715 -131.076568603516 4.917616367340
-45.230842590332 -68.698623657227 -132.286590576172 3.570752859116
-82.317550659180 -66.738128662109 -133.815155029297 2.474284648895
-73.705917358398 -70.295867919922 -135.451232910156 0.957562983036
-81.291336059570 -66.545776367188 -128.831359863281 1.407497167587
-50.017459869385 -70.904701232910 -138.763290405273 2.270614862442
-67.701942443848 -65.710945129395 -140.033782958984 4.200003147125
-55.513046264648 -66.996582031250 -136.091598510742 2.732445240021
-59.020301818848 -69.262115478516 -138.633636474609 1.111931920052
27.087543487549 -71.684440612793 -142.679840087891 2.173624277115
-81.897941589355 -69.603950500488 -145.023132324219 5.222367286682
-41.748184204102 -71.513526916504 -148.635147094727 1.115299701691
-94.179450988770 -64.446365356445 -150.503082275391 1.475756764412
-98.718078613281 -65.505332946777 -152.886444091797 2.181485176086
21.733118057251 -74.783103942871 -156.103546142578 1.780773282051
18.572740554810 -73.586242675781 -162.519134521484 0.839260816574
-96.824844360352 -67.850296020508 -159.779281616211 1.185487270355
-95.648353576660 -64.953926086426 -158.345413208008 0.613052189350
-91.313079833984 -66.750137329102 -168.494949340820 9.065669059753
22.138507843018 -66.982513427734 -173.377700805664 2.368079662323
-110.220619201660 -70.591056823730 -166.753509521484 5.046906471252
22.685005187988 -72.414642333984 -171.600021362305 3.526247262955
-141.816650390625 -70.346343994141 -177.543457031250 1.714992523193
20.424316406250 -70.367355346680 -178.983322143555 2.111399412155
25.424417495728 -72.800712585449 -189.856704711914 1.553999423981
-150.064910888672 -64.805053710938 -187.035400390625 1.421468377113
22.208023071289 -73.803596496582 -182.801635742188 2.763787269592
17.901775360107 -68.992515563965 -180.419692993164 2.773340940475
-134.154312133789 -75.125022888184 -191.386383056641 6.217267513275
-148.067901611328 -69.979866027832 -188.869155883789 2.298251867294
19.865257263184 -69.870239257813 -192.432479858398 1.285272836685
24.133031845093 -68.365951538086 -188.824691772461 2.170372486115
-143.569335937500 -67.171028137207 -191.631042480469 1.581217288971
-105.708282470703 -73.371704101563 -193.796768188477 4.701056003571
25.231979370117 -70.366798400879 -199.092102050781 3.379366874695
-123.138900756836 -64.279800415039 -191.479476928711 3.622812509537
14.182899475098 -72.889060974121 -200.471588134766 3.296994686127
-129.336166381836 -64.428512573242 -195.127670288086 2.725777387619
-146.995956420898 -67.744941711426 -191.975357055664 3.662793636322
-159.264602661133 -70.957847595215 -200.563980102539 3.455332517624
-160.244308471680 -65.864822387695 -200.910995483398 1.812207102776
-16.344476699829 -67.522895812988 -206.200332641602 1.254524588585
-163.618591308594 -67.260353088379 -200.935638427734 0.810390472412
-17.926979064941 -68.978843688965 -196.335403442383 1.191094517708
-13.001115798950 -69.254272460938 -199.726776123047 2.184201478958
15.242835044861 -70.735458374023 -198.051605224609 2.757548809052
-155.783477783203 -64.314971923828 -196.055664062500 2.821616172791
-107.955299377441 -66.816169738770 -202.194137573242 2.669802427292
-14.146947860718 -73.796394348145 -209.908996582031 3.154230356216
-153.001373291016 -69.580039978027 -198.903793334961 2.339450359344
21.347507476807 -67.507301330566 -202.531661987305 3.110605001450
-160.727706909180 -67.402473449707 -198.551437377930 1.554026961327
-118.022232055664 -71.717994689941 -204.900405883789 4.864057064056
-106.806808471680 -67.976028442383 -208.160034179688 7.869021415710
-123.819381713867 -64.202796936035 -208.211532592773 3.897205114365
-11.427051544189 -73.841873168945 -204.441513061523 1.853249192238
-16.419340133667 -67.412994384766 -206.224472045898 1.376814603806
-159.554458618164 -64.771614074707 -208.290451049805 2.514512062073
-158.000320434570 -66.149566650391 -212.014648437500 2.297837495804
-163.410232543945 -69.504539489746 -217.347763061523 2.847304582596
-146.452423095703 -71.255958557129 -207.455673217773 2.237993955612
-141.201263427734 -67.812110900879 -223.560958862305 2.229878664017
-4.274412155151 -69.306152343750 -223.256622314453 1.951409816742
-11.984891891479 -69.921852111816 -220.748672485352 0.679343819618
-99.318237304688 -69.315406799316 -222.617416381836 0.939091145992
-5.225048065186 -69.909599304199 -221.783538818359 2.062002658844
-162.628219604492 -67.101104736328 -224.851593017578 1.279433846474
-112.027038574219 -65.067176818848 -232.068496704102 1.869319081306
1.626114964485 -69.167114257813 -232.094421386719 0.882632970810
7.837994098663 -69.999366760254 -232.371627807617 1.291941046715
-110.582321166992 -68.512466430664 -233.437713623047 2.402598381042
-1.086909055710 -66.012184143066 -234.432327270508 2.220886945724
-113.508239746094 -68.482086181641 -237.415420532227 4.435254096985
-2.273415088654 -68.663635253906 -243.288940429688 4.070324420929
-2.217714071274 -73.991394042969 -234.579360961914 1.119454860687
0.551316022873 -69.731521606445 -243.735427856445 2.667434692383
68.368263244629 -74.474159240723 -240.310577392578 2.100093841553
-13.427580833435 -74.119873046875 -237.372177124023 1.797698855400
6.598114967346 -70.325218200684 -239.642242431641 1.084493517876
12.419040679932 -72.571388244629 -244.178634643555 1.130358815193
9.758563995361 -77.128593444824 -241.810226440430 1.232973575592
3.460730075836 -77.513458251953 -243.554260253906 2.335511445999
68.640769958496 -76.494651794434 -242.708602905273 4.009555339813
73.071319580078 -72.629486083984 -244.318115234375 5.660415172577
17.022363662720 -74.432426452637 -244.031066894531 2.054729938507
61.070972442627 -73.200744628906 -243.316818237305 1.883833289146
59.052700042725 -76.894111633301 -242.560256958008 3.559180259705
48.821762084961 -67.883148193359 -248.535202026367 1.298035264015
37.886775970459 -74.677024841309 -254.697616577148 3.789744615555
40.786384582520 -75.046150207520 -256.683959960938 4.445734024048
-132.256896972656 -69.963218688965 -253.795776367188 1.414707899094
-14.242667198181 -76.864173889160 -252.965881347656 3.404437065125
27.647937774658 -75.512695312500 -260.807617187500 5.057959556580
49.645656585693 -73.642868041992 -256.955017089844 5.084665298462
25.990732192993 -68.027282714844 -258.406463623047 1.205534458160
-98.730941772461 -69.619346618652 -261.641052246094 2.170749902725
34.774463653564 -72.128501892090 -257.536804199219 2.705983400345
-148.942016601563 -69.086685180664 -259.559936523438 1.157617688179
-114.539680480957 -66.683555603027 -261.537200927734 0.975394725800
-101.560119628906 -71.500282287598 -254.890594482422 1.226027131081
-5.272479057312 -71.054496765137 -261.525054931641 4.307027816772
-153.519989013672 -75.185562133789 -253.562973022461 1.639254212379
32.605270385742 -70.718696594238 -260.526245117188 1.623366594315
-110.621658325195 -72.786575317383 -254.427429199219 2.658169984818
30.824237823486 -73.384750366211 -260.461090087891 3.420006275177
-130.284896850586 -68.278617858887 -260.509582519531 4.232875347137
-117.339347839355 -71.470329284668 -259.648925781250 3.183613538742
-103.627639770508 -66.446517944336 -261.366058349609 2.968468427658
-114.826995849609 -70.607994079590 -264.947784423828 2.559138536453
-136.595123291016 -72.027763366699 -262.799224853516 0.810054183006
29.169298171997 -71.565139770508 -267.256469726563 4.959356307983
-116.876739501953 -67.343887329102 -266.124908447266 2.498974800110
-142.153411865234 -71.182838439941 -269.280731201172 4.575794219971
-3.670914888382 -75.517852783203 -275.373962402344 4.432749271393
-153.093078613281 -69.374198913574 -278.208526611328 1.769271850586
-9.509597778320 -75.283653259277 -284.650604248047 2.257604837418
-1.947932004929 -77.790046691895 -289.525299072266 2.286390304565
-134.202850341797 -74.360290527344 -287.151336669922 1.725934982300
-120.157951354980 -67.637687683105 -289.960235595703 2.190517902374
-137.704116821289 -67.045440673828 -290.772125244141 2.185829401016
-127.405235290527 -72.882286071777 -294.658538818359 0.774823188782
-148.902160644531 -72.771080017090 -295.080291748047 3.566227912903
-149.303009033203 -76.145370483398 -300.596710205078 1.251972436905
-149.500534057617 -77.628890991211 -304.591766357422 1.608731150627
-149.521011352539 -67.916877746582 -296.314849853516 0.546736657619
-141.415100097656 -73.188240051270 -302.760009765625 2.951066970825
-143.608322143555 -72.862861633301 -304.028686523438 0.784515202045
-150.596008300781 -73.038291931152 -309.927917480469 2.210740566254
30.689306259155 -69.412818908691 -34.344387054443 1.760348081589
55.707866668701 -68.206161499023 -38.248870849609 8.580327987671
34.136394500732 -71.654418945313 -39.996025085449 0.734155714512
39.029117584229 -67.886329650879 -44.080509185791 4.096662044525
-40.242702484131 -62.257766723633 -53.022804260254 7.196397781372
-72.837959289551 -62.479824066162 -51.044765472412 6.096563339233
86.003448486328 -66.355331420898 -67.844970703125 3.340972661972
88.169830322266 -62.266845703125 -64.978279113770 4.286005496979
76.379852294922 -67.170837402344 -70.350341796875 4.723568439484
-91.550628662109 -61.899772644043 -71.812881469727 6.424221515656
106.158134460449 -69.106483459473 -77.282318115234 4.504419803619
-30.177833557129 -59.160350799561 -78.077217102051 4.754043579102
76.582168579102 -68.217750549316 -80.514175415039 7.331822395325
-37.497806549072 -61.443748474121 -81.573226928711 2.724082946777
-45.152332305908 -63.720169067383 -81.791275024414 1.715682029724
57.963867187500 -66.552360534668 -92.964256286621 2.340458631516
107.408538818359 -66.914260864258 -93.042404174805 4.048203945160
70.618080139160 -66.005241394043 -97.630737304688 3.087440967560
61.421363830566 -67.353057861328 -98.389968872070 2.104120731354
53.039157867432 -68.748229980469 -107.298660278320 1.972455263138
66.614006042480 -66.098495483398 -101.795051574707 2.460862398148
111.053222656250 -68.284202575684 -104.331901550293 2.115563392639
76.018112182617 -72.468139648438 -112.232635498047 7.912174224854
56.757804870605 -67.524757385254 -111.041954040527 6.728453159332
82.891853332520 -68.685386657715 -110.723213195801 5.429875850677
96.130065917969 -68.596527099609 -116.105895996094 9.648109436035
-76.150154113770 -67.068939208984 -112.570205688477 1.955682039261
-81.085121154785 -68.110351562500 -109.665878295898 1.405055284500
-81.817489624023 -66.592994689941 -116.894332885742 1.832079529762
-57.503276824951 -65.867988586426 -117.399009704590 2.035203933716
-49.968711853027 -71.444664001465 -123.279235839844 6.463025093079
-88.844146728516 -61.357814788818 -121.239616394043 1.743772864342
-74.666297912598 -66.157752990723 -121.023002624512 1.832244396210
-72.862800598145 -66.200149536133 -127.097290039063 1.523423910141
-56.377422332764 -69.281440734863 -126.249969482422 2.041868448257
-84.298904418945 -58.362079620361 -130.908172607422 5.878180027008
-89.936744689941 -66.162033081055 -131.117507934570 0.982139468193
-46.683166503906 -67.125244140625 -139.358291625977 2.345202207565
-53.083454132080 -63.214778900146 -138.040161132813 1.427790760994
-72.619354248047 -64.671745300293 -139.329727172852 1.892529249191
-53.339462280273 -66.063583374023 -144.664672851563 0.966315567493
-69.759140014648 -67.886734008789 -149.508895874023 1.311603784561
25.073343276978 -66.518096923828 -146.172943115234 2.973816633224
-55.602912902832 -66.031707763672 -146.968353271484 2.738233089447
-45.077144622803 -67.367248535156 -150.006790161133 1.925811052322
19.159999847412 -70.589340209961 -156.126388549805 2.770042657852
17.306108474731 -67.467346191406 -155.481353759766 2.694799661636
-140.272827148438 -63.582233428955 -175.509994506836 2.380452156067
-102.275260925293 -70.602066040039 -180.958389282227 4.276687622070
-105.586235046387 -69.041007995605 -185.777435302734 2.709579706192
-144.203475952148 -68.291122436523 -194.510894775391 2.101886272430
-107.317420959473 -67.345046997070 -185.690673828125 2.210525751114
-150.010070800781 -64.026489257813 -195.797500610352 2.568849325180
-111.915161132813 -63.024730682373 -195.282287597656 1.419780611992
-141.811447143555 -69.586013793945 -197.495086669922 2.054736852646
-147.279418945313 -73.298294067383 -200.650894165039 1.571106076241
-150.771209716797 -72.754096984863 -208.940902709961 3.201502084732
-142.425613403320 -70.760490417480 -219.564392089844 2.657613992691
-152.025100708008 -72.838600158691 -221.743957519531 1.741135001183
-101.927795410156 -69.092994689941 -223.255065917969 2.476238489151
-98.432006835938 -69.632316589355 -227.679031372070 3.525167226791
-119.986885070801 -62.732524871826 -225.078277587891 5.480860710144
-109.262519836426 -65.356056213379 -228.162536621094 1.281354308128
-152.251632690430 -70.360710144043 -232.598434448242 2.677657365799
-2.149756908417 -73.983573913574 -233.028167724609 2.011129140854
-127.295822143555 -66.748382568359 -227.575820922852 2.865061759949
-155.818420410156 -69.536895751953 -235.619369506836 1.874650716782
-133.627883911133 -67.361289978027 -233.728073120117 0.720464050770
-8.509364128113 -72.996406555176 -244.963287353516 1.512796044350
8.281256675720 -75.077323913574 -246.328933715820 2.542488098145
64.947036743164 -67.866180419922 -244.586029052734 2.090783119202
22.328493118286 -73.871780395508 -250.711395263672 2.081281423569
63.862648010254 -72.083267211914 -250.942108154297 5.812589168549
41.744903564453 -69.726409912109 -246.175079345703 3.192023038864
55.672779083252 -73.053771972656 -251.909805297852 4.630727767944
-150.671981811523 -70.902992248535 -250.637008666992 3.486365795135
-151.400436401367 -67.253089904785 -250.059677124023 2.535406112671
43.857830047607 -79.291625976563 -254.514846801758 7.850546836853
31.704490661621 -70.401275634766 -263.307739257813 2.154548645020
50.475265502930 -68.878326416016 -253.023925781250 3.004701852798
-141.364334106445 -71.731842041016 -256.992401123047 1.635734915733
-133.882446289063 -68.366577148438 -253.619369506836 1.166920185089
-123.936058044434 -70.111061096191 -258.202423095703 2.045550584793
-130.790725708008 -64.013931274414 -258.053314208984 3.300282716751
-137.876419067383 -64.929840087891 -258.821502685547 2.857002019882
-121.226280212402 -69.352073669434 -255.862625122070 2.823431491852
-140.806289672852 -69.598861694336 -259.501159667969 3.114872694016
-124.839942932129 -71.684440612793 -260.170867919922 2.454810142517
-123.689231872559 -64.297210693359 -260.734588623047 2.266021251678
-124.992797851563 -74.867752075195 -262.377197265625 0.962228953838
-117.015487670898 -71.084640502930 -259.366271972656 3.312908649445
-1.568166971207 -73.561653137207 -267.044647216797 7.464456081390
31.003219604492 -76.225601196289 -265.633453369141 7.850181579590
-144.099197387695 -73.493469238281 -263.106842041016 1.180006504059
32.984542846680 -69.350982666016 -270.860931396484 8.450621604919
-5.867050170898 -71.846595764160 -270.821960449219 4.854511737823
17.272775650024 -77.776733398438 -286.105255126953 3.790710449219
-141.415008544922 -71.630027770996 -289.458343505859 3.244815826416
-121.477249145508 -69.769050598145 -288.092315673828 3.511622667313
-132.295913696289 -71.935943603516 -282.894348144531 1.711091995239
-156.689193725586 -68.679565429688 -287.568786621094 2.628695011139
-122.708236694336 -71.547546386719 -287.809570312500 2.981215953827
-115.603210449219 -66.975227355957 -288.288818359375 0.673059403896
-125.851593017578 -68.867439270020 -288.900970458984 2.164732933044
-153.394714355469 -72.461883544922 -295.244079589844 2.094174623489
36.561454772949 -66.430831909180 -16.797933578491 1.578024625778
32.226013183594 -69.880676269531 -23.275283813477 5.152148246765
45.939735412598 -69.624794006348 -21.521127700806 2.479214906693
51.606845855713 -61.718238830566 -29.688240051270 2.411162376404
31.044761657715 -67.364440917969 -30.490886688232 4.079914093018
32.934200286865 -67.937026977539 -34.113201141357 2.411293506622
-30.401636123657 -66.859977722168 -45.339607238770 3.822575569153
-73.143333435059 -64.830841064453 -51.136363983154 4.830519676208
-7.168580055237 -64.648582458496 -58.466674804688 3.706707000732
75.759071350098 -65.544311523438 -70.729148864746 5.102817535400
101.813667297363 -66.972137451172 -70.878799438477 1.383776783943
69.112777709961 -65.007530212402 -83.893577575684 3.891834497452
68.255836486816 -60.298801422119 -86.260536193848 4.161157608032
103.028961181641 -62.454849243164 -87.409858703613 2.031820058823
-56.377323150635 -61.281421661377 -87.800598144531 3.940864086151
-58.223098754883 -60.282806396484 -93.509773254395 7.172791957855
54.842060089111 -62.776260375977 -97.507575988770 1.354838013649
-55.505634307861 -61.200717926025 -99.211288452148 9.233767509460
-64.887207031250 -58.661327362061 -101.085098266602 3.801183462143
-96.626899719238 -61.279720306396 -98.102996826172 3.324924468994
-66.859802246094 -62.391830444336 -101.138343811035 1.911417603493
54.007648468018 -67.148239135742 -109.962905883789 4.558866500854
-65.905288696289 -66.241226196289 -104.565872192383 3.572113513947
55.327152252197 -67.702850341797 -102.265213012695 2.489489316940
102.825561523438 -69.946937561035 -105.281135559082 1.081103682518
94.316238403320 -69.714378356934 -112.118309020996 6.634565353394
-69.882446289063 -65.057250976563 -112.451591491699 4.002034187317
-78.067451477051 -65.274902343750 -110.106239318848 2.206971645355
-59.273090362549 -60.689617156982 -119.570251464844 1.423178672791
-89.618904113770 -62.187274932861 -116.399497985840 1.492558479309
-73.028053283691 -70.215812683105 -129.790802001953 1.839528799057
-84.437767028809 -59.097450256348 -129.232955932617 5.509525775909
-60.421188354492 -64.086364746094 -122.737655639648 1.725885629654
-54.942707061768 -65.789863586426 -118.974067687988 2.517103672028
-85.074111938477 -61.568462371826 -132.535736083984 2.995443344116
-56.488933563232 -64.575447082520 -130.828643798828 2.995002508163
-76.538345336914 -62.965717315674 -125.875213623047 0.631802260876
-66.384002685547 -64.849319458008 -132.950103759766 3.528938531876
-65.011856079102 -67.086662292480 -132.276641845703 2.618396759033
-55.650093078613 -62.776397705078 -138.407226562500 0.364795356989
-49.775001525879 -65.232505798340 -139.080474853516 2.040404081345
-86.895889282227 -64.822380065918 -137.990173339844 1.833702325821
-93.623847961426 -63.748439788818 -140.073120117188 1.709957480431
-85.071739196777 -67.454208374023 -140.127075195313 3.457849264145
28.967794418335 -69.140563964844 -151.832519531250 1.902874946594
-46.698474884033 -67.192810058594 -144.782089233398 0.570904016495
18.406892776489 -64.519531250000 -151.877365112305 1.036751031876
-94.182693481445 -62.111694335938 -161.137115478516 4.124754905701
-91.930122375488 -61.762504577637 -170.436340332031 10.247471809387
-92.665817260742 -59.070980072021 -172.380661010742 10.873154640198
-106.993370056152 -68.264137268066 -169.721893310547 0.754694104195
-103.297744750977 -68.839828491211 -183.506332397461 3.267429828644
-104.590148925781 -60.653686523438 -183.425323486328 4.410774230957
-143.872329711914 -65.203117370605 -186.414321899414 2.037927150726
-105.978576660156 -66.799232482910 -187.114807128906 1.219458818436
-130.637268066406 -60.204666137695 -188.986145019531 8.334258079529
-140.351821899414 -70.686195373535 -196.764083862305 0.675275087357
-122.347167968750 -67.586051940918 -197.575317382813 1.335588693619
-154.129714965820 -69.067573547363 -197.380950927734 2.430626630783
-138.052032470703 -64.048141479492 -199.260162353516 2.056949138641
-118.169616699219 -59.882167816162 -198.118942260742 4.732091426849
-132.113021850586 -65.432678222656 -202.456665039063 1.763522863388
-144.457321166992 -63.583625793457 -211.538986206055 1.844860315323
-128.492202758789 -65.309768676758 -221.863510131836 3.689615964890
-109.872413635254 -65.582984924316 -228.126968383789 1.371711134911
-150.603042602539 -69.564811706543 -225.846466064453 2.797842025757
-116.576889038086 -64.234443664551 -232.522689819336 1.676799535751
-103.902252197266 -66.704330444336 -233.676910400391 5.733253955841
-122.558547973633 -70.449134826660 -234.536437988281 2.337300300598
-129.939331054688 -70.215675354004 -234.613677978516 1.079132318497
-116.837417602539 -63.114894866943 -237.614578247070 4.459937572479
3.883225917816 -72.890205383301 -238.410675048828 2.933537960052
-147.022399902344 -67.592834472656 -235.102691650391 1.357531547546
9.043714523315 -74.140663146973 -235.256774902344 1.763833165169
10.117510795593 -68.180618286133 -245.242858886719 1.743786096573
3.089759111404 -73.254631042480 -242.900115966797 0.543227612972
14.935783386230 -71.306480407715 -243.492340087891 1.516144037247
-140.899398803711 -68.156288146973 -236.889160156250 3.159618139267
-2.660903930664 -71.551734924316 -246.959991455078 2.724200248718
20.436904907227 -66.407356262207 -244.235839843750 2.286148548126
49.347351074219 -69.378517150879 -252.617385864258 2.012456417084
52.490348815918 -71.205429077148 -247.125320434570 1.226432085037
-146.424667358398 -69.963211059570 -249.955947875977 2.539362430573
-4.850227832794 -75.445251464844 -257.196624755859 6.720580101013
32.896224975586 -71.350173950195 -259.076385498047 1.701062202454
-131.064956665039 -61.451469421387 -259.974426269531 4.085886001587
-127.298339843750 -66.446136474609 -260.722412109375 2.046004295349
-127.233375549316 -69.844802856445 -258.487365722656 3.917662858963
26.360139846802 -70.783676147461 -264.434265136719 1.965314269066
-137.612411499023 -67.700172424316 -262.275970458984 2.128989458084
32.959568023682 -74.358360290527 -259.676971435547 4.283409118652
31.862291336060 -71.138763427734 -269.676849365234 7.965566158295
-153.115661621094 -66.431282043457 -263.326690673828 2.570090055466
-147.078872680664 -72.787704467773 -288.115539550781 2.632686376572
-154.559051513672 -70.469047546387 -290.938385009766 1.763440132141
-141.492050170898 -70.012763977051 -288.526458740234 2.703954458237
8.278773307800 -74.414482116699 -298.037567138672 5.032276630402
-153.898971557617 -71.033088684082 -295.347381591797 1.352780222893
51.686851501465 -68.920021057129 -30.026144027710 1.773991227150
43.058681488037 -69.721817016602 -43.213081359863 3.614371299744
-60.921096801758 -62.064079284668 -49.456394195557 6.513022422791
-71.322242736816 -59.017005920410 -47.806865692139 5.162713527679
-22.130577087402 -63.694961547852 -53.451469421387 4.089106559753
-17.495870590210 -64.078002929688 -63.621028900146 4.286861896515
-7.727294921875 -65.282897949219 -70.082679748535 6.024669170380
-23.625833511353 -59.478836059570 -74.448852539063 7.282109260559
73.105453491211 -66.755157470703 -76.462852478027 5.668383598328
-92.313873291016 -61.183979034424 -83.182090759277 6.738324165344
-45.251678466797 -62.380641937256 -85.091964721680 4.158295154572
59.006393432617 -62.765254974365 -87.198448181152 1.656935334206
62.620559692383 -66.658584594727 -91.822319030762 0.515865802765
76.615661621094 -65.331634521484 -89.168739318848 8.753165245056
108.418395996094 -67.282211303711 -99.451942443848 1.738596796989
60.505226135254 -65.250175476074 -94.484580993652 2.473745346069
102.405281066895 -67.368827819824 -106.547294616699 2.443363189697
-74.362625122070 -64.674499511719 -105.292831420898 2.424701929092
-93.607879638672 -64.219512939453 -105.044219970703 5.128505229950
81.992713928223 -67.513534545898 -114.653175354004 7.164653301239
-72.306983947754 -62.422618865967 -102.118873596191 1.804701805115
-77.251892089844 -64.597373962402 -118.808090209961 0.966714799404
-79.736412048340 -61.593841552734 -121.612831115723 1.467238187790
-50.030590057373 -65.909080505371 -126.477165222168 3.428347826004
-76.191307067871 -60.281223297119 -125.643264770508 2.157958984375
-57.611869812012 -67.557403564453 -131.103622436523 2.933809995651
-75.165267944336 -68.858146667480 -136.757736206055 0.679206192493
-69.539291381836 -59.288410186768 -133.677124023438 6.863524913788
-78.116500854492 -62.078086853027 -127.241798400879 1.078451156616
-83.349220275879 -62.732864379883 -127.659385681152 2.342806339264
-56.590744018555 -65.819717407227 -131.971755981445 3.426767587662
-85.632736206055 -65.603317260742 -133.583450317383 1.607536554337
-48.911098480225 -67.105041503906 -132.946823120117 1.790781736374
-48.609256744385 -66.165100097656 -143.884445190430 1.506107807159
29.770898818970 -67.519119262695 -142.285308837891 1.084109306335
-55.847270965576 -59.678691864014 -135.661773681641 1.010263681412
14.804446220398 -68.319534301758 -149.677490234375 2.351307153702
23.396768569946 -63.856941223145 -149.912948608398 3.476976156235
21.572576522827 -67.418716430664 -154.756057739258 2.432325363159
-93.698417663574 -67.483825683594 -145.554885864258 1.666010141373
-92.111206054688 -64.412010192871 -157.368850708008 4.048192024231
-96.137664794922 -58.419231414795 -154.621459960938 4.447772979736
-90.943214416504 -65.108665466309 -156.561355590820 4.613302230835
-88.543403625488 -61.388717651367 -161.119171142578 8.961332321167
-148.924728393555 -69.667800903320 -176.746231079102 2.704339027405
-150.411026000977 -66.738441467285 -176.438446044922 1.757449388504
