-85.032173156738 -94.096946716309 -94.600929260254 10.214020729065
-26.285501480103 -88.592445373535 -189.034103393555 5.104967594147
-37.667743682861 -91.282890319824 -191.419998168945 5.962911605835
-41.428806304932 -83.181968688965 -209.971191406250 5.855683803558
-60.835060119629 -87.924003601074 -206.416625976563 3.260696649551
-55.347053527832 -86.734489440918 -208.090759277344 3.288292407990
-63.472881317139 -91.620193481445 -211.735977172852 8.323614120483
-58.841583251953 -87.601898193359 -213.207427978516 6.469793796539
-70.308807373047 -86.497177124023 -211.331237792969 3.833508729935
-77.892799377441 -86.771507263184 -211.593078613281 5.753204345703
-159.694259643555 -85.465942382813 -210.736251831055 10.968918800354
-152.463043212891 -82.928230285645 -220.824905395508 3.673631429672
-150.066024780273 -88.598487854004 -225.410964965820 4.858300685883
-156.272933959961 -89.101669311523 -232.620269775391 7.458366394043
-153.735153198242 -85.950103759766 -238.470504760742 4.919579029083
-155.651748657227 -86.229530334473 -238.552734375000 6.549517154694
-156.817184448242 -86.631118774414 -251.524627685547 6.720069885254
-1.208938956261 -86.892166137695 -265.920959472656 2.528470754623
-162.504669189453 -89.259376525879 -253.432510375977 11.422475814819
-154.855407714844 -85.192466735840 -253.095474243164 3.904353380203
-150.950881958008 -81.835067749023 -258.652465820313 1.797504067421
-165.395874023438 -86.538375854492 -257.847900390625 12.004157066345
-156.163787841797 -83.440429687500 -256.606994628906 3.159418344498
-154.960800170898 -82.846870422363 -259.699127197266 1.904598951340
-16.556474685669 -81.336730957031 -276.870178222656 9.186519622803
-2.905566930771 -80.232360839844 -274.127685546875 2.063845396042
-11.717514038086 -82.614173889160 -285.346405029297 5.827507495880
-156.952148437500 -89.475372314453 -277.215118408203 7.800902843475
-163.479248046875 -86.815208435059 -280.707275390625 11.662900924683
-54.683071136475 -90.989074707031 -86.188926696777 4.525564670563
-40.539047241211 -94.261604309082 -87.164718627930 11.556950569153
-71.859535217285 -92.193618774414 -82.334159851074 8.475373268127
-46.654159545898 -86.688323974609 -89.654479980469 4.709027767181
-68.387817382813 -94.095512390137 -103.372222900391 8.957257270813
-60.907348632813 -89.916694641113 -101.507080078125 7.290685176849
-76.775688171387 -88.310661315918 -108.130653381348 6.023805618286
-82.227897644043 -86.487113952637 -110.575119018555 5.365398883820
-28.059705734253 -85.990211486816 -186.504638671875 2.538659811020
-36.293861389160 -86.141807556152 -194.946228027344 1.778950929642
-38.270950317383 -91.095375061035 -196.546783447266 5.659329414368
-29.715223312378 -87.984481811523 -193.788360595703 4.293592453003
-37.757465362549 -85.272781372070 -193.661651611328 2.235844373703
-48.985942840576 -84.873725891113 -205.148559570313 2.951721668243
-152.762222290039 -87.656776428223 -200.669952392578 5.283412456512
-74.358551025391 -85.865867614746 -212.030990600586 3.935644865036
-159.414474487305 -88.469474792480 -221.830215454102 10.475564002991
-148.833358764648 -84.917266845703 -223.174179077148 1.537940025330
-162.821304321289 -88.652244567871 -225.734039306641 11.727356910706
-151.601028442383 -84.941871643066 -231.696884155273 1.197235107422
-146.788452148438 -85.514213562012 -232.612792968750 1.657999634743
-156.519622802734 -82.655525207520 -231.701629638672 3.814212799072
-163.669342041016 -89.435699462891 -243.802337646484 15.082972526550
1.679692983627 -82.987312316895 -255.898223876953 1.588464736938
-16.564317703247 -88.150337219238 -262.343383789063 10.613624572754
-147.124191284180 -85.309104919434 -263.070007324219 0.500508368015
-15.338562965393 -79.745544433594 -281.236572265625 6.554656028748
2.967670917511 -87.647010803223 -271.542785644531 3.744745254517
-19.129674911499 -85.159980773926 -272.814788818359 11.372672080994
-158.994873046875 -82.163856506348 -266.362854003906 6.921606063843
-157.860626220703 -80.616912841797 -283.978240966797 3.366314649582
-154.682067871094 -85.767997741699 -294.587799072266 3.462212800980
-160.954483032227 -81.561286926270 -289.801635742188 5.300722599030
-163.994461059570 -85.421791076660 -294.433898925781 10.718519210815
-69.890869140625 -91.687110900879 -78.672805786133 8.118721008301
-60.034839630127 -90.092605590820 -79.095565795898 5.435392379761
-44.335899353027 -94.244483947754 -81.686584472656 10.055335998535
-38.901817321777 -91.184898376465 -87.287574768066 9.673912048340
-69.956451416016 -90.813446044922 -82.683364868164 6.616331100464
-46.867370605469 -87.469398498535 -93.571632385254 7.234721660614
-54.066341400146 -90.521339416504 -97.608467102051 7.965421199799
-70.936561584473 -85.533462524414 -105.833091735840 6.103113174438
-15.647077560425 -84.836959838867 -184.230529785156 3.819502115250
-24.609561920166 -85.783638000488 -191.543121337891 5.192294597626
-57.412639617920 -85.428779602051 -192.944976806641 8.338705062866
-152.620712280273 -89.815750122070 -190.033905029297 8.669872283936
-51.554012298584 -84.450424194336 -198.774902343750 2.696096897125
-157.341339111328 -87.742034912109 -192.346847534180 9.564496040344
-144.625274658203 -91.249496459961 -196.168579101563 8.843347549438
-46.737998962402 -84.641059875488 -205.961700439453 4.357739448547
-153.609939575195 -86.441207885742 -198.583282470703 5.040844917297
-152.401138305664 -84.935371398926 -198.637039184570 3.297028541565
-62.210266113281 -86.175064086914 -207.101837158203 2.222871065140
-162.037857055664 -84.845802307129 -195.628952026367 10.614884376526
-64.839035034180 -87.789886474609 -210.247802734375 4.494792938232
-154.389907836914 -85.399871826172 -205.319198608398 6.276414394379
-71.295997619629 -83.101264953613 -217.729934692383 5.253590583801
5.555374145508 -83.588645935059 -247.737472534180 2.984864711761
0.708369016647 -86.127227783203 -246.152389526367 6.175216674805
-156.902832031250 -84.905326843262 -237.009780883789 7.410409927368
7.738391876221 -80.132225036621 -257.408447265625 4.437203884125
3.283993959427 -89.504257202148 -258.906066894531 3.920908689499
2.040527105331 -83.827484130859 -265.467132568359 2.430454492569
0.528384983540 -82.062683105469 -266.681549072266 2.945554971695
-165.085266113281 -85.352767944336 -255.290527343750 11.615229606628
-148.562515258789 -86.267364501953 -261.446197509766 1.219088435173
0.170601993799 -81.595176696777 -276.114318847656 1.620835185051
-163.835678100586 -87.318237304688 -277.242523193359 12.894157409668
-153.184829711914 -85.994056701660 -277.821289062500 2.638828277588
-3.258887052536 -78.627799987793 -284.355804443359 2.381585597992
-157.522033691406 -85.470573425293 -273.308898925781 7.681456089020
-153.688064575195 -88.416221618652 -281.904052734375 4.817564010620
-163.478271484375 -84.954689025879 -290.952697753906 9.193803787231
-164.428009033203 -84.132377624512 -285.781188964844 9.385692596436
-167.255966186523 -81.878242492676 -290.605102539063 8.053599357605
-153.810424804688 -80.800765991211 -291.372619628906 1.099193215370
-170.992919921875 -87.000289916992 -287.221832275391 13.087642669678
-59.556667327881 -89.170028686523 -79.393676757813 4.500766277313
-53.056728363037 -84.648582458496 -79.237251281738 1.834473371506
-38.791473388672 -87.450134277344 -84.284408569336 5.216807365417
-77.093696594238 -87.522590637207 -87.916236877441 3.534976482391
-37.553787231445 -85.896461486816 -89.689514160156 7.697088241577
-40.426780700684 -90.667785644531 -89.090995788574 9.718551635742
-83.770591735840 -92.184226989746 -105.163093566895 7.416117668152
-71.033645629883 -83.094161987305 -106.850700378418 6.529566287994
29.751800537109 -87.934173583984 -134.695632934570 7.399827957153
27.859109878540 -84.210571289063 -156.079574584961 4.007380008698
-19.429559707642 -87.502159118652 -187.148895263672 5.398984909058
-24.501081466675 -83.773895263672 -189.223724365234 2.766272783279
-33.157691955566 -79.048500061035 -192.333389282227 2.064970970154
-41.851600646973 -85.548675537109 -194.371887207031 1.636040091515
-61.233863830566 -85.519866943359 -190.986358642578 10.477836608887
-34.626602172852 -80.220993041992 -200.280059814453 1.305819272995
-148.312347412109 -87.623458862305 -185.274322509766 6.083064556122
-156.124069213867 -86.303672790527 -194.513687133789 6.877238273621
-159.574981689453 -85.766967773438 -197.154403686523 8.597733497620
-157.149047851563 -83.375328063965 -200.382324218750 5.424730300903
-77.401733398438 -88.443534851074 -215.251419067383 8.036216735840
-68.887062072754 -84.391639709473 -215.839462280273 4.724062919617
-154.920501708984 -85.874427795410 -211.474487304688 7.007949829102
-79.521919250488 -85.237686157227 -216.557235717773 5.613558292389
-75.330261230469 -89.292274475098 -219.459808349609 10.234044075012
-85.557846069336 -87.766845703125 -220.105957031250 10.317735671997
-152.042327880859 -89.233398437500 -225.911270141602 5.535752773285
-149.891540527344 -85.658798217773 -229.142807006836 2.115996837616
-159.964172363281 -84.576148986816 -245.154632568359 9.956064224243
1.590119957924 -79.846336364746 -260.417541503906 5.891390323639
-1.221964955330 -84.960227966309 -256.649383544922 1.021484017372
-146.260238647461 -90.543365478516 -255.190979003906 5.853014469147
3.334650993347 -81.092773437500 -269.986450195313 3.493453502655
1.207188010216 -84.210647583008 -273.221557617188 2.255217075348
-161.210388183594 -86.088249206543 -260.360809326172 7.940474510193
-166.084564208984 -86.282691955566 -274.372406005859 11.632025718689
-13.597873687744 -83.452827453613 -282.527984619141 8.253628730774
-3.731023073196 -75.615280151367 -286.477661132813 1.311130762100
-167.680587768555 -87.063964843750 -278.737854003906 12.867375373840
-154.631729125977 -83.571739196777 -282.040313720703 3.256021499634
-165.504028320313 -91.528381347656 -301.029235839844 15.417462348938
-46.340625762939 -91.954704284668 -84.172904968262 7.018608093262
-67.790054321289 -90.296783447266 -69.886726379395 9.117896080017
-42.528663635254 -86.970756530762 -72.976089477539 5.397532463074
-32.420803070068 -87.139678955078 -82.655410766602 6.641767501831
-73.402549743652 -80.726638793945 -71.719253540039 1.700928926468
-25.405588150024 -92.018043518066 -84.806671142578 14.537313461304
-45.887706756592 -89.863258361816 -87.094017028809 6.294181346893
-57.789817810059 -86.399604797363 -98.761619567871 5.354445934296
-57.181289672852 -92.855041503906 -100.098526000977 10.119117736816
-61.760208129883 -89.960983276367 -106.492904663086 9.955410003662
-88.177703857422 -85.309280395508 -110.031585693359 4.997342586517
38.599544525146 -85.657447814941 -132.545959472656 5.769813060760
34.757572174072 -84.092086791992 -142.434509277344 5.082278728485
-47.237579345703 -83.586616516113 -169.245376586914 8.218751907349
-42.453273773193 -88.994346618652 -166.171051025391 9.675436019897
-13.322712898254 -82.368286132813 -179.908203125000 1.594334244728
-65.424835205078 -84.656677246094 -179.152954101563 8.288148880005
-62.186092376709 -86.061836242676 -183.182769775391 8.604964256287
-66.333381652832 -84.937911987305 -180.336044311523 9.570535659790
-39.054039001465 -82.843215942383 -176.790802001953 5.198032379150
-60.240249633789 -81.580978393555 -190.774154663086 7.949421405792
-32.894737243652 -82.966659545898 -190.507263183594 2.768588066101
-153.509262084961 -91.074035644531 -184.318710327148 11.111940383911
-55.608070373535 -82.370414733887 -184.302902221680 3.593471288681
-56.770355224609 -85.520370483398 -197.753265380859 4.318559646606
-39.148880004883 -78.916519165039 -190.781097412109 2.608735799789
-37.108005523682 -81.067337036133 -195.467926025391 1.774926543236
-40.653343200684 -81.224266052246 -199.333435058594 0.710651755333
-29.147708892822 -84.251945495605 -198.499618530273 6.414017677307
-51.715911865234 -86.463195800781 -202.278015136719 2.314016580582
-150.861602783203 -86.951606750488 -194.292556762695 4.873503684998
-45.714885711670 -86.158210754395 -203.636535644531 2.685076236725
-51.618366241455 -86.080566406250 -211.568634033203 6.793949127197
-50.396450042725 -80.619895935059 -206.777908325195 3.734503746033
-48.191116333008 -83.919029235840 -205.753890991211 3.822576999664
-140.461227416992 -84.512214660645 -203.940200805664 3.979988336563
-143.091918945313 -80.697402954102 -201.217681884766 1.286667704582
-56.263847351074 -86.344062805176 -206.955902099609 2.559431314468
-67.023269653320 -84.372871398926 -210.666168212891 2.090893030167
-44.620700836182 -81.758781433105 -210.417449951172 7.339846611023
-150.767333984375 -84.826156616211 -204.766052246094 3.458358287811
-77.505271911621 -81.354545593262 -213.450088500977 1.205155014992
-42.275211334229 -84.265457153320 -216.408905029297 10.669601440430
12.020410537720 -82.417480468750 -211.883575439453 3.435482025146
-87.451347351074 -79.570014953613 -210.889862060547 3.069367885590
-32.608169555664 -76.775184631348 -218.819885253906 3.203603506088
4.139027118683 -82.200485229492 -231.834930419922 3.994469165802
-155.807067871094 -86.912170410156 -217.656448364258 7.590856552124
-2.233164072037 -82.996849060059 -236.375839233398 5.044527530670
3.570647954941 -83.868591308594 -231.895187377930 5.129957199097
5.329288959503 -83.514610290527 -241.422775268555 4.989507675171
-142.792938232422 -90.500411987305 -228.076553344727 6.943239212036
-159.498138427734 -87.338821411133 -229.399261474609 8.279687881470
1.464962005615 -82.826934814453 -242.162277221680 5.652617454529
3.168436050415 -82.149589538574 -247.106369018555 1.736283302307
2.595954895020 -77.823837280273 -246.435791015625 1.150819659233
-158.184417724609 -89.955650329590 -237.121475219727 11.011487007141
-154.160217285156 -88.178092956543 -239.264434814453 6.738955974579
7.759603977203 -80.061859130859 -247.685043334961 0.404125660658
-43.120166778564 -79.648056030273 -253.136001586914 7.611350536346
5.964623928070 -82.228698730469 -256.535156250000 3.376268386841
-50.369758605957 -83.948226928711 -253.861419677734 8.658185958862
-158.981658935547 -91.347625732422 -252.696380615234 10.315382003784
0.114965997636 -81.999816894531 -265.319885253906 2.931241989136
-152.509567260742 -83.426094055176 -261.749114990234 0.649583637714
-161.593780517578 -85.103729248047 -252.590545654297 9.376230239868
6.401239871979 -83.126762390137 -271.772491455078 2.072654247284
-17.233634948730 -77.214408874512 -258.984039306641 4.245930194855
-18.368671417236 -80.249359130859 -274.707702636719 9.132177352905
-156.472106933594 -85.095581054688 -254.084091186523 4.296486377716
-162.950149536133 -80.603210449219 -258.438140869141 6.575760841370
-154.907806396484 -84.999923706055 -261.751251220703 2.939019441605
-162.128677368164 -80.425964355469 -260.002380371094 5.746087074280
-164.595825195313 -82.980087280273 -265.404815673828 8.823693275452
-23.231676101685 -81.293220520020 -277.391876220703 10.732190132141
-11.941452026367 -77.247322082520 -278.375640869141 4.110280036926
-3.261476993561 -85.791152954102 -275.825195312500 4.336291313171
-4.721508979797 -79.798812866211 -292.926727294922 3.666833162308
-12.644884109497 -82.122436523438 -289.957397460938 4.430546283722
-148.146209716797 -80.965164184570 -291.880828857422 1.537948012352
-154.689514160156 -86.688591003418 -288.123229980469 1.964784383774
-58.335544586182 -84.429656982422 -70.445808410645 3.528668165207
-39.313739776611 -85.856918334961 -71.378868103027 5.339646339417
-55.645030975342 -87.666152954102 -72.012527465820 6.620117664337
-42.971668243408 -85.973953247070 -76.091087341309 3.182991743088
-71.905754089355 -88.955337524414 -68.164329528809 8.822221755981
-83.465042114258 -88.243972778320 -76.811561584473 8.741288185120
-29.804691314697 -83.225685119629 -89.796821594238 10.000554084778
-41.851219177246 -86.413139343262 -94.394218444824 10.551334381104
-46.095939636230 -85.844314575195 -89.035011291504 4.526807308197
-83.704895019531 -85.011581420898 -89.826110839844 3.267339944839
-75.715255737305 -84.418083190918 -106.702804565430 3.450383424759
40.355712890625 -86.176185607910 -121.752670288086 6.113313198090
-84.741554260254 -88.485359191895 -115.281761169434 9.652697563171
38.996166229248 -84.487670898438 -131.938232421875 5.192168235779
40.440841674805 -86.887367248535 -141.887680053711 9.524565696716
34.485626220703 -81.275520324707 -133.974487304688 1.492514610291
32.383255004883 -86.852973937988 -138.798522949219 5.943471431732
32.100063323975 -81.164047241211 -151.676528930664 1.690658211708
21.549423217773 -78.363662719727 -157.447052001953 1.346410870552
-47.259220123291 -87.867164611816 -154.789077758789 8.089204788208
22.872550964355 -80.721473693848 -158.933547973633 1.711246490479
19.269979476929 -82.026840209961 -165.442977905273 4.778121471405
-52.866203308105 -83.938911437988 -164.040985107422 8.502852439880
23.620344161987 -84.600975036621 -162.066802978516 4.953133106232
-47.253932952881 -82.864532470703 -168.878204345703 7.526445865631
23.031932830811 -80.723823547363 -178.360382080078 1.492667317390
-66.603485107422 -85.740219116211 -174.611389160156 8.422487258911
-15.489892005920 -86.328338623047 -187.994522094727 6.822180271149
-40.699657440186 -75.342422485352 -180.315322875977 4.048795700073
-22.260179519653 -80.839370727539 -182.076507568359 2.276697158813
-59.449726104736 -80.692237854004 -181.944839477539 2.821908473969
17.955223083496 -80.110931396484 -181.066635131836 2.793467760086
-23.207618713379 -83.237411499023 -190.675231933594 2.793082237244
-29.178031921387 -87.467987060547 -194.854064941406 4.902563571930
-66.543815612793 -83.415710449219 -189.927902221680 12.927279472351
-31.902311325073 -81.330337524414 -190.460830688477 1.961330533028
11.633275985718 -79.689361572266 -195.967117309570 2.109247684479
-158.339843750000 -81.168388366699 -181.226974487305 10.972509384155
-34.333557128906 -79.770133972168 -195.362640380859 1.843532919884
-57.795104980469 -80.925788879395 -198.030990600586 4.232630729675
-156.672561645508 -87.955978393555 -192.528045654297 9.169312477112
-150.800415039063 -86.601516723633 -200.656311035156 3.751389265060
-23.220491409302 -81.340370178223 -202.423309326172 3.483599901199
-23.233453750610 -83.678573608398 -210.578994750977 5.985591888428
-59.890396118164 -84.016349792480 -201.222869873047 2.011823654175
-28.790016174316 -77.626152038574 -206.855010986328 0.493998587132
-60.294685363770 -82.690139770508 -211.618606567383 2.721362590790
-52.400497436523 -86.180686950684 -210.202133178711 5.522777080536
-63.108985900879 -88.061714172363 -206.228469848633 3.820042371750
-24.743534088135 -80.040283203125 -215.812255859375 1.184235811234
-157.633895874023 -87.093040466309 -206.389602661133 9.565914154053
-62.725936889648 -82.368537902832 -207.061477661133 2.298875808716
-64.569343566895 -82.577835083008 -213.384765625000 2.853263854980
-38.088714599609 -81.483352661133 -207.644348144531 1.909447550774
-21.393619537354 -84.969497680664 -207.713897705078 7.279256343842
-45.523849487305 -82.496482849121 -213.089691162109 9.984746932983
-84.436904907227 -88.672355651855 -219.024948120117 10.465935707092
-151.650375366211 -87.714714050293 -213.259979248047 6.433163166046
-41.646629333496 -84.061691284180 -209.915451049805 6.456389904022
-2.957161903381 -80.600563049316 -220.020462036133 2.438271999359
-65.798286437988 -82.229515075684 -217.821563720703 6.405777454376
-79.513885498047 -79.947326660156 -219.535095214844 4.422285556793
-34.468078613281 -76.990119934082 -226.784423828125 10.146065711975
-18.318269729614 -80.597854614258 -223.873748779297 2.618386268616
-32.989356994629 -82.735000610352 -229.908477783203 9.891666412354
4.801953792572 -80.049850463867 -224.137634277344 3.863536834717
-160.192687988281 -81.627609252930 -222.815551757813 8.043528556824
-17.931890487671 -78.884811401367 -223.779510498047 1.290692090988
-158.208557128906 -84.712577819824 -229.960922241211 5.871599197388
-3.018420934677 -85.615760803223 -244.027679443359 7.694312095642
6.073633193970 -84.395401000977 -233.183425903320 5.506721973419
-12.955185890198 -82.648658752441 -235.124313354492 8.047021865845
7.556606769562 -78.706489562988 -236.501571655273 2.429111480713
-147.082717895508 -85.965850830078 -229.364318847656 3.269740819931
0.312445998192 -84.346511840820 -233.076263427734 5.652934551239
-162.597473144531 -80.689414978027 -232.490966796875 7.572742462158
-158.605117797852 -86.738876342773 -233.137252807617 7.709172248840
-11.296379089355 -79.084960937500 -231.695114135742 3.386747360229
6.797072887421 -78.637886047363 -246.790832519531 1.561058759689
-42.602184295654 -84.708786010742 -250.113647460938 7.350903034210
-153.911758422852 -81.051094055176 -237.131225585938 4.532059669495
-51.951099395752 -79.691345214844 -245.388305664063 1.107418537140
-56.536102294922 -82.799301147461 -250.276397705078 5.380826950073
-38.077442169189 -82.793983459473 -253.311187744141 9.218431472778
4.433895111084 -79.999687194824 -255.719345092773 4.957324504852
-56.643756866455 -83.669158935547 -250.181335449219 6.055938243866
8.389036178589 -82.880683898926 -253.646743774414 1.067558526993
1.074460029602 -76.942008972168 -244.976669311523 2.286351442337
-0.650664985180 -83.083999633789 -254.365707397461 2.121221303940
-53.997383117676 -79.112007141113 -254.956527709961 7.103852272034
8.229361534119 -82.133071899414 -256.902618408203 2.327838182449
-150.917892456055 -85.458663940430 -248.759658813477 1.673361778259
12.024514198303 -80.542350769043 -259.166870117188 3.081881761551
-6.906518936157 -84.170234680176 -254.497909545898 2.365049362183
-2.049947023392 -79.487907409668 -262.352600097656 5.315743446350
-161.585372924805 -81.856460571289 -256.994873046875 7.410449504852
-160.869644165039 -82.170036315918 -259.115447998047 6.534224987030
-155.150665283203 -87.285713195801 -263.154083251953 5.156568527222
-166.372924804688 -80.414695739746 -259.066864013672 6.467111587524
3.200761079788 -80.123153686523 -279.542846679688 1.544138193130
-166.165756225586 -78.100013732910 -274.122344970703 3.656998395920
-18.708045959473 -79.487739562988 -287.859252929688 2.219048500061
-166.244964599609 -75.519309997559 -271.509643554688 1.617779135704
-156.724426269531 -82.017570495605 -272.757659912109 6.468028068542
-164.317047119141 -81.544944763184 -275.609130859375 6.998257637024
-166.518981933594 -79.556106567383 -283.674346923828 4.683144092560
-148.131423950195 -77.577842712402 -287.367187500000 1.914318323135
-162.946212768555 -84.998168945313 -289.866119384766 8.661019325256
-165.027206420898 -91.561653137207 -289.214233398438 12.938658714294
-163.505584716797 -82.069404602051 -297.541900634766 9.921846389771
-167.137283325195 -79.921760559082 -292.725463867188 7.057852745056
-161.242507934570 -75.117797851563 -293.193786621094 2.738996744156
-163.725357055664 -80.916000366211 -300.476684570313 10.478632926941
-161.997344970703 -80.497398376465 -300.294250488281 8.841961860657
-160.931518554688 -78.481307983398 -299.847717285156 7.045529365540
-51.313621520996 -87.458923339844 -61.299476623535 8.659217834473
-55.652622222900 -88.969154357910 -64.108207702637 9.419054985046
-45.111698150635 -86.469009399414 -69.735778808594 6.051393508911
-28.311408996582 -90.604148864746 -81.594154357910 11.011998176575
-55.381896972656 -85.676002502441 -93.825698852539 2.146032094955
-86.419128417969 -91.375839233398 -105.449958801270 7.809152603149
49.821731567383 -88.247436523438 -120.859977722168 10.832379341125
-80.784660339355 -88.669265747070 -107.219009399414 4.822019100189
37.314949035645 -83.635978698730 -123.050994873047 3.558128356934
36.158344268799 -84.056541442871 -134.721542358398 3.775911808014
33.478828430176 -82.108245849609 -133.497222900391 1.856457114220
34.148658752441 -80.365219116211 -148.313537597656 1.962182044983
28.040859222412 -81.265251159668 -150.297836303711 2.208513736725
31.665321350098 -83.752418518066 -144.163787841797 4.041047096252
25.236240386963 -81.837158203125 -160.761566162109 3.207062959671
-45.907390594482 -85.093452453613 -152.343170166016 5.203320980072
24.726631164551 -80.015144348145 -153.606185913086 1.205602169037
-65.788299560547 -83.939941406250 -158.300811767578 5.875661373138
-43.045955657959 -87.420921325684 -158.468673706055 7.588459014893
-62.986167907715 -85.295288085938 -172.094299316406 5.752735614777
-47.930320739746 -84.517745971680 -167.113098144531 7.881445407867
26.693286895752 -85.051361083984 -166.212249755859 5.251617908478
-40.648189544678 -87.327796936035 -172.456466674805 8.284094810486
-7.694557189941 -79.330589294434 -174.604812622070 2.032846689224
27.313474655151 -82.281944274902 -169.238433837891 4.018171310425
-19.145112991333 -85.423667907715 -174.552383422852 4.113008499146
-69.067413330078 -80.397781372070 -169.277023315430 4.837561607361
-43.534519195557 -84.757308959961 -174.245651245117 8.083193778992
-33.504119873047 -78.013633728027 -184.431259155273 1.246627211571
23.892854690552 -82.853675842285 -185.571365356445 5.149574279785
-61.765003204346 -84.179702758789 -184.998275756836 7.383163452148
-35.267852783203 -78.455085754395 -184.876571655273 2.695370674133
18.180953979492 -83.496864318848 -192.176788330078 5.292420387268
-58.819061279297 -81.996292114258 -191.026031494141 6.984703540802
-31.689664840698 -79.206733703613 -196.993911743164 4.805713176727
-60.945899963379 -81.469383239746 -185.615142822266 5.634954929352
-43.767383575439 -84.275627136230 -205.466659545898 4.416256904602
-36.549896240234 -87.171203613281 -197.393234252930 3.123805284500
-46.234283447266 -83.821693420410 -200.092239379883 1.694575309753
-32.044040679932 -79.682411193848 -201.252807617188 2.357819557190
-140.717727661133 -82.079040527344 -200.202285766602 1.507576465607
9.393931388855 -80.534606933594 -213.646041870117 0.865312218666
-145.970001220703 -78.075874328613 -196.997222900391 1.699327945709
-32.618968963623 -79.533058166504 -208.067245483398 2.107566595078
-24.635427474976 -76.544692993164 -205.860763549805 3.602710723877
-47.770866394043 -77.747375488281 -199.717407226563 2.171057701111
7.179679870605 -83.001304626465 -200.470886230469 6.384109973907
-24.539447784424 -81.256790161133 -208.799911499023 3.769223928452
-68.839508056641 -80.226272583008 -214.498107910156 2.114855289459
-45.496532440186 -77.698219299316 -208.666107177734 6.033019542694
-72.173606872559 -79.941970825195 -212.004699707031 2.261251926422
-78.888336181641 -80.744544982910 -212.371536254883 0.947542011738
13.538916587830 -80.332405090332 -224.817703247070 1.750588059425
-95.186042785645 -85.306358337402 -215.250488281250 9.277681350708
-38.166362762451 -81.964515686035 -226.757324218750 13.366247177124
-91.688255310059 -84.615516662598 -216.936111450195 7.559935569763
-155.385131835938 -85.107421875000 -218.484085083008 6.177466869354
-17.872695922852 -80.603080749512 -221.482635498047 2.868622541428
-19.913177490234 -77.489952087402 -230.247879028320 3.856007814407
6.885518074036 -79.787620544434 -219.908767700195 1.308006763458
5.145930767059 -83.241165161133 -232.141952514648 4.801433563232
-13.686474800110 -79.049446105957 -241.137969970703 4.176395416260
-141.133193969727 -83.025367736816 -225.478897094727 2.050955295563
-155.225997924805 -84.794013977051 -227.157546997070 3.200561285019
-156.585327148438 -75.364257812500 -231.239700317383 3.553107738495
1.284975051880 -80.681274414063 -241.274566650391 3.466918945313
-7.987968921661 -79.542678833008 -244.766906738281 4.783382892609
-35.889556884766 -77.421478271484 -239.602767944336 0.982844471931
-157.942565917969 -83.375450134277 -233.617309570313 6.009132862091
-1.375249028206 -75.786193847656 -254.987258911133 6.971367359161
-36.292095184326 -80.444190979004 -252.932647705078 8.446235656738
8.963902473450 -76.063423156738 -245.499053955078 1.514815449715
-66.589759826660 -81.191192626953 -251.660766601563 4.942936897278
-62.181152343750 -75.254028320313 -253.739303588867 3.499316453934
-154.622161865234 -82.254814147949 -243.756317138672 5.371976852417
-71.806274414063 -80.727127075195 -251.887191772461 5.049094676971
-16.098527908325 -72.156242370605 -261.591796875000 1.138807535172
-20.603294372559 -80.643440246582 -263.120391845703 8.480293273926
-159.828002929688 -82.764358520508 -256.633270263672 6.085759162903
-145.514450073242 -80.125541687012 -258.288085937500 2.613175868988
-146.895736694336 -79.250343322754 -261.666137695313 2.860629320145
5.877422809601 -73.441520690918 -272.216186523438 9.979617118835
-157.297637939453 -85.354934692383 -270.799255371094 6.738530158997
6.608029842377 -83.623924255371 -280.160827636719 3.604374170303
-161.292922973633 -77.790229797363 -265.865692138672 4.022538185120
-6.355846881866 -86.787109375000 -286.380310058594 9.707444190979
-160.838546752930 -78.978096008301 -281.900848388672 6.149730205536
-11.234083175659 -74.379096984863 -293.652893066406 1.823518037796
-169.244857788086 -84.772781372070 -282.008331298828 10.642279624939
-153.971054077148 -79.290191650391 -291.420379638672 1.791692852974
-148.943603515625 -80.834510803223 -281.762695312500 2.767159461975
-162.631469726563 -83.331031799316 -291.108551025391 7.704410076141
-30.694004058838 -79.023826599121 -298.044952392578 7.940925121307
-167.733001708984 -79.092033386230 -290.222686767578 5.837270259857
-163.408050537109 -81.248931884766 -291.812438964844 6.686353683472
-163.946517944336 -75.642494201660 -309.313995361328 8.219207763672
-53.399337768555 -84.136810302734 -65.403465270996 4.330407619476
-36.157382965088 -88.064971923828 -69.852378845215 8.455029487610
-66.086585998535 -88.593109130859 -64.655929565430 9.207303047180
-28.277765274048 -84.334732055664 -78.744033813477 4.923995494843
-28.113138198853 -90.316490173340 -81.953338623047 10.946213722229
-86.415954589844 -84.324401855469 -90.352828979492 3.400355815887
86.605201721191 -79.076812744141 -97.977508544922 3.188836574554
-37.153568267822 -82.932601928711 -87.854690551758 5.058490276337
82.257812500000 -86.650604248047 -96.630912780762 10.147176742554
76.068542480469 -81.681457519531 -102.700576782227 8.700477600098
86.808776855469 -76.562568664551 -108.848007202148 7.143186092377
82.118484497070 -79.578269958496 -106.411598205566 8.930547714233
94.208686828613 -80.941131591797 -106.860038757324 10.323228836060
-86.829818725586 -80.691123962402 -98.289382934570 3.561488389969
53.857295989990 -79.200416564941 -118.588882446289 7.237824916840
-94.847656250000 -81.918029785156 -120.918594360352 9.214094161987
34.059772491455 -83.229370117188 -124.262588500977 2.770195484161
49.925968170166 -82.447326660156 -125.712455749512 8.243064880371
36.867786407471 -82.850013732910 -129.990524291992 3.755956172943
28.475339889526 -82.909187316895 -141.327621459961 2.613465547562
23.146701812744 -84.471336364746 -153.182250976563 5.521026611328
25.875839233398 -81.086685180664 -156.054275512695 1.605540394783
28.460344314575 -79.855224609375 -162.651245117188 1.339844346046
-54.238597869873 -84.600982666016 -157.938644409180 9.029239654541
-48.815528869629 -84.878555297852 -158.713150024414 7.162662029266
-45.108333587646 -85.920318603516 -161.655334472656 6.474156856537
23.562366485596 -85.716918945313 -159.159790039063 6.324048042297
17.074243545532 -79.116340637207 -180.883758544922 3.197443723679
-42.134239196777 -82.813552856445 -166.995925903320 5.045795440674
-38.074195861816 -80.685440063477 -162.319335937500 1.514141678810
-52.731327056885 -79.147171020508 -159.519287109375 5.178663730621
-4.693368911743 -81.844978332520 -177.408538818359 4.933706283569
22.458530426025 -80.152488708496 -169.809387207031 2.211982011795
25.461057662964 -73.363662719727 -169.792358398438 2.347084283829
21.557615280151 -81.203712463379 -179.341217041016 2.389223098755
-13.274230003357 -80.194000244141 -177.322586059570 2.063594579697
-6.405110836029 -81.174751281738 -179.579574584961 4.495495319366
-59.537132263184 -79.217834472656 -180.985961914063 2.037241935730
-66.253318786621 -82.801437377930 -171.851165771484 5.427788257599
-42.395915985107 -83.288734436035 -183.209335327148 6.204344749451
-42.470260620117 -79.954017639160 -172.856704711914 3.630333185196
17.394029617310 -80.755813598633 -183.535385131836 2.578090429306
-27.971216201782 -84.848541259766 -187.041534423828 2.417185306549
-42.894329071045 -87.813652038574 -188.705261230469 5.598077774048
-66.191703796387 -85.697143554688 -184.724273681641 11.408591270447
98.253509521484 -80.865127563477 -194.757263183594 4.945752143860
14.172524452209 -79.783973693848 -180.289474487305 4.139551639557
-29.987394332886 -79.406845092773 -185.670959472656 1.121458649635
-55.991756439209 -78.912437438965 -186.158630371094 3.150854825974
-20.565166473389 -77.825927734375 -185.899978637695 2.040234565735
101.399810791016 -79.991340637207 -196.235595703125 2.465505361557
-52.903476715088 -81.425079345703 -190.414245605469 3.322805881500
9.505845069885 -81.067070007324 -194.705581665039 4.699762344360
19.925601959229 -79.220573425293 -193.067871093750 2.030826091766
-59.166439056396 -81.718055725098 -187.670379638672 6.252913475037
-29.500970840454 -78.069236755371 -189.723983764648 1.370979547501
-62.339797973633 -85.614974975586 -180.448654174805 7.697035789490
-35.689483642578 -72.893508911133 -187.591812133789 3.205985546112
-32.095409393311 -81.520729064941 -191.179168701172 2.296084403992
15.222734451294 -83.787841796875 -197.413299560547 4.658145904541
-55.671958923340 -83.801139831543 -193.512344360352 7.010682106018
96.891929626465 -79.304359436035 -206.288574218750 2.220292329788
-56.951553344727 -76.432891845703 -196.472305297852 6.701729774475
7.477993011475 -82.698020935059 -211.278259277344 4.352067470551
7.440673828125 -78.871040344238 -212.438034057617 1.029705166817
-50.935886383057 -82.214874267578 -195.028182983398 3.496528625488
-24.223209381104 -78.321472167969 -197.919052124023 1.508924007416
96.099449157715 -79.985580444336 -213.635543823242 4.321039676666
98.763473510742 -81.125068664551 -213.038253784180 6.314804077148
-52.536247253418 -74.838394165039 -196.512802124023 5.051714897156
-156.762771606445 -84.529006958008 -191.053787231445 8.048613548279
-59.030281066895 -77.296066284180 -205.626815795898 1.925432562828
-153.204559326172 -80.933181762695 -199.014923095703 1.172634243965
-142.116043090820 -80.158027648926 -201.575317382813 1.316238999367
-49.175498962402 -76.540565490723 -203.867965698242 3.754477977753
4.756313800812 -79.992332458496 -218.139022827148 3.537859201431
-25.755865097046 -78.748847961426 -207.541625976563 3.125200748444
8.083756446838 -83.506179809570 -216.247665405273 4.072075843811
79.739440917969 -81.483451843262 -226.342666625977 5.330482959747
-46.898277282715 -78.257270812988 -204.380279541016 3.599828720093
-19.768766403198 -81.871307373047 -212.859466552734 5.421158313751
-17.912818908691 -80.984260559082 -218.349594116211 3.503798723221
-45.840293884277 -79.804481506348 -216.814498901367 11.727083206177
0.172506004572 -85.781761169434 -217.957977294922 7.711633205414
-83.203941345215 -79.222663879395 -215.121902465820 1.141043782234
4.786365985870 -82.114562988281 -224.852554321289 5.074522018433
-45.419513702393 -78.622001647949 -218.546325683594 12.361502647400
-149.563766479492 -81.204666137695 -204.794723510742 0.895613908768
-153.309570312500 -82.817314147949 -212.151794433594 4.520678997040
-93.295051574707 -80.717216491699 -216.339660644531 4.260377883911
-41.196529388428 -79.706649780273 -216.482604980469 8.557711601257
-32.590412139893 -79.288467407227 -222.680191040039 6.472741127014
-35.897552490234 -81.383773803711 -220.127685546875 7.838701248169
-98.792793273926 -82.744110107422 -223.114685058594 8.441463470459
-93.523452758789 -80.451522827148 -216.801086425781 4.139068126678
1.953016996384 -77.942947387695 -228.610549926758 1.284961342812
-154.788360595703 -79.689163208008 -216.400405883789 4.869309425354
-20.302421569824 -78.041870117188 -219.733184814453 0.747566640377
-0.614624977112 -83.374488830566 -228.228744506836 3.527013778687
-148.702316284180 -82.981719970703 -216.030639648438 0.560962915421
-30.208600997925 -81.951622009277 -230.719055175781 9.029277801514
-12.661770820618 -78.168266296387 -232.493072509766 3.386482238770
-9.441369056702 -79.787788391113 -227.004714965820 3.871197938919
-160.762390136719 -80.244003295898 -221.222183227539 8.112741470337
-142.529693603516 -77.349876403809 -225.190216064453 0.683591365814
-13.656311988831 -77.525115966797 -237.486862182617 2.481592893600
-157.535675048828 -85.377914428711 -226.916610717773 5.403399944305
-9.978357315063 -77.813652038574 -239.532272338867 4.077862262726
8.257332801819 -73.129348754883 -242.337783813477 0.930397748947
-14.193566322327 -74.408660888672 -246.437423706055 3.731533765793
-7.793407917023 -79.111442565918 -241.433929443359 5.759453773499
-0.564058005810 -84.904159545898 -245.137741088867 6.185381889343
-159.349304199219 -81.584953308105 -231.818084716797 6.273196697235
-27.243093490601 -78.139793395996 -245.663635253906 3.467018127441
-39.961761474609 -84.997184753418 -248.595809936523 6.380908966064
-1.057960033417 -73.966621398926 -239.236602783203 1.001367568970
-10.161655426025 -75.060943603516 -247.305770874023 2.443521499634
-4.146097183228 -79.337867736816 -244.836318969727 3.377575635910
-62.775604248047 -79.209068298340 -244.681655883789 2.827459812164
-163.133224487305 -78.024223327637 -244.542663574219 5.796073436737
-162.862213134766 -79.372932434082 -247.880905151367 5.095131397247
1.483207941055 -79.464736938477 -258.427978515625 5.836692810059
10.233630180359 -79.447494506836 -257.731872558594 4.902330875397
-69.094474792480 -78.106842041016 -253.590347290039 3.183932065964
-159.085906982422 -76.156433105469 -253.000793457031 3.115670442581
-163.975158691406 -85.094055175781 -254.168579101563 11.065827369690
-159.245834350586 -80.517257690430 -255.278182983398 4.902352809906
-156.713790893555 -83.943161010742 -256.252929687500 3.705402851105
-147.272109985352 -81.197174072266 -256.945587158203 1.867541790009
-24.264331817627 -76.630638122559 -266.073699951172 10.629319190979
-158.241561889648 -77.671455383301 -266.203948974609 4.381908893585
-23.242996215820 -81.319641113281 -267.767028808594 11.799653053284
-164.877639770508 -79.754280090332 -273.918457031250 5.343944549561
-165.877532958984 -81.596313476563 -281.823760986328 6.880898952484
-166.735504150391 -83.436485290527 -280.110198974609 9.281492233276
-20.033683776855 -71.742950439453 -298.623077392578 7.226939678192
-158.886611938477 -77.046173095703 -284.136627197266 3.999932289124
-49.479408264160 -76.785118103027 -287.286834716797 0.576267898083
-45.532085418701 -71.472869873047 -296.831909179688 6.603070259094
-35.328353881836 -76.161514282227 -292.441497802734 1.903867244720
-23.383493423462 -76.543739318848 -299.895538330078 9.037152290344
2.673610925674 -75.394874572754 -303.101806640625 10.351646423340
-139.037094116211 -77.123756408691 -288.234039306641 2.172365903854
-69.614250183105 -80.119812011719 -291.534820556641 4.697760581970
-53.656070709229 -74.991477966309 -300.232086181641 9.393783569336
-49.506465911865 -77.527526855469 -297.147003173828 7.079270839691
-23.588230133057 -76.977767944336 -297.148162841797 6.262183666229
-6.477088928223 -74.397300720215 -296.739440917969 4.793382644653
-152.859725952148 -80.280807495117 -291.450286865234 1.941323280334
-6.874125003815 -78.146430969238 -303.867187500000 12.597932815552
-170.409744262695 -81.246742248535 -303.748077392578 16.380044937134
-163.142135620117 -77.096916198730 -299.488464355469 8.138550758362
-166.590408325195 -75.889656066895 -309.933898925781 10.840981483459
-162.337371826172 -77.170883178711 -310.391174316406 7.282684803009
-49.190689086914 -83.748809814453 -57.587234497070 6.633386611938
-48.093948364258 -84.635124206543 -62.998962402344 6.252446174622
-66.303726196289 -84.726234436035 -59.846942901611 6.782303333282
-41.377254486084 -85.224258422852 -64.301811218262 6.353826999664
-37.931358337402 -80.020629882813 -65.693916320801 1.722589969635
-21.153249740601 -80.270530700684 -67.829040527344 4.384510993958
-79.260910034180 -85.652397155762 -70.185592651367 6.846971035004
83.328285217285 -80.644180297852 -96.190361022949 5.077638626099
-89.613685607910 -85.662940979004 -85.997734069824 7.284635066986
86.852348327637 -85.132369995117 -96.895858764648 8.586650848389
88.051109313965 -82.813034057617 -98.717323303223 6.778335094452
95.583282470703 -81.068336486816 -99.593658447266 6.820934295654
-59.066886901855 -89.139465332031 -98.639137268066 6.317709445953
86.797615051270 -84.767623901367 -108.997772216797 13.486608505249
81.477005004883 -79.770843505859 -108.186698913574 9.855779647827
94.384407043457 -84.148124694824 -108.568527221680 13.652539253235
-60.075626373291 -86.761978149414 -102.877960205078 6.494951248169
56.539100646973 -80.470367431641 -110.709548950195 7.442154407501
45.756893157959 -82.454025268555 -117.594261169434 3.414057731628
37.850315093994 -82.499649047852 -120.327377319336 2.626634836197
36.912235260010 -81.140716552734 -121.931854248047 2.434371948242
-93.584449768066 -82.001327514648 -117.032501220703 6.828331470490
33.756439208984 -83.722984313965 -130.433288574219 4.025164127350
-83.776634216309 -83.362838745117 -116.758338928223 7.605982303619
39.817409515381 -81.520904541016 -139.464828491211 4.477815628052
30.778303146362 -81.514366149902 -133.563583374023 1.779199719429
30.847099304199 -84.622573852539 -135.785156250000 4.158226013184
40.585315704346 -79.176887512207 -134.753204345703 3.329404830933
38.516540527344 -85.008972167969 -139.547683715820 6.256949901581
-58.897468566895 -74.819084167480 -146.293273925781 3.529511451721
34.508632659912 -83.389427185059 -145.719940185547 4.042574882507
33.759429931641 -81.194595336914 -152.924377441406 3.567798852921
-50.644893646240 -76.609580993652 -145.574768066406 1.865975379944
-51.370143890381 -85.347778320313 -147.274047851563 7.238557815552
31.310527801514 -81.011703491211 -155.505035400391 2.292387723923
105.327812194824 -77.721511840820 -158.724182128906 4.810811996460
106.890113830566 -78.230865478516 -161.476531982422 4.387327671051
24.415613174438 -83.363548278809 -156.291732788086 3.961535215378
-45.883609771729 -80.765121459961 -153.089294433594 1.653589963913
108.542411804199 -82.170654296875 -177.436553955078 4.833415985107
-47.196315765381 -80.183090209961 -162.750183105469 3.792290687561
-67.148559570313 -83.721199035645 -166.913299560547 5.525024890900
106.390609741211 -79.231903076172 -180.057205200195 1.997898101807
20.843883514404 -82.004623413086 -179.304763793945 3.339651107788
-5.186672210693 -80.700431823730 -175.244415283203 3.271437168121
108.601768493652 -81.229965209961 -170.479415893555 4.670586585999
-66.382415771484 -83.408164978027 -165.775894165039 5.149935245514
-39.480808258057 -85.865966796875 -168.842376708984 5.923014640808
105.574981689453 -77.322021484375 -181.911529541016 1.025093793869
21.477224349976 -75.678810119629 -169.659408569336 1.092156529427
-71.441986083984 -81.169448852539 -174.471588134766 9.389735221863
101.879508972168 -75.742065429688 -189.192474365234 1.292535543442
-69.192886352539 -83.245018005371 -174.401000976563 8.283311843872
-58.414505004883 -83.588859558105 -183.982589721680 4.904085159302
99.656791687012 -77.508651733398 -195.379409790039 2.474779605865
-68.326507568359 -80.982269287109 -174.021820068359 6.419481277466
107.585762023926 -77.247543334961 -190.818862915039 1.525619149208
-63.364166259766 -83.776710510254 -177.509246826172 5.696949005127
-19.083889007568 -79.657119750977 -184.130172729492 2.937031745911
-15.823955535889 -80.510032653809 -187.845184326172 4.547010898590
100.473861694336 -79.127235412598 -187.780395507813 3.250941753387
16.975938796997 -79.273498535156 -178.733306884766 3.898453474045
24.328220367432 -81.515785217285 -179.687088012695 2.560699701309
-60.133472442627 -84.100219726563 -183.543151855469 5.919456005096
11.579713821411 -78.662170410156 -196.223220825195 1.674492120743
-62.458667755127 -82.292541503906 -185.793624877930 7.171707153320
-58.589584350586 -76.671516418457 -197.767242431641 5.870044708252
7.042020797729 -80.214691162109 -190.529876708984 7.287160873413
-67.706794738770 -78.272613525391 -190.055770874023 12.852065086365
104.301620483398 -74.126037597656 -202.552459716797 3.751568078995
15.074418067932 -80.441101074219 -190.688323974609 3.787485122681
-38.094913482666 -81.107551574707 -194.862533569336 1.764901280403
-51.939971923828 -76.424316406250 -201.178985595703 3.181957721710
3.489021062851 -77.584228515625 -206.729721069336 4.633367538452
-32.489307403564 -80.663215637207 -194.653366088867 2.065490722656
-60.123600006104 -80.211135864258 -201.737854003906 1.645601511002
93.690551757813 -80.886993408203 -204.538696289063 3.968677043915
7.304909229279 -76.492897033691 -201.008102416992 2.267183780670
-142.116973876953 -81.987709045410 -194.277084350586 2.298342943192
-48.607658386230 -78.201408386230 -197.282272338867 1.682563900948
95.660804748535 -79.868598937988 -213.123977661133 3.997941732407
-155.651672363281 -81.387290954590 -199.854125976563 3.500469446182
11.087879180908 -78.444473266602 -203.622985839844 0.814728498459
-52.941432952881 -87.378860473633 -210.443969726563 5.914546966553
-40.938579559326 -80.550262451172 -211.398590087891 5.120691776276
-47.941104888916 -75.726875305176 -211.296997070313 9.459177970886
-49.329635620117 -80.477714538574 -198.507293701172 3.073446035385
94.477310180664 -80.369270324707 -217.133422851563 6.141844749451
-25.489727020264 -77.986557006836 -209.892395019531 1.823108077049
-158.782394409180 -77.188102722168 -198.898559570313 5.021586418152
4.200597763062 -76.544837951660 -219.012100219727 2.767725706100
-79.107604980469 -82.192573547363 -207.390884399414 3.841460943222
-152.442321777344 -79.229850769043 -209.505889892578 2.985807657242
89.049057006836 -75.381904602051 -225.348693847656 3.493808746338
-42.596012115479 -79.443008422852 -213.348022460938 7.158359050751
-33.878948211670 -77.559326171875 -224.104003906250 7.788744449615
-1.956768035889 -79.868682861328 -220.698593139648 1.096651911736
-79.991027832031 -78.344169616699 -216.362503051758 1.123648643494
-34.806903839111 -77.926307678223 -215.729553222656 2.664732456207
-16.479265213013 -82.153572082520 -226.440536499023 4.840371131897
-88.345260620117 -82.984443664551 -220.839828491211 6.929826259613
-21.957773208618 -81.969970703125 -227.722793579102 6.194219112396
1.155151963234 -77.351387023926 -225.613449096680 1.464183449745
8.905474662781 -85.082077026367 -232.306976318359 3.968526363373
-154.221435546875 -80.506721496582 -216.390411376953 4.518835067749
-12.526891708374 -75.602050781250 -225.100112915039 0.901730775833
-100.268836975098 -75.652671813965 -224.845855712891 2.868253469467
-31.468229293823 -74.267265319824 -226.015411376953 7.564044475555
86.063476562500 -78.272773742676 -228.381408691406 4.571315765381
-2.842993021011 -79.848091125488 -238.918563842773 3.465600252151
6.479617118835 -82.314102172852 -225.718292236328 4.210600376129
69.915229797363 -69.977928161621 -236.747116088867 1.668856143951
-6.299112796783 -76.693641662598 -235.657775878906 3.023540019989
76.627433776855 -74.688301086426 -236.812286376953 3.823734045029
-25.074504852295 -77.322296142578 -231.323272705078 6.430953979492
3.962217092514 -80.065841674805 -233.765548706055 2.032452106476
-157.953750610352 -82.047798156738 -223.697021484375 6.053442955017
-27.303735733032 -86.155601501465 -235.312286376953 7.750690937042
-7.655940055847 -82.556510925293 -236.358932495117 7.288311958313
-160.205780029297 -82.789260864258 -226.790695190430 7.206154346466
-142.613479614258 -80.406784057617 -226.263320922852 1.138552546501
1.789695024490 -76.228096008301 -237.595932006836 0.545641303062
-16.221834182739 -76.983764648438 -249.780212402344 5.098914623260
-147.296340942383 -80.431770324707 -230.958786010742 1.054642081261
