6.712127208710 -67.373893737793 -254.905990600586 7.100698947906
-153.727035522461 -77.690750122070 -243.682601928711 4.558769702911
-77.034370422363 -77.551185607910 -254.122161865234 3.315737247467
3.248944997787 -72.408615112305 -257.878417968750 8.974877357483
-172.767852783203 -75.768630981445 -243.932830810547 7.636647701263
9.084044456482 -67.956787109375 -259.650909423828 7.240309715271
-91.975082397461 -75.265296936035 -254.288528442383 1.651849150658
-82.486869812012 -69.332656860352 -252.670471191406 1.538604021072
14.336364746094 -69.354690551758 -267.834960937500 9.069279670715
-96.850433349609 -71.200736999512 -257.528656005859 1.593759298325
-138.888870239258 -75.984420776367 -251.731857299805 5.388766765594
-145.209136962891 -76.484313964844 -253.454101562500 2.335386037827
-142.725784301758 -75.449188232422 -254.495223999023 2.536616086960
-151.319778442383 -72.888931274414 -254.553405761719 1.987642884254
-147.464782714844 -78.226356506348 -251.598205566406 1.212199568748
-145.061203002930 -72.881179809570 -258.963897705078 2.327441692352
-166.436828613281 -76.719841003418 -251.549240112305 3.387606143951
-137.489486694336 -70.788345336914 -260.260253906250 3.019711494446
-143.303878784180 -71.993522644043 -254.291763305664 1.566953063011
-171.064147949219 -79.134246826172 -260.397033691406 7.507845878601
-163.439834594727 -75.489624023438 -257.998840332031 2.294391393661
-158.627517700195 -74.491317749023 -261.199279785156 2.133225202560
-154.574401855469 -80.161888122559 -260.043731689453 0.751900374889
3.047353029251 -78.667259216309 -291.629699707031 2.513417720795
-172.913192749023 -78.880500793457 -261.509826660156 8.211182594299
-165.126281738281 -71.239761352539 -270.671295166016 2.930969953537
-16.185037612915 -70.099067687988 -284.399627685547 4.156130790710
-169.279312133789 -75.799224853516 -260.991729736328 3.860224246979
4.315861225128 -73.995918273926 -290.427825927734 2.424044609070
-163.576553344727 -73.662536621094 -277.120941162109 2.966467380524
-172.248977661133 -71.920173645020 -285.598510742188 4.542832374573
-162.697586059570 -71.487602233887 -275.536193847656 3.267059326172
-179.251083374023 -68.044029235840 -274.158264160156 11.698957443237
-9.078003883362 -68.548660278320 -297.073272705078 6.899247646332
0.247480005026 -74.597045898438 -291.911224365234 2.552394390106
-108.389755249023 -65.979125976563 -285.588867187500 3.386764526367
-162.708114624023 -76.391845703125 -282.951629638672 3.114525794983
-158.420730590820 -75.517379760742 -278.592498779297 4.420210838318
-122.127471923828 -69.806663513184 -289.642486572266 3.193204641342
-161.155792236328 -73.128440856934 -285.742126464844 2.079714059830
-161.048248291016 -73.342658996582 -288.839263916016 2.740128993988
-79.688941955566 -71.365272521973 -292.188018798828 1.611726522446
-172.915527343750 -77.982078552246 -286.433074951172 6.963106155396
-131.841644287109 -75.962760925293 -285.548767089844 0.935173690319
-54.531505584717 -75.986793518066 -296.103668212891 5.375080585480
-163.991088867188 -71.846366882324 -287.072174072266 2.682037115097
-153.008071899414 -74.140228271484 -286.676483154297 2.648172855377
-29.899553298950 -73.831893920898 -298.975585937500 7.496273994446
-138.197357177734 -71.961471557617 -295.009674072266 3.109292507172
-9.416938781738 -70.380493164063 -299.367553710938 8.121376991272
0.040011998266 -72.307731628418 -298.887329101563 7.322100639343
-144.535827636719 -73.064964294434 -291.764556884766 1.736197710037
-156.455703735352 -72.407730102539 -289.852233886719 2.171529293060
-168.605209350586 -71.420600891113 -302.538879394531 12.113846778870
-61.176788330078 -74.773460388184 -52.059360504150 2.775745153427
-16.257192611694 -73.069511413574 -68.311622619629 1.111264824867
-14.055459976196 -74.791633605957 -72.789619445801 4.447286605835
82.018669128418 -69.540817260742 -89.265563964844 8.217314720154
97.428344726563 -69.419342041016 -93.214118957520 3.270343303680
-29.915304183960 -68.674873352051 -84.523239135742 6.818742275238
87.724449157715 -72.520263671875 -91.688179016113 4.809772014618
94.119277954102 -74.059120178223 -97.137657165527 1.156146526337
79.170768737793 -70.556877136230 -95.774124145508 4.266001701355
74.996795654297 -67.983558654785 -104.402244567871 1.091861009598
-38.602260589600 -77.593536376953 -89.766769409180 5.523554325104
-87.859230041504 -73.731857299805 -91.363029479980 4.393875122070
64.206886291504 -72.742271423340 -106.248634338379 9.306214332581
53.478645324707 -73.173736572266 -110.421226501465 2.818579435349
101.554733276367 -65.217628479004 -115.715034484863 6.047186851501
-88.985847473145 -71.991508483887 -104.235450744629 5.236255168915
89.900779724121 -69.246810913086 -112.896560668945 5.884449958801
88.031402587891 -69.759559631348 -116.642005920410 9.870264053345
96.054954528809 -71.248001098633 -112.493179321289 7.895644187927
86.799758911133 -65.545196533203 -120.153381347656 11.544235229492
98.700668334961 -68.373573303223 -118.113548278809 7.756479263306
-77.973976135254 -80.905029296875 -103.674110412598 0.489928394556
45.787445068359 -75.436012268066 -123.426330566406 2.457242250443
107.208663940430 -70.037826538086 -131.444274902344 2.410953521729
116.603286743164 -64.776168823242 -128.878829956055 4.809011459351
49.922115325928 -69.960083007813 -130.650451660156 9.082315444946
112.277473449707 -64.938652038574 -143.813796997070 3.966719627380
116.394821166992 -70.367706298828 -154.717788696289 2.996474266052
-49.214004516602 -71.981521606445 -134.624191284180 0.813571631908
32.945793151855 -72.307281494141 -144.564575195313 2.514286994934
36.590171813965 -75.951202392578 -139.912704467773 1.856984019279
22.872068405151 -68.419799804688 -153.508789062500 1.060699701309
115.733406066895 -67.894027709961 -157.484954833984 2.609849691391
112.347572326660 -69.756576538086 -152.823760986328 1.816347479820
-73.175834655762 -75.700767517090 -151.334381103516 0.885497868061
-47.336853027344 -75.423698425293 -153.278045654297 1.833544015884
-72.280563354492 -71.405166625977 -151.079879760742 1.882479786873
20.969587326050 -73.865974426270 -162.949768066406 1.619354367256
111.232574462891 -66.503540039063 -173.065155029297 3.825108289719
-54.337909698486 -73.896209716797 -156.348999023438 3.322418451309
-69.528099060059 -72.986366271973 -152.068481445313 1.220470786095
-40.354835510254 -77.435607910156 -161.646667480469 3.023732900620
37.665859222412 -70.481475830078 -162.299896240234 6.288830757141
109.142524719238 -69.592803955078 -175.414840698242 0.257607400417
117.678863525391 -69.774818420410 -176.236373901367 5.813355922699
-68.191444396973 -73.582359313965 -154.047668457031 1.330077290535
-73.068580627441 -74.975410461426 -166.311721801758 5.707481861115
19.471752166748 -75.258804321289 -173.462905883789 0.189861848950
-57.169025421143 -76.827064514160 -165.931152343750 2.588211297989
-30.542940139771 -81.158355712891 -170.009704589844 1.865240097046
6.627470970154 -69.481208801270 -173.670059204102 9.840935707092
110.670158386230 -70.606208801270 -185.371765136719 2.153770685196
5.515216827393 -70.768402099609 -174.819229125977 9.521918296814
-37.927703857422 -73.743133544922 -172.610504150391 1.271877884865
-1.631085038185 -68.777694702148 -172.924285888672 6.928366184235
102.243270874023 -66.571815490723 -193.248367309570 4.132726192474
-43.442871093750 -66.349105834961 -179.860595703125 8.511507034302
28.794549942017 -67.438018798828 -180.599227905273 3.733249902725
110.949302673340 -65.819923400879 -189.604019165039 6.409337043762
-52.942256927490 -72.138832092285 -183.848358154297 2.222274065018
-29.093647003174 -74.780181884766 -176.285263061523 2.327173709869
97.584968566895 -71.699836730957 -191.919021606445 1.843453407288
32.012405395508 -73.497833251953 -184.130844116211 5.520331859589
113.693138122559 -64.249778747559 -195.514984130859 11.019143104553
-39.367671966553 -75.425849914551 -176.509490966797 1.691754698753
104.291358947754 -65.929161071777 -199.255233764648 5.665602684021
-59.061325073242 -72.453163146973 -181.929138183594 2.934196949005
-25.501470565796 -71.684707641602 -182.392074584961 1.637075424194
-144.295791625977 -75.041259765625 -177.580764770508 1.975792646408
-56.806465148926 -72.780647277832 -188.949096679688 5.375267982483
-148.364303588867 -73.629501342773 -178.944869995117 2.201593875885
-34.735240936279 -71.670867919922 -192.540328979492 5.350765705109
18.556552886963 -69.538131713867 -197.694519042969 1.504011869431
108.741203308105 -63.239059448242 -200.297012329102 10.320086479187
-32.990180969238 -71.651351928711 -197.158203125000 6.121246337891
10.605190277100 -72.514358520508 -202.639785766602 0.981138885021
13.199691772461 -70.594352722168 -209.168716430664 2.828737497330
-151.792938232422 -71.875465393066 -188.574920654297 1.976459026337
98.561302185059 -71.803863525391 -216.098007202148 4.630896568298
-21.936054229736 -68.257293701172 -201.360122680664 1.925203442574
102.194511413574 -62.940624237061 -209.846008300781 9.298078536987
13.185430526733 -69.418052673340 -199.792739868164 1.145113706589
-133.842590332031 -73.299804687500 -199.418914794922 0.801900684834
-147.286300659180 -73.080146789551 -192.819976806641 1.064025640488
90.236083984375 -61.132198333740 -216.326568603516 8.172291755676
-15.223756790161 -70.043403625488 -207.947128295898 2.103226184845
-18.989982604980 -73.953346252441 -203.912597656250 1.409600257874
8.637011528015 -70.813423156738 -213.308792114258 1.251875400543
-150.198883056641 -74.046813964844 -201.901260375977 2.946064233780
-151.003433227539 -76.065910339355 -202.207244873047 2.222304821014
96.353820800781 -73.473770141602 -223.487106323242 6.916640281677
-78.758178710938 -74.706863403320 -212.310241699219 1.014162540436
-40.172725677490 -69.430587768555 -206.830902099609 5.353969097137
16.316350936890 -68.788482666016 -221.052902221680 1.616852641106
-27.707901000977 -74.745285034180 -216.361251831055 1.261311054230
-83.079452514648 -70.578727722168 -215.192657470703 2.429363012314
88.594398498535 -66.812782287598 -223.966491699219 4.137755870819
-86.657806396484 -68.894714355469 -216.276306152344 2.807508230209
-152.163619995117 -75.346862792969 -214.463714599609 3.721282958984
-83.202995300293 -75.126197814941 -218.190246582031 1.866341114044
-20.314352035522 -71.769996643066 -219.361694335938 1.774188041687
-27.063140869141 -73.040512084961 -224.318298339844 3.768869638443
18.584798812866 -67.701187133789 -221.882858276367 3.725140571594
-10.168117523193 -68.951675415039 -219.729675292969 2.121739387512
-85.832069396973 -72.313858032227 -220.988449096680 3.240802526474
85.750480651855 -67.977775573730 -231.526763916016 5.653810977936
-98.688110351563 -74.985343933105 -214.375488281250 3.267336130142
-150.591995239258 -81.738075256348 -221.205230712891 2.384189844131
-17.066602706909 -72.841171264648 -225.227539062500 1.959390163422
11.526832580566 -70.037658691406 -225.702621459961 1.277962684631
-108.878387451172 -71.502990722656 -218.244461059570 5.303584098816
4.250831127167 -72.443237304688 -228.753692626953 1.614998459816
-31.701883316040 -74.680953979492 -221.769683837891 4.640114307404
76.623626708984 -70.253250122070 -240.765411376953 5.817895412445
-150.713256835938 -73.422554016113 -215.212158203125 1.328038454056
2.115812063217 -67.114067077637 -235.262283325195 1.230441689491
-11.248891830444 -71.272712707520 -229.359527587891 1.364796757698
11.293634414673 -65.768646240234 -230.744827270508 4.048261642456
78.997375488281 -64.892257690430 -243.156372070313 9.868535041809
-19.110794067383 -71.662864685059 -233.516754150391 4.444108963013
-134.546386718750 -77.937744140625 -225.332351684570 2.317626953125
-12.758643150330 -75.082313537598 -233.184753417969 2.148601055145
10.308091163635 -68.465965270996 -244.325454711914 1.176164507866
-131.117294311523 -72.837829589844 -219.715164184570 5.830670833588
-155.829254150391 -76.242675781250 -225.067901611328 3.020273923874
-145.074798583984 -74.697875976563 -225.030349731445 2.151588916779
-136.890762329102 -73.345169067383 -225.927536010742 3.061465978622
-16.231208801270 -70.072311401367 -234.754989624023 3.549370527267
65.126853942871 -67.550086975098 -244.726470947266 2.223399877548
-147.413223266602 -75.275810241699 -232.242309570313 2.878544330597
65.931167602539 -66.003021240234 -241.889892578125 1.750284910202
-20.921558380127 -73.160469055176 -233.042236328125 4.865699768066
-147.844558715820 -80.096984863281 -227.814910888672 1.230850338936
70.264015197754 -72.088035583496 -248.976287841797 7.927069187164
7.774198055267 -73.939605712891 -246.509506225586 2.903952360153
-148.354522705078 -70.952156066895 -232.597915649414 2.589728116989
-155.327331542969 -74.982444763184 -232.253814697266 2.554668426514
5.720866203308 -64.509956359863 -244.402862548828 2.845296144485
-9.191102981567 -70.970123291016 -247.345855712891 2.646238327026
-31.049308776855 -67.895721435547 -250.419418334961 10.429100990295
-12.188899040222 -69.487930297852 -248.296508789063 2.004117488861
-168.102584838867 -76.214508056641 -230.674926757813 4.503106594086
2.206861019135 -69.429244995117 -254.896545410156 6.686104774475
-169.385513305664 -73.373031616211 -228.498336791992 3.662762880325
-23.500648498535 -69.494125366211 -238.963531494141 3.602081537247
61.071720123291 -69.354919433594 -253.860427856445 6.443911552429
-15.107592582703 -68.674415588379 -248.920455932617 0.778775155544
-32.727386474609 -70.992362976074 -245.231414794922 4.480784893036
-33.532138824463 -67.755973815918 -247.476425170898 8.389303207397
-22.580896377563 -67.273262023926 -252.798583984375 7.722889900208
-149.396331787109 -72.599227905273 -231.164260864258 0.857136785984
2.117865085602 -72.484443664551 -253.218597412109 8.613617897034
57.851734161377 -71.499877929688 -254.902145385742 6.622860431671
4.147699832916 -70.549156188965 -253.281463623047 9.149946212769
-168.754928588867 -73.325401306152 -233.336288452148 3.038176774979
-54.677360534668 -74.318954467773 -248.659454345703 1.412632346153
-1.369241952896 -73.412895202637 -257.215393066406 8.248435974121
9.450132369995 -64.064437866211 -260.317687988281 5.064567565918
-66.216758728027 -71.185585021973 -253.806762695313 3.218649625778
-10.667661666870 -69.126266479492 -250.608062744141 2.493956804276
12.642672538757 -72.016807556152 -261.901214599609 9.675563812256
-172.751785278320 -74.249740600586 -239.196533203125 6.434995651245
-79.865798950195 -74.838722229004 -255.720046997070 2.599889755249
-60.617778778076 -68.606903076172 -251.245941162109 4.598513126373
-87.350723266602 -70.331932067871 -249.119430541992 2.352150678635
-168.634017944336 -73.134124755859 -236.382812500000 2.777744770050
-159.603057861328 -74.578247070313 -245.898483276367 2.067961454391
-67.544601440430 -67.484390258789 -256.664642333984 7.166514396667
-76.395614624023 -77.436660766602 -253.044830322266 2.892559528351
-162.063034057617 -72.394866943359 -246.973037719727 1.815884113312
-159.952468872070 -71.549026489258 -243.798599243164 3.033267021179
-85.577896118164 -71.642944335938 -251.964797973633 1.781225204468
-100.263748168945 -68.021591186523 -251.727661132813 2.987176179886
-170.383590698242 -75.758438110352 -245.050689697266 5.388206958771
-162.146163940430 -73.325645446777 -246.445190429688 1.698351025581
-143.124465942383 -69.533645629883 -253.344116210938 1.527191162109
-89.385009765625 -74.887069702148 -253.739929199219 1.468806505203
-171.579696655273 -70.411369323730 -247.736465454102 4.216272830963
-155.062942504883 -78.353111267090 -251.697280883789 3.307672500610
-100.677474975586 -72.155143737793 -254.345794677734 1.846252441406
-109.054092407227 -66.028358459473 -258.869689941406 1.861035943031
-157.178283691406 -72.052803039551 -253.615570068359 3.053252696991
-105.780250549316 -71.488632202148 -261.917785644531 1.879313230515
-159.492050170898 -72.693344116211 -248.436950683594 1.861446619034
-108.245094299316 -74.130615234375 -254.790924072266 3.400673866272
-174.789535522461 -78.252220153809 -249.505004882813 10.158326148987
-170.286102294922 -79.343818664551 -251.538803100586 7.376120090485
-130.855850219727 -70.928504943848 -253.447128295898 2.412045001984
-156.624298095703 -78.015037536621 -253.291748046875 3.816391468048
-117.182678222656 -70.942657470703 -258.083221435547 2.147592544556
-23.244585037231 -75.007606506348 -267.761199951172 9.407512664795
-151.423690795898 -71.805572509766 -256.696105957031 2.698053836823
-134.587036132813 -72.024673461914 -258.500061035156 2.707365036011
-164.984741210938 -72.945999145508 -259.045227050781 1.302349090576
11.598711967468 -69.827522277832 -278.170593261719 6.842752933502
-162.560577392578 -70.887809753418 -277.074798583984 2.953434944153
-178.344955444336 -71.572387695313 -272.494354248047 10.687869071960
-16.170078277588 -74.582397460938 -290.424652099609 1.773064494133
-159.005859375000 -75.648880004883 -274.645660400391 1.191366553307
-17.262844085693 -67.801124572754 -285.555236816406 5.459503650665
3.751617908478 -68.572250366211 -295.857421875000 4.002203464508
-144.233184814453 -70.472038269043 -283.486938476563 1.265457153320
-80.351913452148 -74.369598388672 -283.894287109375 2.766313552856
-50.560436248779 -68.970298767090 -287.041809082031 2.388700008392
-126.581069946289 -69.502098083496 -286.077423095703 1.847329020500
-102.129966735840 -70.991127014160 -293.678466796875 3.759364128113
-102.268524169922 -70.269760131836 -295.057250976563 4.670639514923
-59.598457336426 -74.448760986328 -292.501373291016 2.377066373825
-126.554992675781 -67.811561584473 -290.380065917969 1.898677706718
-119.454017639160 -72.395225524902 -290.640808105469 1.948522686958
-43.548145294189 -72.640083312988 -296.840209960938 6.228754520416
-126.728164672852 -73.519065856934 -286.946929931641 2.208951950073
-136.785446166992 -74.988670349121 -286.453399658203 1.749150276184
-155.883224487305 -75.417167663574 -289.607849121094 1.359833717346
-2.167325973511 -65.914878845215 -297.437835693359 5.435916900635
2.995392084122 -70.214790344238 -303.111175537109 10.972608566284
-167.473434448242 -73.110427856445 -288.562133789063 1.263251900673
-166.989440917969 -72.575347900391 -297.856231689453 7.199710369110
-158.728195190430 -75.084518432617 -305.665496826172 3.508965492249
-163.223190307617 -69.198608398438 -302.801483154297 8.348558425903
-165.050231933594 -76.326606750488 -307.778625488281 9.432139396667
39.506572723389 -71.970542907715 -26.709201812744 5.431780338287
38.130111694336 -70.167182922363 -33.071144104004 2.583540916443
37.059799194336 -71.779403686523 -31.948953628540 4.233977794647
39.104278564453 -72.223396301270 -51.934909820557 10.817934989929
-42.811302185059 -67.145286560059 -58.928886413574 8.856653213501
-54.093715667725 -72.145217895508 -55.817146301270 4.025977134705
-29.310161590576 -72.298171997070 -58.261974334717 2.957835197449
-71.706115722656 -75.693305969238 -61.844638824463 3.035614013672
89.204498291016 -74.561035156250 -95.541671752930 1.883241653442
-10.601876258850 -70.213737487793 -81.905906677246 12.625344276428
99.014648437500 -72.615791320801 -85.482688903809 1.549509406090
103.567230224609 -67.935287475586 -97.589050292969 1.123036980629
-84.517204284668 -73.439170837402 -82.473510742188 5.334127902985
82.363624572754 -65.949905395508 -92.185127258301 8.834708213806
-33.112106323242 -76.343055725098 -90.345611572266 8.935147285461
108.664611816406 -68.457405090332 -102.417221069336 0.816158592701
-48.209705352783 -75.663047790527 -94.344200134277 5.778515338898
57.839187622070 -69.344810485840 -102.055046081543 2.389924287796
79.480926513672 -70.695518493652 -102.927711486816 1.419067978859
63.534084320068 -73.837509155273 -108.960929870605 10.158553123474
53.729816436768 -68.636276245117 -116.687705993652 6.917731761932
74.652839660645 -71.979965209961 -110.070129394531 6.306513309479
53.561573028564 -63.870483398438 -111.243843078613 5.317190647125
107.035186767578 -68.676033020020 -121.159324645996 1.003376960754
117.043891906738 -69.471214294434 -126.321662902832 2.817575216293
82.751686096191 -65.724281311035 -116.631423950195 8.872692108154
94.742355346680 -68.726585388184 -121.346954345703 12.212705612183
107.036788940430 -66.569793701172 -119.099075317383 2.772391080856
111.541511535645 -60.153301239014 -119.409210205078 7.725413799286
45.306606292725 -76.567382812500 -119.862770080566 2.015159845352
112.223831176758 -68.586532592773 -137.958633422852 0.407092809677
118.200508117676 -69.883445739746 -140.758514404297 1.773040771484
37.204132080078 -69.393432617188 -130.672592163086 1.463347911835
44.418579101563 -71.253662109375 -131.671386718750 4.699725627899
111.079200744629 -65.654121398926 -148.031738281250 4.179279327393
42.081260681152 -73.732070922852 -138.894012451172 4.427993297577
117.773803710938 -64.053878784180 -149.784149169922 6.260351181030
113.341743469238 -66.572120666504 -145.785049438477 3.078201532364
27.595602035522 -67.687583923340 -148.329483032227 0.849423170090
-44.683727264404 -75.640090942383 -137.214935302734 3.489706516266
-53.642620086670 -73.211791992188 -144.039291381836 1.379363298416
116.992630004883 -65.803558349609 -152.372100830078 4.513792037964
-71.836914062500 -75.647071838379 -145.335128784180 0.850003302097
-72.374603271484 -71.689933776855 -140.937835693359 1.178637385368
-55.836658477783 -74.994239807129 -143.777770996094 1.555273294449
36.196208953857 -70.497581481934 -151.040191650391 3.453436613083
107.258338928223 -65.653678894043 -166.066024780273 5.093350410461
-62.127761840820 -73.975891113281 -148.197692871094 4.425661563873
-42.695377349854 -67.991859436035 -149.159744262695 1.834208846092
40.957122802734 -74.338439941406 -162.320953369141 8.933119773865
-62.556980133057 -75.040718078613 -154.420730590820 1.702564954758
114.656959533691 -61.341583251953 -163.287231445313 8.302526473999
110.369392395020 -68.683433532715 -175.264541625977 1.576537489891
112.471641540527 -69.070533752441 -167.527038574219 1.313113093376
-37.195339202881 -71.408470153809 -161.156356811523 2.142415523529
-64.560058593750 -72.295768737793 -160.008819580078 1.386858224869
-68.643638610840 -65.133079528809 -155.661727905273 4.734266281128
30.367914199829 -66.490859985352 -163.375808715820 4.020453453064
0.060456998646 -72.902267456055 -172.566452026367 4.665356636047
108.150520324707 -66.497535705566 -175.162216186523 3.196559906006
109.257682800293 -62.788223266602 -174.183059692383 6.847419261932
113.696662902832 -66.143920898438 -176.992034912109 5.240239143372
-63.714069366455 -76.592704772949 -163.183883666992 0.492115169764
-46.221321105957 -73.611984252930 -166.106704711914 2.118798494339
4.221978187561 -72.498497009277 -178.587905883789 10.485905647278
-25.673025131226 -68.477867126465 -179.906799316406 2.760014057159
105.845878601074 -67.439132690430 -180.970886230469 2.853541612625
-35.897258758545 -68.896171569824 -166.406921386719 2.378932952881
109.760429382324 -69.047973632813 -187.154968261719 2.744829416275
-41.865032196045 -69.168998718262 -176.651138305664 4.529443264008
110.098983764648 -69.328071594238 -186.575210571289 2.490618228912
-151.392807006836 -70.868263244629 -176.796569824219 1.556156277657
-31.896692276001 -69.241744995117 -180.635787963867 1.767604708672
-22.091897964478 -66.850761413574 -186.415969848633 1.917962670326
29.175199508667 -73.783416748047 -186.925781250000 3.596975326538
13.903408050537 -68.445297241211 -189.306411743164 2.509461164474
21.565402984619 -70.767631530762 -192.684890747070 2.287221431732
103.703079223633 -70.310043334961 -205.332916259766 3.789086103439
-153.970306396484 -70.658401489258 -182.290206909180 1.474836826324
-23.539865493774 -70.944473266602 -194.260910034180 2.773172616959
103.156883239746 -66.202148437500 -196.467697143555 5.170023441315
100.167068481445 -65.591056823730 -209.256210327148 6.130370616913
102.970466613770 -67.538993835449 -198.788269042969 3.606718301773
92.780891418457 -71.483802795410 -212.955947875977 1.953463912010
-157.729827880859 -83.232246398926 -191.843414306641 8.051585197449
94.382247924805 -71.987319946289 -220.684570312500 3.835898399353
-34.963935852051 -70.283035278320 -201.359939575195 4.384358406067
94.414634704590 -64.422393798828 -213.513854980469 5.652830600739
-129.770492553711 -73.922561645508 -189.961441040039 6.399640083313
-33.472866058350 -73.131507873535 -197.217819213867 5.300852298737
-144.680557250977 -74.209861755371 -198.002380371094 1.200696825981
87.326454162598 -66.244720458984 -215.942382812500 4.027337551117
5.522028923035 -68.643890380859 -210.280471801758 4.136515617371
20.614812850952 -71.449882507324 -206.646896362305 2.011866092682
-152.128555297852 -75.473503112793 -194.334289550781 1.547992348671
-141.509628295898 -71.165962219238 -202.489059448242 0.717332780361
-19.043003082275 -71.374435424805 -213.281845092773 1.426134109497
-128.562515258789 -79.581054687500 -200.910430908203 5.319021224976
-149.829238891602 -76.686454772949 -196.909530639648 2.077298402786
3.574894905090 -67.516105651855 -208.550491333008 5.727635860443
-28.926280975342 -69.910285949707 -210.618927001953 3.328496456146
14.284152984619 -68.388854980469 -217.335861206055 1.431309223175
2.026412963867 -69.543685913086 -218.969467163086 3.275100469589
81.529716491699 -67.270469665527 -228.722595214844 3.285256385803
-29.387084960938 -63.577640533447 -217.643447875977 9.017248153687
89.085639953613 -65.860519409180 -227.726837158203 7.510564804077
96.179130554199 -66.868041992188 -224.704696655273 9.198023796082
-148.936325073242 -69.348937988281 -214.242507934570 2.788850784302
89.806541442871 -63.141761779785 -227.696716308594 9.454982757568
1.767930030823 -65.605567932129 -218.268997192383 5.735987186432
-0.343912005424 -68.295104980469 -219.239761352539 2.256515264511
-38.580738067627 -68.706649780273 -215.155807495117 8.022232055664
-96.318084716797 -67.851119995117 -214.038925170898 3.617370605469
-37.935863494873 -70.235755920410 -219.325988769531 9.091628074646
79.087242126465 -68.125457763672 -232.331680297852 2.118820667267
78.514839172363 -68.404747009277 -233.622985839844 2.752972126007
-42.496364593506 -65.817878723145 -220.163330078125 14.690855026245
-84.521156311035 -64.450584411621 -224.715820312500 10.942025184631
-8.151296615601 -68.309272766113 -224.034561157227 2.177067518234
83.001037597656 -67.703056335449 -234.507354736328 5.512381553650
-152.388305664063 -76.099220275879 -216.458770751953 2.614018917084
-173.196197509766 -75.931838989258 -205.263427734375 9.370777130127
-163.126022338867 -72.880584716797 -214.361541748047 0.649682283401
-25.559143066406 -72.235839843750 -235.035629272461 3.887327432632
-157.155014038086 -76.850212097168 -218.422454833984 5.367717266083
-13.160091400146 -75.324432373047 -235.735565185547 2.896722793579
1.095944046974 -67.172569274902 -226.778625488281 1.030813574791
-166.471847534180 -78.824958801270 -215.414382934570 6.936035633087
-168.967971801758 -72.849777221680 -219.245071411133 3.507464647293
71.376716613770 -66.434967041016 -245.538024902344 6.433762073517
-1.300076961517 -69.832260131836 -238.469848632813 1.438919782639
-154.946609497070 -75.227745056152 -217.567443847656 3.231831312180
-147.804611206055 -74.125495910645 -217.143264770508 2.063230276108
-26.875112533569 -72.113029479980 -232.164260864258 6.575891494751
-2.223515987396 -70.040496826172 -232.081420898438 1.482235193253
77.500465393066 -66.760086059570 -238.356201171875 5.232330322266
-164.437255859375 -75.444564819336 -223.676818847656 3.012661218643
-151.903121948242 -71.477699279785 -223.263900756836 0.943527996540
-131.379287719727 -69.591156005859 -227.239196777344 3.153012275696
75.217613220215 -70.209838867188 -246.645431518555 8.452173233032
-121.400466918945 -68.303276062012 -229.697982788086 3.163733959198
-151.794204711914 -75.881111145020 -224.447402954102 2.492469310760
-158.469604492188 -77.881896972656 -223.932861328125 5.174344539642
-152.467361450195 -73.186996459961 -222.416671752930 1.411836028099
-158.027359008789 -69.784568786621 -224.615798950195 1.978273987770
-172.781600952148 -70.055877685547 -229.556335449219 5.946494102478
-143.009872436523 -72.360694885254 -231.688003540039 1.917790055275
-141.705703735352 -71.782409667969 -229.343719482422 2.293648719788
-161.126342773438 -73.220352172852 -223.323715209961 2.224642038345
-151.369308471680 -71.814636230469 -227.217880249023 2.595508813858
-158.116302490234 -69.708198547363 -228.041488647461 2.418117046356
65.898147583008 -66.095245361328 -235.704589843750 2.028928518295
60.570816040039 -63.265918731689 -253.485015869141 7.778428554535
-167.519027709961 -71.824623107910 -232.711227416992 2.389474153519
62.310005187988 -67.339889526367 -248.520309448242 2.888370752335
-27.373592376709 -68.530990600586 -242.711761474609 5.161634922028
1.990833044052 -68.657737731934 -248.131423950195 6.283553123474
8.652134895325 -72.412055969238 -244.984146118164 1.753493785858
-150.040740966797 -72.181549072266 -238.835891723633 3.897492408752
8.312847137451 -68.000671386719 -253.049224853516 8.901352882385
58.839031219482 -68.387710571289 -251.445373535156 3.726018905640
3.671602964401 -67.513748168945 -245.076370239258 5.029971122742
-2.383791923523 -71.855514526367 -253.188293457031 7.917840003967
-15.005625724792 -64.397949218750 -247.867462158203 3.703070640564
-26.013530731201 -73.175453186035 -253.531951904297 10.575563430786
-6.315826892853 -72.411918640137 -250.850234985352 3.573019027710
-4.518691062927 -66.829414367676 -250.127624511719 3.103513002396
49.250709533691 -69.022155761719 -254.518066406250 2.169757366180
-66.243385314941 -71.650604248047 -248.774749755859 1.258313417435
10.469275474548 -69.050689697266 -259.747161865234 8.923944473267
-65.826789855957 -69.098152160645 -248.495239257813 2.504731893539
-15.384666442871 -68.259536743164 -257.275024414063 1.928316473961
-72.262420654297 -67.746040344238 -255.716674804688 5.071729660034
-92.235099792480 -77.111396789551 -252.140090942383 3.250081062317
-89.107475280762 -75.150146484375 -253.140121459961 1.689763069153
-24.838251113892 -68.051895141602 -258.665344238281 10.473314285278
-132.725418090820 -76.295623779297 -258.076263427734 0.639736115932
-23.934146881104 -64.816764831543 -262.880310058594 8.552430152893
-130.480300903320 -71.553833007813 -253.135360717773 2.922846555710
-126.370796203613 -68.171142578125 -256.159088134766 2.051411390305
-112.066734313965 -75.903358459473 -256.519287109375 3.731888055801
-151.004394531250 -71.241401672363 -255.658523559570 3.073074102402
-155.232223510742 -70.438301086426 -261.679748535156 0.746678888798
-175.916763305664 -70.016677856445 -258.160797119141 8.574225425720
3.140773057938 -69.946296691895 -291.078155517578 1.110200166702
-70.997482299805 -72.992652893066 -286.535461425781 1.300652384758
-76.216125488281 -71.200576782227 -286.241333007813 0.775739610195
-55.528007507324 -71.660873413086 -289.015106201172 0.959209501743
-37.631141662598 -70.963989257813 -288.354461669922 1.081520199776
-104.227722167969 -70.859840393066 -293.901397705078 3.036675214767
-41.882785797119 -67.109474182129 -293.866699218750 6.313433647156
-13.078802108765 -63.149299621582 -293.404113769531 8.800633430481
-175.860504150391 -74.466979980469 -283.199340820313 7.768033981323
-26.917243957520 -70.768760681152 -297.013000488281 6.613585472107
-4.129162788391 -63.668453216553 -298.783782958984 7.819081306458
3.008627891541 -62.088871002197 -300.757812500000 8.487763404846
-67.047401428223 -71.097465515137 -295.454284667969 4.975942134857
-39.477516174316 -72.763572692871 -292.373840332031 1.969690680504
3.940656900406 -65.003829956055 -299.458251953125 6.458900451660
-79.639610290527 -71.684371948242 -296.161285400391 5.340430736542
-49.381748199463 -68.626052856445 -295.217956542969 5.905530929565
-28.297075271606 -67.413978576660 -298.386596679688 9.222766876221
-1.706415057182 -67.532081604004 -300.765747070313 8.509150505066
-25.252231597900 -71.618515014648 -296.240722656250 6.033060073853
-5.716681957245 -65.761672973633 -301.365905761719 10.234483718872
0.195201992989 -68.150726318359 -301.720794677734 9.294461250305
-145.070785522461 -74.773872375488 -286.761627197266 2.510226488113
-152.815521240234 -73.637596130371 -297.634155273438 1.549785614014
-162.412750244141 -76.476165771484 -305.304046630859 7.384581089020
51.543445587158 -62.383510589600 -24.554351806641 2.285975933075
43.700847625732 -70.350440979004 -20.808921813965 0.911379516125
52.858642578125 -70.431106567383 -27.682828903198 3.199106454849
33.225807189941 -70.962814331055 -32.422592163086 3.690000057220
54.012912750244 -70.226470947266 -38.560054779053 7.226684570313
33.556385040283 -68.146743774414 -30.670623779297 5.738701820374
35.526565551758 -74.790664672852 -41.668914794922 3.042186021805
33.298164367676 -73.226501464844 -47.181896209717 6.423594951630
53.366634368896 -66.789314270020 -46.637077331543 12.263824462891
37.689796447754 -69.590103149414 -49.758705139160 8.576292037964
51.029987335205 -70.466117858887 -44.713012695313 9.076916694641
44.426773071289 -66.913307189941 -49.414596557617 9.891920089722
41.577827453613 -70.646865844727 -52.361351013184 11.577806472778
42.911849975586 -68.115051269531 -53.554744720459 13.374558448792
53.978618621826 -69.617187500000 -56.906528472900 18.143644332886
44.148029327393 -65.401679992676 -56.931564331055 17.223838806152
-28.918453216553 -67.163063049316 -61.597873687744 7.093297481537
-19.284053802490 -67.145431518555 -51.086730957031 3.818843126297
-79.307464599609 -71.623771667480 -56.994464874268 1.672453641891
-77.755760192871 -75.624252319336 -65.148666381836 1.906987190247
88.963653564453 -68.452377319336 -82.799858093262 8.072418212891
89.877647399902 -68.946578979492 -87.206039428711 8.073571205139
-7.268463134766 -73.550750732422 -83.046150207520 15.696264266968
-76.707366943359 -75.205741882324 -72.773231506348 5.014048576355
-16.722568511963 -70.959915161133 -86.355873107910 12.782565116882
-42.794868469238 -76.844551086426 -94.536888122559 8.971017837524
69.558464050293 -68.260726928711 -99.856178283691 1.312888741493
61.345237731934 -65.015724182129 -104.987960815430 6.947923183441
102.825637817383 -68.476051330566 -105.336830139160 1.410669803619
80.462310791016 -70.761001586914 -110.977317810059 5.784646034241
-57.126205444336 -76.246810913086 -95.449447631836 3.874876976013
-58.821865081787 -70.310661315918 -98.988609313965 7.537294387817
50.059516906738 -69.633293151855 -109.552711486816 2.191705465317
77.187103271484 -74.102165222168 -116.162834167480 11.815037727356
55.776569366455 -73.045043945313 -114.869377136230 6.579204559326
107.172088623047 -71.123641967773 -115.435737609863 1.886751770973
-84.006813049316 -73.766990661621 -107.887702941895 2.709543943405
44.202583312988 -75.590843200684 -122.592864990234 2.016189813614
111.673049926758 -64.891273498535 -126.608604431152 3.311656951904
50.370685577393 -65.453941345215 -123.296974182129 9.335877418518
108.012847900391 -64.496711730957 -125.045547485352 4.345151424408
-79.266960144043 -71.283416748047 -116.109870910645 1.604827642441
39.669902801514 -67.327590942383 -128.496948242188 3.902640342712
114.153213500977 -69.256553649902 -137.778350830078 1.490300536156
105.210380554199 -66.991241455078 -134.574142456055 5.730112075806
111.018669128418 -70.505249023438 -133.373214721680 1.834751009941
113.657203674316 -72.074188232422 -134.483917236328 1.233633995056
37.065643310547 -70.536392211914 -126.623474121094 2.963462829590
37.085617065430 -73.971366882324 -130.231597900391 2.257468461990
48.223106384277 -68.510490417480 -125.457679748535 6.585445404053
112.707992553711 -67.364082336426 -142.701843261719 1.583557605743
43.968009948730 -67.157341003418 -136.432418823242 7.431972503662
113.120666503906 -69.015007019043 -151.004196166992 2.590308189392
117.177558898926 -64.851005554199 -147.536544799805 5.341381072998
35.955173492432 -68.165298461914 -132.152465820313 2.084232568741
-73.541915893555 -75.353668212891 -127.253120422363 5.534295082092
119.070762634277 -71.383026123047 -155.120452880859 3.720103979111
-57.663635253906 -77.848419189453 -145.092163085938 4.101484775543
36.053970336914 -70.987037658691 -148.037292480469 1.709504365921
-71.636459350586 -72.173751831055 -141.590560913086 1.668963074684
31.598756790161 -67.368515014648 -146.164367675781 1.441470503807
-70.639465332031 -74.390937805176 -144.086318969727 1.306021332741
-41.606842041016 -74.068542480469 -153.159591674805 2.138043165207
-70.099891662598 -76.240112304688 -137.716567993164 3.707454919815
111.612083435059 -61.074466705322 -156.461242675781 8.509821891785
118.555892944336 -67.780242919922 -159.506301879883 4.534120082855
124.680519104004 -66.360359191895 -165.993988037109 11.285082817078
-70.130966186523 -73.974189758301 -147.283538818359 1.490292668343
9.643699645996 -68.535202026367 -159.598495483398 1.858209967613
-57.121063232422 -69.425804138184 -157.263000488281 6.573899269104
-45.547569274902 -74.416664123535 -157.896133422852 1.799566984177
108.679656982422 -64.298789978027 -177.732589721680 5.864797115326
-38.291797637939 -74.060600280762 -156.629821777344 2.301666498184
10.563478469849 -67.241577148438 -170.482452392578 7.773594379425
22.653789520264 -67.574340820313 -170.320907592773 0.814223468304
112.613426208496 -67.429634094238 -182.657196044922 4.786577701569
32.173767089844 -64.226135253906 -171.318618774414 7.088801383972
-2.275387048721 -74.382659912109 -167.668045043945 1.085465431213
31.004663467407 -67.821701049805 -174.725051879883 4.565283775330
-68.633140563965 -65.181808471680 -160.599502563477 5.928510189056
-61.541896820068 -69.554420471191 -161.702041625977 3.497454643250
-66.351799011230 -70.063583374023 -165.021972656250 2.673654317856
111.803085327148 -65.187171936035 -180.078186035156 5.889961242676
-46.166198730469 -68.005668640137 -168.048431396484 4.625092506409
16.413492202759 -74.022789001465 -181.301666259766 0.883187055588
-63.594554901123 -74.437957763672 -177.185241699219 3.159809112549
-60.586463928223 -74.086563110352 -177.300323486328 2.161020755768
-42.830944061279 -73.144905090332 -167.192352294922 1.512194514275
-37.442920684814 -63.643329620361 -172.196090698242 5.456655979156
111.717559814453 -61.492023468018 -193.044692993164 10.864699363708
-35.722293853760 -71.534423828125 -179.629257202148 1.137540221214
15.411432266235 -68.398727416992 -180.277206420898 2.209283590317
103.859977722168 -71.292205810547 -208.201339721680 4.918703079224
-153.172485351563 -76.609428405762 -171.813735961914 7.396664142609
-143.440582275391 -74.950958251953 -170.073181152344 6.341203212738
-152.637542724609 -72.468124389648 -172.323669433594 3.877319097519
-145.273635864258 -69.489067077637 -176.219970703125 1.540285110474
-28.663000106812 -68.081947326660 -187.216400146484 2.418415307999
-26.928789138794 -69.131263732910 -190.706481933594 1.619104146957
20.166135787964 -64.754470825195 -201.119934082031 3.836456775665
-143.225601196289 -73.163063049316 -182.890914916992 1.444165229797
-145.563095092773 -71.555397033691 -179.226821899414 2.873313665390
-24.887403488159 -61.720527648926 -193.294113159180 6.006961822510
12.651910781860 -73.129058837891 -192.086288452148 1.823840737343
-142.822219848633 -74.119209289551 -188.412857055664 2.531145334244
-37.134056091309 -74.636192321777 -186.904968261719 4.134304523468
98.896934509277 -69.614303588867 -206.957077026367 1.358466148376
103.740005493164 -63.894416809082 -212.126403808594 10.453588485718
18.083814620972 -68.266395568848 -199.741195678711 1.449157476425
-22.920978546143 -74.927108764648 -196.641540527344 2.087998867035
-28.090892791748 -73.619712829590 -204.346969604492 3.715194702148
-150.255249023438 -69.708740234375 -192.001678466797 1.775388121605
-137.146972656250 -71.524154663086 -194.984130859375 3.917031526566
-125.396545410156 -71.421127319336 -191.876937866211 4.050824165344
-126.542999267578 -75.228538513184 -194.906921386719 3.797773838043
-21.095403671265 -68.541030883789 -201.844024658203 2.072187185287
8.930031776428 -71.384422302246 -202.468780517578 0.925440371037
90.071464538574 -61.796638488770 -216.547180175781 7.515089988708
-148.783676147461 -73.871520996094 -190.910095214844 2.048331022263
-149.476852416992 -70.078796386719 -197.662048339844 1.565045595169
-149.388153076172 -67.147422790527 -193.583038330078 1.865030646324
-158.603530883789 -68.722419738770 -195.295989990234 2.012735605240
-32.484336853027 -68.784606933594 -206.530929565430 4.952810287476
-16.429807662964 -75.212730407715 -201.077072143555 2.714753627777
-147.111541748047 -66.278106689453 -191.279739379883 2.573766231537
-21.922058105469 -72.600097656250 -202.455383300781 1.219645619392
-165.925964355469 -74.635932922363 -193.279785156250 7.164068698883
-134.048980712891 -72.766281127930 -195.740402221680 1.931078672409
7.241239070892 -65.231391906738 -218.915863037109 5.682323932648
-165.351776123047 -72.101699829102 -196.586181640625 3.172846555710
-146.720199584961 -74.850822448730 -198.219131469727 1.005535125732
7.510567188263 -70.675651550293 -210.358551025391 2.339514017105
-159.022903442383 -76.329788208008 -200.747360229492 5.560188770294
-26.699542999268 -71.030387878418 -207.614852905273 4.307768344879
98.926895141602 -66.028022766113 -217.398422241211 7.937465190887
-157.678817749023 -72.940597534180 -208.985122680664 3.862385511398
-166.917053222656 -74.172615051270 -207.054000854492 4.547779560089
-84.023834228516 -68.757019042969 -214.864440917969 3.898993015289
87.527847290039 -65.770324707031 -226.425552368164 5.952265739441
-8.513549804688 -68.782768249512 -220.851333618164 1.147718191147
-157.260437011719 -73.131866455078 -205.314193725586 4.334821224213
-94.142639160156 -65.558403015137 -216.052871704102 4.087879657745
-10.369943618774 -68.965881347656 -217.125991821289 1.081419110298
9.677317619324 -65.474105834961 -231.685791015625 3.465561151505
-148.336120605469 -74.121147155762 -213.880050659180 2.628500461578
-7.977433204651 -70.691711425781 -227.663955688477 0.282894730568
-21.061841964722 -63.676624298096 -226.559860229492 7.356069087982
-24.422960281372 -65.230087280273 -225.155334472656 7.151578903198
81.904731750488 -67.308479309082 -231.002792358398 3.979327678680
-27.095083236694 -64.798858642578 -221.063339233398 7.956990718842
-33.625820159912 -69.660705566406 -223.840423583984 8.808744430542
-108.345985412598 -71.143615722656 -220.170944213867 3.870682239532
-20.689275741577 -68.171272277832 -232.274398803711 5.793772220612
83.974723815918 -64.773590087891 -235.031417846680 8.058685302734
75.882431030273 -64.966392517090 -233.908264160156 3.669965267181
1.516214013100 -72.609832763672 -233.384353637695 2.434481382370
-18.374216079712 -67.913017272949 -233.388854980469 4.976124286652
73.408592224121 -73.751014709473 -237.632644653320 1.784822702408
-133.146804809570 -71.854713439941 -219.640747070313 5.328817367554
-28.999423980713 -71.233413696289 -227.699615478516 7.434063434601
-107.715187072754 -69.053924560547 -224.450134277344 2.156789779663
-112.682952880859 -73.896064758301 -227.503540039063 2.720960378647
-139.664855957031 -70.612075805664 -224.120361328125 1.945891499519
72.639762878418 -66.989921569824 -238.949844360352 2.587885141373
-132.126800537109 -74.011383056641 -225.097900390625 0.937617003918
-4.791144847870 -67.724884033203 -238.523818969727 2.001875877380
68.135673522949 -66.356887817383 -238.385589599609 1.283366441727
-21.059286117554 -70.127326965332 -236.841873168945 2.775996446609
-15.261271476746 -70.173377990723 -237.664443969727 2.525720119476
-11.965814590454 -66.857742309570 -240.273101806641 1.142128705978
1.307232975960 -69.158889770508 -238.834930419922 1.874794483185
76.881278991699 -66.369506835938 -241.055847167969 6.555795192719
8.764216423035 -68.656440734863 -241.866256713867 1.193448781967
-3.740406036377 -69.667633056641 -240.208358764648 2.359174966812
-11.301682472229 -70.798370361328 -233.504837036133 1.596479415894
-12.530460357666 -66.367103576660 -241.592758178711 1.749023795128
9.279905319214 -66.136978149414 -241.872192382813 0.936789333820
-16.205963134766 -65.874801635742 -242.569915771484 4.785185813904
66.745826721191 -65.552757263184 -251.023071289063 8.109381675720
-15.103017807007 -66.030372619629 -241.717285156250 3.522208929062
15.644698143005 -68.117622375488 -239.445678710938 2.994425296783
-168.583068847656 -69.037376403809 -236.850463867188 1.858963012695
-12.482212066650 -68.046760559082 -250.136520385742 1.203335165977
-17.403774261475 -67.764709472656 -248.402770996094 3.142706871033
-175.132492065430 -70.911277770996 -251.163101196289 7.707450389862
-17.031616210938 -69.497489929199 -251.239715576172 1.690234422684
11.426638603210 -70.202102661133 -253.374801635742 8.897368431091
-154.889923095703 -75.225028991699 -246.691696166992 2.955186843872
-74.753303527832 -69.598052978516 -250.609054565430 0.699731528759
-65.729980468750 -67.600837707520 -251.677322387695 4.739657402039
46.261505126953 -65.094268798828 -260.599731445313 6.071887016296
-84.373756408691 -70.640983581543 -247.557281494141 3.438671350479
7.157973766327 -67.839645385742 -254.954208374023 7.735795497894
-84.612159729004 -70.958351135254 -252.247848510742 2.357797622681
-26.264188766479 -69.122512817383 -254.209121704102 10.963434219360
-157.109405517578 -73.480392456055 -249.817718505859 1.276878595352
40.046142578125 -64.442481994629 -261.181457519531 4.155336380005
-90.694084167480 -66.718757629395 -249.759963989258 3.699391841888
-104.262718200684 -71.165351867676 -255.325302124023 1.562396526337
-103.544563293457 -76.877708435059 -252.481048583984 5.608880996704
-131.476348876953 -72.060874938965 -256.348052978516 2.964179992676
-116.869148254395 -68.550262451172 -255.579727172852 1.357861995697
-116.023986816406 -68.588958740234 -258.550079345703 1.852376937866
8.830012321472 -67.084480285645 -268.416290283203 6.194376945496
-137.976455688477 -67.869476318359 -262.931152343750 2.437549114227
-18.963905334473 -70.857925415039 -284.389434814453 5.546066284180
-156.711578369141 -74.793670654297 -277.479919433594 4.066137313843
-179.393188476563 -71.143669128418 -275.607208251953 11.320784568787
-138.673522949219 -71.643859863281 -284.511718750000 2.691798210144
-126.239532470703 -72.572341918945 -278.314239501953 5.769398689270
-90.534286499023 -65.241363525391 -288.706176757813 3.689536333084
-67.752731323242 -63.677822113037 -292.628509521484 7.183942794800
-55.740966796875 -67.471122741699 -290.468841552734 3.163870811462
-24.852201461792 -66.319465637207 -296.362060546875 8.556101799011
-22.465795516968 -65.965209960938 -294.812408447266 7.888206005096
-46.638320922852 -68.986106872559 -294.575531005859 6.485107421875
-45.930118560791 -67.230270385742 -292.494781494141 5.702518939972
-32.059410095215 -64.384979248047 -298.633422851563 11.846561431885
-84.495735168457 -71.446929931641 -293.937683105469 3.392500638962
-66.105995178223 -65.516189575195 -297.623687744141 9.195981025696
-25.152175903320 -62.892021179199 -297.867919921875 11.974025726318
-26.509464263916 -67.545684814453 -297.861022949219 8.665595054626
-16.622095108032 -66.278892517090 -299.346710205078 9.872043609619
-8.791987419128 -62.497577667236 -303.544403076172 14.080108642578
-98.585571289063 -68.597572326660 -285.821594238281 1.958800554276
-157.462570190430 -69.096359252930 -283.222717285156 3.507499456406
-129.242858886719 -71.308937072754 -293.438629150391 2.735375642776
-165.720535278320 -75.138473510742 -296.445465087891 5.854872226715
-167.064102172852 -72.453567504883 -293.183959960938 4.343155860901
-156.012786865234 -70.963226318359 -298.409729003906 2.490510702133
57.832614898682 -72.045059204102 -38.147533416748 10.383733749390
29.984355926514 -70.350509643555 -34.965881347656 1.149300217628
61.852958679199 -71.453117370605 -39.451122283936 14.392356872559
