30.251047134399 -70.815620422363 -257.886413574219 1.659103870392
-113.015579223633 -69.473617553711 -252.569000244141 4.346818447113
28.402219772339 -73.435050964355 -257.953765869141 3.849277019501
-132.520980834961 -64.183418273926 -258.528015136719 1.553390026093
-119.666419982910 -67.744041442871 -257.755401611328 3.310577154160
-105.821060180664 -63.000915527344 -259.172027587891 3.791901588440
-117.101509094238 -66.701934814453 -262.996459960938 0.686994791031
-138.911117553711 -67.658546447754 -261.019409179688 1.453055500984
26.834564208984 -71.260261535645 -264.664916992188 2.516400814056
-119.060287475586 -63.335037231445 -264.030212402344 2.519444942474
-144.407516479492 -66.371063232422 -267.480865478516 3.237356901169
-6.047080993652 -73.984970092773 -273.112976074219 4.135432243347
-155.244323730469 -63.869159698486 -276.366638183594 5.092103481293
-11.822778701782 -73.170524597168 -282.396240234375 3.349464893341
-4.298757076263 -75.642143249512 -287.346343994141 1.051810503006
-136.434783935547 -68.920188903809 -285.442047119141 1.408008337021
-122.206550598145 -62.438621520996 -287.868682861328 4.384296417236
-139.726745605469 -61.357543945313 -288.735260009766 4.702596187592
-129.557281494141 -67.271270751953 -292.840118408203 1.867685675621
-151.041488647461 -66.586860656738 -293.358062744141 1.939836502075
-151.495574951172 -69.690277099609 -299.027282714844 1.626242756844
-151.707199096680 -70.981361389160 -303.087921142578 4.170650959015
-151.528961181641 -61.666305541992 -294.368438720703 2.084525585175
-143.522109985352 -66.840202331543 -301.013305664063 2.448890447617
-145.698760986328 -66.399948120117 -302.275878906250 2.331101655960
-152.653533935547 -66.121566772461 -308.209930419922 1.599717855453
27.027994155884 -79.950500488281 -31.900133132935 7.460039615631
52.091892242432 -79.209007263184 -35.625701904297 9.256266593933
30.450214385986 -82.015678405762 -37.633514404297 9.850557327271
35.461612701416 -78.189529418945 -41.515110015869 6.115652561188
-43.586338043213 -70.112060546875 -50.561424255371 1.995062232018
-76.187789916992 -69.585815429688 -48.750301361084 2.094997882843
82.599761962891 -76.768844604492 -64.959838867188 5.836545944214
84.852714538574 -72.874862670898 -61.895870208740 4.969844818115
72.973526000977 -77.219108581543 -67.545997619629 6.347428798676
-94.756088256836 -67.561470031738 -69.557395935059 1.433024883270
102.733283996582 -79.597724914551 -74.419334411621 9.055418014526
-33.297348022461 -66.116493225098 -75.396705627441 2.928664684296
73.209320068359 -77.798454284668 -77.746452331543 3.288966417313
-40.652336120605 -68.045989990234 -79.029777526855 1.755296111107
-48.361019134521 -70.111900329590 -79.389724731445 5.357779979706
54.713726043701 -75.078445434570 -90.193672180176 2.919001102448
104.132637023926 -76.709991455078 -90.054313659668 6.388938903809
67.405220031738 -74.641700744629 -94.769660949707 4.120026588440
58.181777954102 -75.715492248535 -95.634315490723 2.756068944931
49.819675445557 -76.479652404785 -104.637870788574 0.961040794849
63.424835205078 -74.438568115234 -98.952728271484 5.259635448456
107.808052062988 -77.648391723633 -101.377914428711 4.253674983978
72.725082397461 -80.557502746582 -109.630584716797 12.383080482483
53.590457916260 -75.180122375488 -108.302551269531 2.884483575821
79.684020996094 -77.027153015137 -107.914314270020 7.423439502716
92.951866149902 -77.029853820801 -113.224266052246 10.810214042664
-79.251136779785 -71.230140686035 -110.437606811523 2.565028429031
-84.228195190430 -72.277633666992 -107.608268737793 1.952655553818
-84.878738403320 -70.408355712891 -114.761734008789 3.731076478958
-60.551395416260 -70.287345886230 -115.116935729980 5.762407779694
-53.126834869385 -75.777595520020 -121.214408874512 8.705565452576
-91.743652343750 -64.798034667969 -118.892074584961 1.640951633453
-77.694419860840 -69.966506958008 -118.831756591797 1.359898567200
-75.856613159180 -69.773628234863 -124.892837524414 1.952477216721
-59.460536956787 -73.314559936523 -124.111648559570 5.170026302338
-87.066207885742 -61.475269317627 -128.389205932617 2.837442636490
-92.899879455566 -69.109291076660 -128.987777709961 3.803239345551
-49.636878967285 -70.803298950195 -137.059432983398 0.792776882648
-55.943012237549 -66.794578552246 -135.591186523438 2.985228538513
-75.501724243164 -67.686416625977 -137.039672851563 1.168328404427
-56.232337951660 -69.325592041016 -142.342163085938 1.405566811562
-72.664169311523 -70.498550415039 -147.343688964844 1.796611189842
22.150865554810 -71.729576110840 -143.498428344727 2.524451017380
-58.480541229248 -69.128631591797 -144.652572631836 2.118147611618
-47.974449157715 -70.592559814453 -147.699935913086 1.914592981339
16.194696426392 -75.181198120117 -153.658355712891 3.651524782181
14.417272567749 -72.045745849609 -152.877609252930 0.363220423460
-142.889633178711 -63.177856445313 -173.450241088867 3.063092470169
-105.051925659180 -70.914039611816 -179.039138793945 3.237787008286
-108.293357849121 -69.046417236328 -183.796005249023 1.873000979424
-146.826416015625 -66.897766113281 -192.667984008789 2.736004590988
-109.981193542480 -67.312278747559 -183.638656616211 2.339546918869
-152.514572143555 -62.429885864258 -193.782363891602 1.317392230034
-114.410255432129 -62.434822082520 -193.040634155273 3.358500719070
-144.450546264648 -68.114074707031 -195.697814941406 2.863049030304
-149.992645263672 -71.533927917480 -199.048721313477 1.215355038643
-153.420196533203 -70.516120910645 -207.320907592773 1.629900217056
-144.963623046875 -68.247703552246 -217.800521850586 1.096154093742
-154.599899291992 -69.974517822266 -220.119842529297 3.227463245392
-104.415290832520 -67.454704284668 -221.217742919922 0.997607111931
-100.908233642578 -67.878181457520 -225.645385742188 1.298012733459
-122.295082092285 -60.553413391113 -222.828704833984 6.316866397858
-111.623054504395 -63.306510925293 -225.980804443359 2.963240385056
-154.698776245117 -66.990951538086 -230.848281860352 2.161629199982
-4.738375186920 -74.455665588379 -230.734893798828 1.133165717125
-129.689163208008 -64.259513854980 -225.544921875000 1.671028852463
-158.225418090820 -65.936325073242 -233.844497680664 3.150886535645
-135.998199462891 -64.423149108887 -231.748947143555 1.807831525803
-10.999844551086 -72.752609252930 -242.641189575195 1.285805940628
5.740009784698 -75.199821472168 -244.022567749023 0.793414056301
62.559963226318 -69.539459228516 -241.677734375000 1.486967325211
19.839160919189 -74.154632568359 -248.277618408203 1.557238698006
61.406040191650 -73.427932739258 -248.228134155273 3.341095209122
39.327766418457 -70.725654602051 -243.461486816406 6.823785305023
53.199962615967 -74.141212463379 -249.278701782227 2.101881980896
-153.026565551758 -66.736694335938 -248.884872436523 2.636186122894
-153.665054321289 -63.099933624268 -248.141876220703 3.852730274200
41.245368957520 -79.945106506348 -252.226974487305 8.434808731079
29.375169754028 -70.346458435059 -260.654388427734 2.174560785294
48.117374420166 -69.786087036133 -250.222030639648 1.921108245850
-143.705581665039 -67.509452819824 -255.227767944336 1.355130434036
-136.160385131836 -64.498085021973 -251.666458129883 4.935147762299
-126.234756469727 -66.283821105957 -256.278533935547 0.915350973606
-132.932388305664 -60.025608062744 -255.878479003906 5.521092891693
-140.034469604492 -60.722061157227 -256.721984863281 3.376393318176
-123.520416259766 -65.704216003418 -253.893142700195 3.216433048248
-143.078414916992 -65.277511596680 -257.631958007813 1.865879893303
-127.166801452637 -67.740417480469 -258.322265625000 2.978011131287
-125.824668884277 -60.367099761963 -258.536346435547 4.441568374634
-127.387741088867 -70.813003540039 -260.674987792969 3.960348606110
-119.334503173828 -67.380348205566 -257.453582763672 2.919446229935
-3.944530963898 -72.471939086914 -264.691833496094 5.842639923096
28.539327621460 -76.036666870117 -263.251739501953 6.135977268219
-146.448181152344 -68.914604187012 -261.430419921875 1.876797556877
30.726360321045 -68.980369567871 -268.144409179688 5.228301048279
-8.175782203674 -70.473388671875 -268.405609130859 2.423041820526
14.895406723022 -76.282600402832 -283.838348388672 2.591322660446
-143.561141967773 -65.900993347168 -287.653717041016 1.768953919411
-123.590843200684 -64.619613647461 -286.108184814453 3.008422613144
-134.491897583008 -66.745780944824 -281.067932128906 3.940919637680
-158.765991210938 -62.648818969727 -285.701385498047 3.545158863068
-124.868461608887 -66.377006530762 -285.914276123047 1.574793100357
-117.646377563477 -61.971939086914 -286.146728515625 4.420664310455
-127.935890197754 -63.569084167480 -286.894744873047 2.151087045670
-155.523651123047 -66.154777526855 -293.528594970703 1.754587054253
32.870170593262 -77.937637329102 -14.206355094910 6.137156009674
28.486604690552 -80.970573425293 -20.857608795166 8.661662101746
42.191741943359 -81.149681091309 -19.028499603271 9.555723190308
48.107055664063 -73.021537780762 -26.792118072510 2.086465597153
27.412740707397 -78.092849731445 -27.953897476196 6.143392086029
29.308399200439 -78.545333862305 -31.589927673340 6.655323505402
-33.911628723145 -75.317588806152 -43.054039001465 9.586877822876
-76.552490234375 -71.921409606934 -48.952587127686 3.834174156189
-10.552303314209 -73.099113464355 -55.953838348389 7.959949970245
72.396705627441 -75.561317443848 -67.851684570313 5.206931591034
98.406799316406 -77.651397705078 -67.944137573242 7.927031517029
65.844444274902 -74.243621826172 -81.008239746094 4.297653198242
65.121963500977 -69.409690856934 -83.157684326172 1.254826426506
99.834945678711 -72.405220031738 -84.241279602051 1.596191287041
-59.484302520752 -67.108749389648 -85.332237243652 3.909939527512
-61.270111083984 -65.799247741699 -90.997474670410 2.396139383316
51.716274261475 -71.016555786133 -94.571197509766 1.580854058266
-58.543197631836 -66.521492004395 -96.722572326660 6.429994106293
-67.845642089844 -63.657100677490 -98.520675659180 1.468264937401
-99.658912658691 -65.592422485352 -95.813987731934 1.897017240524
-69.912422180176 -67.329063415527 -98.756706237793 1.207370400429
50.844451904297 -74.783317565918 -107.220199584961 1.782924532890
-69.036132812500 -71.038688659668 -102.354995727539 2.196695327759
52.103713989258 -75.728096008301 -99.550460815430 1.648381114006
99.546424865723 -79.052810668945 -102.442420959473 7.332193374634
91.086494445801 -78.284317016602 -109.301620483398 9.060287475586
-72.934951782227 -69.388259887695 -110.195877075195 2.223336219788
-81.136604309082 -69.503501892090 -107.901985168457 3.121970653534
-62.175605773926 -64.969985961914 -117.053359985352 1.123108267784
-92.568000793457 -65.830810546875 -114.099494934082 3.822408437729
-76.108291625977 -73.654479980469 -127.770942687988 3.291192293167
-87.233718872070 -62.283710479736 -126.750679016113 3.047422409058
-63.391193389893 -68.185501098633 -120.380714416504 3.696991682053
-57.980373382568 -70.202255249023 -116.674514770508 5.527511596680
-87.913307189941 -64.581695556641 -130.167785644531 1.373492717743
-59.424793243408 -68.400009155273 -128.466979980469 1.316691279411
-79.455619812012 -66.505729675293 -123.539077758789 0.718017637730
-69.310874938965 -68.320205688477 -130.645736694336 3.920180797577
-68.000267028809 -70.620971679688 -130.070571899414 5.633966922760
-58.495407104492 -66.273674011230 -135.949630737305 1.690032362938
-52.681007385254 -68.846458435059 -136.708541870117 2.689488410950
-89.785140991211 -67.531173706055 -135.776214599609 2.254858255386
-96.471031188965 -66.188827514648 -137.838806152344 2.825080394745
-88.016098022461 -70.107192993164 -138.024551391602 2.510482311249
26.010625839233 -74.186233520508 -149.255325317383 1.678884744644
-49.621746063232 -70.618865966797 -142.480514526367 2.240991830826
15.571518898010 -69.297561645508 -149.135253906250 2.376766681671
-96.863037109375 -63.563232421875 -158.806320190430 1.802502989769
-94.547195434570 -62.841350555420 -168.068466186523 7.202663421631
-95.202438354492 -60.044502258301 -169.888977050781 7.869319915771
-109.775382995605 -68.978904724121 -167.728530883789 3.668200016022
-106.013992309570 -69.009788513184 -181.507186889648 0.812070190907
-107.097564697266 -60.805641174316 -181.051651000977 2.966769933701
-146.464599609375 -64.198081970215 -184.435089111328 3.062971353531
-108.620437622070 -66.735679626465 -185.029510498047 2.846179246902
-133.091308593750 -59.428371429443 -186.708923339844 10.447294235229
-143.023834228516 -69.284202575684 -195.011856079102 2.054999589920
-124.941459655762 -66.614646911621 -195.592727661133 1.640926480293
-156.752044677734 -67.284317016602 -195.618057250977 1.218457937241
-140.540679931641 -62.599006652832 -197.185592651367 1.993471264839
-120.565559387207 -59.004020690918 -195.757659912109 5.440645217896
-134.620071411133 -63.986362457275 -200.414855957031 0.647072851658
-146.859115600586 -61.400749206543 -209.459747314453 1.815916299820
-130.882293701172 -63.056995391846 -219.777618408203 6.176252365112
-112.238739013672 -63.519054412842 -225.958724975586 2.676542758942
-153.070480346680 -66.551734924316 -224.058868408203 2.093538522720
-118.880439758301 -61.795856475830 -230.318679809570 4.076944351196
-106.266326904297 -64.535263061523 -231.526458740234 4.281873226166
-125.006660461426 -67.754325866699 -232.647598266602 2.056735277176
-132.378494262695 -67.327468872070 -232.748870849609 2.109101295471
-119.082122802734 -60.435062408447 -235.354171752930 5.021028041840
1.352344036102 -73.269660949707 -236.032073974609 1.664037823677
-149.385879516602 -64.245552062988 -233.196289062500 1.798472285271
6.460454940796 -74.797546386719 -232.915344238281 1.976659297943
7.745155811310 -68.410491943359 -242.608230590820 1.651250481606
0.576470971107 -73.404945373535 -240.537322998047 1.669206023216
12.471640586853 -71.737258911133 -240.982177734375 1.615769028664
-143.268753051758 -64.883117675781 -234.978012084961 2.307365655899
-5.104697227478 -71.368041992188 -244.540817260742 1.906516909599
18.100276947021 -66.952270507813 -241.470947265625 2.103260755539
46.974674224854 -70.275367736816 -249.844543457031 1.815902113914
50.037418365479 -72.435348510742 -244.428558349609 1.636949300766
-148.760772705078 -65.939231872559 -248.140731811523 2.859881639481
-7.331912040710 -74.724990844727 -254.957702636719 4.992501735687
30.517194747925 -71.520927429199 -256.466125488281 2.174576759338
-133.129760742188 -57.370605468750 -257.679595947266 7.470124721527
-129.487426757813 -62.420589447021 -258.641235351563 3.152055263519
-129.522460937500 -65.919784545898 -256.566375732422 2.280473232269
24.029577255249 -70.538398742676 -261.822753906250 1.545903801918
-139.820739746094 -63.335105895996 -260.300292968750 2.950803279877
30.507328033447 -74.498657226563 -257.205657958984 4.539720058441
29.551862716675 -70.791633605957 -267.050048828125 4.968492507935
-155.280059814453 -61.619892120361 -261.364288330078 1.514735341072
-149.260559082031 -66.973396301270 -286.393066406250 1.805276632309
-156.662261962891 -64.334403991699 -289.140441894531 0.318484991789
-143.602401733398 -64.327232360840 -286.648010253906 1.139411330223
6.061028003693 -72.140068054199 -295.643859863281 3.463460445404
-155.990646362305 -64.710212707520 -293.567718505859 1.455819964409
48.005290985107 -80.199569702148 -27.464212417603 8.834230422974
39.437816619873 -80.166465759277 -40.714904785156 8.260448455811
-64.273826599121 -69.551307678223 -47.087871551514 1.902439355850
-74.603431701660 -66.317070007324 -45.347713470459 2.356374979019
-25.514564514160 -71.993949890137 -50.970653533936 4.819050788879
-20.830924987793 -72.024276733398 -61.124950408936 1.361686348915
-11.058136940002 -73.179496765137 -67.589294433594 4.388588905334
-26.777238845825 -66.771568298340 -71.756080627441 2.081795692444
69.747100830078 -76.436210632324 -73.648002624512 5.208084106445
-95.433395385742 -66.299819946289 -80.884498596191 3.211191892624
-48.406581878662 -68.618637084961 -82.624977111816 2.879904270172
55.818332672119 -71.590896606445 -84.253105163574 3.137457370758
59.359340667725 -75.357437133789 -89.035865783691 3.045057773590
73.367752075195 -74.515937805176 -86.257164001465 1.313349485397
105.170761108398 -76.806221008301 -96.469177246094 3.630528926849
57.296451568604 -73.773063659668 -91.639732360840 1.853754520416
99.199577331543 -76.408782958984 -103.589286804199 5.692217826843
-77.446273803711 -69.222587585449 -103.048362731934 3.217236280441
-96.674781799316 -68.283973693848 -102.870040893555 0.634910166264
78.838394165039 -75.651550292969 -111.789741516113 9.433904647827
-75.352706909180 -67.174011230469 -99.763404846191 1.411435127258
-80.252449035645 -68.444419860840 -116.558952331543 2.830340623856
-82.642852783203 -65.251052856445 -119.232704162598 1.329449772835
-53.028495788574 -70.099922180176 -124.151679992676 3.201787948608
-79.041580200195 -63.844715118408 -123.180892944336 1.870383501053
-60.621795654297 -71.336082458496 -128.885650634766 1.038801312447
-78.168823242188 -71.920600891113 -134.677261352539 1.514653444290
-72.318885803223 -62.652130126953 -131.128280639648 3.673160791397
-81.002479553223 -65.515327453613 -124.870368957520 1.234551906586
-86.247634887695 -66.015014648438 -125.342742919922 1.512703537941
-59.551536560059 -69.586898803711 -129.667190551758 1.387878775597
-88.568473815918 -68.547889709473 -131.404647827148 1.774871587753
-51.901546478271 -71.023033142090 -130.664581298828 2.390760898590
-51.510974884033 -69.585006713867 -141.545104980469 2.472077369690
26.798215866089 -73.030479431152 -139.639343261719 1.338376402855
-58.629760742188 -63.302558898926 -133.064041137695 2.670758962631
11.860314369202 -73.101425170898 -147.131576538086 3.629286766052
20.564937591553 -68.855545043945 -147.118530273438 1.805255413055
18.679214477539 -72.140731811523 -152.130630493164 3.096752643585
-96.608383178711 -69.662841796875 -143.488662719727 2.574054718018
-94.873298645020 -66.088409423828 -155.139343261719 2.280895471573
-98.761756896973 -60.127746582031 -152.135314941406 3.740010499954
-93.728271484375 -66.851623535156 -154.359603881836 1.655838251114
-91.207344055176 -62.987384796143 -158.728042602539 5.343274593353
-151.686508178711 -68.974639892578 -175.009140014648 1.541895627975
-153.099365234375 -66.025390625000 -174.572494506836 1.843418359756
-104.861709594727 -68.224304199219 -185.624252319336 2.266910076141
-142.220718383789 -59.133392333984 -175.852584838867 3.999874591827
-111.276832580566 -67.548606872559 -176.956283569336 1.244914293289
-149.100234985352 -63.711090087891 -186.157318115234 1.703823447227
-114.377525329590 -66.213356018066 -189.305725097656 2.349369764328
-103.713851928711 -66.244079589844 -185.025939941406 2.289998292923
-145.628616333008 -64.889541625977 -192.981384277344 0.839884340763
-134.306900024414 -64.189254760742 -198.256484985352 0.737227320671
-106.730339050293 -64.685783386230 -198.007705688477 2.793131589890
-115.156822204590 -66.202568054199 -199.736404418945 2.137340307236
-115.648719787598 -62.790493011475 -201.169036865234 1.681069254875
-112.218719482422 -63.082332611084 -203.404022216797 2.956134557724
-133.309814453125 -63.344982147217 -197.106292724609 1.287782430649
-135.790100097656 -64.190650939941 -195.983840942383 2.681771039963
-131.424255371094 -67.187660217285 -197.554565429688 2.580353260040
-122.914855957031 -61.576004028320 -201.174743652344 1.639788031578
-121.273803710938 -60.839962005615 -207.612197875977 5.240488052368
-116.722892761230 -61.584877014160 -204.409957885742 2.259023666382
-146.824035644531 -64.039596557617 -216.592758178711 2.758476018906
-151.954727172852 -62.493736267090 -225.472763061523 0.952713191509
-157.759170532227 -59.922077178955 -220.433395385742 6.996166706085
-140.934661865234 -65.030395507813 -222.026077270508 4.265412330627
-138.309906005859 -62.597217559814 -227.240249633789 3.677937746048
-125.751930236816 -65.268394470215 -221.024993896484 3.909235954285
-142.243621826172 -59.697551727295 -231.281585693359 1.789786696434
-147.983093261719 -65.282890319824 -229.031570434570 2.412944793701
-142.461914062500 -62.306701660156 -223.302642822266 2.097984313965
-131.047119140625 -60.510719299316 -226.074234008789 3.951713085175
-150.025451660156 -62.360774993896 -230.014022827148 1.231961369514
-137.108856201172 -63.488906860352 -232.210037231445 3.263989210129
-125.596588134766 -60.590404510498 -229.750640869141 2.768723487854
-7.369310855865 -71.595802307129 -237.826232910156 0.550723671913
2.613399982452 -70.374496459961 -236.347167968750 1.350636839867
8.289678573608 -69.414474487305 -242.749191284180 0.605297982693
12.433935165405 -69.687858581543 -240.299987792969 1.626186728477
-9.971455574036 -71.471313476563 -245.392074584961 1.281446337700
-13.051256179810 -64.664154052734 -248.755325317383 1.917255520821
44.390609741211 -65.379020690918 -253.486480712891 1.060465097427
49.533172607422 -73.936538696289 -250.044021606445 1.871144533157
-148.168655395508 -61.904140472412 -255.789123535156 1.256100535393
42.015323638916 -69.567771911621 -259.491455078125 2.355622053146
30.355777740479 -69.365287780762 -252.069152832031 3.785994768143
-159.616989135742 -58.510585784912 -253.197937011719 7.252506256104
-151.845520019531 -60.986492156982 -259.261383056641 1.814967036247
-147.667068481445 -62.366912841797 -259.949829101563 1.244537115097
1.131139039993 -71.107231140137 -264.743408203125 6.166009426117
-157.279266357422 -61.516311645508 -263.948974609375 3.693974971771
1.132990002632 -68.356575012207 -277.027496337891 5.070390224457
-145.035903930664 -65.637054443359 -270.751586914063 4.257308006287
-145.791213989258 -61.659645080566 -284.672912597656 1.860248923302
-154.191055297852 -62.715690612793 -281.062225341797 3.345660924911
-151.924774169922 -59.842624664307 -280.206665039063 4.397530555725
-148.182662963867 -60.703506469727 -281.238983154297 2.548505544662
-156.386123657227 -56.407424926758 -287.745086669922 7.531299114227
-151.433746337891 -58.148967742920 -282.095855712891 5.259729862213
-152.968734741211 -62.121810913086 -281.596130371094 2.697190761566
-145.697830200195 -67.011787414551 -286.794372558594 3.025249004364
-142.644836425781 -61.758449554443 -286.540557861328 2.395471811295
13.271864891052 -71.917495727539 -295.457275390625 2.553084135056
-150.708862304688 -55.869331359863 -286.688537597656 7.405591011047
-160.303405761719 -60.977428436279 -289.044982910156 5.249029636383
-152.042007446289 -60.336147308350 -287.276123046875 3.247949123383
-149.533676147461 -60.394268035889 -292.874023437500 3.026806592941
-155.253524780273 -61.200206756592 -284.999603271484 3.053059339523
-153.738845825195 -66.232795715332 -289.969451904297 1.991663575172
2.756653070450 -63.726577758789 -294.962707519531 2.709937572479
-146.352859497070 -61.643474578857 -291.594238281250 2.312271833420
-145.776168823242 -63.354263305664 -291.371429443359 0.845344364643
34.470840454102 -68.913093566895 -20.546222686768 4.112523078918
41.219848632813 -72.774360656738 -14.594218254089 2.266852855682
44.637176513672 -70.889328002930 -26.478374481201 0.508658409119
21.086744308472 -77.919891357422 -32.613780975342 5.510247230530
33.229415893555 -69.469833374023 -37.450920104980 1.512148261070
44.781429290771 -83.089622497559 -38.114627838135 11.628684043884
-55.252880096436 -68.433441162109 -42.930690765381 3.418340444565
-54.370059967041 -70.397796630859 -47.092712402344 0.840770781040
94.340484619141 -75.276062011719 -60.237991333008 8.859855651855
-94.009147644043 -64.790184020996 -63.710102081299 2.123439550400
95.556297302246 -77.996215820313 -70.439468383789 6.377868652344
63.928390502930 -70.520729064941 -68.563247680664 6.394705772400
105.916236877441 -77.379463195801 -79.952575683594 8.459394454956
67.761734008789 -73.246009826660 -72.639572143555 4.406184673309
-38.424762725830 -72.861091613770 -78.510795593262 1.023802161217
59.942623138428 -72.265388488770 -85.639762878418 2.382217645645
-58.016582489014 -66.516265869141 -73.947135925293 7.666466236115
63.493560791016 -69.818321228027 -86.179908752441 1.472657203674
67.978500366211 -72.663665771484 -81.483955383301 1.881047248840
-98.168479919434 -66.074928283691 -78.063537597656 1.765054702759
52.821620941162 -74.298744201660 -92.269134521484 0.492924630642
51.499523162842 -75.324882507324 -96.707008361816 1.560523271561
68.013236999512 -73.140762329102 -93.403961181641 2.785848379135
54.485954284668 -69.608718872070 -95.451522827148 3.506117343903
-80.164520263672 -69.211044311523 -109.880065917969 2.086023330688
87.201187133789 -79.823410034180 -106.799369812012 8.205945014954
-73.893959045410 -63.948310852051 -113.450881958008 2.938458919525
-72.163314819336 -65.703155517578 -107.080314636230 0.988419294357
-84.104896545410 -67.569557189941 -120.514503479004 1.586144804955
-85.021492004395 -65.615867614746 -107.927276611328 1.458013415337
-87.198974609375 -68.707626342773 -118.497268676758 2.646662712097
-76.435852050781 -66.375633239746 -122.247673034668 2.163354873657
-51.715656280518 -63.604110717773 -126.309059143066 1.603447556496
-71.078765869141 -70.867347717285 -134.165802001953 1.721290349960
-51.885089874268 -64.448905944824 -137.593856811523 1.684971570969
-89.402030944824 -65.383659362793 -133.559967041016 2.053732633591
28.201000213623 -69.104919433594 -139.598129272461 2.169778347015
20.655557632446 -70.298034667969 -139.403244018555 3.826442241669
-91.787071228027 -67.501960754395 -137.733993530273 1.913503766060
19.410623550415 -69.756248474121 -156.399902343750 3.383339166641
-86.470878601074 -68.648757934570 -144.017257690430 3.962354183197
-93.873764038086 -64.846939086914 -144.184127807617 2.331764221191
19.883989334106 -69.830101013184 -155.634750366211 2.982900857925
-95.055488586426 -61.750942230225 -145.656112670898 2.313188552856
-93.609031677246 -62.621833801270 -143.510421752930 1.178377032280
-98.036750793457 -63.329784393311 -155.175262451172 2.139654874802
-98.179985046387 -67.611625671387 -156.436859130859 1.272320270538
-105.575408935547 -63.236804962158 -172.041351318359 1.634957790375
-103.225578308105 -61.776550292969 -166.317321777344 2.484886884689
-100.003906250000 -69.122650146484 -161.844314575195 2.573981046677
-104.456085205078 -62.221210479736 -171.236907958984 1.501449227333
-132.347290039063 -71.392753601074 -175.915985107422 9.177682876587
-106.941635131836 -64.338966369629 -174.728118896484 2.082215070724
-141.822341918945 -61.265068054199 -186.087051391602 2.870886087418
-148.651565551758 -67.064788818359 -183.124649047852 3.392822265625
-147.885391235352 -61.177211761475 -192.934570312500 0.437041133642
-125.431297302246 -62.409988403320 -193.540954589844 2.769543886185
-129.205535888672 -59.354015350342 -198.435256958008 4.122954368591
-117.451538085938 -62.832813262939 -194.459701538086 4.990177631378
-140.792449951172 -65.433616638184 -202.410064697266 0.854597508907
-124.064567565918 -62.799591064453 -201.403411865234 1.323247790337
-146.672805786133 -64.212417602539 -203.515182495117 3.039924383163
-151.239135742188 -68.174804687500 -203.187622070313 1.700314760208
-160.052703857422 -59.790794372559 -228.247634887695 5.828292846680
-141.905364990234 -63.249191284180 -234.009963989258 1.804070234299
-128.694213867188 -61.914798736572 -233.305786132813 3.263483047485
-151.669418334961 -59.768417358398 -229.725692749023 1.765354752541
-3.186729907990 -71.323455810547 -235.347610473633 0.609580457211
12.748724937439 -75.201362609863 -240.949142456055 1.975819110870
-0.768839001656 -65.417793273926 -240.194152832031 1.451106786728
-152.308288574219 -63.851467132568 -242.286346435547 2.494346618652
-6.140293121338 -69.197929382324 -248.934280395508 4.577854156494
-150.348785400391 -59.148414611816 -250.410339355469 2.962895154953
-8.083576202393 -68.318954467773 -251.495147705078 2.976411819458
-150.909774780273 -64.140213012695 -249.019714355469 2.668560981750
25.651611328125 -71.022712707520 -255.463348388672 2.934631824493
-155.798797607422 -61.321804046631 -253.669128417969 3.089248180389
-147.250488281250 -64.431983947754 -248.837753295898 3.197332143784
-150.588470458984 -56.875358581543 -250.727325439453 5.221581459045
-152.482681274414 -61.018817901611 -256.989776611328 2.156653881073
32.588924407959 -71.265052795410 -253.616836547852 3.178988933563
28.327749252319 -71.988708496094 -261.648651123047 2.956052303314
-145.937683105469 -61.795856475830 -253.687377929688 0.979332983494
-150.701095581055 -56.579208374023 -256.394439697266 5.663653373718
-157.696426391602 -58.917129516602 -255.247970581055 5.139585494995
-148.537857055664 -63.035728454590 -261.532440185547 0.760232567787
26.044908523560 -69.078697204590 -262.791107177734 1.403231382370
26.547105789185 -67.327171325684 -265.186553955078 1.487388849258
-153.685058593750 -57.071331024170 -259.699279785156 5.952342987061
-142.562591552734 -61.831916809082 -260.115875244141 1.987089991570
-152.573242187500 -62.539062500000 -264.251892089844 0.878219068050
-146.814331054688 -60.221439361572 -256.865386962891 2.053689956665
-149.765472412109 -65.063766479492 -261.374053955078 0.696793258190
-152.889205932617 -58.384262084961 -266.073699951172 5.064922332764
-151.956405639648 -62.658226013184 -267.396026611328 2.085703849792
-153.714614868164 -62.099914550781 -278.987854003906 4.821644783020
-148.781021118164 -66.373741149902 -281.544158935547 2.006546497345
-150.408767700195 -63.442733764648 -275.602844238281 3.281786441803
12.517121315002 -69.431060791016 -285.445098876953 1.824097752571
-156.226379394531 -57.955226898193 -281.830200195313 6.874638557434
-145.153533935547 -57.892284393311 -279.294677734375 6.639929771423
-6.271133899689 -73.087722778320 -290.179656982422 2.336954116821
8.428909301758 -70.303459167480 -296.760284423828 5.001379489899
-153.601974487305 -62.443145751953 -293.164978027344 1.633628845215
27.616733551025 -78.780570983887 -20.401306152344 6.350331783295
44.019470214844 -71.751625061035 -26.971183776855 1.478614807129
54.915405273438 -78.563735961914 -30.106565475464 9.508852958679
44.059730529785 -72.279632568359 -33.804706573486 0.515459239483
28.049722671509 -78.985939025879 -38.925441741943 6.645251750946
41.987983703613 -81.209587097168 -37.461292266846 9.493391036987
82.446090698242 -75.359474182129 -63.592945098877 5.931779861450
80.308059692383 -71.590415954590 -59.244766235352 6.093194484711
-13.683045387268 -74.180824279785 -70.177459716797 3.543324232101
67.932449340820 -71.696945190430 -65.987556457520 6.104218482971
-25.220653533936 -75.889526367188 -74.896484375000 1.550384283066
-24.508895874023 -69.357475280762 -79.463752746582 3.739536762238
-51.410240173340 -68.506782531738 -77.711479187012 6.316796302795
-47.628372192383 -71.078735351563 -79.256019592285 4.692519664764
66.093460083008 -77.869728088379 -82.800025939941 6.288683891296
103.894416809082 -76.627349853516 -94.277824401855 4.883319854736
-59.552585601807 -61.058044433594 -85.377098083496 2.666013717651
54.201648712158 -74.193199157715 -97.883605957031 0.834368348122
65.948646545410 -68.262115478516 -95.671150207520 2.129215478897
107.184211730957 -71.922477722168 -96.686973571777 0.604847967625
-61.775447845459 -62.806228637695 -97.746536254883 3.385117053986
60.854541778564 -66.377449035645 -98.045028686523 2.279422521591
-69.135185241699 -69.748619079590 -100.541793823242 0.607592582703
67.800102233887 -72.613273620605 -98.181388854980 3.615677356720
71.915100097656 -72.646644592285 -103.341613769531 3.452958106995
-68.010330200195 -70.312240600586 -108.420249938965 5.468912124634
-94.298080444336 -63.570491790771 -110.645507812500 3.651454210281
-65.401870727539 -62.888835906982 -109.217636108398 1.709713220596
-77.612121582031 -61.185878753662 -106.661117553711 1.648423314095
-62.871746063232 -63.974758148193 -108.388374328613 2.751838922501
-79.644142150879 -63.325984954834 -114.330062866211 1.925116658211
-78.043128967285 -63.029220581055 -117.846466064453 1.724286079407
-72.792968750000 -67.277976989746 -118.650459289551 4.444323539734
-68.469459533691 -70.565727233887 -123.839500427246 6.243873119354
-77.850601196289 -68.642845153809 -128.431808471680 0.896532118320
30.811471939087 -72.590911865234 -124.861740112305 1.306096434593
-50.717617034912 -64.587905883789 -127.055252075195 2.942577123642
29.401363372803 -70.450149536133 -132.749221801758 1.012943625450
28.576589584351 -73.987533569336 -134.270706176758 2.413566589355
34.450660705566 -69.306076049805 -135.527145385742 0.845781683922
-50.084957122803 -68.657508850098 -136.681610107422 1.620046138763
24.126512527466 -69.790428161621 -148.958114624023 1.604940772057
26.661407470703 -66.395637512207 -136.578384399414 1.795874357224
-142.764801025391 -56.494972229004 -174.536209106445 6.326080322266
-148.046417236328 -62.350318908691 -172.959594726563 2.825680255890
-147.207672119141 -63.071758270264 -175.309494018555 0.231484919786
-145.320404052734 -59.848979949951 -185.199935913086 3.391404867172
-145.503829956055 -60.611717224121 -186.398361206055 2.043770790100
-146.129379272461 -64.147659301758 -189.683517456055 1.709539175034
-139.223632812500 -61.537830352783 -191.312789916992 5.418025493622
-146.097183227539 -62.578681945801 -191.314819335938 2.185673236847
-121.405158996582 -54.831214904785 -195.012664794922 8.746707916260
-134.475982666016 -62.684467315674 -198.230010986328 1.535574555397
-147.840759277344 -60.105274200439 -207.377212524414 1.863308072090
-146.259323120117 -62.679576873779 -219.666458129883 0.399356216192
-150.456665039063 -62.484775543213 -219.643478393555 3.393998384476
-143.798583984375 -56.469882965088 -227.185241699219 4.733991146088
-156.048522949219 -59.564781188965 -224.154220581055 3.997649669647
-147.618988037109 -59.425186157227 -232.689117431641 2.108454942703
-150.021148681641 -59.871177673340 -227.427032470703 2.447852611542
-147.046691894531 -57.884990692139 -225.884857177734 3.392850399017
-138.419692993164 -56.482280731201 -225.502822875977 6.710654735565
-143.985839843750 -59.157581329346 -231.657440185547 2.432899236679
-159.498077392578 -58.163806915283 -230.828460693359 6.096277713776
7.901412010193 -66.131553649902 -241.729263305664 1.320930600166
-13.473420143127 -68.386032104492 -243.060470581055 2.680540084839
-147.885101318359 -64.318817138672 -233.268890380859 2.238049268723
-152.568984985352 -61.390377044678 -234.047912597656 1.228997349739
-145.685348510742 -64.203453063965 -231.816177368164 2.379863739014
12.180638313293 -66.974990844727 -248.525192260742 4.675834178925
-149.188537597656 -55.747783660889 -238.507400512695 5.939520359039
-146.486099243164 -56.003803253174 -250.224243164063 6.670775413513
-1.043141961098 -64.198638916016 -249.896133422852 2.456710815430
-148.723815917969 -62.385848999023 -254.979354858398 1.210637331009
-148.842208862305 -61.717628479004 -252.067855834961 0.942117333412
-146.168289184570 -60.227809906006 -255.063079833984 1.722803235054
-142.115997314453 -60.923225402832 -256.046203613281 2.469828367233
24.642196655273 -65.830108642578 -261.516967773438 1.725129127502
-151.308639526367 -56.633255004883 -264.651794433594 6.036721706390
23.302330017090 -71.348564147949 -269.812164306641 0.864252626896
14.167904853821 -70.897705078125 -291.881591796875 1.428353786469
-0.437144011259 -63.823123931885 -290.124847412109 1.338649272919
12.841256141663 -64.509956359863 -289.919006347656 0.471104770899
31.237304687500 -73.619232177734 -17.490486145020 1.797511458397
45.504459381104 -80.447799682617 -41.067333221436 9.787617683411
36.738761901855 -80.664520263672 -42.204807281494 8.528369903564
-40.503566741943 -69.608627319336 -48.723068237305 2.325928926468
-88.318679809570 -63.758190155029 -50.096767425537 3.769477605820
-90.409584045410 -63.214992523193 -57.503482818604 2.860907793045
-15.974375724792 -64.045135498047 -61.064407348633 4.429843902588
100.593009948730 -72.239913940430 -74.888992309570 3.230772733688
105.497024536133 -67.422988891602 -78.242271423340 2.611237764359
102.015373229980 -78.119667053223 -80.903358459473 5.989181041718
-48.996578216553 -67.005203247070 -85.244514465332 2.145713806152
-59.224273681641 -60.340579986572 -82.593605041504 1.280964612961
62.468852996826 -70.470024108887 -90.321899414063 1.751147031784
53.460918426514 -67.510848999023 -88.002914428711 1.162925601006
-62.063903808594 -62.835067749023 -93.940391540527 3.247799873352
-97.682746887207 -64.839233398438 -104.834960937500 2.463083505630
86.134971618652 -72.951751708984 -109.099769592285 5.310189723969
-76.464035034180 -68.602508544922 -106.946289062500 1.593953251839
-66.496383666992 -64.814674377441 -109.493545532227 2.706643819809
-80.906639099121 -66.061622619629 -118.790473937988 2.280579090118
-85.051101684570 -64.774093627930 -113.510978698730 2.238268613815
-76.315483093262 -65.861877441406 -116.239707946777 1.849206686020
-68.447471618652 -67.266082763672 -113.298500061035 5.003252029419
-67.155784606934 -67.497253417969 -113.906181335449 4.545089244843
-80.125923156738 -63.081371307373 -118.006805419922 1.233287453651
-74.825347900391 -59.844890594482 -107.996688842773 1.728775024414
-62.328750610352 -68.937469482422 -117.613502502441 3.379707574844
-82.421295166016 -64.889518737793 -113.302978515625 1.060368418694
-69.976882934570 -64.192893981934 -120.105049133301 3.131045818329
-75.690765380859 -64.823303222656 -129.270095825195 1.541305422783
-76.080299377441 -61.644378662109 -128.876556396484 2.043098211288
28.762413024902 -66.535835266113 -127.693565368652 4.751616954803
-55.893451690674 -69.943405151367 -126.403808593750 1.814001917839
26.645204544067 -67.965873718262 -132.296203613281 3.847532033920
26.465541839600 -66.334098815918 -133.410064697266 2.620492935181
-138.375045776367 -61.520149230957 -192.791717529297 4.696362495422
-137.730316162109 -63.878532409668 -195.984085083008 3.517736911774
-157.035858154297 -60.124687194824 -201.311965942383 3.186257839203
-149.723587036133 -59.645721435547 -198.523635864258 1.663888692856
-154.997436523438 -63.989200592041 -196.591842651367 2.469136953354
-149.794845581055 -56.549022674561 -201.386291503906 4.182816982269
-139.098815917969 -63.993217468262 -203.811065673828 2.828843593597
-148.430084228516 -61.060062408447 -202.359268188477 1.422886848450
-147.582199096680 -57.004745483398 -222.355117797852 4.252910614014
-147.114212036133 -57.994426727295 -222.623992919922 3.325885772705
-148.951797485352 -60.751564025879 -221.831787109375 1.543521165848
-143.811370849609 -62.608554840088 -220.177215576172 2.433338403702
-152.111968994141 -58.303184509277 -224.126968383789 2.999923467636
-141.094909667969 -58.200439453125 -222.608810424805 5.265623569489
-142.997879028320 -58.323368072510 -224.325469970703 3.334010839462
-140.856445312500 -54.780792236328 -219.335433959961 9.196116447449
-145.872344970703 -62.789230346680 -227.242614746094 1.517729282379
-144.789306640625 -60.577381134033 -226.951492309570 1.249900817871
-148.109527587891 -65.037666320801 -233.110565185547 2.871711730957
-148.739135742188 -58.316165924072 -229.418380737305 4.203940391541
3.994576931000 -65.705940246582 -242.427307128906 3.839498281479
19.316947937012 -68.624496459961 -243.849563598633 2.528920888901
24.595203399658 -71.365661621094 -252.363784790039 2.018505096436
25.053871154785 -70.962997436523 -264.588623046875 1.539461255074
10.309636116028 -61.608745574951 -267.641296386719 4.362444400787
20.076782226563 -72.981056213379 -280.104370117188 2.088269472122
1.538805961609 -65.018928527832 -275.109558105469 2.505478858948
3.469592094421 -64.614448547363 -286.726867675781 3.171666622162
9.589923858643 -67.887947082520 -289.690979003906 2.289210319519
53.287517547607 -80.659713745117 -20.351036071777 11.034559249878
33.166694641113 -66.706459045410 -34.713348388672 1.767168045044
-25.796140670776 -67.761581420898 -49.761909484863 2.643340349197
-18.203022003174 -69.715934753418 -49.472019195557 6.646772384644
-6.533504962921 -69.986724853516 -57.157081604004 7.454012870789
91.207046508789 -73.195533752441 -62.641216278076 5.277234554291
-101.248405456543 -62.314174652100 -67.008117675781 3.941530466080
109.803436279297 -72.039604187012 -78.157768249512 8.811519622803
59.011928558350 -68.371696472168 -81.130592346191 3.319333791733
60.928638458252 -77.630630493164 -89.024383544922 5.378243923187
-66.882667541504 -67.255867004395 -86.906318664551 5.164516448975
55.595569610596 -72.299964904785 -96.101623535156 2.364750862122
64.746200561523 -68.210624694824 -91.025306701660 0.669139266014
106.273361206055 -70.573814392090 -98.112075805664 1.210398674011
-60.953754425049 -62.002597808838 -97.774536132813 4.148418426514
-66.256088256836 -64.071861267090 -95.327407836914 0.842613160610
75.713836669922 -67.974433898926 -111.906242370605 4.650820255280
-73.153854370117 -65.976036071777 -106.290473937988 1.905640840530
-55.689975738525 -69.700675964355 -112.527816772461 8.097867012024
41.917903900146 -66.665786743164 -118.505126953125 2.877257585526
-81.472076416016 -60.955711364746 -119.366127014160 1.428605437279
44.878749847412 -66.286155700684 -116.608619689941 3.424345254898
-89.625724792480 -64.598098754883 -116.758666992188 1.808735847473
-98.532104492188 -62.201957702637 -122.758964538574 2.973920345306
-65.693000793457 -65.064537048340 -124.028480529785 2.382066249847
40.178314208984 -64.751266479492 -125.679527282715 4.259854793549
-60.752487182617 -60.600402832031 -131.794692993164 0.797350227833
-60.914543151855 -64.370964050293 -133.223617553711 1.915132880211
-55.830909729004 -63.411529541016 -136.446090698242 1.805877685547
-144.634445190430 -56.206695556641 -195.473327636719 3.552186012268
-143.982162475586 -54.787334442139 -189.603347778320 6.814642429352
-148.666198730469 -59.684169769287 -194.400054931641 1.542330265045
-151.367309570313 -56.504959106445 -197.799865722656 4.170727729797
-147.408889770508 -56.449005126953 -198.410079956055 4.268835544586
-141.955291748047 -56.378971099854 -194.497665405273 3.913109779358
-146.056701660156 -55.579853057861 -194.198989868164 4.024610519409
-144.181503295898 -59.735183715820 -196.309219360352 0.876454472542
-144.759658813477 -57.356693267822 -200.937576293945 3.481680870056
-154.049865722656 -55.816848754883 -201.477661132813 5.026964664459
-144.106124877930 -60.295852661133 -205.554641723633 1.041057348251
-147.186370849609 -63.306060791016 -205.823822021484 2.052952289581
-142.716445922852 -56.876018524170 -199.167831420898 3.742906332016
-148.549774169922 -58.132045745850 -204.364364624023 2.216011524200
-147.285873413086 -57.924175262451 -223.725936889648 2.968893527985
-9.184313774109 -67.784523010254 -242.495147705078 0.784898102283
2.563832998276 -67.340087890625 -241.216583251953 2.470652341843
8.209037780762 -64.247970581055 -244.118377685547 1.799267888069
7.930820941925 -63.844860076904 -240.527526855469 1.076224803925
21.263084411621 -67.300727844238 -248.530105590820 1.748132348061
-2.323390007019 -68.590339660645 -253.551879882813 4.882606983185
12.996190071106 -66.724220275879 -271.621124267578 8.204886436462
27.869729995728 -66.237297058105 -266.521392822266 1.879268527031
18.361808776855 -70.950752258301 -280.657897949219 2.037259101868
38.177085876465 -72.627563476563 -13.682250022888 2.056919336319
-70.525749206543 -61.781093597412 -39.739852905273 4.969415664673
-34.899147033691 -66.838905334473 -49.326152801514 2.061986923218
72.055496215820 -71.922569274902 -69.949188232422 2.234706401825
-25.147123336792 -67.573860168457 -71.063896179199 1.937307119370
-34.961418151855 -61.962448120117 -76.744377136230 2.045574426651
-39.944976806641 -64.687736511230 -74.418029785156 4.059789657593
61.067943572998 -67.144699096680 -94.758674621582 1.416243076324
107.104187011719 -70.205871582031 -88.972999572754 4.681954860687
69.003631591797 -75.632301330566 -94.148834228516 4.340869426727
-70.215538024902 -62.688266754150 -98.506057739258 3.100175619125
104.362060546875 -70.400199890137 -105.006668090820 1.780030131340
98.507186889648 -72.603485107422 -107.157333374023 5.338890552521
-63.380569458008 -61.276268005371 -104.539772033691 1.962214827538
81.261558532715 -71.168365478516 -107.307228088379 3.536729097366
91.875831604004 -68.286155700684 -110.667053222656 3.743787527084
-59.923770904541 -65.992935180664 -106.502334594727 6.381201744080
46.874572753906 -71.013961791992 -113.445426940918 1.156876325607
-62.794475555420 -71.528991699219 -115.274452209473 6.565753459930
-77.117500305176 -61.141738891602 -111.101417541504 2.320044279099
-54.472618103027 -66.133697509766 -120.305320739746 2.381289005280
-76.133216857910 -61.471027374268 -116.738945007324 1.356596231461
35.566406250000 -66.896713256836 -119.417167663574 2.224917411804
-87.988479614258 -68.064674377441 -118.661636352539 2.905185937881
-48.079555511475 -65.022476196289 -128.479995727539 3.533902406693
22.972654342651 -62.254878997803 -140.669509887695 1.850354671478
8.386331558228 -63.257953643799 -243.523635864258 1.843104481697
1.816123962402 -65.971656799316 -243.738021850586 4.143655776978
7.863431930542 -66.695457458496 -288.883056640625 3.141116619110
29.183795928955 -73.759681701660 -23.630336761475 3.706890821457
41.050140380859 -69.832412719727 -15.928364753723 2.247311592102
22.687236785889 -67.207374572754 -19.316167831421 3.443391799927
48.593143463135 -72.712348937988 -21.201812744141 2.687823772430
-47.672725677490 -66.243721008301 -43.406421661377 2.822063207626
-9.728193283081 -69.455429077148 -63.627479553223 3.096192836761
-98.329948425293 -58.578578948975 -83.740524291992 1.998223662376
72.242858886719 -66.299850463867 -105.234550476074 1.158237576485
86.170104980469 -69.103363037109 -109.133636474609 3.665582895279
-66.393119812012 -66.165328979492 -114.360656738281 3.133010387421
51.120510101318 -67.161102294922 -119.224403381348 7.344947814941
-76.246795654297 -60.031211853027 -120.733772277832 2.097696542740
-59.654056549072 -63.991771697998 -119.203430175781 1.556168317795
-60.041965484619 -66.789535522461 -133.685577392578 1.430019736290
33.269996643066 -69.073371887207 -134.145050048828 1.831514120102
-3.819683074951 -62.654644012451 -239.760894775391 2.175135612488
20.019771575928 -66.887786865234 -247.576751708984 1.035339593887
21.954624176025 -65.708236694336 -271.443115234375 3.120259284973
20.543783187866 -65.329826354980 -276.834014892578 1.780467033386
10.728164672852 -62.426933288574 -290.125610351563 1.839003562927
48.968101501465 -70.478561401367 -17.955364227295 1.422196626663
36.997394561768 -77.808448791504 -43.023811340332 6.069668769836
-52.701763153076 -62.408321380615 -41.381282806396 2.313749790192
-81.532951354980 -64.247444152832 -45.442951202393 2.625442504883
89.041000366211 -74.024909973145 -63.122573852539 5.326323032379
-6.134366989136 -63.375988006592 -64.952575683594 4.322595119476
67.950325012207 -66.676872253418 -77.364097595215 2.192701101303
108.991287231445 -70.307853698730 -95.347328186035 1.665614604950
-70.101127624512 -64.989570617676 -99.013130187988 1.686596155167
91.022254943848 -73.507934570313 -111.294662475586 6.904693603516
-93.499855041504 -65.941780090332 -115.778297424316 3.978748798370
-67.654907226563 -62.463932037354 -123.247360229492 0.928685843945
23.190612792969 -64.173851013184 -247.016784667969 3.247762441635
0.399935990572 -64.278076171875 -265.100341796875 1.405850529671
42.145526885986 -71.009475708008 -15.305068016052 1.891187787056
42.430313110352 -73.813957214355 -10.250861167908 4.340847492218
45.423763275146 -64.614486694336 -20.575233459473 2.725465059280
49.841842651367 -65.256690979004 -37.497890472412 3.944180727005
34.443675994873 -67.270454406738 -38.470218658447 2.492178916931
30.365947723389 -72.338958740234 -46.950347900391 6.176398277283
36.998912811279 -82.533149719238 -40.891605377197 10.222969055176
98.939239501953 -69.839561462402 -69.103179931641 3.011093616486
102.067733764648 -69.502578735352 -63.078723907471 7.256084918976
