-75.603050231934 -79.000625610352 -211.279663085938 2.361481428146
-37.315059661865 -74.635612487793 -203.426208496094 1.235485196114
19.973995208740 -76.035011291504 -213.900024414063 1.586692929268
-24.421638488770 -80.600967407227 -211.947921752930 2.729044198990
-79.601234436035 -74.847534179688 -214.564422607422 0.550015211105
92.315025329590 -76.181983947754 -212.092971801758 1.206299662590
-83.049118041992 -73.099449157715 -215.932312011719 0.513814926147
-148.698364257813 -77.650146484375 -218.255157470703 1.996336460114
-79.666099548340 -79.483604431152 -217.424987792969 2.298492908478
-16.762197494507 -77.932060241699 -214.542053222656 1.522629261017
-23.209037780762 -79.171188354492 -219.892852783203 0.718762755394
22.323369979858 -75.038970947266 -214.610824584961 4.207595825195
-6.533322811127 -75.412712097168 -214.324172973633 1.254633188248
-82.021537780762 -76.689872741699 -220.474288940430 3.867970228195
89.935722351074 -77.508781433105 -219.785919189453 1.802104353905
-95.355514526367 -78.786094665527 -214.647048950195 4.425167560577
-146.884109497070 -84.295982360840 -224.682205200195 1.209834575653
-13.173042297363 -79.281608581543 -220.145629882813 2.303422927856
15.462032318115 -77.297927856445 -218.816040039063 1.634637236595
-105.162773132324 -75.145240783691 -219.283798217773 3.889842033386
8.331080436707 -79.595146179199 -222.266876220703 1.162031888962
-28.051174163818 -80.598228454590 -217.607742309570 3.175412654877
81.365570068359 -79.822669982910 -229.534149169922 4.834433555603
-147.145095825195 -75.792289733887 -218.963928222656 1.628661274910
6.785809993744 -74.419815063477 -229.060119628906 2.022739171982
-7.054027080536 -78.010360717773 -223.929901123047 1.660600900650
15.686279296875 -73.188072204590 -223.989181518555 1.282254576683
84.050247192383 -74.609863281250 -231.923889160156 3.933115005493
-14.636677742004 -78.313049316406 -228.583511352539 2.454168081284
-130.496704101563 -81.081634521484 -227.853637695313 4.164906024933
-8.425422668457 -81.896911621094 -227.729736328125 4.058244705200
15.506527900696 -76.291130065918 -237.517623901367 2.511661291122
-127.288764953613 -75.902267456055 -222.178771972656 4.307375431061
-151.690933227539 -78.782638549805 -229.046371459961 2.019248008728
-140.920135498047 -77.539695739746 -228.345413208008 1.792714238167
-132.658050537109 -76.446571350098 -228.740661621094 1.938095450401
-11.636004447937 -76.844451904297 -229.676345825195 1.540694117546
70.237724304199 -76.926605224609 -234.325500488281 1.861171007156
-142.800262451172 -78.282958984375 -235.675308227539 2.198635578156
70.901802062988 -75.312477111816 -231.489974975586 0.986312210560
-16.518747329712 -79.743270874023 -228.184616088867 3.276912927628
-143.663909912109 -82.945571899414 -231.142562866211 1.392046809196
75.501853942871 -81.740913391113 -238.087921142578 8.045957565308
12.956669807434 -81.758811950684 -239.698013305664 0.934452950954
-143.585861206055 -73.948249816895 -236.222640991211 2.426664829254
-150.684402465820 -77.768249511719 -236.218215942383 1.197898864746
11.055218696594 -72.212532043457 -238.017135620117 2.327125787735
-3.821086883545 -78.342994689941 -241.742019653320 4.884310722351
-25.330287933350 -74.756904602051 -246.343582153320 3.447137594223
-6.704641819000 -76.808570861816 -242.932861328125 3.445113658905
-163.566635131836 -78.590171813965 -235.449859619141 5.186836719513
8.085616111755 -77.365547180176 -248.566680908203 2.656397581100
-164.902496337891 -75.645446777344 -233.449493408203 2.651490449905
-18.595237731934 -76.197952270508 -234.371246337891 3.244301319122
66.733566284180 -78.909179687500 -243.648635864258 6.023547172546
-9.550699234009 -75.933944702148 -243.772430419922 3.552286863327
-27.435098648071 -77.637168884277 -241.186614990234 2.671653509140
-27.994174957275 -74.453201293945 -243.576522827148 1.815649032593
-16.710020065308 -74.448905944824 -248.176086425781 4.043682098389
-144.767913818359 -75.518592834473 -234.811828613281 1.610213637352
7.795629024506 -80.361618041992 -246.806808471680 1.078999280930
63.525165557861 -80.995307922363 -244.835479736328 7.767631530762
9.882570266724 -78.487052917480 -246.793899536133 0.915531039238
-163.957046508789 -75.770812988281 -238.234481811523 2.592860460281
-49.205383300781 -80.455062866211 -245.954574584961 1.925419330597
4.549852848053 -81.319686889648 -250.995315551758 1.771078586578
15.824726104736 -72.382766723633 -253.657165527344 4.994828701019
-60.285537719727 -77.166053771973 -251.944824218750 3.196969985962
-5.025900840759 -76.564094543457 -245.148773193359 1.923526048660
18.872840881348 -80.468276977539 -254.785675048828 2.220055580139
-167.589767456055 -76.770263671875 -244.315277099609 4.874663829803
-73.884750366211 -80.494415283203 -254.644058227539 5.475457191467
-54.790153503418 -74.664581298828 -249.098892211914 1.234456300735
-81.644622802734 -75.569946289063 -248.691116333008 2.013238668442
-163.632278442383 -75.680870056152 -241.270751953125 2.872177839279
-154.048339843750 -77.682373046875 -250.121398925781 4.086997985840
-61.312454223633 -73.522689819336 -254.994552612305 5.031709194183
-70.675910949707 -83.101478576660 -251.668350219727 6.758469104767
-156.366287231445 -75.466461181641 -251.421447753906 3.280333280563
-154.442443847656 -74.578712463379 -248.141571044922 1.807219028473
-79.730506896973 -77.020805358887 -251.372344970703 1.859090685844
-94.284980773926 -72.983200073242 -252.214859008789 1.323421597481
-164.891845703125 -78.531890869141 -249.952072143555 4.900003433228
-156.511596679688 -76.377120971680 -250.872390747070 3.572977781296
-136.975509643555 -73.343528747559 -256.611541748047 1.574603915215
-83.509841918945 -80.212165832520 -253.296264648438 5.034513473511
-165.749023437500 -73.242324829102 -252.871124267578 1.367147803307
-149.255889892578 -81.767257690430 -255.491180419922 2.182728290558
-94.651542663574 -77.185417175293 -254.728652954102 3.763793468475
-102.527572631836 -70.974426269531 -259.978637695313 1.356128573418
-151.051254272461 -75.474899291992 -257.734252929688 2.000287532806
-99.227989196777 -76.619384765625 -262.637695312500 5.718111991882
-153.715591430664 -75.883758544922 -252.702728271484 2.569032192230
-102.230117797852 -78.961112976074 -255.612670898438 5.700413227081
-169.071395874023 -81.042778015137 -254.610290527344 8.076975822449
-164.479965209961 -82.324966430664 -256.308410644531 8.715705871582
-124.773765563965 -75.084556579590 -255.862075805664 0.745896100998
-150.699218750000 -81.436859130859 -257.194732666016 2.196022272110
-110.834335327148 -75.631011962891 -259.582672119141 3.332268714905
-16.630332946777 -82.637786865234 -262.909576416016 6.716043949127
-145.103424072266 -75.488166809082 -260.434112548828 2.689734220505
-128.199264526367 -76.237228393555 -261.114959716797 2.619355201721
-158.510864257813 -76.322563171387 -263.638092041016 2.536369085312
18.956987380981 -78.773826599121 -271.147125244141 1.142484903336
-154.856842041016 -74.912857055664 -281.522125244141 2.280476808548
-170.919448852539 -75.007064819336 -277.975341796875 3.882644176483
-8.085315704346 -83.138732910156 -285.058929443359 6.680192470551
-151.612777709961 -79.691352844238 -278.720977783203 1.381346583366
-9.288304328918 -76.176696777344 -280.479187011719 2.395185709000
12.319729804993 -77.867195129395 -289.343292236328 1.280824065208
-136.146575927734 -75.217323303223 -286.719696044922 1.052299261093
-72.520668029785 -80.916267395020 -282.790222167969 7.692623615265
-42.438476562500 -76.458526611328 -284.125213623047 2.697433948517
-118.342056274414 -74.826538085938 -288.167053222656 1.393012762070
-93.503746032715 -77.243995666504 -294.088531494141 4.386384010315
-93.530448913574 -76.563652038574 -295.494628906250 4.988967418671
-51.262535095215 -81.853706359863 -290.001831054688 4.734950542450
-117.984962463379 -73.276351928711 -292.507629394531 1.807845473289
-111.023239135742 -78.063400268555 -292.160461425781 4.460471153259
-34.916580200195 -80.636123657227 -293.323974609375 4.364979743958
-118.553031921387 -78.863639831543 -288.922729492188 2.511113405228
-128.660766601563 -80.033958435059 -289.050231933594 3.669377326965
-147.516799926758 -80.027618408203 -293.444458007813 1.944159388542
6.598934173584 -75.096939086914 -291.390594482422 2.219544410706
11.988415718079 -79.719825744629 -296.578277587891 4.434998512268
-159.075836181641 -77.364311218262 -293.236419677734 2.785953283310
-157.971710205078 -77.141563415527 -302.490234375000 3.608781099319
-149.298690795898 -80.130798339844 -309.657623291016 2.197152853012
-153.791488647461 -74.032241821289 -307.275634765625 2.324722766876
-155.504211425781 -81.262245178223 -312.145141601563 4.385197639465
30.352214813232 -73.627685546875 -18.441917419434 1.734213948250
29.447887420654 -71.991531372070 -24.932390213013 3.480294466019
28.258731842041 -73.536247253418 -23.835172653198 3.017512798309
31.586153030396 -74.678581237793 -43.619983673096 4.291500568390
-49.510070800781 -67.531837463379 -56.157733917236 7.673636913300
-61.116539001465 -72.110885620117 -53.648281097412 3.317657947540
-36.242221832275 -73.037330627441 -54.445560455322 2.535129547119
-78.397796630859 -75.355163574219 -60.715732574463 2.522552967072
84.326797485352 -79.818847656250 -83.732940673828 2.949915647507
-15.979616165161 -72.238349914551 -76.854682922363 5.253007411957
93.515121459961 -77.827720642090 -73.111450195313 3.661179065704
98.985252380371 -73.667694091797 -85.026519775391 1.598251223564
-89.764610290527 -73.405761718750 -82.204132080078 2.697291374207
77.544105529785 -70.915939331055 -81.096870422363 5.197125911713
-38.066680908203 -78.001541137695 -86.573478698730 3.140898704529
104.368225097656 -74.487266540527 -89.489608764648 5.005662918091
-52.844509124756 -77.026985168457 -91.578948974609 1.779740691185
53.623455047607 -73.936599731445 -92.457649230957 1.335343718529
75.225616455078 -75.921134948730 -91.858215332031 1.080189704895
59.618213653564 -78.806579589844 -98.833656311035 4.933571815491
50.498935699463 -73.583045959473 -107.344421386719 2.243990182877
70.836463928223 -77.298202514648 -99.261817932129 5.615502834320
50.120025634766 -68.642158508301 -102.069877624512 2.017368793488
103.956977844238 -75.261474609375 -108.283233642578 2.500990867615
114.252166748047 -76.502342224121 -112.747062683105 4.240361213684
79.530006408691 -71.485946655273 -105.459838867188 1.868306636810
91.706512451172 -74.973182678223 -109.280548095703 6.564811229706
103.887794494629 -73.091072082520 -106.291885375977 1.530139684677
108.594207763672 -66.816719055176 -106.497421264648 2.036797761917
42.065517425537 -81.372566223145 -110.827911376953 1.920273303986
110.228996276855 -75.856727600098 -124.698295593262 1.155182838440
116.333580017090 -77.409957885742 -127.056991577148 3.278103351593
34.903797149658 -74.324783325195 -122.360748291016 1.438198804855
42.108722686768 -76.417732238770 -122.824378967285 2.435650825500
109.831558227539 -73.218139648438 -134.908905029297 1.627258419991
40.173206329346 -79.060127258301 -130.107482910156 1.877109169960
116.671203613281 -71.863380432129 -136.262939453125 1.431369185448
111.914337158203 -74.126663208008 -132.491043090820 1.074384331703
26.521255493164 -72.917610168457 -140.656982421875 1.397820115089
-46.534999847412 -78.478790283203 -134.104415893555 5.537492752075
-54.953300476074 -76.020416259766 -141.575607299805 1.340504288673
116.007926940918 -73.672607421875 -138.842834472656 2.685229539871
-73.089614868164 -77.984718322754 -143.995910644531 3.018658161163
-73.793197631836 -73.874977111816 -139.765167236328 0.414556056261
-57.212356567383 -77.731307983398 -141.405853271484 2.905418872833
35.191669464111 -76.053298950195 -142.707824707031 1.726257085800
107.195030212402 -73.689292907715 -153.147918701172 3.770157575607
-63.168762207031 -76.679260253906 -146.260253906250 5.245321273804
-43.543704986572 -71.276618957520 -146.117248535156 1.173732638359
40.559379577637 -80.386230468750 -153.528518676758 7.890347480774
-63.223648071289 -77.930793762207 -152.463088989258 3.715517997742
114.523391723633 -69.499465942383 -150.018066406250 1.243033528328
110.805938720703 -77.098754882813 -162.025283813477 0.571021676064
112.387214660645 -77.296157836914 -154.157684326172 0.962628841400
-37.379390716553 -75.229400634766 -157.615905761719 0.714557528496
-64.775039672852 -75.311492919922 -158.251525878906 1.214560508728
-68.915634155273 -67.901260375977 -154.401748657227 2.238188266754
30.302322387695 -72.282615661621 -155.516662597656 1.751366138458
0.478536009789 -78.133033752441 -166.490768432617 2.600277662277
108.651893615723 -74.849319458008 -162.135711669922 1.729539752007
109.804077148438 -71.143013000488 -161.197998046875 2.200432062149
114.313568115234 -74.710319519043 -163.605163574219 1.223021626472
-63.853771209717 -79.730148315430 -161.232666015625 1.410296797752
-46.126045227051 -77.336601257324 -163.082672119141 1.721682310104
5.033627986908 -78.039596557617 -172.233718872070 6.317860603333
-24.577457427979 -73.226402282715 -175.644485473633 1.448490142822
106.703147888184 -75.911834716797 -168.052810668945 2.603746652603
-35.667106628418 -72.924293518066 -162.842727661133 2.767815828323
110.961921691895 -77.827476501465 -173.913528442383 0.939207255840
-40.960571289063 -73.358245849609 -173.445724487305 1.292558193207
111.253417968750 -78.098205566406 -173.304489135742 1.477635979652
-150.247802734375 -71.988410949707 -180.771713256836 1.071484923363
-30.760602951050 -73.838409423828 -176.759445190430 3.389162302017
-20.532686233521 -71.910125732422 -181.949127197266 1.277656674385
30.426887512207 -80.290863037109 -178.863128662109 5.578821182251
15.510128974915 -74.605636596680 -182.407012939453 1.715452194214
23.302513122559 -77.249198913574 -185.200546264648 1.904505372047
106.066024780273 -79.501869201660 -192.405380249023 3.492531776428
-152.454589843750 -71.882743835449 -186.427383422852 1.586529850960
-21.589225769043 -76.211257934570 -189.745407104492 1.655270457268
105.067520141602 -75.097885131836 -183.723617553711 1.131649851799
102.936645507813 -74.813896179199 -196.694229125977 1.184852123260
104.992485046387 -76.502754211426 -186.010009765625 2.889649629593
95.633102416992 -80.612838745117 -200.694061279297 3.723851919174
-155.960693359375 -84.646293640137 -195.824096679688 5.203309535980
97.718498229980 -81.408843994141 -208.281356811523 4.951995372772
-32.501636505127 -75.457809448242 -197.600006103516 4.721180438995
97.511482238770 -73.621582031250 -201.355758666992 0.470305442810
-127.915763854980 -76.068916320801 -192.381912231445 6.315418243408
-31.369884490967 -78.212585449219 -193.284393310547 3.243431091309
-142.272415161133 -76.195793151855 -201.377471923828 1.537658810616
90.544876098633 -75.321365356445 -204.190902709961 2.935402870178
8.510288238525 -75.242057800293 -203.873153686523 2.292411327362
23.243104934692 -78.352233886719 -199.167877197266 3.510704994202
-149.978134155273 -77.131652832031 -198.172714233398 1.325549483299
-138.725860595703 -73.387596130371 -205.734802246094 4.511211395264
-15.878164291382 -77.377395629883 -208.406234741211 2.454787254333
-126.168159484863 -82.107536315918 -203.051452636719 8.194226264954
-147.553527832031 -78.490646362305 -200.552734375000 1.558504343033
6.489449024200 -74.005157470703 -202.310348510742 3.032508373260
-25.865333557129 -75.551895141602 -206.447143554688 3.857182502747
17.716989517212 -75.459449768066 -210.339050292969 1.790239095688
5.562464237213 -76.321830749512 -212.742874145508 2.346009016037
85.564498901367 -76.593734741211 -217.289199829102 0.974257111549
-25.676904678345 -69.437515258789 -213.674697875977 3.710032463074
93.078544616699 -75.365051269531 -215.839706420898 1.725813865662
99.926620483398 -76.473640441895 -212.326736450195 3.918856382370
-145.313293457031 -71.741104125977 -218.002471923828 1.034790039063
93.877441406250 -72.668022155762 -215.844116210938 2.529087781906
5.377545833588 -72.357566833496 -212.180191040039 1.995174050331
3.253426074982 -75.016578674316 -213.206665039063 3.385538816452
-35.163230895996 -74.224151611328 -211.645874023438 2.092878818512
-92.798812866211 -71.714035034180 -214.370208740234 1.804055690765
-34.294456481934 -75.903785705566 -215.716323852539 2.535653352737
83.337631225586 -77.495254516602 -221.024230957031 1.712854981422
82.842391967773 -77.799674987793 -222.341491699219 1.539838910103
-38.655723571777 -71.388877868652 -216.985916137695 7.382898807526
-80.234611511230 -68.990135192871 -224.342605590820 9.845388412476
-4.222012042999 -74.965614318848 -218.503906250000 0.505912482738
87.395744323730 -77.252838134766 -222.948471069336 2.918448686600
-148.815200805664 -78.459548950195 -220.237075805664 3.373717069626
-170.293533325195 -77.349372863770 -210.450302124023 7.661982536316
-159.564971923828 -74.875335693359 -218.951553344727 4.831940650940
-20.986740112305 -78.753379821777 -230.506866455078 5.486827373505
-153.464340209961 -79.139167785645 -222.487655639648 2.327963829041
-8.667001724243 -82.209419250488 -230.293029785156 5.437058925629
5.214316844940 -74.177391052246 -220.664428710938 0.873078405857
-163.012496948242 -80.754241943359 -220.043121337891 8.407761573792
-165.072906494141 -74.837417602539 -224.208877563477 2.744648694992
76.557899475098 -76.013854980469 -234.755874633789 2.704699754715
3.505808115005 -77.142654418945 -232.402725219727 1.600197911263
-151.268478393555 -77.552680969238 -221.538055419922 1.830172657967
-144.139328002930 -76.638153076172 -220.676681518555 2.523960351944
-22.482618331909 -78.501617431641 -227.733688354492 3.728938817978
2.162440061569 -77.119773864746 -226.085845947266 1.216585755348
82.188377380371 -76.279960632324 -227.178848266602 3.055636644363
-160.343338012695 -77.699157714844 -228.251449584961 4.650828361511
-147.748992919922 -74.074226379395 -227.131713867188 1.758841037750
-126.962379455566 -72.892662048340 -229.798248291016 2.629693269730
80.347412109375 -79.928565979004 -235.492797851563 7.040709495544
-116.810386657715 -71.964767456055 -231.630508422852 1.261565208435
-147.695816040039 -78.514671325684 -228.171981811523 1.352504253387
-154.447723388672 -80.309883117676 -228.039184570313 1.180413842201
-148.418411254883 -75.738952636719 -226.272384643555 2.930633544922
-153.718460083008 -72.254241943359 -228.935531616211 1.611642122269
-168.121109008789 -72.269996643066 -234.829071044922 1.536238551140
-138.356628417969 -75.476226806641 -234.919692993164 4.415245532990
-137.191070556641 -74.859809875488 -232.512924194336 2.238445997238
-156.997009277344 -75.558509826660 -227.747772216797 3.519590139389
-146.969207763672 -74.552726745605 -231.029830932617 1.908125162125
-153.581787109375 -72.285377502441 -232.360351562500 1.014616966248
70.463272094727 -75.205184936523 -225.320404052734 4.639189243317
66.392753601074 -72.799621582031 -243.491073608398 2.137131690979
-162.719863891602 -74.286003112793 -237.574768066406 1.871251225471
67.681533813477 -76.759338378906 -238.301666259766 2.383048295975
-22.185115814209 -75.247344970703 -238.394378662109 2.389792203903
7.452788829803 -76.371574401855 -241.856948852539 1.267414689064
13.778979301453 -80.208320617676 -238.164825439453 1.335901856422
-144.898483276367 -75.329421997070 -242.518371582031 1.955937743187
14.098558425903 -76.050254821777 -246.364166259766 1.033463120461
64.378463745117 -77.802719116211 -241.416580200195 3.752010107040
8.964699745178 -75.177726745605 -238.733520507813 1.238094568253
3.322524070740 -79.606025695801 -247.092834472656 1.324379682541
-9.388870239258 -71.630439758301 -242.844558715820 0.999608397484
-20.263675689697 -80.272979736328 -248.956024169922 7.193619251251
-0.768389999866 -79.976600646973 -245.003784179688 3.468883514404
1.145061969757 -74.426383972168 -244.332901000977 1.288971066475
54.995857238770 -78.266250610352 -245.095138549805 5.684436321259
-60.653797149658 -77.468414306641 -246.913818359375 1.564637899399
16.654027938843 -77.374763488770 -252.870346069336 1.787535786629
-60.179664611816 -74.920997619629 -246.684570312500 2.455394744873
-9.270488739014 -75.779792785645 -252.135757446289 1.902925848961
-66.087730407715 -73.621345520020 -254.352706909180 3.641891241074
-86.523719787598 -82.303184509277 -251.821701049805 7.805490970612
-83.280006408691 -80.463539123535 -252.671768188477 5.125509738922
-18.602922439575 -75.351791381836 -254.152923583984 4.984082698822
-126.498573303223 -80.542915344238 -260.440460205078 4.410911560059
-17.329290390015 -72.280235290527 -258.394714355469 3.677798271179
-124.438316345215 -75.709846496582 -255.507461547852 1.307470798492
-120.040679931641 -72.542533874512 -258.353942871094 3.207977056503
-105.982711791992 -80.680511474609 -257.535308837891 7.305867671967
-144.735809326172 -74.902969360352 -259.388610839844 2.840014934540
-148.536437988281 -74.175247192383 -265.697357177734 1.910825371742
-169.384170532227 -73.060882568359 -263.566253662109 2.294003009796
11.357862472534 -79.069488525391 -284.575531005859 3.255498170853
-62.976894378662 -79.887725830078 -284.848266601563 4.195470333099
-68.147315979004 -77.941452026367 -284.953613281250 3.030437469482
-47.345710754395 -79.070648193359 -286.340118408203 2.820551633835
-29.517009735107 -78.855201721191 -284.520507812500 3.200412750244
-95.577629089355 -77.061141967773 -294.453369140625 4.580193042755
-33.282714843750 -75.061828613281 -290.415283203125 2.217610120773
-4.463891983032 -71.898353576660 -288.171508789063 1.107004523277
-167.831375122070 -78.312271118164 -288.400695800781 4.669092178345
-18.260959625244 -79.238548278809 -292.454620361328 3.089198589325
4.797410011292 -72.840721130371 -292.930328369141 1.638601779938
12.092905998230 -71.526138305664 -294.475524902344 2.962273359299
-58.399120330811 -78.391288757324 -293.539947509766 4.225261688232
-31.151025772095 -80.730346679688 -288.596893310547 2.694972276688
12.850174903870 -74.422889709473 -293.029876708984 2.177078247070
-70.930503845215 -78.647140502930 -295.058837890625 5.863737106323
-40.720001220703 -76.410049438477 -292.212371826172 2.199679374695
-19.446821212769 -75.892189025879 -294.016967773438 2.298840522766
7.226714134216 -76.832397460938 -294.630462646484 1.939343452454
-16.676105499268 -80.109451293945 -291.548797607422 3.605502843857
3.319144964218 -74.970375061035 -295.547271728516 2.765084266663
9.167011260986 -77.534477233887 -295.438781738281 3.244552373886
-136.898223876953 -79.596847534180 -289.911224365234 0.907609403133
-143.880752563477 -78.593292236328 -301.300720214844 2.667238473892
-153.039169311523 -81.406227111816 -309.498443603516 3.490348100662
42.506259918213 -64.317848205566 -15.787316322327 1.632086515427
34.200187683105 -71.937355041504 -12.329157829285 2.102862119675
43.779617309570 -72.495422363281 -18.577793121338 1.561136007309
24.490036010742 -72.628051757813 -24.585371017456 1.189826488495
45.645442962646 -72.672424316406 -29.356271743774 1.080776333809
24.790416717529 -69.767593383789 -22.901195526123 2.310565710068
27.271827697754 -76.813697814941 -33.539833068848 4.489126682281
25.455270767212 -75.365379333496 -39.232620239258 4.296574115753
45.630279541016 -69.479476928711 -37.558395385742 0.536199212074
30.112840652466 -71.938171386719 -41.622402191162 2.292504072189
43.063697814941 -73.025642395020 -35.682720184326 2.589124679565
36.890602111816 -69.441726684570 -40.915145874023 1.583197116852
34.128543853760 -73.186546325684 -43.929553985596 3.879056453705
35.613040924072 -70.732757568359 -45.108127593994 3.846422910690
46.824371337891 -72.651519775391 -47.674980163574 9.218672752380
37.147605895996 -68.164901733398 -48.476306915283 7.686032295227
-35.479736328125 -68.024940490723 -57.901782989502 6.261281490326
-26.554159164429 -67.940238952637 -46.782749176025 4.598707675934
-86.172958374023 -70.920455932617 -56.503116607666 1.891772031784
-84.214607238770 -75.222518920898 -64.412590026855 3.046819448471
83.440612792969 -73.300064086914 -71.225028991699 0.894310534000
84.624320983887 -73.960853576660 -75.544319152832 1.078643679619
-12.680960655212 -75.702423095703 -77.671081542969 8.680184364319
-82.659774780273 -75.078483581543 -71.960433959961 4.259577751160
-21.817193984985 -72.954971313477 -81.674530029297 5.798655033112
-47.466632843018 -78.365486145020 -91.377922058105 3.936731576920
65.201965332031 -73.111656188965 -89.523468017578 3.213319778442
57.441761016846 -69.803916931152 -95.281974792480 1.246195077896
98.733871459961 -74.435813903809 -92.786491394043 2.003407001495
76.726730346680 -76.272415161133 -99.819801330566 2.840631008148
-61.683628082275 -77.395584106445 -93.252418518066 2.566375494003
-62.965785980225 -71.530853271484 -97.073387145996 3.133793115616
46.343429565430 -74.247222900391 -100.440521240234 1.610270023346
73.697113037109 -79.685089111328 -105.107048034668 8.437796592712
52.289318084717 -77.986854553223 -105.262672424316 1.233605623245
103.647125244141 -77.527008056641 -102.491836547852 4.001551151276
-87.610313415527 -74.563209533691 -107.507652282715 4.490968227386
41.171524047852 -80.453559875488 -113.653175354004 2.576788663864
109.051681518555 -71.785118103027 -113.526123046875 0.915686130524
47.674659729004 -70.521484375000 -114.254104614258 1.264189362526
105.310989379883 -71.238090515137 -112.220794677734 1.062952280045
-82.272468566895 -72.478706359863 -115.470100402832 2.367966175079
37.283702850342 -72.260154724121 -120.090393066406 2.576468706131
112.121505737305 -76.574462890625 -124.370864868164 2.319177865982
103.061210632324 -73.957542419434 -121.833999633789 4.458550453186
108.670570373535 -77.592727661133 -120.146652221680 2.814761161804
111.327423095703 -79.269897460938 -121.032836914063 4.857433319092
34.467575073242 -75.332870483398 -118.296958923340 1.401568531990
34.619098663330 -78.881072998047 -121.790573120117 1.161859393120
45.581340789795 -73.584365844727 -116.458656311035 1.245662212372
111.057594299316 -74.801185607910 -129.433914184570 1.082675814629
42.092651367188 -72.465293884277 -127.726234436035 2.025303840637
111.960205078125 -76.728630065918 -137.637268066406 0.944015026093
115.906127929688 -72.570922851563 -134.036590576172 1.250438809395
33.791397094727 -73.110221862793 -123.956253051758 1.239636540413
-75.958969116211 -77.063461303711 -126.083061218262 6.948387622833
118.091773986816 -79.393493652344 -141.278320312500 4.861003398895
-59.034923553467 -80.573822021484 -142.751266479492 6.533791065216
34.839508056641 -76.441947937012 -139.707458496094 2.588221549988
-73.029014587402 -74.400001525879 -140.352813720703 0.928260266781
30.382696151733 -72.641639709473 -138.242874145508 2.370344638824
-71.938774108887 -76.723236083984 -142.709243774414 2.496203899384
-42.380363464355 -77.506675720215 -149.851242065430 1.339845299721
-71.871063232422 -78.381439208984 -136.264862060547 5.482813835144
111.049865722656 -68.928123474121 -143.419219970703 0.818867146969
117.972282409668 -75.920295715332 -145.795333862305 2.979082107544
124.546363830566 -74.881698608398 -151.904327392578 7.888636112213
-71.210830688477 -76.423736572266 -145.877029418945 1.609504580498
9.323984146118 -73.622566223145 -153.056060791016 0.686301827431
-57.447658538818 -72.564674377441 -155.108383178711 5.158970355988
-46.012950897217 -77.895950317383 -154.824996948242 2.264757633209
109.413238525391 -72.749908447266 -164.730728149414 2.232757568359
-38.847625732422 -77.703094482422 -153.093673706055 1.527387738228
10.989133834839 -72.705215454102 -163.889602661133 3.881247758865
23.027761459351 -73.371620178223 -162.920104980469 2.020320415497
113.563362121582 -76.146293640137 -169.288085937500 2.336632251740
32.688949584961 -70.325508117676 -163.387619018555 2.136489152908
-2.214847087860 -79.389350891113 -161.714843750000 2.751694202423
31.636489868164 -73.994331359863 -166.753738403320 1.771559834480
-68.585067749023 -68.108703613281 -159.324325561523 3.123567342758
-61.571884155273 -72.711631774902 -159.823730468750 2.826045751572
-66.168510437012 -73.191963195801 -163.437133789063 1.425258159637
112.654640197754 -73.800369262695 -166.837081909180 2.016035795212
-45.775886535645 -71.799240112305 -165.184860229492 2.525304079056
17.324590682983 -79.991561889648 -174.089309692383 2.555169105530
-62.757888793945 -78.030044555664 -175.254211425781 2.197219848633
-59.739479064941 -77.767044067383 -175.180969238281 1.602737903595
-42.659641265869 -76.999885559082 -163.955673217773 0.261637628078
-36.673686981201 -67.818664550781 -168.877227783203 1.670340538025
113.524971008301 -70.522308349609 -179.886550903320 2.913904905319
-34.710895538330 -75.989402770996 -175.938980102539 3.214767694473
16.427648544312 -74.311637878418 -173.303466796875 1.388110518456
106.379768371582 -80.579589843750 -195.226242065430 4.564315795898
-152.520187377930 -77.514526367188 -175.746246337891 5.745294570923
-142.876800537109 -76.074676513672 -173.417739868164 4.608575820923
-151.828781127930 -73.408355712891 -176.344512939453 1.796373128891
-144.140441894531 -70.763595581055 -179.834213256836 2.061040163040
-27.071781158447 -72.981559753418 -183.144180297852 3.041790008545
-25.146327972412 -74.190574645996 -186.478866577148 3.808378934860
22.637142181396 -71.472946166992 -193.887222290039 1.111909747124
-141.773818969727 -74.705787658691 -186.241424560547 2.703400611877
-144.295516967773 -72.916435241699 -182.789871215820 0.992857456207
-22.718660354614 -66.926872253418 -189.148544311523 1.512241005898
14.301937103271 -79.339241027832 -185.120819091797 2.379738092422
-141.040649414063 -75.849594116211 -191.693298339844 3.226114511490
-35.738540649414 -79.282241821289 -183.195098876953 3.006711483002
101.398971557617 -78.724075317383 -194.363616943359 1.243934273720
106.738349914551 -73.311134338379 -199.372131347656 2.916242837906
20.364706039429 -74.879028320313 -192.543609619141 1.204765677452
-20.936754226685 -80.284034729004 -191.958679199219 1.993162274361
-25.552190780640 -79.080101013184 -200.024612426758 3.263034343719
-148.088058471680 -71.349815368652 -195.896575927734 1.936874389648
-134.873962402344 -73.626976013184 -197.950805664063 1.438819885254
-123.353065490723 -73.753921508789 -194.079025268555 2.559514999390
-124.413825988770 -77.622955322266 -197.061798095703 4.116646766663
-18.584886550903 -74.121925354004 -197.219650268555 2.584601163864
11.318304061890 -77.824996948242 -195.774322509766 1.816886544228
93.456062316895 -70.973731994629 -204.747116088867 1.737805247307
-146.816650390625 -75.515060424805 -194.585052490234 2.217772245407
-146.954193115234 -71.923027038574 -201.479431152344 0.816915392876
-147.043136596680 -68.865898132324 -197.493804931641 2.526349782944
-156.170623779297 -70.235946655273 -199.763198852539 2.567178964615
-29.646575927734 -74.196243286133 -202.638854980469 4.344588279724
-14.182041168213 -80.893821716309 -195.945266723633 2.940292119980
-144.896240234375 -67.987312316895 -195.072509765625 2.745837450027
-19.491754531860 -78.173744201660 -197.761459350586 0.891677975655
-163.783462524414 -75.873985290527 -198.057327270508 4.468655586243
-131.772094726563 -74.979148864746 -198.463027954102 2.091125965118
10.890140533447 -72.158012390137 -212.475234985352 1.870619297028
-162.919143676758 -73.464279174805 -201.393585205078 2.650374412537
-144.311965942383 -76.785919189453 -201.708984375000 2.475519180298
10.437642097473 -77.330253601074 -203.758392333984 1.122618436813
-156.462844848633 -77.999580383301 -204.998260498047 4.628959178925
-23.873682022095 -76.637031555176 -203.270156860352 1.365618824959
102.216773986816 -75.476982116699 -204.883666992188 1.805317878723
-154.483734130859 -74.915550231934 -213.227828979492 3.953930377960
-163.861007690430 -75.825340270996 -211.874633789063 3.890426158905
-80.509735107422 -72.990455627441 -214.354400634766 1.792762517929
91.442733764648 -75.189483642578 -214.647445678711 1.303927183151
-4.804886817932 -75.326362609863 -215.338699340820 1.888008356094
-154.311248779297 -75.000572204590 -209.533187866211 4.708373546600
-90.428810119629 -69.549057006836 -216.304397583008 1.302450180054
-6.904619216919 -75.337684631348 -211.740249633789 1.522462964058
14.144270896912 -72.878662109375 -225.043273925781 2.385851383209
-144.881866455078 -76.514175415039 -217.457290649414 1.190620541573
-3.883933067322 -77.467239379883 -222.040328979492 1.024791598320
-16.795415878296 -70.056083679199 -222.014862060547 1.184698820114
-20.286094665527 -71.468780517578 -220.789093017578 1.399042844772
86.085906982422 -76.715408325195 -219.537475585938 2.236259937286
-23.204843521118 -70.831672668457 -216.897354125977 1.860143899918
-29.684213638306 -75.595039367676 -219.951583862305 2.275206327438
-104.495468139648 -74.862953186035 -221.180877685547 2.729967832565
-16.186920166016 -74.740486145020 -227.554061889648 1.781622767448
88.489212036133 -74.370170593262 -223.495300292969 2.107489347458
80.338821411133 -74.299766540527 -222.903625488281 1.357767701149
5.900063991547 -79.833496093750 -227.060852050781 1.787100315094
-13.797475814819 -74.583168029785 -228.520492553711 1.144021511078
77.849533081055 -83.126541137695 -226.516372680664 7.004323482513
-129.288314819336 -74.860733032227 -222.268234252930 4.243530273438
-24.865741729736 -77.419929504395 -223.447647094727 3.021643638611
-103.524719238281 -72.930183410645 -225.470199584961 1.031631946564
-108.426559448242 -77.726570129395 -228.697418212891 5.775923728943
-135.460449218750 -73.580162048340 -227.203918457031 1.219455003738
77.371940612793 -76.392295837402 -228.084930419922 0.996526360512
-127.980438232422 -77.219184875488 -227.578552246094 3.177571773529
0.090671002865 -74.941001892090 -232.750686645508 3.063554525375
72.861763000488 -75.615394592285 -227.838699340820 1.942902803421
-16.317392349243 -76.830970764160 -232.074859619141 3.068518161774
-10.482131958008 -77.066009521484 -232.511032104492 2.176061630249
-6.925496101379 -73.929534912109 -234.995269775391 1.602837085724
6.150441169739 -76.554748535156 -232.615020751953 0.748971819878
81.758346557617 -75.959007263184 -229.924041748047 3.280684232712
13.800745964050 -76.359199523926 -235.161117553711 3.644850254059
1.189939975739 -76.965515136719 -234.302764892578 1.469585180283
-6.822444915771 -77.668006896973 -228.082077026367 2.026513338089
-7.387979030609 -73.465858459473 -236.363540649414 1.437141776085
14.391315460205 -73.856681823730 -235.209030151367 2.238640546799
-10.975560188293 -72.902267456055 -237.595687866211 1.275031089783
72.322700500488 -75.178573608398 -240.558853149414 3.382966518402
-9.935665130615 -73.061271667480 -236.667770385742 1.988208293915
20.522077560425 -75.936187744141 -232.308868408203 1.737123131752
-163.427719116211 -71.604278564453 -241.857452392578 2.904009342194
-6.833998203278 -75.419532775879 -244.830871582031 3.272236824036
-11.847300529480 -74.944053649902 -243.435180664063 2.600105524063
-169.084564208984 -73.752098083496 -256.508209228516 3.042800664902
-11.343494415283 -76.776741027832 -246.187759399414 4.351078510284
17.159276962280 -78.347480773926 -246.416839599609 2.788797616959
-149.315170288086 -78.486228942871 -250.581787109375 2.233127593994
-68.960556030273 -75.237892150879 -249.367141723633 1.648787260056
-59.830810546875 -73.529876708984 -249.897064208984 0.864154040813
52.528629302979 -74.453262329102 -251.476684570313 3.394554853439
-78.786361694336 -75.912086486816 -246.927200317383 2.462857246399
13.075566291809 -75.918128967285 -248.345245361328 1.548304915428
-78.728225708008 -76.373008728027 -251.611557006836 1.014979362488
-20.347616195679 -76.238426208496 -249.770294189453 7.125076293945
-151.272842407227 -76.781242370605 -253.898773193359 2.136952638626
46.386779785156 -73.646400451660 -252.486953735352 2.687066555023
-84.828918457031 -71.886833190918 -249.659790039063 1.110097408295
-98.133972167969 -76.127395629883 -255.972183227539 2.634876489639
-97.774803161621 -81.763420104980 -252.915588378906 8.345661163330
-125.237831115723 -76.291587829590 -258.762145996094 0.447293549776
-110.612648010254 -73.169242858887 -257.137268066406 1.292198419571
-109.577384948730 -73.326934814453 -260.042816162109 1.700403928757
15.642730712891 -75.642578125000 -261.684173583984 5.203053474426
-131.166336059570 -72.132942199707 -265.883605957031 1.534294247627
-11.152896881104 -79.145591735840 -279.336517333984 4.880980491638
-149.114089965820 -78.992233276367 -281.422058105469 1.781082153320
-171.749374389648 -74.649238586426 -281.162139892578 4.596340656281
-130.569763183594 -76.576911926270 -287.339294433594 1.837464809418
-118.599365234375 -77.654426574707 -280.309112548828 7.868249416351
-82.088722229004 -71.665145874023 -288.537261962891 2.779506444931
-59.063373565674 -70.867912292480 -290.992156982422 2.029999971390
-47.337360382080 -74.925384521484 -287.930541992188 3.007829666138
-16.109729766846 -74.830329895020 -291.803344726563 1.129089951515
-13.819731712341 -74.493598937988 -290.110900878906 2.415676593781
-38.036315917969 -76.826118469238 -291.379608154297 1.791743874550
-37.412605285645 -75.024963378906 -289.310607910156 2.099042177200
-23.092231750488 -72.768325805664 -294.602996826172 4.607162475586
-75.911788940430 -78.202339172363 -293.168945312500 4.746340751648
-57.150894165039 -72.911109924316 -295.809906005859 5.044231414795
-16.207714080811 -71.445907592773 -293.428497314453 2.638520717621
-17.702007293701 -76.057044982910 -293.370788574219 2.095035314560
-7.705234050751 -75.116424560547 -294.237915039063 2.586489439011
0.491867989302 -71.692893981934 -298.021606445313 6.285706996918
-90.408119201660 -74.699890136719 -286.090606689453 2.041497945786
-149.317687988281 -73.463333129883 -287.371246337891 1.341873168945
-120.571968078613 -76.793312072754 -295.630065917969 4.923742771149
-156.875091552734 -79.692680358887 -300.921997070313 4.616476058960
-158.346786499023 -76.867851257324 -297.838867187500 4.628962039948
-146.938781738281 -75.856559753418 -302.366088867188 2.048821926117
49.373706817627 -74.583259582520 -28.637727737427 3.992181062698
21.440994262695 -72.007011413574 -27.354467391968 0.871325790882
53.486404418945 -74.146461486816 -29.690275192261 5.346702575684
52.081478118896 -75.977813720703 -36.784721374512 6.976830005646
88.776245117188 -68.327308654785 -72.003631591797 4.962752342224
99.613395690918 -70.907920837402 -80.330688476563 2.021492242813
99.187301635742 -71.750122070313 -85.435501098633 2.054596424103
97.695823669434 -71.389381408691 -92.889823913574 2.437206506729
52.414329528809 -73.216087341309 -91.351371765137 1.296513199806
52.090408325195 -73.374427795410 -95.937843322754 2.480337619781
62.600723266602 -70.766983032227 -96.492065429688 2.297913551331
-63.164596557617 -68.726936340332 -93.632583618164 2.177437543869
73.918716430664 -74.245185852051 -94.582168579102 0.739987373352
104.529830932617 -71.865219116211 -97.593811035156 1.309838056564
75.399513244629 -76.699157714844 -103.963890075684 5.215711116791
95.642211914063 -69.649223327637 -101.463150024414 2.268463373184
-79.593490600586 -74.429153442383 -102.019691467285 1.404699683189
47.348052978516 -73.584587097168 -107.772842407227 2.619410753250
-86.410301208496 -76.296524047852 -109.585060119629 2.706396579742
51.647285461426 -74.791999816895 -116.872764587402 4.463001251221
43.551559448242 -69.172470092773 -109.818229675293 1.484585642815
104.235954284668 -75.806251525879 -110.767639160156 3.057288169861
41.610359191895 -70.232360839844 -112.167663574219 1.977075338364
42.361148834229 -75.932281494141 -118.536911010742 2.163939714432
42.422924041748 -70.256011962891 -119.751655578613 0.685624659061
105.066680908203 -68.443252563477 -122.493469238281 3.362782716751
-80.015632629395 -72.167091369629 -120.374694824219 2.382014751434
114.473014831543 -75.687690734863 -127.231811523438 1.331588864326
40.227500915527 -67.964881896973 -121.620788574219 2.066511631012
44.946815490723 -74.282768249512 -120.457702636719 1.603778958321
34.223537445068 -74.403602600098 -123.634910583496 2.210740327835
-54.392059326172 -72.593635559082 -132.585327148438 1.540043830872
30.681264877319 -71.972198486328 -125.503921508789 1.269124746323
-77.097427368164 -75.076904296875 -137.368560791016 2.668452978134
-59.168899536133 -72.578155517578 -135.329589843750 2.397403717041
-75.550415039063 -71.240692138672 -132.110061645508 1.534305214882
35.081256866455 -72.843994140625 -130.217315673828 2.772372245789
-55.368957519531 -71.451965332031 -133.494232177734 0.587540388107
39.847110748291 -73.512992858887 -135.894271850586 2.550206661224
-75.484001159668 -73.777221679688 -139.401214599609 0.895044863224
-56.737133026123 -76.177230834961 -141.633880615234 1.767038106918
29.675809860229 -72.568229675293 -141.855468750000 2.570872068405
112.131469726563 -77.604270935059 -151.119049072266 2.415079116821
119.559326171875 -74.061485290527 -143.261032104492 2.696660518646
34.165077209473 -72.691619873047 -143.683853149414 2.258309364319
-47.015937805176 -71.056396484375 -145.502136230469 2.119280576706
109.516426086426 -73.554321289063 -162.929550170898 1.731866240501
-72.826942443848 -73.032783508301 -149.227401733398 2.011857509613
-49.609355926514 -75.105484008789 -140.109603881836 1.767215490341
35.009078979492 -77.920806884766 -155.017379760742 2.347437143326
-69.467681884766 -74.807090759277 -144.434768676758 1.948278427124
-69.542984008789 -75.550117492676 -146.873565673828 1.644361495972
117.588203430176 -69.828758239746 -152.788162231445 2.454445600510
-62.853805541992 -71.811050415039 -149.744140625000 3.528038501740
-40.031215667725 -71.983680725098 -152.242553710938 1.841167569160
31.367328643799 -68.812553405762 -155.853836059570 2.496583223343
-75.049995422363 -72.747497558594 -149.247909545898 1.273893356323
8.792566299438 -75.931526184082 -161.756515502930 2.810057640076
34.315845489502 -70.333259582520 -159.440551757813 3.433137655258
26.533632278442 -74.487899780273 -153.908126831055 2.886170148849
7.078834056854 -77.708404541016 -157.775863647461 2.009990692139
-47.446182250977 -71.104385375977 -154.828063964844 1.116042256355
25.387409210205 -73.340118408203 -154.763916015625 2.163894414902
-46.872711181641 -75.434555053711 -150.847900390625 2.858645677567
6.876163959503 -75.657569885254 -152.947463989258 3.523420810699
21.393020629883 -74.672431945801 -151.218719482422 1.061133027077
-72.065963745117 -77.315376281738 -153.892227172852 2.301468372345
-44.538169860840 -73.758377075195 -156.407989501953 3.349612236023
-70.568809509277 -70.636466979980 -162.138992309570 3.143743515015
11.334832191467 -67.110641479492 -167.336990356445 8.309586524963
20.059701919556 -74.278472900391 -148.904556274414 3.102079868317
1.540843009949 -71.583930969238 -165.195388793945 2.013881444931
22.353046417236 -70.028839111328 -157.977508544922 2.054668903351
29.015401840210 -74.426925659180 -165.313964843750 2.085440397263
-46.159313201904 -75.999107360840 -163.822372436523 1.431457638741
-32.426177978516 -73.257369995117 -162.103668212891 0.921811699867
-36.790733337402 -72.180946350098 -162.558319091797 3.048436403275
30.587873458862 -75.069114685059 -166.458740234375 1.784251689911
-45.669795989990 -73.646949768066 -167.019363403320 1.387395620346
-42.915275573730 -74.182937622070 -163.831527709961 0.955533087254
20.677036285400 -76.313278198242 -165.451385498047 1.582675457001
-42.288787841797 -73.315879821777 -174.048126220703 2.329065322876
32.434402465820 -70.995246887207 -176.658508300781 5.191797733307
117.467704772949 -71.403968811035 -168.795516967773 3.108307361603
-32.328281402588 -72.906936645508 -174.935363769531 3.358869075775
105.658424377441 -70.902885437012 -174.994140625000 2.253998279572
-33.636211395264 -70.191520690918 -179.336517333984 2.511466741562
-38.744739532471 -74.635917663574 -180.998519897461 3.116602897644
17.621974945068 -75.809562683105 -177.524765014648 1.594132661819
102.665817260742 -70.990257263184 -183.448867797852 1.985615491867
-29.132873535156 -73.098213195801 -184.495285034180 2.313315868378
-31.057647705078 -67.502799987793 -175.714660644531 3.158638000488
-22.685073852539 -76.494697570801 -188.302963256836 2.192358970642
-146.467803955078 -78.570060729980 -186.452941894531 1.957716107368
12.823047637939 -76.631202697754 -184.886993408203 2.232542514801
106.076538085938 -72.576484680176 -198.440185546875 2.055896520615
-159.236877441406 -73.447509765625 -192.668289184570 4.499409675598
-26.255435943604 -74.343299865723 -192.093551635742 1.109941244125
-115.611785888672 -71.261039733887 -194.323501586914 2.089357852936
-131.478973388672 -74.318328857422 -196.644882202148 1.274432539940
-108.204627990723 -71.567985534668 -201.866577148438 3.306025981903
-110.916236877441 -69.538612365723 -199.312622070313 1.456039428711
-16.710727691650 -70.417388916016 -201.342666625977 1.188493251801
18.285585403442 -76.070091247559 -200.498474121094 0.710393071175
-22.240352630615 -66.226142883301 -202.537231445313 2.543795824051
-126.293159484863 -71.310134887695 -202.015808105469 2.559347391129
-27.023210525513 -72.127182006836 -208.915023803711 2.677378177643
-130.312484741211 -77.788208007813 -202.245513916016 4.433501243591
-12.006438255310 -69.986480712891 -203.224746704102 1.091006278992
-145.011245727539 -73.661300659180 -202.215499877930 2.762434244156
89.529136657715 -73.616386413574 -214.044754028320 0.890945732594
-165.872283935547 -73.721603393555 -202.153427124023 2.351155519485
-1.262284040451 -75.844642639160 -215.727661132813 1.734436750412
12.391925811768 -67.668212890625 -214.753341674805 0.628431737423
7.823665142059 -69.538543701172 -218.909729003906 2.771511554718
82.100440979004 -73.815963745117 -222.702453613281 0.749515712261
2.365994930267 -69.952331542969 -218.930053710938 3.309887886047
14.394826889038 -74.580116271973 -216.172409057617 2.195120096207
-15.281221389771 -79.269142150879 -213.896835327148 2.316948413849
-89.623023986816 -74.133728027344 -214.551513671875 1.164261698723
-102.684936523438 -75.775039672852 -217.476989746094 3.734223604202
-4.209226131439 -73.194168090820 -223.231918334961 3.103819608688
-170.396789550781 -74.402236938477 -229.214813232422 4.843599319458
10.662332534790 -71.575965881348 -221.812408447266 2.156732559204
-143.918579101563 -75.485687255859 -221.845077514648 2.105869293213
10.841595649719 -71.124305725098 -228.471527099609 1.705712795258
-135.543685913086 -74.784629821777 -220.478103637695 5.713418483734
-116.982101440430 -73.252593994141 -228.037078857422 2.589900255203
18.495161056519 -68.346817016602 -227.623046875000 3.666356563568
72.944236755371 -73.521751403809 -233.637680053711 1.719037055969
2.307317972183 -71.395462036133 -228.085586547852 1.463583946228
-116.373893737793 -76.266952514648 -220.446258544922 6.653640747070
72.623893737793 -73.314598083496 -230.746414184570 1.777771711349
77.610877990723 -76.224090576172 -235.502288818359 3.951119184494
-123.552635192871 -74.726348876953 -229.699645996094 2.091881275177
-121.476234436035 -76.568191528320 -231.880310058594 3.796147823334
-12.565602302551 -73.639862060547 -233.386123657227 1.639099597931
67.986778259277 -77.198616027832 -232.070632934570 4.225468158722
65.686241149902 -72.451416015625 -239.798934936523 1.190703392029
70.953102111816 -73.104507446289 -237.594604492188 1.065127491951
-135.220825195313 -76.839942932129 -237.143798828125 5.799419403076
67.417343139648 -79.658561706543 -237.707061767578 5.260667800903
63.078662872314 -77.940238952637 -239.073760986328 3.950688362122
-168.903961181641 -76.992156982422 -225.565277099609 5.874580860138
-2.451231002808 -76.750343322754 -244.033798217773 2.557154178619
13.414603233337 -73.489173889160 -247.912902832031 2.801473855972
-5.054059028625 -76.895637512207 -244.939315795898 2.133882761002
12.828331947327 -78.154472351074 -246.315002441406 2.088079929352
67.386711120605 -76.213508605957 -244.360412597656 4.293965339661
8.477220535278 -78.804077148438 -242.234878540039 1.403493046761
