-153.435729980469 -74.745376586914 -178.402725219727 3.739833831787
-28.879508972168 -80.285293579102 -184.268020629883 0.797957301140
-52.151287078857 -80.461158752441 -188.426605224609 1.628179788589
-151.411346435547 -82.302841186523 -189.142929077148 2.895762443542
-144.969375610352 -81.749671936035 -196.926269531250 1.227285623550
-17.437009811401 -82.835990905762 -190.463348388672 4.794375896454
-17.053012847900 -85.678611755371 -198.447998046875 6.144230365753
-54.198822021484 -83.640335083008 -191.561935424805 5.741219043732
-22.508743286133 -79.140464782715 -195.470916748047 1.175282239914
-53.868579864502 -82.951820373535 -202.021881103516 1.885990500450
-46.276008605957 -86.727165222168 -199.875213623047 2.130202770233
-57.300479888916 -87.830497741699 -196.522048950195 6.386348247528
-18.032108306885 -82.307052612305 -203.977783203125 2.871993303299
-151.439590454102 -82.266738891602 -203.064468383789 2.340106487274
-56.565227508545 -82.226371765137 -197.664871215820 3.293417453766
-58.009971618652 -82.742454528809 -204.073638916016 1.702756643295
-31.928680419922 -82.581726074219 -196.649673461914 3.196253538132
-15.470376968384 -86.875114440918 -195.394500732422 7.740744590759
-39.044372558594 -83.571319580078 -202.510330200195 3.388949871063
-77.771087646484 -88.203483581543 -210.657745361328 6.996383666992
-145.071121215820 -83.609848022461 -209.469924926758 1.808733701706
-35.465534210205 -85.121147155762 -198.996276855469 3.701596975327
3.918384075165 -84.192100524902 -206.678100585938 8.084255218506
-58.933280944824 -82.614105224609 -208.595550537109 0.383074790239
-72.372085571289 -79.778137207031 -211.355667114258 2.604620695114
-26.862400054932 -79.481872558594 -215.738021850586 1.068939566612
-11.144045829773 -83.682632446289 -211.543823242188 4.159530162811
-25.492563247681 -85.476951599121 -218.408721923828 6.515721797943
11.942573547363 -84.280097961426 -210.292373657227 4.469151496887
-152.653381347656 -77.725975036621 -219.920883178711 3.386986017227
-10.674622535706 -81.987930297852 -211.526062011719 2.975711345673
-150.382980346680 -81.346878051758 -226.721221923828 1.993790745735
5.124228954315 -90.696891784668 -230.294525146484 10.720159530640
13.557674407959 -89.242271423340 -218.958145141602 8.485300064087
-5.189860820770 -86.695320129395 -222.268325805664 6.383314132690
15.547382354736 -83.852165222168 -222.502288818359 3.279149055481
-139.399520874023 -83.101104736328 -225.308044433594 1.483817934990
7.812004089355 -88.905929565430 -219.239776611328 9.006037712097
-154.383178710938 -77.281463623047 -229.774169921875 1.753796696663
-150.682479858398 -83.547004699707 -229.790740966797 1.580906748772
-3.567485094070 -83.008308410645 -218.953994750977 3.289655447006
15.450458526611 -84.393264770508 -232.805114746094 2.611884832382
-33.887580871582 -88.245407104492 -239.058441162109 8.023923873901
-145.450347900391 -78.357009887695 -233.793121337891 0.930112957954
-43.241138458252 -82.491172790527 -235.276153564453 6.694473266602
-47.662551879883 -85.672897338867 -240.266418457031 6.735634326935
-29.073364257813 -86.758178710938 -242.054336547852 6.711946010590
13.593120574951 -86.196556091309 -241.774841308594 4.946848869324
-47.821796417236 -86.528778076172 -240.127182006836 7.564982891083
17.250469207764 -89.131019592285 -239.274505615234 6.605961322784
9.721229553223 -82.309776306152 -231.482025146484 2.180025100708
8.276929855347 -88.938163757324 -240.583282470703 7.785240650177
-44.639442443848 -82.415115356445 -244.977325439453 2.713564157486
17.338489532471 -88.582565307617 -242.572479248047 6.561713695526
-141.957489013672 -83.627235412598 -244.912261962891 4.378352642059
21.348983764648 -87.324172973633 -244.668350219727 5.752583503723
1.993669986725 -89.724281311035 -241.068878173828 11.429767608643
7.581688880920 -85.787086486816 -248.845703125000 4.223542690277
-151.872940063477 -80.033828735352 -254.042480468750 1.434788703918
-151.040939331055 -80.514549255371 -256.087982177734 2.128782510757
-145.353851318359 -86.146598815918 -259.423339843750 1.588369369507
-156.435821533203 -78.493415832520 -256.512268066406 1.585790038109
13.877481460571 -87.756431579590 -265.577789306641 4.121525764465
-155.146789550781 -77.142158508301 -271.631134033203 4.251667976379
-7.392077922821 -86.577484130859 -275.364440917969 6.735738277435
-155.256256103516 -74.401603698730 -269.187805175781 1.660731315613
-146.031616210938 -81.421844482422 -269.407135009766 1.778103828430
-153.391357421875 -80.759735107422 -272.783264160156 3.505351066589
-154.966278076172 -79.176605224609 -281.081756591797 3.290452957153
-136.301879882813 -78.333076477051 -283.647247314453 3.842161178589
-151.297912597656 -85.164672851563 -286.685760498047 0.675471723080
-153.759643554688 -91.564956665039 -285.785125732422 5.810072898865
-151.211181640625 -82.700202941895 -294.542419433594 1.853642702103
-155.024353027344 -80.079681396484 -290.116119384766 1.149306654930
-148.866485595703 -75.607734680176 -290.474029541016 0.980080366135
-151.182113647461 -81.724143981934 -297.548767089844 2.503314018250
-149.449584960938 -81.379653930664 -297.276367187500 3.104046344757
-148.309555053711 -79.393844604492 -296.880279541016 2.010291814804
-54.759269714355 -78.698219299316 -51.421897888184 4.608303546906
-58.983882904053 -80.168617248535 -54.419780731201 4.198228359222
-47.988224029541 -78.543876647949 -59.468276977539 2.871720075607
-30.707283020020 -84.230079650879 -69.908897399902 5.850027561188
-56.644565582275 -78.766357421875 -84.195762634277 7.343620777130
-87.134452819824 -83.665412902832 -97.510719299316 2.919275045395
49.786922454834 -88.157196044922 -103.929649353027 9.454857826233
-81.263664245605 -81.353256225586 -99.056747436523 4.185688495636
37.706142425537 -83.088279724121 -107.223068237305 6.211241722107
37.275817871094 -84.184432983398 -118.899093627930 3.946012258530
34.630187988281 -82.034751892090 -117.974906921387 3.602040767670
36.334861755371 -81.260856628418 -132.790603637695 1.050581693649
30.327121734619 -81.984954833984 -135.122024536133 2.319579839706
33.416610717773 -84.255523681641 -128.622116088867 5.047319412231
28.169469833374 -83.075798034668 -145.697341918945 3.326997518539
-43.438827514648 -82.324432373047 -141.878936767578 6.285698413849
27.301275253296 -80.785102844238 -138.713211059570 2.842722654343
-62.810588836670 -80.579681396484 -149.211441040039 6.456802845001
-40.319244384766 -85.168914794922 -147.649871826172 7.144993305206
-59.209648132324 -82.934036254883 -162.681396484375 5.365176677704
-44.482219696045 -82.579978942871 -156.759140014648 3.292681932449
29.799648284912 -86.693336486816 -150.837371826172 6.699069976807
-37.032470703125 -86.071884155273 -161.426605224609 5.905064582825
-3.632955074310 -79.841545104980 -161.837402343750 3.808696269989
30.756874084473 -84.153076171875 -153.974700927734 4.491611957550
-15.369027137756 -85.353797912598 -162.188720703125 11.263463020325
-65.191352844238 -77.578552246094 -160.573745727539 1.765899062157
-39.659133911133 -83.481246948242 -163.554687500000 4.416789054871
-28.657592773438 -77.887931823730 -173.429580688477 1.193669676781
28.359758377075 -85.582504272461 -170.436874389648 6.927496433258
-57.110630035400 -82.692329406738 -175.518218994141 2.809531211853
-30.410154342651 -78.269981384277 -173.964828491211 2.065701723099
23.054906845093 -86.360229492188 -177.359649658203 7.169720172882
-53.675075531006 -81.038200378418 -181.454589843750 1.535099267960
-26.110902786255 -79.955070495605 -185.749374389648 1.754113554955
-56.111991882324 -80.069282531738 -176.239089965820 1.597371578217
-37.874103546143 -84.951477050781 -194.694534301758 1.378121256828
-31.349187850952 -87.682464599609 -185.998321533203 2.956831216812
-40.651435852051 -84.041015625000 -189.533752441406 3.683766126633
-26.217470169067 -80.679573059082 -189.986572265625 1.524984002113
-134.711639404297 -77.704544067383 -196.068588256836 1.450156569481
15.823923110962 -84.327964782715 -199.506851196289 5.392515659332
-139.939147949219 -73.256607055664 -193.466033935547 2.749047517776
-26.347833633423 -80.930839538574 -196.820983886719 2.809270858765
-18.374782562256 -78.202507019043 -194.267044067383 1.550847768784
-41.886177062988 -77.887466430664 -189.624694824219 2.934157609940
12.646643638611 -85.851051330566 -186.385971069336 9.006926536560
-18.340244293213 -83.089042663574 -196.907562255859 3.095299720764
-62.070388793945 -80.260108947754 -205.608139038086 1.622048854828
-39.046188354492 -78.511627197266 -198.388214111328 1.033728837967
-65.537109375000 -79.657493591309 -203.364730834961 2.323923110962
-72.247734069824 -80.153221130371 -204.131591796875 3.885900735855
20.678024291992 -85.030441284180 -210.368331909180 7.760034084320
-88.546524047852 -84.086936950684 -207.817932128906 8.464700698853
-30.812170028687 -84.258514404297 -215.662445068359 5.026784896851
-84.916763305664 -83.674720764160 -209.303878784180 6.097589969635
-148.322235107422 -81.156990051270 -215.078079223633 2.086291313171
-10.852813720703 -83.559326171875 -209.132202148438 3.872190475464
-12.162880897522 -80.907333374023 -218.184005737305 2.068643331528
13.763049125671 -83.854560852051 -205.956695556641 4.102359294891
12.627614974976 -87.981025695801 -218.051605224609 7.105277061462
-5.345115184784 -83.449714660645 -228.520935058594 4.679256916046
-133.563140869141 -80.215843200684 -221.215148925781 6.521431446075
-147.593795776367 -81.397315979004 -223.724700927734 2.463114738464
-148.190536499023 -72.187644958496 -228.442550659180 1.156158328056
9.497569084167 -85.814849853516 -227.558197021484 4.928876399994
0.539310991764 -84.447219848633 -231.724685668945 5.412977218628
-27.484039306641 -80.647994995117 -228.574310302734 8.707712173462
-149.814102172852 -80.256698608398 -230.424682617188 1.711134433746
7.979516983032 -81.667198181152 -241.685104370117 2.161081075668
-27.194316864014 -84.479080200195 -241.697708129883 4.550100803375
17.663272857666 -81.851425170898 -231.526748657227 1.495675325394
-57.508544921875 -83.666725158691 -242.413574218750 6.020707130432
-52.669227600098 -78.093894958496 -244.542114257813 1.562265634537
-145.799179077148 -79.938560485840 -240.367507934570 1.267647266388
-62.668228149414 -82.964042663574 -243.015716552734 6.090190887451
-6.080389976501 -77.745941162109 -249.464202880859 1.227524280548
-10.919967651367 -86.082695007324 -250.782989501953 7.190602302551
-150.192565917969 -81.001808166504 -253.510696411133 2.099008798599
-135.683364868164 -79.173141479492 -254.358245849609 2.949452877045
-136.798217773438 -78.445625305176 -257.867218017578 1.323564291000
16.430088043213 -80.766090393066 -258.499084472656 0.962325930595
-146.903884887695 -84.597640991211 -267.296356201172 2.024811506271
17.127777099609 -91.451057434082 -265.756988525391 8.969605445862
-150.801055908203 -76.552116394043 -263.100067138672 2.359537601471
4.438264846802 -94.363006591797 -272.630645751953 9.947719573975
-149.387985229492 -78.765922546387 -278.969726562500 2.149368286133
0.695360004902 -82.213432312012 -280.938781738281 2.564412355423
-158.064331054688 -84.139190673828 -279.294372558594 6.963165283203
-141.953247070313 -80.009986877441 -287.972961425781 1.810290932655
-137.640625000000 -81.187683105469 -277.925811767578 8.484443664551
-150.817031860352 -83.596221923828 -288.001342773438 1.425994396210
-18.662645339966 -86.170707702637 -286.338745117188 8.675301551819
-155.733901977539 -79.066276550293 -287.712646484375 1.920337677002
-151.436187744141 -81.527084350586 -288.878265380859 1.081595897675
-150.560531616211 -77.011840820313 -306.679199218750 1.831458449364
-56.400745391846 -75.542808532715 -55.846641540527 1.467255473137
-39.141407012939 -80.578651428223 -58.890335083008 4.404713153839
-69.327255249023 -79.319496154785 -55.685775756836 4.085333824158
-30.524797439575 -77.803070068359 -67.441055297852 0.786297202110
-30.471603393555 -83.975563049316 -70.270492553711 5.414903640747
-87.722343444824 -75.687843322754 -82.893638610840 2.244668483734
85.468254089355 -79.371086120605 -79.223777770996 3.204135656357
-38.714965820313 -76.545127868652 -77.192405700684 2.949697256088
80.650283813477 -86.624336242676 -77.722755432129 9.811203956604
75.131629943848 -81.750572204590 -84.477844238281 5.362154960632
86.497245788574 -77.557769775391 -90.186607360840 1.216961026192
81.508514404297 -80.182167053223 -87.894332885742 3.363333940506
93.513916015625 -82.158309936523 -87.450965881348 5.442626476288
-87.436798095703 -72.544586181641 -91.042213439941 5.432257652283
54.141078948975 -79.192863464355 -101.936042785645 2.565360546112
-94.048263549805 -74.798599243164 -114.043960571289 1.921690940857
34.560878753662 -82.600395202637 -108.671775817871 6.679084777832
50.506374359131 -82.685440063477 -109.100814819336 4.845666885376
37.744674682617 -82.719047546387 -114.211410522461 3.080388784409
30.101139068604 -83.081230163574 -126.060951232910 5.076681613922
25.464612960815 -85.123527526855 -138.131515502930 6.491982460022
28.546175003052 -82.063110351563 -141.010833740234 2.119308471680
31.607622146606 -81.376052856445 -147.481658935547 1.854893445969
-51.358505249023 -81.778945922852 -148.038650512695 3.912337779999
-45.919284820557 -82.368682861328 -148.430694580078 3.886972427368
-42.092086791992 -83.772750854492 -151.051025390625 4.750273227692
26.194461822510 -86.761024475098 -143.983108520508 7.120552539825
21.462694168091 -81.230033874512 -166.446716308594 3.417899370193
-38.623592376709 -81.156387329102 -156.356063842773 2.017031669617
-34.763538360596 -78.939102172852 -151.553253173828 4.681698322296
-49.467830657959 -76.515197753906 -149.836639404297 0.659725725651
-0.595866978168 -82.670455932617 -164.279464721680 4.134409427643
26.067365646362 -81.829551696777 -154.994918823242 1.740552544594
29.416681289673 -75.207534790039 -155.181060791016 2.211782693863
25.722145080566 -83.432449340820 -164.486175537109 3.650703430176
-9.065655708313 -80.600975036621 -164.866210937500 4.216511249542
-2.127876996994 -82.055320739746 -166.596176147461 2.610771656036
-54.884578704834 -77.602684020996 -171.668243408203 1.724029779434
-62.349525451660 -80.273529052734 -162.806228637695 2.570029497147
-37.875137329102 -82.636054992676 -172.493576049805 3.668934822083
-38.433712005615 -78.657783508301 -162.385940551758 1.692049264908
21.864038467407 -83.046516418457 -168.968719482422 4.617908000946
-23.337772369385 -85.134941101074 -175.252441406250 5.226441383362
-38.259971618652 -87.467674255371 -177.731506347656 8.826737403870
-61.619678497314 -83.971939086914 -175.451187133789 4.504063606262
103.156105041504 -87.802665710449 -174.729019165039 11.896658897400
18.497798919678 -81.716751098633 -166.009216308594 4.544624805450
-25.147359848022 -79.526077270508 -174.346115112305 2.417965173721
-51.005275726318 -77.796112060547 -176.601089477539 2.366558313370
-15.659450531006 -78.423904418945 -174.037872314453 1.834018945694
106.432022094727 -87.177917480469 -176.042892456055 10.166818618774
-47.788684844971 -80.718750000000 -180.483459472656 2.318602800369
14.699088096619 -83.674087524414 -180.603286743164 7.060905933380
25.076028823853 -82.238525390625 -178.384902954102 3.542922973633
-54.220649719238 -80.533058166504 -178.152221679688 1.550464630127
-24.333478927612 -78.471084594727 -178.429901123047 2.025565385818
-58.049411773682 -83.809158325195 -170.939910888672 3.784230709076
-30.363698959351 -72.876075744629 -177.028335571289 2.621324300766
-27.008281707764 -81.876594543457 -179.847427368164 2.265401363373
20.425542831421 -86.835098266602 -182.755737304688 7.774483203888
-50.475387573242 -83.146980285645 -183.612945556641 2.298879861832
102.617164611816 -86.905014038086 -186.397979736328 10.040434837341
-51.173015594482 -75.925666809082 -187.085098266602 1.713940858841
13.649369239807 -86.242347717285 -197.148010253906 7.125246047974
13.888076782227 -82.498535156250 -198.533370971680 3.336020469666
-45.575180053711 -81.891883850098 -184.900222778320 2.708998918533
-18.564348220825 -79.494750976563 -186.223922729492 2.735699892044
102.260154724121 -88.007080078125 -193.727920532227 10.385736465454
104.816810607910 -89.235305786133 -192.886993408203 12.015584945679
-46.686157226563 -74.554023742676 -186.924911499023 3.131581068039
-151.414489746094 -78.789688110352 -187.884567260742 2.521180868149
-52.706153869629 -77.259986877441 -196.290557861328 4.369875431061
-147.170898437500 -75.878952026367 -195.789642333984 3.007319927216
-135.916213989258 -75.807716369629 -197.643981933594 1.063597917557
-42.957538604736 -76.876800537109 -193.924377441406 1.790088534355
11.517455101013 -83.843620300293 -204.324340820313 4.552047252655
-19.500436782837 -80.450675964355 -195.884963989258 0.610909521580
14.527429580688 -87.389717102051 -202.008834838867 8.101207733154
86.687889099121 -89.501068115234 -207.389465332031 13.620132446289
-40.746025085449 -78.731277465820 -194.180114746094 1.366763234138
-13.359386444092 -84.189262390137 -200.595062255859 4.931818962097
-11.112777709961 -83.740478515625 -205.991744995117 5.028526306152
-38.980083465576 -81.106452941895 -206.401535034180 1.416382789612
6.632378101349 -89.379875183105 -204.106185913086 11.498945236206
-76.292778015137 -78.598579406738 -207.250213623047 1.952996730804
11.863711357117 -86.382438659668 -210.882598876953 6.637857437134
-38.387882232666 -80.057052612305 -208.168624877930 1.834101915359
-143.188217163086 -76.690238952637 -201.286468505859 2.280224323273
-146.536911010742 -78.577438354492 -208.768630981445 2.556941270828
-86.350418090820 -79.672950744629 -209.049301147461 4.270652294159
-34.368270874023 -81.214477539063 -205.766098022461 1.462741732597
-25.374259948730 -81.606597900391 -211.387878417969 3.157342910767
-28.943433761597 -83.373657226563 -208.942199707031 3.354506254196
-91.504035949707 -81.851104736328 -216.044326782227 4.980929851532
-86.534584045410 -79.425956726074 -209.539978027344 3.753911018372
9.499916076660 -82.322029113770 -215.063308715820 2.784007072449
-147.574569702148 -75.654052734375 -213.285278320313 1.559697389603
-13.250674247742 -80.777839660645 -207.704742431641 1.907471299171
6.630160808563 -87.587196350098 -214.531600952148 8.339692115784
-141.706710815430 -79.209663391113 -212.313858032227 3.807253122330
-22.628309249878 -84.882553100586 -219.076614379883 5.855182647705
-4.828921794891 -82.078086853027 -219.894653320313 2.323096990585
-2.055139064789 -83.504631042480 -214.116500854492 5.829758167267
-153.249755859375 -76.218856811523 -218.454360961914 3.319244384766
-134.673812866211 -74.472106933594 -221.358810424805 4.582456111908
-5.467546939850 -81.702270507813 -224.973190307617 1.930107831955
-149.941726684570 -81.851631164551 -223.604522705078 0.278354942799
-1.686956048012 -82.297714233398 -226.747131347656 2.660529851913
16.912263870239 -78.693557739258 -228.600051879883 1.641057610512
-5.267549037933 -79.131889343262 -234.109207153320 2.575499296188
0.543335974216 -83.817405700684 -228.417739868164 4.268113136292
7.678526878357 -90.176948547363 -231.278274536133 8.997003555298
-151.236343383789 -78.290237426758 -228.833358764648 1.756069540977
-18.518505096436 -82.166397094727 -233.989593505859 6.423655033112
-31.368267059326 -88.566253662109 -237.352874755859 9.122914314270
7.386932849884 -78.879180908203 -226.084747314453 1.892113566399
-1.228495955467 -80.033233642578 -234.665481567383 2.324338197708
4.383231163025 -84.434722900391 -231.548950195313 5.926033496857
-54.048126220703 -81.438301086426 -235.325271606445 8.531138420105
-154.007659912109 -75.355842590332 -241.971878051758 3.754720687866
-153.595779418945 -76.923255920410 -245.198333740234 3.716839790344
10.853577613831 -85.689643859863 -244.701843261719 3.713493108749
19.530469894409 -86.055313110352 -243.424118041992 4.833374023438
-59.718841552734 -80.591270446777 -244.686538696289 2.535556554794
-149.336105346680 -74.222740173340 -250.236404418945 2.443350553513
-154.605636596680 -82.967071533203 -251.194763183594 4.426005363464
-149.580291748047 -78.705062866211 -252.255844116211 1.700892806053
-147.175506591797 -82.304801940918 -252.853393554688 1.907214522362
-137.577163696289 -80.071334838867 -253.074966430664 3.701179981232
-14.168321609497 -82.089683532715 -254.208175659180 5.308652877808
-147.732330322266 -76.603736877441 -263.239868164063 2.359325408936
-13.289861679077 -86.920028686523 -255.547332763672 7.864072322845
-153.963394165039 -78.841171264648 -271.243469238281 3.010860681534
-154.552734375000 -81.125350952148 -279.074279785156 3.783959627151
-155.614166259766 -82.810195922852 -277.315490722656 4.657909393311
-7.617893218994 -79.468933105469 -286.634613037109 3.593036651611
-147.198196411133 -77.075767517090 -281.180877685547 1.781816005707
-37.951755523682 -82.347297668457 -277.013977050781 11.277770996094
-33.128791809082 -77.844055175781 -286.572723388672 1.302093863487
-23.487535476685 -82.739440917969 -281.238220214844 8.198556900024
-11.128320693970 -84.171157836914 -287.840393066406 6.714438438416
15.104504585266 -84.497734069824 -289.358764648438 6.249339580536
-127.159507751465 -78.378265380859 -283.929168701172 3.152535200119
-57.922435760498 -84.956733703613 -282.393585205078 10.328165054321
-41.193630218506 -81.169113159180 -290.293365478516 4.166637420654
-37.388877868652 -83.705589294434 -286.792144775391 6.262488842010
-11.530516624451 -84.421203613281 -285.091918945313 7.521053314209
5.631967067719 -82.657424926758 -283.693542480469 3.273970603943
-140.896087646484 -81.053520202637 -287.869445800781 2.758059263229
5.493189811707 -86.823196411133 -290.596130371094 9.362853050232
-157.652313232422 -81.933517456055 -301.234558105469 5.561288356781
-150.462448120117 -77.883499145508 -296.752746582031 1.925399661064
-153.168838500977 -77.168273925781 -307.458770751953 1.697054624557
-148.968826293945 -78.681518554688 -307.553436279297 1.811222910881
-52.684692382813 -74.870094299316 -47.803314208984 4.397886276245
-51.293243408203 -76.147109985352 -53.067180633545 2.178509712219
-69.646408081055 -75.152114868164 -51.140747070313 2.368626832962
-44.547573089600 -77.143692016602 -53.880352020264 2.773352861404
-40.750156402588 -72.212013244629 -55.345970153809 2.927638769150
-23.906608581543 -73.413246154785 -56.335083007813 2.561820030212
-81.948455810547 -76.093276977539 -62.249675750732 2.037083625793
82.005874633789 -80.661437988281 -77.569786071777 3.832713365555
-91.257545471191 -76.592605590820 -78.690330505371 3.950370073318
85.326049804688 -85.351554870605 -77.769577026367 8.985076904297
86.759262084961 -83.212455749512 -79.641540527344 6.669395446777
94.413536071777 -81.895553588867 -80.114234924316 6.175858497620
-60.192573547363 -82.341644287109 -89.030303955078 4.693816661835
86.062774658203 -85.745704650879 -89.848251342773 8.125124931335
80.972312927246 -80.454391479492 -89.693763732910 3.364029169083
93.628829956055 -85.471061706543 -88.949989318848 8.899706840515
-60.802009582520 -80.188850402832 -93.461074829102 1.642082095146
56.244029998779 -80.094451904297 -93.833351135254 4.970489978790
45.833370208740 -81.978767395020 -101.293762207031 4.519632816315
38.125873565674 -81.810516357422 -104.542190551758 5.984519958496
37.365066528320 -80.510963439941 -106.283843994141 4.921341896057
-93.041687011719 -74.699043273926 -110.083999633789 2.243560314178
34.626194000244 -83.465385437012 -114.808609008789 5.179480075836
-83.356864929199 -76.517166137695 -109.073722839355 1.530656695366
41.358695983887 -82.133255004883 -123.529403686523 3.214399099350
31.974496841431 -81.315261840820 -118.257026672363 4.680167675018
32.020790100098 -84.556564331055 -120.280097961426 5.494615554810
41.947063446045 -79.538047790527 -118.924804687500 1.397741913795
39.883544921875 -85.552055358887 -123.491378784180 5.012403488159
-56.228183746338 -71.069168090820 -137.333862304688 1.880807876587
36.368587493896 -84.130073547363 -130.003372192383 4.405005931854
36.197349548340 -82.358352661133 -137.359619140625 2.700180768967
-48.144237518311 -73.211181640625 -135.959548950195 1.376136898994
-49.219623565674 -81.993118286133 -137.180541992188 6.276110649109
33.931129455566 -82.218803405762 -140.104629516602 2.385041713715
108.073326110840 -82.749794006348 -138.554428100586 7.492483139038
109.778976440430 -83.506629943848 -141.160888671875 8.114412307739
26.985982894897 -84.276489257813 -141.209533691406 4.336643218994
-43.139167785645 -78.057846069336 -142.878051757813 2.907000064850
112.235877990723 -88.517333984375 -156.711807250977 11.531355857849
-43.800357818604 -78.020690917969 -152.622589111328 2.468127489090
-63.605216979980 -80.836463928223 -157.893371582031 3.776626586914
110.413696289063 -85.647644042969 -159.640777587891 8.789651870728
24.966279983521 -84.193740844727 -164.449966430664 4.276557445526
-1.165148019791 -81.369506835938 -162.225143432617 3.212751150131
111.900848388672 -87.145370483398 -149.834609985352 10.872703552246
-62.897747039795 -80.490310668945 -156.727890014648 3.631655931473
-36.022521972656 -84.444511413574 -157.835922241211 5.587214946747
109.819923400879 -83.820564270020 -161.655868530273 6.702996253967
25.315891265869 -77.312782287598 -155.177413940430 0.782302379608
-67.267112731934 -78.558403015137 -165.860412597656 1.555477499962
106.684967041016 -82.522941589355 -169.248840332031 6.405012607574
-65.139739990234 -80.732612609863 -165.516113281250 2.682303428650
-53.805255889893 -82.202880859375 -174.317611694336 2.412654161453
104.771354675293 -84.564323425293 -175.454513549805 8.513495445251
-64.181144714355 -78.495437622070 -165.215133666992 1.725098013878
112.395950317383 -84.404037475586 -170.397323608398 7.468639373779
-59.160793304443 -81.742088317871 -168.190246582031 1.996640801430
-14.392770767212 -80.210311889648 -172.067108154297 1.229363203049
-10.952034950256 -81.452880859375 -175.498321533203 0.753489792347
105.015457153320 -85.740135192871 -167.735046386719 9.992923736572
21.219251632690 -81.246780395508 -164.302108764648 2.646811962128
28.488840103149 -83.900337219238 -164.626708984375 4.681796550751
-55.573333740234 -82.601203918457 -173.964508056641 2.832272529602
16.989538192749 -81.473274230957 -182.119201660156 3.559555053711
-57.651611328125 -80.827301025391 -176.469085693359 1.750310897827
-52.735404968262 -76.165054321289 -188.470230102539 1.069166183472
12.022311210632 -82.441917419434 -176.659942626953 7.929151058197
-62.397739410400 -76.832054138184 -181.304458618164 3.651249647141
110.036300659180 -81.869575500488 -182.489273071289 4.882310867310
20.025300979614 -83.069160461426 -176.266845703125 3.851137876511
-32.730422973633 -81.403678894043 -183.941986083984 2.720551490784
-45.877929687500 -76.457191467285 -191.438079833984 1.627684593201
9.653727531433 -80.664474487305 -193.188949584961 4.916040420532
-27.133955001831 -81.220893859863 -183.385055541992 0.956377148628
-54.197612762451 -79.868164062500 -192.316894531250 3.395881175995
99.231651306152 -88.216613769531 -184.775146484375 12.313747406006
13.149097442627 -79.403114318848 -187.299957275391 3.700131654739
-136.479263305664 -77.172981262207 -190.266250610352 6.734938144684
-42.899394989014 -78.146263122559 -187.228317260742 3.292575836182
101.796554565430 -87.836936950684 -193.254730224609 10.240518569946
-149.580047607422 -76.265052795410 -196.762161254883 2.268347024918
16.982931137085 -81.697250366211 -189.535095214844 3.030189037323
-46.862873077393 -87.910369873047 -200.080963134766 2.932841300964
-34.480041503906 -81.748542785645 -200.635055541992 2.263806819916
-41.210529327393 -76.592658996582 -201.289413452148 1.266729235649
-43.660846710205 -80.457138061523 -188.361267089844 3.256508827209
100.846481323242 -88.530258178711 -197.297454833984 10.879769325256
-19.045032501221 -79.851478576660 -198.253829956055 1.079638123512
-152.539428710938 -71.866485595703 -196.269790649414 0.868804514408
11.201231002808 -80.434814453125 -205.436233520508 2.546226024628
-72.860374450684 -81.273017883301 -199.099456787109 8.582384109497
-145.652175903320 -74.877365112305 -206.288818359375 0.926267802715
96.224067687988 -83.810249328613 -206.139694213867 6.466003417969
-35.949005126953 -80.686485290527 -202.753448486328 0.536595642567
-26.476318359375 -79.909584045410 -212.995086669922 0.914412915707
4.997219085693 -83.553916931152 -207.330139160156 6.747675895691
-72.965400695801 -77.957458496094 -208.323150634766 1.100777029991
-27.954681396484 -79.703964233398 -204.694519042969 2.960586309433
-9.229690551758 -85.484359741211 -213.884674072266 5.753857612610
-81.250152587891 -82.457077026367 -213.065307617188 2.839498758316
-14.597908973694 -85.114822387695 -215.539260864258 6.235424518585
8.544804573059 -81.505126953125 -212.166824340820 2.528224229813
16.287656784058 -90.009757995605 -217.854904174805 10.036708831787
-147.053359985352 -76.496032714844 -213.188735961914 1.250064849854
-5.030732154846 -79.062049865723 -212.675079345703 3.124460935593
-92.490425109863 -74.818939208984 -218.289321899414 1.502050161362
-23.778247833252 -76.865570068359 -214.933410644531 1.434529423714
93.289672851563 -86.736968994141 -209.187957763672 9.405428886414
5.277431011200 -84.635017395020 -225.537429809570 6.532377243042
13.595849990845 -86.718292236328 -211.619689941406 7.176300525665
78.168167114258 -78.206771850586 -219.094085693359 5.212428569794
1.791586041451 -81.117179870605 -222.708694458008 3.369192123413
84.612976074219 -83.233558654785 -218.429595947266 6.968723297119
-17.229045867920 -80.556152343750 -219.610382080078 3.495907306671
11.719070434570 -84.860061645508 -219.936859130859 4.183828353882
-150.388061523438 -78.309379577637 -220.624008178711 2.625586509705
-19.662199020386 -89.503448486328 -223.206878662109 11.279835700989
0.174818992615 -86.939392089844 -223.148925781250 7.258460521698
-152.474121093750 -79.133087158203 -223.811798095703 1.067280173302
-134.850143432617 -77.582679748535 -222.251296997070 4.991872787476
10.000835418701 -81.169235229492 -224.125579833984 0.878736853600
-7.211471080780 -81.809997558594 -237.421020507813 7.109928607941
-139.218719482422 -77.674324035645 -227.239730834961 1.971424341202
-149.899536132813 -80.764297485352 -230.193771362305 2.139111042023
-146.003662109375 -74.244163513184 -234.093444824219 1.424437403679
-26.736770629883 -81.991065979004 -230.911087036133 8.401548385620
-145.582702636719 -75.418762207031 -240.358200073242 1.807525992393
17.745670318604 -82.278587341309 -236.436203002930 3.469961166382
5.728339195251 -83.820503234863 -240.909118652344 4.996201515198
-153.757110595703 -73.812332153320 -231.848831176758 1.302359223366
-153.535186767578 -76.506423950195 -237.849166870117 4.109579086304
-46.785270690918 -81.091018676758 -235.830413818359 6.687071323395
-34.631988525391 -85.405158996582 -241.183685302734 5.144298553467
5.050109863281 -85.428123474121 -246.178649902344 5.393617153168
-36.422069549561 -79.297882080078 -243.551132202148 0.840166389942
22.804800033569 -85.984725952148 -248.047897338867 5.429965019226
-3.594063997269 -83.940956115723 -241.501327514648 8.040033340454
-155.637313842773 -74.870346069336 -247.948181152344 2.949886798859
-6.323504924774 -75.749977111816 -244.103927612305 3.161114215851
-142.300277709961 -79.373413085938 -247.877075195313 3.172051429749
-67.695198059082 -81.116882324219 -246.725708007813 4.059752941132
-155.541397094727 -83.914352416992 -253.199951171875 3.829928159714
-127.672515869141 -81.352416992188 -258.066925048828 5.552262783051
-151.325210571289 -73.315536499023 -255.242065429688 2.484647989273
-13.470357894897 -80.802749633789 -263.649841308594 3.611778259277
-146.682083129883 -79.716300964355 -259.599456787109 2.157988548279
-150.561294555664 -77.660446166992 -258.849151611328 2.798938274384
-12.329008102417 -85.296897888184 -264.317413330078 6.200747966766
-150.116348266602 -78.710922241211 -262.788787841797 2.246202945709
-6.791357994080 -86.832298278809 -280.062896728516 8.248678207397
-45.753532409668 -84.008201599121 -276.676605224609 12.727060317993
-140.275573730469 -80.564994812012 -280.457092285156 5.566441535950
-134.669937133789 -75.226882934570 -276.401428222656 8.162121772766
-127.192291259766 -78.159027099609 -278.890808105469 6.891855716705
-56.646770477295 -80.101242065430 -275.467102050781 11.941556930542
-115.690528869629 -78.706039428711 -285.868164062500 4.004178524017
13.426808357239 -90.670562744141 -286.105194091797 13.183846473694
-64.284492492676 -80.834915161133 -282.296905517578 6.882447242737
-142.891204833984 -75.341247558594 -282.321929931641 2.877408504486
-64.135131835938 -77.558357238770 -282.702423095703 4.862789630890
-145.506286621094 -84.231369018555 -285.533477783203 1.575042247772
-121.012252807617 -77.640449523926 -280.274139404297 6.942690372467
-48.878288269043 -81.157081604004 -287.856140136719 3.914327859879
-41.971775054932 -82.618499755859 -286.803802490234 5.702724456787
-136.183151245117 -78.595664978027 -285.505004882813 2.622031927109
-13.570729255676 -78.657379150391 -289.342071533203 1.620283365250
-3.503508090973 -87.416336059570 -288.684417724609 10.016280174255
6.416149139404 -84.111076354980 -287.656066894531 6.906426429749
11.341887474060 -83.969078063965 -290.224731445313 6.342156887054
-150.009811401367 -82.999160766602 -290.687713623047 1.942492485046
-147.136596679688 -76.453491210938 -293.614440917969 2.260492086411
-69.743545532227 -72.081367492676 -59.015892028809 4.391200065613
88.007720947266 -81.959396362305 -75.471443176270 5.982707023621
80.418586730957 -82.322776794434 -73.362564086914 7.015774726868
-26.489282608032 -81.598892211914 -70.549133300781 3.566259145737
86.382659912109 -80.088317871094 -70.961097717285 6.193671703339
-38.332023620605 -74.147697448730 -77.395965576172 0.794875383377
90.924652099609 -86.237037658691 -74.958312988281 10.618178367615
89.989143371582 -85.929939270020 -77.163536071777 9.669559478760
-69.854507446289 -72.192680358887 -89.546073913574 6.098401069641
79.457954406738 -81.440994262695 -87.432617187500 4.649351596832
80.728927612305 -79.081359863281 -95.046936035156 2.927559852600
92.967544555664 -81.013458251953 -87.051574707031 4.179441928864
54.238307952881 -80.933219909668 -88.787467956543 7.204977035522
-79.052307128906 -80.842933654785 -96.909721374512 4.914669990540
-83.038772583008 -71.011360168457 -95.289321899414 6.208771705627
50.458606719971 -80.338752746582 -106.733596801758 2.639709711075
-92.125625610352 -78.725189208984 -105.063011169434 1.573337554932
44.044101715088 -80.869560241699 -112.180381774902 1.476657390594
111.485176086426 -82.458946228027 -112.847648620605 7.854516029358
108.080505371094 -80.749519348145 -128.928939819336 5.909773349762
25.117523193359 -76.299850463867 -134.767456054688 2.582065343857
112.883651733398 -88.877700805664 -127.581970214844 13.290452003479
28.069347381592 -78.436279296875 -130.664978027344 2.227939128876
110.078094482422 -85.278259277344 -129.504745483398 9.715327262878
32.375602722168 -85.176406860352 -134.638626098633 4.199647426605
-52.926990509033 -81.099151611328 -146.892272949219 3.626543998718
34.983745574951 -81.094818115234 -137.418045043945 1.136765003204
112.021293640137 -82.462455749512 -134.546569824219 6.505150794983
-50.789501190186 -78.695381164551 -145.528335571289 1.652183413506
28.659563064575 -85.423065185547 -142.592864990234 4.755508899689
-55.335678100586 -77.519493103027 -130.567153930664 5.534788131714
-56.494770050049 -83.960021972656 -144.180679321289 7.851466655731
-52.978847503662 -74.155418395996 -147.258636474609 0.908768773079
-67.174171447754 -79.994857788086 -151.513168334961 3.294851779938
111.495933532715 -82.858451843262 -145.362152099609 6.455993175507
-51.557243347168 -76.723716735840 -148.026672363281 1.162008047104
18.592708587646 -83.329948425293 -155.932876586914 6.975547790527
108.581855773926 -89.065177917480 -154.621200561523 12.517895698547
-68.681190490723 -80.549690246582 -151.386978149414 4.145606994629
-49.217987060547 -76.633316040039 -153.227462768555 1.240233540535
6.423685073853 -79.218048095703 -154.092605590820 4.995397090912
-63.972255706787 -73.805854797363 -153.478866577148 2.602237224579
-59.865760803223 -79.058952331543 -158.467529296875 3.850183486938
-1.967774033546 -88.253684997559 -157.249099731445 11.697954177856
-45.774723052979 -81.999870300293 -167.784759521484 5.688751697540
26.338569641113 -78.345138549805 -161.429046630859 2.211527585983
-67.520950317383 -77.128601074219 -158.653396606445 1.182765483856
-50.720088958740 -73.487838745117 -164.637405395508 4.472946643829
22.108127593994 -80.424468994141 -159.267532348633 2.111743688583
-31.404336929321 -84.614105224609 -171.471557617188 4.693183898926
-33.334156036377 -73.562728881836 -164.069290161133 1.123716354370
13.583287239075 -78.578948974609 -172.914031982422 5.218087196350
-39.415668487549 -83.596412658691 -172.339950561523 4.768631458282
-8.460025787354 -79.435371398926 -171.075561523438 2.023025751114
-64.839996337891 -77.176445007324 -166.595520019531 1.306569218636
-6.831783771515 -80.844261169434 -167.258468627930 1.741365432739
-24.311285018921 -85.244522094727 -174.207153320313 6.453163623810
17.872901916504 -83.834045410156 -179.506637573242 5.674627780914
-37.250843048096 -77.691604614258 -172.589965820313 0.904064357281
16.416666030884 -82.216239929199 -175.128479003906 4.991063117981
-18.450265884399 -80.258560180664 -182.339492797852 2.223536491394
-34.049091339111 -79.720741271973 -176.581619262695 1.824434280396
-146.221023559570 -68.053771972656 -182.177703857422 2.044972658157
-25.801019668579 -79.690391540527 -182.303619384766 0.868429780006
-146.611145019531 -72.607543945313 -187.984085083008 0.845282673836
-153.307769775391 -74.786773681641 -183.517578125000 4.049639701843
-46.960350036621 -82.390342712402 -184.893249511719 1.775480031967
100.855262756348 -88.062690734863 -190.882766723633 10.969434738159
-146.646224975586 -73.455085754395 -187.083648681641 1.412107825279
-152.695297241211 -75.587516784668 -193.178695678711 2.043876409531
18.886539459229 -82.102836608887 -192.618087768555 4.216823577881
-135.719360351563 -71.690849304199 -190.133163452148 6.229632854462
21.721609115601 -75.951751708984 -194.261413574219 1.577898740768
-140.948440551758 -71.359046936035 -197.723114013672 1.384069442749
9.469547271729 -81.971069335938 -192.021118164063 6.389207839966
-138.245651245117 -73.495346069336 -197.549316406250 2.307896375656
6.519111156464 -79.449859619141 -202.165390014648 3.980692863464
-150.370559692383 -74.086700439453 -196.313720703125 3.047232627869
90.229393005371 -80.878997802734 -201.121765136719 6.639924526215
-14.986490249634 -78.299789428711 -203.325439453125 1.464315414429
-27.557912826538 -78.111366271973 -202.331878662109 4.503071784973
-11.416280746460 -85.409698486328 -199.229934692383 7.113798141479
-150.787826538086 -78.134376525879 -204.742950439453 1.471111416817
-42.165874481201 -82.223274230957 -203.375244140625 3.027546644211
-84.171699523926 -76.310493469238 -205.459976196289 5.706769943237
-31.341318130493 -80.822753906250 -209.059371948242 2.378024578094
16.956893920898 -76.745513916016 -205.462478637695 0.954607725143
-147.226684570313 -76.004447937012 -202.702560424805 3.021078109741
-87.889930725098 -77.009857177734 -209.132232666016 3.633810758591
-26.018388748169 -80.141204833984 -211.211578369141 1.776612877846
-26.559303283691 -75.752136230469 -217.503021240234 0.931171238422
-16.058826446533 -78.297248840332 -213.711349487305 1.188347101212
-26.128177642822 -79.376235961914 -211.965820312500 1.843599796295
-80.522987365723 -79.049957275391 -215.246459960938 0.385809153318
-85.069396972656 -79.540466308594 -218.700210571289 2.898999452591
-22.973869323730 -81.794036865234 -219.629562377930 2.767918348312
-7.016868114471 -79.357109069824 -218.405303955078 2.113315582275
-148.563598632813 -71.885917663574 -211.366119384766 2.448286771774
-3.382361888885 -78.108665466309 -214.246719360352 1.477793693542
81.313423156738 -82.647109985352 -222.573989868164 6.367372035980
-145.574203491211 -79.865760803223 -223.693954467773 1.647219777107
-7.238241195679 -79.708000183105 -219.874740600586 1.186780452728
-144.727218627930 -75.998046875000 -226.296752929688 2.707900762558
-151.568420410156 -83.108001708984 -220.582946777344 3.254361391068
-7.324044227600 -80.798454284668 -225.349685668945 3.016155719757
20.248586654663 -82.406959533691 -217.792984008789 5.020906448364
-141.950225830078 -75.467918395996 -223.284194946289 1.686473965645
-15.529652595520 -80.550521850586 -228.274963378906 4.224749565125
74.734161376953 -85.380706787109 -224.305450439453 10.503398895264
80.303573608398 -85.954589843750 -233.291931152344 11.125684738159
7.473893165588 -78.877990722656 -228.160202026367 0.487897336483
-26.213546752930 -78.469573974609 -239.494323730469 1.238060951233
-21.892179489136 -80.887321472168 -230.153305053711 6.683909893036
7.078198909760 -81.161361694336 -240.815536499023 2.074005842209
-47.849224090576 -75.595977783203 -238.970932006836 2.879574537277
-27.711040496826 -82.184768676758 -244.474975585938 3.698069810867
6.823375225067 -83.270263671875 -241.133438110352 3.980943679810
-65.925056457520 -79.306762695313 -246.240722656250 2.027356147766
-31.585399627686 -77.974494934082 -245.135726928711 1.484847545624
-44.912548065186 -78.769012451172 -239.688949584961 2.603330850601
-151.744430541992 -74.362869262695 -238.636901855469 2.863874197006
-51.044036865234 -81.158660888672 -245.429779052734 1.901542067528
-55.688514709473 -79.559181213379 -242.406143188477 2.344644308090
-66.304336547852 -85.135826110840 -246.334472656250 7.740220069885
-7.308678150177 -78.077430725098 -246.327453613281 2.996119737625
-85.403572082520 -75.468872070313 -248.759094238281 3.153420448303
-149.915496826172 -81.763984680176 -253.702362060547 1.509545087814
-139.513824462891 -84.539848327637 -254.148117065430 3.716182947159
-126.161148071289 -72.608421325684 -257.590911865234 2.634863376617
-155.362823486328 -73.323989868164 -257.269927978516 1.164655208588
18.088033676147 -81.666709899902 -257.645385742188 1.954994201660
-11.547116279602 -81.410232543945 -265.407470703125 2.401591777802
-153.584228515625 -76.534858703613 -260.895812988281 3.297913312912
-153.132507324219 -75.395500183105 -269.797637939453 2.490552902222
-143.198898315430 -79.421257019043 -275.845275878906 3.422678709030
-58.074825286865 -83.900840759277 -281.067749023438 10.209569931030
-37.370536804199 -79.732757568359 -284.142669677734 4.348744869232
-25.768032073975 -81.518623352051 -289.285308837891 4.742461681366
-15.257354736328 -82.106422424316 -283.338623046875 6.594984054565
-68.144561767578 -79.771682739258 -280.568756103516 7.724972724915
-78.274284362793 -77.949935913086 -282.013092041016 5.717177391052
-7.292552947998 -84.932632446289 -285.480590820313 8.380153656006
9.926745414734 -85.193916320801 -287.495758056641 7.855194091797
-135.088073730469 -79.965209960938 -284.756561279297 2.973122596741
-78.297828674316 -76.792785644531 -285.178863525391 2.549636363983
-148.961135864258 -76.862716674805 -287.489074707031 1.704212784767
-94.383781433105 -77.239654541016 -285.418090820313 4.092769145966
-70.184226989746 -77.094764709473 -285.904785156250 2.267902374268
-85.419105529785 -81.621833801270 -285.883087158203 6.805660247803
-65.516319274902 -83.022323608398 -285.638763427734 7.419777393341
-22.553802490234 -81.895523071289 -291.065155029297 4.277374744415
-3.375566005707 -80.823211669922 -287.455108642578 3.955825328827
-156.886444091797 -77.616676330566 -289.735473632813 2.556086540222
-146.419891357422 -79.130775451660 -292.582397460938 2.760622978210
-146.077148437500 -77.013832092285 -298.313659667969 1.953949213028
-155.487609863281 -76.238136291504 -303.489105224609 1.978847980499
-58.995697021484 -73.160728454590 -52.289161682129 4.104312896729
-47.378578186035 -71.734207153320 -49.504604339600 2.387559175491
-42.722171783447 -71.530639648438 -50.079395294189 2.381164312363
-76.416503906250 -78.524368286133 -54.442241668701 5.267689228058
-30.827737808228 -75.193336486816 -55.068016052246 2.805941343307
-28.317411422729 -75.739677429199 -74.651252746582 3.342625856400
74.872177124023 -85.943908691406 -83.126632690430 9.044021606445
80.422378540039 -82.540580749512 -83.510093688965 5.206038475037
79.536453247070 -79.293159484863 -83.773834228516 3.070988416672
96.476486206055 -85.675498962402 -87.987274169922 9.812920570374
72.780441284180 -81.675796508789 -89.003387451172 5.654681205750
56.777458190918 -81.622520446777 -91.035675048828 7.287084579468
44.498580932617 -79.949470520020 -98.650482177734 4.001003742218
-65.766380310059 -78.952682495117 -98.860252380371 2.047386646271
-73.317085266113 -72.452774047852 -94.819198608398 5.084726333618
44.181034088135 -77.265815734863 -99.858489990234 2.578749895096
-84.224822998047 -76.130577087402 -104.277954101563 3.828068494797
-91.888160705566 -69.806709289551 -107.073577880859 4.771861553192
48.845363616943 -77.477195739746 -99.792030334473 0.758805334568
104.729187011719 -80.490402221680 -110.570724487305 6.719649314880
33.574443817139 -81.138893127441 -118.198616027832 3.540032625198
44.523929595947 -84.185775756836 -113.241531372070 4.043725013733
43.448875427246 -81.906501770020 -119.910774230957 2.690579414368
28.493671417236 -80.057991027832 -123.410057067871 3.936284065247
109.401962280273 -81.608085632324 -114.254112243652 6.924814701080
32.356166839600 -82.712768554688 -121.778587341309 3.589146852493
30.980005264282 -78.945251464844 -126.603515625000 2.248421192169
-42.180007934570 -73.220771789551 -138.672271728516 3.932878017426
-70.003417968750 -77.561187744141 -144.343582153320 2.689845561981
-52.652599334717 -75.467651367188 -146.212432861328 1.538856863976
-71.394393920898 -75.263954162598 -137.670669555664 2.315929174423
-41.727523803711 -78.351745605469 -145.349807739258 3.437119007111
109.273887634277 -80.933189392090 -148.584121704102 5.613107204437
-71.935012817383 -75.992515563965 -148.691421508789 0.854328572750
21.325958251953 -86.249252319336 -148.808654785156 8.134922027588
32.304138183594 -75.592124938965 -147.756713867188 0.946872591972
114.086784362793 -80.866699218750 -151.079528808594 5.113440036774
7.276328086853 -75.905952453613 -152.927047729492 3.388013839722
33.182723999023 -78.234481811523 -153.716629028320 1.362891316414
-58.886772155762 -77.144737243652 -156.032974243164 4.627961158752
-48.070396423340 -81.200515747070 -167.016784667969 5.686164379120
18.511219024658 -79.946319580078 -161.296356201172 4.321074485779
-67.899421691895 -74.437019348145 -163.573425292969 1.334421634674
-64.698745727539 -72.143302917480 -155.801452636719 1.442504405975
110.501838684082 -87.087409973145 -162.368362426758 9.817277908325
-11.900124549866 -73.622039794922 -164.373703002930 6.561358928680
-56.964748382568 -80.811569213867 -172.620666503906 1.342796087265
-31.308141708374 -76.273529052734 -169.987594604492 1.727017641068
-55.488296508789 -76.663543701172 -168.327926635742 1.614385962486
29.859066009521 -86.454429626465 -165.987411499023 7.349882125854
109.971817016602 -77.365821838379 -165.140274047852 0.772843956947
108.167098999023 -88.177696228027 -178.280441284180 10.872711181641
113.852790832520 -87.524551391602 -188.960189819336 12.608008384705
107.153083801270 -85.143241882324 -170.762405395508 8.261832237244
-59.546024322510 -78.727363586426 -187.300735473633 5.685245513916
-53.189643859863 -75.964317321777 -177.223953247070 0.847338855267
22.594347000122 -81.206214904785 -180.884963989258 2.650240182877
-52.504699707031 -70.823265075684 -182.093734741211 3.504215002060
-23.494359970093 -76.144973754883 -183.271957397461 2.081954240799
-51.029388427734 -75.448303222656 -187.817443847656 1.604127287865
-144.985656738281 -76.239456176758 -192.191818237305 1.172074317932
99.154945373535 -81.222175598145 -189.273284912109 5.212963581085
