-22.331212997437 -74.316452026367 -188.557891845703 2.653787612915
-146.124816894531 -75.056442260742 -190.680465698242 1.894420981407
13.046115875244 -74.899986267090 -184.017013549805 1.062935590744
106.722854614258 -71.654251098633 -194.528244018555 3.426591157913
-158.634063720703 -69.693107604980 -197.212966918945 2.614280700684
-25.755723953247 -72.064521789551 -192.423919677734 1.032736420631
-114.957778930664 -67.961250305176 -197.443328857422 0.994256794453
-130.773849487305 -70.805267333984 -200.318588256836 3.108492374420
-107.316795349121 -68.227294921875 -204.751052856445 4.741214275360
-110.087234497070 -66.209892272949 -202.251327514648 1.774697542191
-15.879373550415 -68.094383239746 -201.298385620117 1.627001047134
19.010747909546 -74.145629882813 -199.435409545898 1.778659582138
-21.323637008667 -63.823562622070 -202.598541259766 3.312751054764
-125.387596130371 -67.767601013184 -205.471221923828 0.937308609486
-25.961793899536 -69.567123413086 -209.222213745117 4.734768390656
-129.465347290039 -74.196365356445 -205.936065673828 3.786425590515
-11.113028526306 -67.684860229492 -203.022476196289 2.435062646866
-144.113403320313 -69.908653259277 -206.305130004883 0.606464445591
90.672973632813 -72.258003234863 -210.666336059570 1.909466505051
-164.965240478516 -69.739913940430 -206.907592773438 2.189148664474
-0.036618001759 -73.457290649414 -215.272796630859 3.524790763855
13.664582252502 -65.448829650879 -213.729187011719 3.029992818832
9.212194442749 -67.200912475586 -218.059234619141 3.394445419312
83.523284912109 -72.234992980957 -219.558059692383 1.715666770935
3.753918886185 -67.554100036621 -218.259994506836 5.748010158539
15.639133453369 -72.358444213867 -215.198287963867 1.799475073814
-14.142140388489 -76.756271362305 -213.945831298828 1.216119408607
-88.366966247559 -70.791404724121 -216.879394531250 0.599160254002
-101.345161437988 -72.240837097168 -220.245651245117 1.252371430397
-2.714046001434 -70.652931213379 -222.821990966797 1.245342969894
-168.628845214844 -69.930946350098 -234.106765747070 2.526985645294
12.120689392090 -69.222091674805 -220.903549194336 2.036125659943
-142.412719726563 -71.425888061523 -225.917587280273 0.326980531216
12.517569541931 -68.664329528809 -227.545196533203 2.511328697205
-134.078918457031 -70.839523315430 -224.273498535156 1.076512813568
-115.269989013672 -69.389686584473 -231.211822509766 2.094068050385
20.168838500977 -65.985557556152 -226.407760620117 6.462647914886
74.725090026855 -71.662239074707 -230.772567749023 1.299583792686
3.972933053970 -68.847595214844 -227.435440063477 1.564958333969
-114.936569213867 -72.533470153809 -223.656555175781 2.398210048676
74.314628601074 -71.498558044434 -227.889923095703 2.556774616241
79.420333862305 -74.385238647461 -232.532379150391 1.112582087517
-121.799110412598 -70.763694763184 -233.106750488281 1.886245489120
-119.673492431641 -72.592658996582 -235.250534057617 4.048717975616
-10.745615005493 -70.841453552246 -233.242828369141 1.804888248444
69.681701660156 -75.309181213379 -229.425201416016 2.761619567871
67.679496765137 -70.411994934082 -237.142959594727 1.387431621552
72.866012573242 -71.158843994141 -234.783355712891 0.838719367981
-133.244812011719 -72.627296447754 -240.952285766602 6.704125404358
69.267013549805 -77.670822143555 -235.116912841797 2.811942577362
64.992546081543 -75.882781982422 -236.592239379883 1.969990134239
-167.280792236328 -72.596115112305 -230.455062866211 1.423785328865
-0.329104989767 -73.889915466309 -243.613555908203 1.098262429237
15.686061859131 -70.741317749023 -246.931442260742 1.493786454201
-2.903023958206 -73.991767883301 -244.603683471680 0.899048268795
15.000015258789 -75.425216674805 -245.430618286133 2.159917354584
69.485374450684 -74.118019104004 -241.709823608398 2.600747823715
10.514051437378 -76.092987060547 -241.502273559570 1.716332912445
-6.964120864868 -68.437461853027 -246.222976684570 4.687931537628
-4.086876869202 -73.026847839355 -248.038360595703 2.461720943451
66.803596496582 -71.763305664063 -246.584762573242 3.811804533005
6.718857765198 -74.677299499512 -247.865112304688 4.181871891022
-9.665767669678 -71.658012390137 -241.652847290039 1.478704214096
15.423622131348 -74.273765563965 -248.647186279297 2.791474103928
-164.960937500000 -64.403244018555 -244.173919677734 3.901522159576
61.776332855225 -70.437789916992 -251.205154418945 4.728001594543
53.188873291016 -71.525848388672 -253.127685546875 3.276035547256
57.155158996582 -76.295425415039 -242.884872436523 3.478015422821
-13.803766250610 -70.613388061523 -254.585006713867 0.848628878593
54.425529479980 -75.896606445313 -246.771896362305 3.886026382446
-73.535537719727 -73.070594787598 -251.160827636719 2.429101228714
52.165405273438 -74.148117065430 -252.763198852539 3.913805961609
-88.281822204590 -73.165771484375 -257.678283691406 1.657412409782
-127.702522277832 -72.952728271484 -256.623931884766 2.901434898376
-134.447647094727 -64.942993164063 -254.836837768555 1.673798799515
51.996849060059 -70.614013671875 -258.706359863281 6.795626163483
-137.392211914063 -67.124794006348 -259.921417236328 2.315262794495
-105.465454101563 -78.056266784668 -254.954895019531 5.171184539795
-111.049789428711 -69.416587829590 -260.737426757813 1.856838226318
-84.171073913574 -71.563720703125 -253.564895629883 2.391411542892
-112.041389465332 -72.338325500488 -266.118957519531 4.357350349426
-124.349700927734 -66.906318664551 -268.870208740234 4.597966194153
-143.848419189453 -69.686897277832 -268.800384521484 3.106848955154
-11.759576797485 -73.405807495117 -262.233612060547 3.243201971054
-172.094528198242 -68.336517333984 -270.499481201172 5.283815860748
-8.629835128784 -75.318603515625 -273.121337890625 1.953545093536
-157.470626831055 -64.098724365234 -268.602874755859 5.937747478485
-154.003448486328 -65.803199768066 -275.171966552734 2.894571065903
-168.445175170898 -63.303153991699 -276.699279785156 6.640721797943
-11.708009719849 -68.605278015137 -278.317626953125 2.329911708832
-132.818740844727 -70.207885742188 -286.148956298828 2.520627260208
-156.401046752930 -65.918098449707 -291.455749511719 0.463926106691
-142.369186401367 -69.042106628418 -284.881591796875 1.342786550522
-135.779968261719 -72.377639770508 -287.409942626953 2.258165359497
-8.474963188171 -72.006523132324 -283.046844482422 1.018373370171
-123.377883911133 -74.798355102539 -285.501953125000 1.907078742981
-141.131378173828 -70.511962890625 -288.723480224609 3.288457632065
-113.289413452148 -68.179328918457 -288.031005859375 1.348109960556
-77.329994201660 -68.029327392578 -292.689575195313 3.042186498642
-61.091903686523 -71.327545166016 -285.322601318359 1.312662243843
-4.558092117310 -72.462615966797 -290.198730468750 1.519334077835
-48.979145050049 -72.570480346680 -292.400756835938 3.134884357452
-61.493137359619 -72.912620544434 -289.569305419922 2.575825452805
-68.752662658691 -68.600555419922 -293.588623046875 3.598825454712
-86.244819641113 -71.599716186523 -298.765014648438 7.416953563690
-104.223480224609 -64.167266845703 -291.119598388672 4.830440521240
-158.646469116211 -69.067993164063 -293.668762207031 2.532788276672
-154.896820068359 -68.175537109375 -291.629028320313 1.861103534698
-126.071098327637 -72.287658691406 -299.874877929688 5.157360076904
-144.289855957031 -69.441947937012 -296.048095703125 2.358463287354
-156.703125000000 -67.520477294922 -301.949279785156 2.886685609818
-146.091384887695 -69.959892272949 -320.233917236328 7.488218307495
45.077957153320 -71.227371215820 -22.075588226318 1.853772878647
18.334211349487 -80.445777893066 -27.374349594116 8.571019172668
44.400558471680 -73.837524414063 -38.843555450439 2.924351692200
-20.166156768799 -73.616172790527 -67.749694824219 1.713180661201
79.713325500488 -71.927810668945 -67.799499511719 1.501885533333
84.661270141602 -66.802093505859 -72.967033386230 6.342665195465
75.381782531738 -71.200019836426 -74.376457214355 2.596524238586
76.809547424316 -72.502891540527 -69.182556152344 1.785446643829
96.155166625977 -74.433921813965 -75.079917907715 2.941584110260
-97.189773559570 -73.148818969727 -76.038993835449 4.483211994171
68.056304931641 -75.082717895508 -79.730354309082 3.662281990051
-36.295780181885 -68.422149658203 -78.808364868164 1.559025526047
98.264343261719 -74.155624389648 -88.192436218262 1.663012504578
64.203643798828 -78.931182861328 -90.352706909180 7.586646556854
109.720672607422 -72.529037475586 -91.888664245605 5.526505470276
105.560691833496 -76.505073547363 -99.273094177246 3.278452157974
71.152450561523 -75.187843322754 -98.234390258789 3.330864906311
-79.052917480469 -72.111236572266 -101.546447753906 1.557961106300
55.471031188965 -74.361495971680 -110.399612426758 4.313610076904
107.498588562012 -74.698783874512 -106.898200988770 1.445204615593
48.481388092041 -78.489799499512 -116.028533935547 1.832223773003
84.767539978027 -73.785804748535 -103.111923217773 2.615537881851
43.038326263428 -77.800109863281 -112.137962341309 1.641651391983
105.865661621094 -71.025016784668 -100.932113647461 1.116920709610
48.067256927490 -71.273300170898 -109.127014160156 0.633206844330
111.504440307617 -76.527061462402 -113.867286682129 2.685286521912
107.316070556641 -72.837867736816 -117.253868103027 2.112648248672
-79.086074829102 -62.630100250244 -116.323684692383 1.025887489319
-76.685699462891 -70.143630981445 -117.290893554688 2.722203731537
42.326499938965 -72.471458435059 -119.714439392090 2.618655204773
115.999366760254 -68.896354675293 -118.446884155273 3.224021434784
115.829971313477 -70.365280151367 -122.938056945801 1.803219437599
-80.710975646973 -70.381187438965 -128.644760131836 1.497146964073
108.232467651367 -72.145645141602 -122.873832702637 2.079045534134
-65.986122131348 -71.127540588379 -137.566741943359 4.884690761566
-88.938072204590 -67.450485229492 -129.707962036133 2.118473529816
-74.661384582520 -68.781822204590 -131.378494262695 1.415786147118
-57.438816070557 -64.892707824707 -127.033714294434 2.153122425079
35.666305541992 -71.150993347168 -131.977722167969 0.684045732021
42.635772705078 -71.128173828125 -135.824752807617 4.608483791351
-75.088310241699 -71.670349121094 -137.457595825195 2.193258285522
28.285036087036 -69.440063476563 -131.798690795898 1.957441568375
105.126831054688 -75.372840881348 -136.518341064453 5.194092273712
-38.820522308350 -71.488952636719 -151.085433959961 2.728180885315
25.481433868408 -70.788650512695 -147.294052124023 0.985275566578
110.639434814453 -66.557380676270 -147.501922607422 3.766449689865
35.355869293213 -74.003616333008 -145.824768066406 1.275249361992
111.092002868652 -74.570968627930 -144.882629394531 1.598933696747
-55.326419830322 -71.189842224121 -149.790115356445 0.661924302578
-66.887954711914 -73.309211730957 -152.053970336914 1.488890528679
-53.579444885254 -73.783714294434 -156.857925415039 2.811197280884
-45.122920989990 -69.589363098145 -171.013031005859 4.125762939453
1.491068959236 -69.200080871582 -155.348648071289 4.311378479004
110.135490417480 -67.630455017090 -155.631149291992 2.592827081680
107.848632812500 -70.903976440430 -162.396453857422 2.430267095566
9.399003028870 -65.867454528809 -161.890991210938 5.045908927917
1.031183004379 -70.304924011230 -162.064804077148 2.107980251312
15.043430328369 -68.196136474609 -161.439544677734 3.255773305893
20.563447952271 -70.277877807617 -150.717758178711 2.343383312225
115.499610900879 -76.781692504883 -166.610961914063 1.981134295464
106.736877441406 -74.729080200195 -174.099411010742 2.156358003616
26.731971740723 -70.394104003906 -175.156784057617 2.480702400208
27.227182388306 -70.225303649902 -166.072494506836 1.220774888992
115.427833557129 -72.622825622559 -163.341049194336 1.803859710693
-31.212747573853 -68.834632873535 -175.824707031250 3.065874338150
112.658493041992 -70.776084899902 -172.070800781250 0.783145964146
20.665853500366 -66.513435363770 -180.248031616211 1.721787929535
16.111248016357 -74.053939819336 -166.983718872070 2.056840658188
108.698097229004 -71.222640991211 -179.121902465820 1.967406392097
23.497797012329 -71.642944335938 -171.817321777344 2.771316051483
110.185234069824 -69.210083007813 -182.238601684570 2.162711620331
-40.252414703369 -68.173614501953 -179.054870605469 4.833106040955
27.377885818481 -67.962814331055 -173.635375976563 1.906651020050
108.288604736328 -71.667785644531 -186.868667602539 0.909031391144
24.337327957153 -68.986175537109 -178.738922119141 1.621978163719
-153.253387451172 -64.875984191895 -183.727890014648 2.677721261978
-32.337982177734 -70.749580383301 -190.325241088867 2.396237850189
25.200143814087 -73.139373779297 -187.503936767578 1.054568171501
-112.574142456055 -69.178375244141 -197.460983276367 1.284307837486
-112.851066589355 -70.899055480957 -192.271896362305 1.316353082657
21.612043380737 -67.541259765625 -194.501708984375 1.937183141708
12.325719833374 -72.191062927246 -188.543197631836 1.867911458015
-26.335163116455 -73.394584655762 -194.034652709961 1.244952559471
-28.281841278076 -71.085456848145 -188.906967163086 1.319975614548
-25.215217590332 -72.422378540039 -187.728897094727 2.483754634857
21.029279708862 -74.522392272949 -180.428436279297 3.411302804947
-153.083786010742 -68.151916503906 -196.085464477539 2.320093870163
-146.229721069336 -71.018409729004 -203.020339965820 2.179430007935
-141.423629760742 -68.547019958496 -195.819946289063 1.472523331642
-18.180482864380 -66.818756103516 -193.748092651367 1.365980625153
15.757792472839 -70.704421997070 -200.697494506836 2.375019788742
99.017311096191 -73.630218505859 -197.553421020508 2.605247497559
-115.705612182617 -68.668571472168 -205.917770385742 2.533475399017
17.198125839233 -68.740188598633 -203.972427368164 1.455385327339
-16.221477508545 -69.107887268066 -197.377822875977 1.044872164726
-18.577756881714 -69.214622497559 -197.652984619141 0.541115462780
96.735824584961 -71.540985107422 -202.712417602539 1.753060221672
8.195458412170 -73.231101989746 -200.677688598633 0.593997359276
-26.677221298218 -69.551162719727 -196.632766723633 1.539354920387
-121.537696838379 -70.833786010742 -205.302291870117 2.537682056427
-134.297851562500 -67.138236999512 -202.370788574219 1.117001891136
-109.427246093750 -66.609268188477 -210.208663940430 7.659139633179
-145.852828979492 -69.007835388184 -207.071670532227 2.151496648788
21.104646682739 -72.576393127441 -199.167861938477 2.035113811493
95.904342651367 -74.759223937988 -209.110610961914 1.216188788414
-166.587249755859 -67.218605041504 -208.999832153320 1.707347512245
101.511062622070 -72.617851257324 -204.585739135742 1.022584319115
-15.817845344543 -70.205551147461 -212.679367065430 1.628402829170
91.391639709473 -78.479248046875 -215.661560058594 2.245080471039
91.252212524414 -69.192550659180 -219.685958862305 2.022595643997
11.237654685974 -69.428962707520 -213.388671875000 1.402063369751
15.180787086487 -71.475479125977 -212.333267211914 2.075828790665
10.048174858093 -71.117057800293 -214.191818237305 0.708451926708
-8.968272209167 -69.347671508789 -220.755203247070 1.458323240280
-98.382568359375 -68.371810913086 -221.356964111328 1.058142781258
-6.843032836914 -72.689918518066 -221.891494750977 2.832675457001
91.856071472168 -70.692344665527 -215.412429809570 2.450212717056
-91.910522460938 -72.112762451172 -224.126617431641 3.744097709656
-101.804939270020 -71.951255798340 -223.675003051758 1.272266626358
-94.894462585449 -67.871925354004 -222.194213867188 2.316913843155
89.240455627441 -75.754707336426 -223.233459472656 3.269111633301
-134.263610839844 -71.852615356445 -229.832641601563 1.908401489258
-132.485473632813 -60.931106567383 -234.339935302734 4.139027118683
-119.642623901367 -68.217109680176 -230.386108398438 3.347292423248
-112.619171142578 -66.659133911133 -228.239776611328 1.298710346222
-132.079040527344 -66.024261474609 -223.821502685547 1.892349600792
-106.669929504395 -76.514083862305 -229.978179931641 5.310398578644
-113.975616455078 -65.549247741699 -231.165222167969 0.901445508003
-11.604659080505 -67.795341491699 -226.241699218750 2.436192750931
-20.246913909912 -73.003677368164 -228.492507934570 1.725094914436
-0.738171994686 -71.128776550293 -235.017669677734 2.155723810196
-8.425206184387 -68.480018615723 -231.360610961914 0.926663815975
15.973665237427 -72.892616271973 -233.795089721680 1.188892960548
-18.290752410889 -71.720466613770 -229.382888793945 1.393510937691
-160.962661743164 -69.104309082031 -226.774337768555 2.507006406784
-1.981222033501 -69.415328979492 -232.438461303711 0.767468631268
82.579490661621 -72.694374084473 -230.320465087891 1.378411531448
8.130208969116 -69.278755187988 -238.739120483398 1.151400446892
-9.844639778137 -69.488815307617 -230.331344604492 1.420473337173
-154.682525634766 -63.840297698975 -235.927398681641 2.759140253067
-138.015472412109 -70.636619567871 -236.624237060547 4.546825885773
69.955650329590 -67.297134399414 -237.884765625000 1.333531141281
-7.296835899353 -69.710144042969 -235.648986816406 1.056891083717
2.052468061447 -69.415489196777 -237.184005737305 1.874878525734
73.502822875977 -71.261230468750 -240.535888671875 3.329627990723
77.702743530273 -72.861923217773 -237.865127563477 3.954124689102
66.866950988770 -75.133285522461 -237.792083740234 1.152579665184
-2.574265956879 -67.636222839355 -237.814254760742 1.099050641060
54.924629211426 -71.500244140625 -240.034652709961 2.163623809814
-15.485289573669 -69.693405151367 -240.673400878906 1.289398193359
-15.230065345764 -68.392654418945 -242.166305541992 2.219705820084
9.459998130798 -71.204887390137 -241.022705078125 0.719090938568
66.652900695801 -71.221946716309 -247.275070190430 4.361370086670
59.882553100586 -71.939758300781 -240.824615478516 1.595022320747
53.764080047607 -67.372764587402 -248.712158203125 1.111914038658
62.246150970459 -74.386314392090 -246.064376831055 3.302039623260
-16.634397506714 -67.136383056641 -248.714965820313 2.756766080856
-83.646835327148 -66.483665466309 -250.042251586914 2.971179962158
-76.983909606934 -64.801887512207 -255.860763549805 6.051591396332
42.216728210449 -70.731224060059 -252.435958862305 1.427224755287
-142.755722045898 -64.551818847656 -251.974746704102 3.095668554306
40.862648010254 -71.592826843262 -260.345611572266 4.132615566254
-84.955734252930 -69.753784179688 -254.609985351563 1.383694529533
-153.385528564453 -68.967864990234 -259.328002929688 2.703017473221
-143.324691772461 -67.189369201660 -258.759399414063 1.578160524368
48.644065856934 -72.719177246094 -253.527282714844 1.909891724586
-126.803947448730 -66.711463928223 -254.994079589844 0.361584365368
-117.219718933105 -68.306442260742 -259.199279785156 2.271956920624
-95.343872070313 -68.313049316406 -256.558685302734 0.952440798283
-17.035013198853 -75.887817382813 -256.599792480469 3.881541967392
32.504154205322 -71.420501708984 -261.681335449219 2.023044109344
21.830472946167 -74.330680847168 -263.385925292969 2.268652677536
-155.322219848633 -67.391853332520 -258.725708007813 2.705004215240
-112.894844055176 -68.765350341797 -266.643707275391 5.052757263184
-11.916956901550 -71.420745849609 -261.015716552734 3.339545249939
-134.198318481445 -67.274063110352 -268.522521972656 4.534285068512
-11.759399414063 -68.200469970703 -274.649932861328 1.886672973633
-162.025115966797 -67.554298400879 -282.101135253906 2.291236639023
-9.144982337952 -66.111938476563 -278.353240966797 2.313576459885
-162.670333862305 -65.521324157715 -293.604827880859 5.423733234406
-157.468673706055 -67.416786193848 -280.287841796875 4.613761901855
-149.765991210938 -66.165092468262 -288.474151611328 1.523066401482
-168.888809204102 -66.906524658203 -286.700500488281 4.337700843811
19.937503814697 -65.758010864258 -289.846038818359 5.103012084961
-104.502227783203 -72.910301208496 -289.195281982422 2.572559118271
-87.878334045410 -67.064285278320 -288.234954833984 2.634871482849
-169.604125976563 -66.827339172363 -287.330902099609 4.860732555389
-88.708534240723 -70.384773254395 -292.312774658203 1.689637660980
-156.017654418945 -72.430801391602 -292.185638427734 2.588875770569
-74.976982116699 -70.819419860840 -294.464599609375 4.312266826630
-66.675842285156 -69.321022033691 -292.550872802734 3.511647939682
-81.189315795898 -67.330833435059 -292.978546142578 3.831974029541
-2.353197097778 -65.090095520020 -290.015838623047 1.804455161095
-84.076843261719 -70.025177001953 -294.791809082031 4.569093704224
-96.804443359375 -69.223060607910 -294.026092529297 3.060163259506
-117.098793029785 -67.463294982910 -296.046081542969 4.009194374084
-115.746810913086 -66.426094055176 -298.005249023438 6.157441139221
-138.312896728516 -63.093093872070 -295.666992187500 6.516140460968
-141.527389526367 -74.864608764648 -303.007354736328 3.063251018524
-144.562805175781 -73.067222595215 -313.868988037109 2.360538244247
24.324697494507 -71.751525878906 -19.487016677856 2.182023525238
28.580711364746 -68.377693176270 -25.340953826904 2.916442632675
28.639020919800 -74.862556457520 -19.079515457153 2.819700479507
45.152534484863 -73.400070190430 -28.281961441040 2.398655176163
20.460369110107 -73.606155395508 -33.613437652588 2.492696523666
-80.893241882324 -68.164695739746 -53.253963470459 1.373893976212
84.265281677246 -71.296463012695 -66.371604919434 2.641708374023
-13.633186340332 -69.937606811523 -69.775299072266 1.954432129860
100.476623535156 -74.002372741699 -73.239990234375 4.458559036255
94.608024597168 -68.629722595215 -80.280258178711 5.292438030243
72.193923950195 -77.204513549805 -83.562072753906 2.846210718155
67.225234985352 -69.801902770996 -88.329292297363 1.989202141762
-50.096870422363 -69.210464477539 -84.631019592285 0.727953255177
58.474937438965 -71.518920898438 -83.178443908691 3.150243997574
-100.287147521973 -69.547485351563 -91.464553833008 3.718037605286
-49.813484191895 -70.205390930176 -90.900314331055 4.270988464355
-57.513103485107 -74.018539428711 -87.603218078613 4.362913608551
94.845901489258 -72.821395874023 -98.251823425293 2.660291671753
55.659980773926 -72.457298278809 -102.956611633301 1.159402132034
60.737636566162 -68.464202880859 -93.124977111816 1.752258062363
-95.884452819824 -67.834503173828 -97.782981872559 1.635554552078
108.159843444824 -68.787422180176 -95.484779357910 1.462945818901
46.666923522949 -70.789184570313 -96.048248291016 1.539563536644
100.538299560547 -69.848876953125 -98.619338989258 0.506863415241
105.443542480469 -71.339576721191 -108.229644775391 1.227244973183
99.780540466309 -70.485610961914 -105.431945800781 3.617866754532
74.089591979980 -70.494094848633 -106.155555725098 2.457211017609
84.982330322266 -71.048370361328 -108.795341491699 5.219676017761
45.837978363037 -73.917900085449 -112.129730224609 2.279359102249
107.180755615234 -69.776405334473 -109.032348632813 0.400936692953
45.748493194580 -71.510978698730 -111.089286804199 2.280245542526
45.584793090820 -68.294052124023 -103.165908813477 2.511116981506
106.299545288086 -74.214347839355 -117.495056152344 2.928169727325
-80.087242126465 -65.948013305664 -110.498634338379 1.381989717484
46.891437530518 -68.925888061523 -116.203704833984 3.001139879227
34.770061492920 -71.484489440918 -113.568031311035 1.465988039970
105.951080322266 -72.790763854980 -109.479064941406 1.124630689621
42.366134643555 -69.819313049316 -115.026161193848 0.889423429966
-90.423156738281 -67.689002990723 -121.517547607422 2.101260662079
-98.355354309082 -67.777610778809 -119.146430969238 2.858918666840
108.208892822266 -69.047172546387 -123.510589599609 1.389786839485
-93.047088623047 -72.960716247559 -118.981079101563 1.997993111610
38.818851470947 -69.748023986816 -125.192802429199 1.263286352158
36.244338989258 -70.192817687988 -119.050834655762 1.668616771698
-79.258224487305 -70.281570434570 -125.799743652344 0.669326961040
28.024436950684 -67.297683715820 -131.180557250977 3.461774587631
108.643310546875 -71.598266601563 -135.156646728516 2.446786165237
-48.564167022705 -69.954269409180 -140.374557495117 0.863318383694
-89.855285644531 -70.159812927246 -133.863189697266 1.527767896652
34.566825866699 -71.157745361328 -139.709640502930 1.979835867882
-87.844238281250 -68.919113159180 -138.109054565430 1.776376008987
-91.349349975586 -71.378150939941 -137.619873046875 2.779570341110
-48.301967620850 -72.216194152832 -138.175674438477 0.874503910542
-73.219306945801 -70.141296386719 -141.346878051758 0.600453615189
-50.474369049072 -69.128608703613 -140.814163208008 1.574164152145
113.487831115723 -69.261482238770 -139.654129028320 0.853493630886
-75.667785644531 -64.488525390625 -143.375473022461 3.036430358887
35.242027282715 -71.810180664063 -131.303131103516 1.606750369072
-76.186126708984 -64.954444885254 -141.226013183594 1.499725580215
-79.162086486816 -67.742744445801 -135.137786865234 1.340332269669
-87.601036071777 -69.746879577637 -138.467147827148 2.390787363052
-57.666492462158 -68.415794372559 -154.158493041992 6.083942413330
30.926858901978 -68.323638916016 -152.545562744141 2.568938016891
32.538036346436 -70.180053710938 -154.125152587891 0.686831474304
19.510419845581 -68.639419555664 -146.943359375000 2.112920522690
112.802406311035 -74.799331665039 -151.465057373047 1.222952365875
-98.375625610352 -74.912376403809 -158.911636352539 6.447337150574
16.858175277710 -70.721771240234 -148.442474365234 0.801189303398
-70.018814086914 -71.775840759277 -149.128356933594 1.087656855583
22.630512237549 -68.940933227539 -151.009567260742 1.042043089867
-44.945899963379 -67.473922729492 -155.949905395508 1.168376684189
6.537524223328 -66.552062988281 -150.595550537109 3.987672805786
6.833259105682 -68.948204040527 -158.109848022461 1.925605654716
16.514329910278 -69.293342590332 -164.010864257813 2.922668457031
-46.941814422607 -70.532394409180 -166.962570190430 3.838310003281
-41.485027313232 -63.694602966309 -155.129013061523 4.791560649872
-47.484691619873 -67.708786010742 -158.687530517578 2.213905334473
-101.085754394531 -67.224555969238 -172.304962158203 1.426706314087
16.936008453369 -66.056724548340 -173.456604003906 3.575710296631
-37.986656188965 -71.230888366699 -176.325256347656 2.422675132751
12.529165267944 -62.406074523926 -180.151992797852 7.594499111176
-147.078155517578 -72.431541442871 -174.386276245117 1.258939146996
-35.323261260986 -64.523651123047 -177.606216430664 5.305789470673
-152.026367187500 -64.254112243652 -179.310607910156 1.057414770126
18.363477706909 -71.263298034668 -182.994949340820 2.388656377792
-33.799678802490 -73.986686706543 -173.600311279297 3.714886903763
-108.956939697266 -71.218452453613 -185.505447387695 2.543770551682
-104.784164428711 -68.341522216797 -185.091705322266 2.105538129807
-34.358882904053 -67.057731628418 -182.924407958984 3.070426940918
-18.131929397583 -69.510826110840 -190.480850219727 1.093297362328
13.555283546448 -70.617614746094 -191.261932373047 3.010468959808
19.873741149902 -69.628341674805 -198.002197265625 2.025444030762
17.372842788696 -63.848896026611 -189.654190063477 2.957066535950
-140.065322875977 -67.900970458984 -187.996276855469 1.819848656654
16.260149002075 -69.576766967773 -196.042037963867 1.289015889168
10.016101837158 -70.572120666504 -199.898040771484 1.622403383255
-140.738784790039 -65.005828857422 -199.396392822266 1.068577170372
-118.548149108887 -69.284217834473 -202.205993652344 3.735589027405
15.305828094482 -67.184066772461 -200.328109741211 2.280859231949
-112.430213928223 -70.938102722168 -194.988510131836 2.216869115829
-109.245285034180 -70.164581298828 -194.621826171875 1.242138862610
-163.131698608398 -70.683250427246 -204.029998779297 1.324003458023
-17.295688629150 -74.621742248535 -206.067581176758 2.942240715027
15.797752380371 -65.653450012207 -204.275436401367 2.248382806778
-138.324996948242 -64.230293273926 -202.063049316406 2.598670959473
-134.387054443359 -68.846977233887 -210.979782104492 6.351664543152
-19.271684646606 -67.580207824707 -208.846206665039 1.479443788528
-12.254089355469 -66.982902526855 -206.416793823242 2.124826908112
-14.904677391052 -70.946929931641 -212.122924804688 1.653682351112
-146.261840820313 -70.638862609863 -211.039794921875 2.619188547134
-20.558351516724 -71.685340881348 -205.616424560547 0.839480876923
-12.493895530701 -66.475685119629 -211.964965820313 2.659462928772
15.460292816162 -68.591178894043 -210.929595947266 2.008158922195
-11.080014228821 -69.480239868164 -210.170562744141 1.229320526123
10.890207290649 -65.368247985840 -214.357421875000 3.059024095535
-7.481926918030 -71.990112304688 -219.216918945313 3.028474330902
-15.272260665894 -72.246566772461 -213.289810180664 0.779014408588
10.502996444702 -69.416137695313 -227.086532592773 0.510647177696
-4.443532943726 -70.009658813477 -221.188598632813 1.395032882690
12.586585044861 -67.998054504395 -223.896881103516 1.091391682625
-4.582848072052 -71.658691406250 -225.544372558594 1.945380449295
-158.935333251953 -68.021942138672 -223.925506591797 1.399682998657
84.515029907227 -71.479125976563 -223.306686401367 2.027841567993
-134.488021850586 -67.150642395020 -224.387786865234 0.933273553848
-134.313873291016 -67.235206604004 -227.314758300781 1.466294050217
-8.280794143677 -69.119987487793 -230.264526367188 1.829658031464
13.392844200134 -71.958778381348 -236.307601928711 2.252192020416
-150.792144775391 -65.716560363770 -224.764648437500 1.952064633369
85.155479431152 -67.416076660156 -223.320343017578 3.068123817444
-7.683527946472 -69.622230529785 -226.113845825195 1.279557824135
3.167190074921 -71.137725830078 -229.220245361328 1.137146353722
71.625396728516 -69.536636352539 -229.829071044922 1.246120452881
4.528233051300 -71.453758239746 -234.464553833008 2.233031034470
-17.626983642578 -66.642936706543 -233.039413452148 5.182513237000
-120.938285827637 -71.823707580566 -239.656723022461 6.546663284302
-4.834495067596 -69.322784423828 -239.868347167969 1.665600180626
-0.610623002052 -70.601539611816 -235.155029296875 2.180017471313
68.479736328125 -71.866661071777 -237.488006591797 1.739923119545
-162.025146484375 -66.820846557617 -241.620712280273 1.604363322258
-9.278811454773 -68.134750366211 -248.835144042969 3.205975770950
-166.035919189453 -68.817779541016 -242.412277221680 1.181416392326
8.571372985840 -70.853271484375 -246.705307006836 3.324872493744
-166.819030761719 -66.755767822266 -241.166076660156 2.876948833466
-156.094161987305 -64.015525817871 -245.566986083984 5.061543941498
54.620861053467 -74.190078735352 -253.882568359375 5.605829238892
63.769786834717 -68.046127319336 -245.628112792969 2.871942520142
54.713718414307 -69.372009277344 -245.027832031250 0.530379712582
50.180877685547 -73.597221374512 -250.122421264648 1.801024317741
-160.239471435547 -66.423423767090 -248.886367797852 2.259202003479
-152.105300903320 -68.144348144531 -253.199554443359 1.626352906227
-15.359280586243 -68.519050598145 -249.287185668945 0.806099474430
-153.958328247070 -65.902389526367 -250.107910156250 4.019173145294
20.911117553711 -72.242073059082 -257.921081542969 2.680048465729
-165.404586791992 -66.164901733398 -254.103530883789 3.300374746323
-168.968475341797 -61.650867462158 -246.511703491211 7.990145683289
-80.143127441406 -66.210044860840 -254.370956420898 3.740715742111
-170.918655395508 -68.060066223145 -268.293212890625 4.817461490631
-85.874542236328 -69.559272766113 -262.322204589844 6.440052509308
37.267951965332 -64.663948059082 -251.456253051758 1.066066145897
24.635646820068 -73.216590881348 -257.887939453125 1.845911622047
-157.557800292969 -64.137817382813 -261.736358642578 2.317344427109
-101.794242858887 -64.277381896973 -263.420471191406 5.309335231781
39.474563598633 -69.007575988770 -260.320098876953 1.993853569031
-100.947273254395 -68.151367187500 -261.531280517578 2.237812519073
-151.530029296875 -64.338356018066 -261.627502441406 1.720480680466
-106.406982421875 -64.771728515625 -260.729461669922 2.481441259384
-162.614410400391 -67.036186218262 -261.418518066406 1.314678907394
-113.054016113281 -68.876579284668 -264.663452148438 3.317663669586
-154.238601684570 -68.349128723145 -271.199096679688 4.310251712799
-157.161743164063 -69.490829467773 -266.215942382813 1.445362567902
-166.854415893555 -70.301780700684 -267.783477783203 2.128879785538
-159.544692993164 -67.220321655273 -267.857421875000 2.908699989319
-165.396423339844 -63.690357208252 -271.231750488281 6.755583286285
-163.289459228516 -61.801834106445 -270.026428222656 8.199560165405
24.309312820435 -70.569114685059 -265.787506103516 1.313874959946
-148.875030517578 -65.518928527832 -270.471740722656 4.255152225494
-147.938735961914 -65.243576049805 -290.105651855469 0.994525730610
18.467271804810 -76.086425781250 -281.631988525391 2.957514286041
-7.676780223846 -67.945892333984 -277.768951416016 1.934635758400
-126.028442382813 -71.173805236816 -287.461547851563 2.163843870163
-136.913726806641 -73.690139770508 -291.349487304688 1.310180187225
-137.362396240234 -68.001457214355 -289.252502441406 1.714177370071
-128.553848266602 -64.150108337402 -287.640502929688 1.882577538490
-115.645797729492 -66.980354309082 -291.317138671875 1.148013472557
-107.670234680176 -69.915771484375 -289.890533447266 1.881693959236
12.754377365112 -68.110183715820 -293.846557617188 4.327691078186
-89.559913635254 -66.550415039063 -287.767333984375 2.508317708969
-145.777343750000 -68.804252624512 -297.600585937500 2.685919523239
-99.011184692383 -65.460769653320 -291.193939208984 3.273456096649
-128.404708862305 -66.617042541504 -294.651184082031 2.205786228180
12.024336814880 -75.359359741211 -290.623291015625 2.609906435013
-114.843330383301 -70.398559570313 -296.805084228516 4.561197280884
1.838495016098 -69.712730407715 -290.983642578125 1.667186021805
-142.257064819336 -69.483665466309 -292.156402587891 1.099932551384
-155.819122314453 -69.753158569336 -304.597290039063 1.560974717140
-163.238540649414 -68.007041931152 -310.942535400391 7.732683181763
-152.349288940430 -68.277503967285 -314.078552246094 2.239916324615
47.990539550781 -75.883506774902 -26.846944808960 4.549784183502
18.582946777344 -71.509521484375 -33.459247589111 3.030462026596
33.810470581055 -72.679061889648 -39.649810791016 1.490838289261
-51.344055175781 -68.463516235352 -53.735542297363 5.488992691040
-14.309790611267 -67.815673828125 -63.777389526367 2.247178792953
93.025482177734 -76.664962768555 -76.021057128906 1.971451520920
65.751899719238 -68.792495727539 -69.164871215820 4.224088191986
-21.084529876709 -71.259330749512 -76.498794555664 3.288403749466
-94.116409301758 -68.012039184570 -83.947616577148 2.742749214172
-39.502540588379 -70.200988769531 -82.112838745117 4.266099452972
63.106727600098 -71.771202087402 -82.203628540039 3.687033891678
55.249301910400 -76.768432617188 -85.386215209961 5.778840065002
56.303997039795 -72.651443481445 -88.636489868164 1.419733524323
-57.117233276367 -71.665664672852 -87.363548278809 2.857673645020
67.313400268555 -69.439865112305 -89.306472778320 1.822832822800
44.114212036133 -75.242614746094 -97.774337768555 1.798653960228
65.916351318359 -74.248329162598 -91.938591003418 3.995389938354
-63.832469940186 -67.608230590820 -99.330322265625 3.193466424942
53.102775573730 -66.914146423340 -98.453788757324 2.309128999710
45.787460327148 -72.459289550781 -99.479232788086 1.369950056076
102.907577514648 -74.975883483887 -96.002502441406 2.411464214325
-70.830329895020 -75.397773742676 -101.711196899414 1.286162257195
109.703414916992 -73.160385131836 -102.914306640625 1.815561771393
-80.999824523926 -66.923690795898 -97.125854492188 4.023076534271
55.601203918457 -72.517608642578 -108.239448547363 3.127263069153
49.150104522705 -68.937156677246 -103.321983337402 1.598575115204
94.918014526367 -71.351440429688 -100.581634521484 1.104703664780
87.328201293945 -62.845386505127 -114.915893554688 5.750802516937
55.202823638916 -73.831886291504 -105.624938964844 2.471209287643
-70.939895629883 -70.382308959961 -107.879035949707 3.161984682083
-80.270568847656 -69.726051330566 -112.051116943359 0.993645489216
-84.616600036621 -71.854415893555 -122.495544433594 2.759407043457
-95.094619750977 -77.073265075684 -118.720237731934 4.531418800354
101.735954284668 -72.898040771484 -115.724822998047 4.407423496246
-86.758338928223 -65.806137084961 -122.280456542969 2.474997997284
-80.239326477051 -65.951995849609 -122.076789855957 1.245529651642
110.492835998535 -69.194213867188 -117.506797790527 2.460274934769
-63.886833190918 -63.539943695068 -119.916404724121 0.909963726997
111.892463684082 -74.459220886230 -132.499725341797 1.303358435631
107.520965576172 -70.853149414063 -131.418838500977 1.931527376175
111.737594604492 -70.820213317871 -118.793708801270 0.741028010845
-94.381652832031 -66.327270507813 -136.615295410156 1.621800303459
-53.285217285156 -64.615272521973 -141.268341064453 0.579105317593
-76.464721679688 -71.182067871094 -148.728515625000 1.814887642860
-69.094772338867 -65.932037353516 -152.961822509766 3.992443323135
-74.071411132813 -66.866333007813 -146.177429199219 2.304859876633
-53.949710845947 -64.697326660156 -149.348815917969 3.399267673492
-48.180755615234 -66.558357238770 -154.106872558594 2.406263113022
19.513320922852 -71.877937316895 -146.591506958008 2.990837097168
-95.082466125488 -63.177295684814 -156.993667602539 2.299112796783
-43.825614929199 -72.189872741699 -150.171676635742 1.573431015015
-55.283065795898 -67.631439208984 -154.308547973633 4.608084201813
-44.622421264648 -64.178878784180 -158.142379760742 4.582886695862
27.755941390991 -73.934043884277 -161.588394165039 2.546206951141
-48.579273223877 -68.061904907227 -157.439682006836 1.981635570526
-96.552139282227 -69.066589355469 -151.025985717773 1.361858248711
-42.436222076416 -67.695053100586 -162.293533325195 1.142652630806
24.920661926270 -67.061119079590 -159.050857543945 1.235807180405
-101.021598815918 -68.812484741211 -166.363159179688 0.571887433529
21.650571823120 -68.263450622559 -160.308715820313 0.420430928469
-104.811935424805 -62.202011108398 -173.868438720703 1.125834226608
-100.680984497070 -63.707988739014 -166.496520996094 3.477844953537
22.292547225952 -63.630294799805 -170.102706909180 3.312886714935
25.202157974243 -66.868354797363 -169.473403930664 1.168780088425
-107.289817810059 -69.836814880371 -176.656158447266 2.246624231339
-144.162445068359 -67.025367736816 -178.272384643555 3.150063991547
-24.923301696777 -66.777648925781 -188.769485473633 2.204731941223
-22.407636642456 -65.532928466797 -185.632476806641 3.474860191345
-113.319023132324 -65.470695495605 -191.826354980469 0.831713914871
-141.458953857422 -65.787574768066 -191.810668945313 2.778963804245
-105.451591491699 -70.802558898926 -183.087783813477 2.263468742371
-150.598724365234 -70.886924743652 -200.709152221680 2.377727985382
-129.083847045898 -70.103561401367 -195.529998779297 1.369060873985
-136.985977172852 -66.048095703125 -198.110855102539 3.748497962952
-21.486297607422 -63.371337890625 -195.259643554688 4.017632484436
-120.223083496094 -67.847007751465 -194.493087768555 2.602404832840
-113.774528503418 -64.332969665527 -197.126586914063 0.949858307838
-18.342374801636 -71.586509704590 -196.204315185547 1.338349580765
-154.449768066406 -62.699077606201 -197.508407592773 1.167893052101
-135.600845336914 -69.378120422363 -213.418411254883 8.771631240845
-123.685737609863 -63.749069213867 -206.771575927734 2.707067489624
14.964520454407 -66.285896301270 -206.541809082031 2.009298563004
-161.010147094727 -66.642784118652 -208.472045898438 0.325935244560
11.127224922180 -72.343246459961 -212.609878540039 2.007273912430
13.967289924622 -74.634590148926 -215.916900634766 2.647472143173
-18.663005828857 -67.954780578613 -210.545455932617 1.684840679169
-5.728289127350 -69.446487426758 -215.182037353516 1.820625782013
-166.775512695313 -67.174324035645 -215.909042358398 1.398530721664
-158.873428344727 -64.239959716797 -220.362228393555 3.536746025085
-101.884246826172 -68.228706359863 -220.364700317383 1.802710413933
-100.354843139648 -65.436599731445 -229.508163452148 5.161017417908
-158.250320434570 -63.615314483643 -222.612518310547 3.928571939468
-106.164634704590 -67.020645141602 -224.451614379883 0.899769365788
-16.722110748291 -70.262329101563 -220.259902954102 1.899108648300
-124.368331909180 -66.154747009277 -231.427963256836 1.324750065804
-144.562957763672 -69.279045104980 -226.424407958984 2.913645505905
-7.515563011169 -71.684234619141 -229.303680419922 1.757894396782
-132.209747314453 -64.306419372559 -229.053970336914 1.292265772820
-125.526458740234 -61.888271331787 -229.407638549805 1.731627821922
-110.990020751953 -68.814552307129 -233.348236083984 2.126089334488
-0.094956003129 -68.441551208496 -231.921661376953 1.872154951096
-108.235031127930 -64.753547668457 -229.590881347656 2.068931102753
-157.887924194336 -71.441230773926 -224.434524536133 2.035384178162
-146.608215332031 -71.121322631836 -228.538040161133 1.825882196426
-164.836715698242 -66.864776611328 -230.308029174805 1.690620183945
-6.798242092133 -67.716476440430 -230.805511474609 2.335000514984
-9.307354927063 -58.869903564453 -232.240737915039 7.401329517365
77.091964721680 -60.755565643311 -228.542724609375 7.380206108093
3.272684097290 -65.748664855957 -235.686508178711 0.728835284710
-143.365539550781 -64.952606201172 -236.045471191406 2.862878084183
-12.480609893799 -70.368751525879 -232.151657104492 1.984918355942
77.199287414551 -74.197029113770 -224.792938232422 1.650640845299
69.658325195313 -69.734596252441 -233.364166259766 1.458754658699
-129.885833740234 -66.514823913574 -233.673934936523 3.111289739609
-160.710861206055 -65.504035949707 -230.031723022461 3.001450300217
-111.071250915527 -63.369594573975 -234.121017456055 4.569461822510
-119.381042480469 -65.756156921387 -236.210784912109 2.974816560745
-168.970596313477 -61.634849548340 -236.474304199219 7.297409534454
-158.146713256836 -64.163803100586 -241.251815795898 4.386137008667
-135.260894775391 -65.440727233887 -243.377334594727 9.341065406799
-9.854793548584 -74.049385070801 -235.250305175781 2.665954113007
-2.611620903015 -67.089874267578 -245.231048583984 2.674692869186
-160.209960937500 -63.512123107910 -244.543792724609 5.177872180939
8.706589698792 -71.695915222168 -242.704177856445 1.281702876091
9.089955329895 -67.007278442383 -241.063919067383 0.743572533131
-163.818222045898 -65.238662719727 -245.118820190430 3.151670932770
13.341847419739 -68.434516906738 -244.477584838867 1.788701057434
51.690658569336 -68.174873352051 -249.378585815430 1.316060304642
52.958049774170 -65.608116149902 -253.790130615234 3.165088176727
-7.143061161041 -69.225242614746 -247.034973144531 3.924369573593
50.872367858887 -66.620063781738 -247.762496948242 1.104325294495
-162.445648193359 -66.476547241211 -258.412963867188 2.993878841400
-164.582138061523 -63.475715637207 -252.029190063477 5.076073169708
-162.835021972656 -68.032752990723 -249.758468627930 0.588103115559
55.333595275879 -67.094757080078 -256.149383544922 5.776311874390
-90.183876037598 -70.491584777832 -255.466506958008 2.316189289093
-123.921478271484 -65.436759948730 -254.964126586914 2.177726030350
-107.301078796387 -68.593879699707 -256.760040283203 2.027298688889
31.715238571167 -68.944007873535 -258.166259765625 1.302467823029
38.923599243164 -69.681587219238 -255.424713134766 1.602373123169
-96.887886047363 -66.711128234863 -255.380172729492 2.003041982651
-92.027923583984 -65.408271789551 -259.472198486328 4.002110958099
45.508609771729 -67.035301208496 -257.874664306641 3.619369745255
41.127613067627 -66.411964416504 -256.025665283203 1.530784606934
-156.825042724609 -67.194900512695 -263.032379150391 2.708044528961
33.886470794678 -65.376922607422 -255.847549438477 2.034956216812
-138.470840454102 -68.244819641113 -268.374237060547 5.430820465088
-117.295364379883 -62.946880340576 -262.004364013672 2.718006372452
-131.638092041016 -63.653682708740 -268.679779052734 6.250020027161
36.182785034180 -72.943321228027 -266.032623291016 7.336825847626
-127.371612548828 -69.147064208984 -266.760131835938 2.831747531891
-9.556454658508 -64.897674560547 -259.117340087891 3.841640710831
21.899915695190 -70.860832214355 -276.774108886719 1.850152611732
-12.809890747070 -66.572395324707 -270.008972167969 2.806415796280
24.901754379272 -65.134582519531 -285.880310058594 6.858120918274
-149.425216674805 -67.841491699219 -285.781463623047 2.088563680649
-11.149780273438 -71.594406127930 -278.076171875000 0.727516531944
-153.564086914063 -68.645172119141 -291.778839111328 2.084209918976
-126.459434509277 -65.233596801758 -287.443878173828 0.821669578552
-159.648391723633 -67.601593017578 -292.340759277344 2.868376255035
-121.832870483398 -65.969520568848 -288.566406250000 2.955675601959
-105.861366271973 -70.383964538574 -293.167114257813 2.215575218201
-8.060817718506 -68.195396423340 -291.295196533203 3.442379951477
-110.693435668945 -67.243408203125 -296.367492675781 5.708418369293
-117.942024230957 -71.846549987793 -292.734252929688 1.991690635681
-121.189865112305 -69.365211486816 -294.154479980469 3.101097345352
-136.866775512695 -63.432189941406 -292.889953613281 4.418627262115
-124.242729187012 -70.835334777832 -296.312561035156 3.246346235275
-159.023529052734 -67.248466491699 -292.019714355469 3.274445295334
-144.929458618164 -72.487747192383 -299.689178466797 0.515609264374
-152.332077026367 -65.506324768066 -300.309967041016 1.914030551910
-153.606704711914 -63.188674926758 -309.563568115234 4.590908050537
-158.604934692383 -64.218414306641 -304.536437988281 6.368143558502
-147.023696899414 -68.184623718262 -315.088043212891 3.102540731430
-149.345016479492 -67.230735778809 -316.168548583984 4.076782226563
32.947990417480 -70.022697448730 -18.760009765625 2.094736814499
43.752586364746 -72.382301330566 -20.578292846680 0.874941110611
29.717067718506 -65.897552490234 -33.077621459961 2.841029167175
51.064880371094 -68.393661499023 -32.211891174316 2.309262037277
31.242801666260 -67.795822143555 -39.331329345703 2.649107217789
40.465862274170 -74.923294067383 -37.328788757324 3.277006149292
-55.409084320068 -68.682281494141 -47.297046661377 1.530593156815
84.669837951660 -69.670249938965 -60.941482543945 3.386556148529
83.543533325195 -69.289237976074 -67.620399475098 2.786231517792
-94.153656005859 -63.913803100586 -66.161727905273 2.805183649063
-14.262935638428 -66.662040710449 -63.489955902100 2.888559818268
-87.382385253906 -71.606018066406 -69.393920898438 3.595557451248
96.933639526367 -68.346702575684 -70.863510131836 0.553999900818
-16.753967285156 -65.612281799316 -69.127540588379 1.590626716614
68.551063537598 -71.655418395996 -79.233406066895 1.311630249023
-39.651599884033 -70.660995483398 -78.983749389648 1.606588006020
-29.820459365845 -72.778274536133 -82.587791442871 4.843183040619
55.710002899170 -65.890502929688 -88.522323608398 0.855282187462
-47.419868469238 -78.389045715332 -90.439888000488 3.217701911926
61.831474304199 -64.943275451660 -82.055252075195 1.925114154816
53.379737854004 -68.230781555176 -86.582633972168 0.642892718315
49.184558868408 -73.321815490723 -93.891571044922 1.488215565681
65.457687377930 -68.059577941895 -93.972290039063 2.225393533707
58.318714141846 -68.623893737793 -100.801757812500 1.471356630325
103.565460205078 -65.756820678711 -96.692764282227 0.886259794235
103.587669372559 -73.412788391113 -96.961593627930 0.951398491859
57.839973449707 -73.711174011230 -99.710357666016 2.442844152451
108.789505004883 -68.158226013184 -101.352691650391 1.406943559647
-71.885047912598 -74.817871093750 -102.594818115234 2.718613386154
-71.689262390137 -70.703735351563 -105.537010192871 3.881462812424
104.609794616699 -74.218498229980 -98.305290222168 0.994092702866
54.232864379883 -67.745407104492 -103.484069824219 1.533581972122
71.365280151367 -71.897476196289 -103.641441345215 3.258469104767
-68.537284851074 -60.033298492432 -102.784683227539 2.468839645386
