0.926841974258 -76.087554931641 -162.197525024414 2.072072029114
109.154335021973 -73.105873107910 -159.173171997070 1.096390008926
110.327972412109 -69.406532287598 -158.234558105469 0.436164110899
114.797676086426 -72.975624084473 -160.712265014648 1.491240262985
-63.339290618896 -77.537673950195 -156.147232055664 1.277980566025
-45.629550933838 -75.182991027832 -158.207443237305 1.660038471222
5.410533905029 -75.982208251953 -167.996185302734 3.670521259308
-24.227622985840 -71.077178955078 -171.018951416016 4.017735004425
107.129447937012 -74.138664245605 -165.069931030273 1.669675469398
-35.156673431396 -70.799179077148 -158.079269409180 3.353624343872
111.310012817383 -76.041107177734 -170.990951538086 2.044427633286
-40.582477569580 -71.175163269043 -168.617385864258 1.612933754921
111.608322143555 -76.315124511719 -170.386703491211 2.148111820221
-149.948181152344 -69.488082885742 -174.579391479492 1.403508424759
-30.425746917725 -71.668319702148 -172.059539794922 1.447922945023
-20.257909774780 -69.745323181152 -177.367874145508 5.062150955200
30.713438034058 -78.272529602051 -174.949783325195 3.649297714233
15.769105911255 -72.533493041992 -178.284606933594 1.077137112617
23.519113540649 -75.185859680176 -181.185607910156 1.107798695564
106.180503845215 -77.625762939453 -189.427307128906 1.115899562836
-152.224700927734 -69.353118896484 -180.206726074219 1.036624670029
-21.422643661499 -74.011230468750 -185.168106079102 1.410963058472
105.301628112793 -73.255294799805 -180.715728759766 1.411525726318
103.010688781738 -72.911811828613 -193.657592773438 1.321670293808
105.194450378418 -74.650451660156 -183.006790161133 0.961272954941
95.642570495605 -78.674888610840 -197.590270996094 3.352585554123
-155.881301879883 -82.068252563477 -189.611724853516 6.982552051544
97.631492614746 -79.444824218750 -205.206100463867 2.070695400238
-32.429649353027 -73.196502685547 -192.883361816406 3.709837913513
97.531288146973 -71.685897827148 -198.246414184570 1.619397640228
-127.772964477539 -73.578895568848 -186.482864379883 9.015033721924
-31.251796722412 -75.972152709961 -188.593521118164 0.553956806660
-142.240447998047 -73.630691528320 -195.299835205078 1.418803453445
90.525505065918 -73.355590820313 -201.001770019531 3.998583078384
8.501682281494 -73.062316894531 -199.664581298828 0.798902869225
23.283393859863 -76.230674743652 -195.155563354492 2.239232063293
-149.908264160156 -74.559638977051 -192.003479003906 1.544470906258
-138.740753173828 -70.813728332520 -199.689270019531 2.661129951477
-15.946785926819 -75.114784240723 -203.903091430664 2.835844993591
-126.174087524414 -79.577674865723 -197.198104858398 6.387626647949
-147.517044067383 -75.915092468262 -194.419021606445 2.212025880814
6.503713130951 -71.826622009277 -198.071701049805 3.323602914810
-25.903949737549 -73.271232604980 -201.812576293945 2.100819826126
17.626804351807 -73.276992797852 -206.245208740234 2.158772945404
5.441112995148 -74.097473144531 -208.501373291016 1.898384690285
85.379547119141 -74.560432434082 -214.042327880859 2.221019983292
-25.788885116577 -67.127380371094 -209.016632080078 6.081471443176
92.914260864258 -73.357505798340 -212.681243896484 1.628157734871
99.802429199219 -74.498657226563 -209.258224487305 3.757447004318
-145.475509643555 -69.098976135254 -211.867263793945 2.799213647842
93.720260620117 -70.662590026855 -212.684463500977 0.916670680046
5.273801803589 -70.135108947754 -207.920089721680 2.757375717163
3.129996061325 -72.784248352051 -208.931060791016 4.407342433929
-35.262073516846 -71.897491455078 -206.889877319336 1.500722646713
-92.920104980469 -69.224830627441 -208.887603759766 6.556123256683
-34.448387145996 -73.562469482422 -210.977691650391 1.843566417694
83.104080200195 -75.440574645996 -217.753082275391 2.176220178604
82.591720581055 -75.738220214844 -219.065353393555 2.930550098419
-38.812976837158 -69.030899047852 -212.174377441406 6.873288154602
-80.473411560059 -66.492485046387 -219.003997802734 7.768096446991
-4.410453796387 -72.691650390625 -214.134765625000 1.126759171486
87.138633728027 -75.200813293457 -219.726593017578 2.326018333435
-149.022857666016 -75.798866271973 -214.085891723633 2.433194398880
-170.375015258789 -74.673011779785 -204.028533935547 6.159604549408
-159.746215820313 -72.191825866699 -212.652145385742 2.628010511398
-21.332952499390 -76.385482788086 -225.944061279297 1.040561795235
-153.701370239258 -76.456916809082 -216.281311035156 3.600290775299
-9.020798683167 -79.874694824219 -225.897537231445 3.360003232956
5.000407218933 -71.919219970703 -216.409088134766 3.072112560272
-163.222747802734 -78.057083129883 -213.725021362305 5.566698074341
-165.318862915039 -72.117607116699 -217.840423583984 1.151245355606
76.158424377441 -73.884323120117 -231.393234252930 1.547998189926
3.138402938843 -74.831176757813 -228.137390136719 0.262186080217
-151.489654541016 -74.880165100098 -215.352523803711 2.686716794968
-144.347946166992 -73.987937927246 -214.576019287109 3.303652763367
-22.793613433838 -76.141319274902 -223.151489257813 1.919350624084
1.873610019684 -74.831024169922 -221.804260253906 2.653681278229
81.881782531738 -74.196701049805 -223.887893676758 1.530164599419
-160.647506713867 -74.974914550781 -221.953216552734 3.155290842056
-148.030578613281 -71.387741088867 -220.975082397461 3.188146114349
-127.275581359863 -70.249656677246 -223.894760131836 0.888552844524
79.928009033203 -77.805870056152 -232.193313598633 3.306129693985
-117.144660949707 -69.340797424316 -225.849166870117 0.948323667049
-148.002197265625 -75.823944091797 -222.034240722656 1.333397030830
-154.756729125977 -77.601966857910 -221.824981689453 3.493469953537
-148.693725585938 -73.054260253906 -220.114379882813 3.101743221283
-154.017089843750 -69.544609069824 -222.697082519531 2.320974826813
-168.491775512695 -69.498069763184 -228.411270141602 2.251588344574
-138.739379882813 -72.781997680664 -228.884872436523 2.444838047028
-137.542404174805 -72.178657531738 -226.490249633789 3.515701293945
-157.289459228516 -72.845169067383 -221.482330322266 2.416116237640
-147.300521850586 -71.852073669434 -224.884536743164 2.772316694260
-153.923004150391 -69.561866760254 -226.123443603516 1.494501709938
70.183563232422 -73.098884582520 -221.879516601563 7.297765254974
65.894271850586 -70.607139587402 -239.988143920898 0.711823165417
-163.130432128906 -71.516815185547 -231.232131958008 2.082745075226
67.236770629883 -74.591766357422 -234.831512451172 2.836002588272
-22.619750976563 -72.843559265137 -233.801544189453 4.483564853668
6.969779968262 -74.031166076660 -237.636672973633 1.537136554718
13.331022262573 -77.899818420410 -234.039260864258 2.393944025040
-145.374649047852 -72.586441040039 -236.401031494141 1.592030048370
13.559928894043 -73.708557128906 -242.224731445313 1.764769434929
63.892505645752 -75.613525390625 -237.909423828125 2.510578870773
8.523532867432 -72.854278564453 -234.527359008789 1.989335894585
2.766204118729 -77.232971191406 -242.834121704102 2.224752902985
-9.870094299316 -69.241783142090 -238.395416259766 1.921932458878
-20.843006134033 -77.830276489258 -244.406890869141 2.014088869095
-1.299442052841 -77.601486206055 -240.695953369141 2.954322576523
0.637033998966 -72.059150695801 -240.026016235352 2.059398889542
54.463756561279 -76.037132263184 -241.473022460938 4.142979621887
-61.197021484375 -74.928237915039 -241.851516723633 2.488007783890
16.030891418457 -75.012718200684 -248.767562866211 2.286872863770
-60.713264465332 -72.383049011230 -241.617675781250 3.317837476730
-9.878149986267 -73.352783203125 -247.704391479492 1.322945475578
-66.712554931641 -71.036033630371 -249.206405639648 0.739183187485
-87.138717651367 -79.674652099609 -246.457534790039 7.389904499054
-83.900894165039 -77.840011596680 -247.340240478516 4.877535820007
-19.233724594116 -72.891906738281 -249.603683471680 4.405296802521
-127.212615966797 -77.773674011230 -254.571670532227 3.333403110504
-18.004627227783 -69.806098937988 -253.848266601563 3.488886833191
-125.078361511230 -72.966567993164 -249.644760131836 4.675403118134
-120.707939147949 -69.799011230469 -252.532577514648 4.846936225891
-106.662712097168 -77.977180480957 -251.922195434570 7.003301620483
-145.420242309570 -72.090309143066 -253.270095825195 1.028764486313
-149.296920776367 -71.326400756836 -259.528076171875 2.197885990143
-170.113540649414 -70.166183471680 -257.133575439453 3.723646879196
10.337084770203 -76.561737060547 -280.411224365234 2.387129783630
-63.997261047363 -77.183746337891 -279.763854980469 7.059242248535
-69.163368225098 -75.223495483398 -279.796905517578 6.795277118683
-48.383666992188 -76.401504516602 -281.446380615234 4.665728092194
-30.533239364624 -76.240409851074 -279.847534179688 5.793875217438
-96.707023620605 -74.231719970703 -288.951477050781 1.594955921173
-34.361660003662 -72.412704467773 -285.679382324219 2.440891981125
-5.508841037750 -69.334220886230 -283.780761718750 2.695413827896
-168.883163452148 -75.318367004395 -282.006835937500 3.054738759995
-19.377601623535 -76.620315551758 -287.922393798828 2.046605348587
3.690126895905 -70.281097412109 -288.658142089844 2.708430528641
10.969372749329 -68.979255676270 -290.288421630859 1.720206856728
-59.523731231689 -75.663215637207 -288.505493164063 1.138977289200
-32.222736358643 -78.094299316406 -283.911010742188 2.986727237701
11.736772537231 -71.883972167969 -288.864227294922 1.849637150764
-72.073646545410 -75.879867553711 -289.869598388672 1.690325498581
-41.824256896973 -73.733917236328 -287.389465332031 1.868288516998
-20.573804855347 -73.264389038086 -289.456085205078 2.452589750290
6.087450981140 -74.272041320801 -290.404754638672 2.632198333740
-17.783960342407 -77.499130249023 -287.039947509766 1.529548287392
2.173799991608 -72.395973205566 -291.265289306641 1.166114449501
8.015681266785 -74.975837707520 -291.240020751953 2.077618360519
-137.974700927734 -76.677833557129 -283.906829833984 3.870674610138
-145.095352172852 -75.608619689941 -295.204467773438 1.270778059959
-154.362304687500 -78.363410949707 -303.299285888672 2.896273374557
44.858718872070 -63.009220123291 -11.972078323364 3.321484088898
36.575851440430 -70.621208190918 -8.442446708679 3.414449453354
46.075458526611 -71.178443908691 -14.811857223511 2.379988908768
26.712507247925 -71.235481262207 -20.579830169678 1.191982626915
47.806873321533 -71.315536499023 -25.613327026367 1.038161396980
27.041421890259 -68.382843017578 -18.887735366821 2.631245136261
29.371728897095 -75.391159057617 -29.585348129272 4.888219356537
27.488533020020 -73.914428710938 -35.249111175537 1.707586169243
47.698448181152 -68.088493347168 -33.801395416260 1.873847126961
32.125236511230 -70.489547729492 -37.682418823242 2.045367240906
45.145866394043 -71.635681152344 -31.908620834351 1.938197731972
38.917911529541 -68.013862609863 -37.049129486084 2.214365005493
36.108638763428 -71.738861083984 -40.044406890869 0.989372611046
37.584953308105 -69.284095764160 -41.231208801270 1.530989408493
48.758388519287 -71.221588134766 -43.945030212402 7.086123943329
39.084457397461 -66.706298828125 -44.607574462891 5.251996994019
-33.653652191162 -66.336555480957 -53.129398345947 4.200104713440
-24.590553283691 -66.321495056152 -42.121845245361 7.963123321533
-84.333183288574 -69.104812622070 -51.113018035889 2.867626905441
-82.484664916992 -73.379081726074 -59.063884735107 2.887069463730
85.077629089355 -71.868339538574 -67.950645446777 1.991753697395
86.205863952637 -72.514274597168 -72.286994934082 2.114922523499
-11.122636795044 -73.991607666016 -73.211906433105 6.446347236633
-81.023262023926 -73.207763671875 -66.629806518555 4.169015884399
-20.300474166870 -71.203575134277 -77.090187072754 3.966045141220
-46.082767486572 -76.506378173828 -86.496406555176 1.575971961021
66.613830566406 -71.556007385254 -86.020164489746 2.279597997665
58.791625976563 -68.204010009766 -91.668128967285 2.831147670746
100.098991394043 -72.954589843750 -89.704948425293 1.817632913589
78.001411437988 -74.704177856445 -96.471824645996 1.272549867630
-60.319286346436 -75.491394042969 -88.190124511719 6.108575344086
-61.633075714111 -69.607475280762 -91.970649719238 2.463411569595
47.618274688721 -72.596687316895 -96.706680297852 1.321689963341
74.897277832031 -78.086891174316 -101.735054016113 5.250326156616
53.493824005127 -76.331840515137 -101.617706298828 1.231161713600
104.883110046387 -76.018302917480 -99.483245849609 2.942906618118
-86.413246154785 -72.531745910645 -102.110366821289 4.698015689850
42.266178131104 -78.734466552734 -109.879547119141 0.961827397346
110.165634155273 -70.244804382324 -110.560058593750 1.216933488846
48.787906646729 -68.817077636719 -110.520256042480 2.304692506790
106.442916870117 -69.693382263184 -109.206108093262 0.690713703632
-81.169082641602 -70.428192138672 -110.129852294922 2.964662313461
38.320693969727 -70.504196166992 -116.234130859375 1.773519635201
113.087791442871 -74.997070312500 -121.461761474609 1.696030259132
104.066719055176 -72.366943359375 -118.801757812500 2.984386920929
109.686843872070 -76.023826599121 -117.199234008789 1.733019232750
112.327995300293 -77.704261779785 -118.125267028809 2.705556869507
35.518829345703 -73.576942443848 -114.418540954590 0.618220150471
35.617485046387 -77.110977172852 -117.928359985352 1.810958385468
46.659194946289 -71.865264892578 -112.711242675781 1.893960475922
111.965866088867 -73.199974060059 -126.503845214844 0.709096670151
43.033927917480 -70.690216064453 -123.929916381836 2.263789892197
112.761428833008 -75.095664978027 -134.725677490234 1.605155587196
116.762855529785 -70.963333129883 -131.157165527344 1.747955918312
34.778408050537 -71.329025268555 -120.059776306152 1.862793326378
-75.000099182129 -74.985343933105 -120.839248657227 6.442019939423
118.840179443359 -77.761459350586 -138.453567504883 5.384600639343
-58.293697357178 -78.470794677734 -137.730758666992 4.393973350525
35.622013092041 -74.597991943359 -135.836410522461 2.207942962646
-72.240364074707 -72.270301818848 -135.133209228516 2.087097167969
31.193908691406 -70.792121887207 -134.300903320313 1.839978337288
-71.185684204102 -74.586570739746 -137.512557983398 2.124920845032
-41.720397949219 -75.417892456055 -145.024383544922 2.727510452271
-71.042427062988 -76.271720886230 -131.076416015625 6.201966285706
111.800262451172 -67.268829345703 -140.463638305664 2.653706789017
118.673919677734 -74.269210815430 -142.954391479492 1.802213907242
125.174423217773 -73.222496032715 -149.140258789063 8.264651298523
-70.496315002441 -74.275817871094 -140.687881469727 1.171382546425
9.950402259827 -71.656196594238 -148.855255126953 2.537811040878
-56.838504791260 -70.414550781250 -150.073516845703 2.297062635422
-45.415466308594 -75.776954650879 -149.954193115234 2.020448446274
109.889022827148 -70.997703552246 -161.768753051758 2.059475660324
-38.228713989258 -75.610099792480 -148.311233520508 2.374787330627
11.483403205872 -70.698196411133 -159.704772949219 1.766048789024
23.531311035156 -71.400222778320 -158.887680053711 1.741214156151
113.973152160645 -74.385993957520 -166.391296386719 1.888887643814
33.194068908691 -68.377555847168 -159.462600708008 3.177735090256
-1.710405945778 -77.356643676758 -157.393722534180 4.870141983032
32.090095520020 -72.029579162598 -162.830490112305 1.493655443192
-68.015426635742 -65.911888122559 -154.132354736328 4.023712635040
-61.021320343018 -70.531089782715 -154.737838745117 4.053619861603
-65.663711547852 -70.984329223633 -158.295806884766 1.180712223053
113.101203918457 -72.047897338867 -163.919540405273 1.070227742195
-45.290699005127 -69.637878417969 -160.290985107422 1.198960304260
17.672250747681 -77.958694458008 -170.012359619141 2.164823293686
-62.412986755371 -75.782180786133 -170.174194335938 2.397270917892
-59.393207550049 -75.527412414551 -170.137359619141 1.783047318459
-42.173362731934 -74.851745605469 -159.122070312500 4.006594181061
-36.224411010742 -65.665885925293 -164.079696655273 3.078000783920
113.818267822266 -68.717918395996 -176.965179443359 3.323210716248
-34.371295928955 -73.812324523926 -171.198928833008 3.816945791245
16.800333023071 -72.279747009277 -169.192016601563 2.330845355988
106.456321716309 -78.692573547363 -192.256271362305 3.199967861176
-152.172790527344 -75.029052734375 -169.548919677734 7.363126277924
-142.497421264648 -73.624206542969 -167.334472656250 8.618309020996
-151.477874755859 -70.922264099121 -170.138793945313 5.007973670959
-143.826400756836 -68.283210754395 -173.712799072266 1.960603713989
-26.814180374146 -70.794616699219 -178.486007690430 2.621695280075
-24.933506011963 -71.994812011719 -181.849319458008 1.394188165665
22.761432647705 -69.371833801270 -189.839462280273 1.616252422333
-141.550033569336 -72.204933166504 -180.165115356445 1.613611698151
-144.023910522461 -70.423324584961 -176.675155639648 2.026735544205
-22.519737243652 -64.726478576660 -184.518981933594 4.765367507935
14.514660835266 -77.252593994141 -181.002700805664 1.733612060547
-140.887649536133 -73.327987670898 -185.630355834961 2.127492904663
-35.497730255127 -77.072265625000 -178.455230712891 2.420695543289
101.491600036621 -76.827590942383 -191.324203491211 0.990514695644
106.782867431641 -71.407905578613 -196.376296997070 3.067983388901
20.496742248535 -72.777488708496 -188.481781005859 3.180906057358
-20.808593750000 -78.076477050781 -187.406097412109 2.189997673035
-25.520553588867 -76.826911926270 -195.409027099609 1.088427424431
-147.974624633789 -68.792297363281 -189.727172851563 3.377633810043
-134.793197631836 -71.095565795898 -191.954788208008 4.185606956482
-123.225502014160 -71.268844604492 -188.226989746094 6.873947143555
-124.333549499512 -75.122650146484 -191.212265014648 5.529779434204
-18.505727767944 -71.898742675781 -192.670410156250 1.708294630051
11.403085708618 -75.686256408691 -191.611984252930 1.399342775345
93.441192626953 -69.013336181641 -201.576187133789 2.586044788361
-146.698196411133 -72.966278076172 -188.448730468750 1.080014467239
-146.911682128906 -69.345268249512 -195.326004028320 3.051729440689
-146.942962646484 -66.304512023926 -191.326995849609 2.548827886581
-156.101562500000 -67.641151428223 -193.488464355469 1.447608947754
-29.633989334106 -71.921501159668 -197.952041625977 3.563892126083
-14.105539321899 -78.687408447266 -191.478775024414 3.631588459015
-144.763839721680 -65.441635131836 -188.928955078125 0.893541634083
-19.430088043213 -75.945884704590 -193.217620849609 3.168232679367
-163.707687377930 -73.266235351563 -191.711410522461 6.169515609741
-131.701538085938 -72.453735351563 -192.511077880859 3.308605432510
10.782825469971 -69.948799133301 -208.282775878906 1.289027690887
-162.878417968750 -70.844963073730 -195.048187255859 2.336160898209
-144.285537719727 -74.214080810547 -195.608413696289 2.184864044189
10.424717903137 -75.156021118164 -199.582397460938 1.573764204979
-156.479507446289 -75.382179260254 -198.751449584961 3.282576560974
-23.875926971436 -74.374794006348 -198.665084838867 1.191722750664
102.187446594238 -73.538963317871 -201.840118408203 2.864749193192
-154.594451904297 -72.269165039063 -206.992202758789 1.592488050461
-163.956619262695 -73.159957885742 -205.526367187500 2.281219959259
-80.635238647461 -70.533554077148 -209.029724121094 2.557569742203
91.293861389160 -73.182601928711 -211.468032836914 1.042365908623
-4.954959869385 -73.064018249512 -210.964080810547 1.424718379974
-154.376358032227 -72.369995117188 -203.300369262695 1.999757051468
-90.568519592285 -67.058052062988 -210.842147827148 6.037401676178
-7.009888172150 -73.084785461426 -207.339904785156 2.334725141525
13.878765106201 -70.625740051270 -220.893142700195 0.666027963161
-145.050140380859 -73.875396728516 -211.347183227539 1.371278643608
-4.122991085052 -75.179428100586 -217.685409545898 0.364324331284
-17.013286590576 -67.734580993652 -217.468978881836 2.798639774323
-20.492250442505 -69.143196105957 -216.205780029297 3.566292524338
85.872680664063 -74.674125671387 -216.297393798828 1.216126441956
-23.360754013062 -68.514610290527 -212.275482177734 5.248485088348
-29.890258789063 -73.248222351074 -215.268600463867 1.188097834587
-104.708786010742 -72.314704895020 -215.565368652344 4.756519794464
-16.486127853394 -72.397506713867 -223.034576416016 1.624476552010
88.232940673828 -72.318771362305 -220.275054931641 1.349829077721
80.090736389160 -72.229438781738 -219.581893920898 1.946350693703
5.591569900513 -77.550468444824 -222.836822509766 2.115705728531
-14.108451843262 -72.242446899414 -224.029968261719 1.184572696686
77.533187866211 -81.034561157227 -223.199813842773 5.996044158936
-129.513122558594 -72.242897033691 -216.344619750977 8.369630813599
-25.120450973511 -75.071212768555 -218.831741333008 0.802690446377
-103.786186218262 -70.366676330566 -219.858413696289 0.377490848303
-108.740524291992 -75.136726379395 -223.044235229492 3.616998195648
-135.742599487305 -70.925628662109 -221.197921752930 4.094130039215
77.054183959961 -74.292625427246 -224.734527587891 1.700225949287
-128.277572631836 -74.582679748535 -221.680450439453 4.362023353577
-0.274886995554 -72.619132995605 -228.433807373047 3.809814691544
72.549507141113 -73.504920959473 -224.429077148438 4.620249271393
-16.678297042847 -74.468826293945 -227.561996459961 1.585563540459
-10.849550247192 -74.717369079590 -228.071594238281 1.565530776978
-7.315641880035 -71.579940795898 -230.586883544922 1.281334519386
5.781761169434 -74.249336242676 -228.380096435547 1.190599083900
81.418571472168 -73.863212585449 -226.626190185547 1.752657890320
13.400370597839 -74.063285827637 -231.020217895508 3.025614500046
0.799611985683 -74.640060424805 -230.007766723633 2.550577878952
-7.136795997620 -75.347373962402 -223.690963745117 1.271187901497
-7.793831825256 -71.109367370605 -231.947372436523 1.524215579033
13.996993064880 -71.562149047852 -231.065124511719 2.002355337143
-11.394908905029 -70.531250000000 -233.132507324219 1.417202234268
71.853775024414 -73.013824462891 -237.139648437500 1.012112617493
-10.344006538391 -70.696838378906 -232.218246459961 0.826572120190
20.157695770264 -73.669769287109 -228.249954223633 3.422235488892
-163.884216308594 -68.815460205078 -235.494613647461 1.444454073906
-7.350222110748 -73.029281616211 -240.428909301758 1.770140290260
-12.344525337219 -72.546447753906 -238.969100952148 2.219238281250
-169.728195190430 -70.887519836426 -250.082702636719 2.574822187424
-11.879828453064 -74.368995666504 -241.735260009766 1.106772303581
16.613601684570 -76.013565063477 -242.324890136719 2.992699146271
-149.899505615234 -75.698104858398 -244.421905517578 1.953212499619
-69.527595520020 -72.665740966797 -244.192245483398 2.460638761520
-60.400592803955 -70.979507446289 -244.828491210938 2.053521156311
51.927719116211 -72.191192626953 -247.807647705078 0.938055574894
-79.324127197266 -73.324279785156 -241.633224487305 7.309327125549
12.512784004211 -73.565505981445 -244.192382812500 1.412986278534
-79.325378417969 -73.765884399414 -246.319793701172 3.049762964249
-20.926250457764 -73.792167663574 -245.203399658203 2.840222358704
-151.893630981445 -73.974212646484 -247.707244873047 1.433900833130
45.775985717773 -71.364013671875 -248.738220214844 0.567587077618
-85.389343261719 -69.271865844727 -244.273895263672 6.739561080933
-98.783020019531 -73.451217651367 -250.437942504883 3.815950632095
-98.401031494141 -79.100822448730 -247.409317016602 9.239502906799
-125.919776916504 -73.532684326172 -252.891632080078 1.627272963524
-111.267242431641 -70.455505371094 -251.435714721680 5.206968307495
-110.268547058105 -70.603836059570 -254.354522705078 2.215490579605
14.914912223816 -73.241256713867 -257.560943603516 6.763988018036
-131.925064086914 -69.328926086426 -259.921691894531 4.497718811035
-12.107035636902 -76.600540161133 -274.893341064453 2.746810436249
-150.082595825195 -76.076446533203 -275.264129638672 2.039597511292
-172.701202392578 -71.675178527832 -274.705108642578 4.702764511108
-131.606750488281 -73.685234069824 -281.401275634766 2.902697563171
-119.552932739258 -74.823371887207 -274.524871826172 11.570777893066
-83.131340026855 -68.895774841309 -283.181182861328 4.672714233398
-60.136177062988 -68.148780822754 -285.918640136719 3.247989892960
-48.383964538574 -72.249702453613 -283.019683837891 4.044133663177
-17.206665039063 -72.220497131348 -287.279724121094 2.534546852112
-14.894943237305 -71.896820068359 -285.614471435547 2.127511978149
-39.131565093994 -74.160476684570 -286.591827392578 0.495309203863
-38.477401733398 -72.369583129883 -284.523345947266 2.567761421204
-24.217836380005 -70.128562927246 -289.983886718750 1.842651844025
-77.029884338379 -75.429847717285 -287.916168212891 0.582887768745
-58.289119720459 -70.176940917969 -290.768157958984 1.914386391640
-17.315757751465 -68.829109191895 -288.889556884766 3.067887783051
-18.821552276611 -73.436515808105 -288.832305908203 2.416443586349
-8.833829879761 -72.518531799316 -289.819671630859 1.847740769386
-0.675191998482 -69.100830078125 -293.690765380859 1.607941389084
-91.427818298340 -71.918823242188 -280.643890380859 7.147180080414
-150.345214843750 -70.522354125977 -281.187469482422 2.658764600754
-121.713241577148 -73.893409729004 -289.816436767578 2.036619424820
-158.086883544922 -76.675468444824 -294.668884277344 2.538045644760
-159.512634277344 -73.859626770020 -291.556060791016 2.087949514389
-148.159027099609 -72.859466552734 -296.220458984375 2.895713090897
51.538642883301 -73.239128112793 -24.949041366577 3.166393041611
23.631002426147 -70.594924926758 -23.308250427246 2.262146949768
55.639114379883 -72.808753967285 -26.050790786743 6.000757694244
54.141342163086 -74.606903076172 -33.134727478027 6.512999534607
90.416481018066 -66.906402587891 -68.774955749512 3.797203302383
101.142494201660 -69.480819702148 -77.246574401855 1.144241213799
100.650817871094 -70.300674438477 -82.349136352539 1.516468524933
99.067901611328 -69.905036926270 -89.782806396484 2.296892404556
53.804260253906 -71.619277954102 -87.689476013184 1.609376668930
53.423011779785 -71.757705688477 -92.272178649902 0.538007616997
63.932579040527 -69.175575256348 -92.946182250977 2.062032699585
-61.781661987305 -66.817375183105 -88.516113281250 2.150772333145
75.264053344727 -72.691368103027 -91.191398620605 2.869108200073
105.841697692871 -70.379249572754 -94.573257446289 2.302802324295
76.621726989746 -75.110214233398 -100.600830078125 2.235835313797
96.912689208984 -68.123878479004 -98.322715759277 3.218091487885
-78.328590393066 -72.441551208496 -96.721916198730 2.723582506180
48.533580780029 -71.906219482422 -104.048126220703 3.480549812317
-85.243751525879 -74.259559631348 -104.209655761719 3.170260667801
52.716281890869 -73.087081909180 -113.205657958984 3.290063142776
44.723808288574 -67.475700378418 -106.027976989746 1.905606150627
105.373779296875 -74.264717102051 -107.758560180664 1.111667871475
42.750766754150 -68.520713806152 -108.357467651367 1.872111558914
43.407188415527 -74.196067810059 -114.759002685547 2.683202505112
43.469066619873 -68.514968872070 -115.951004028320 1.253833651543
106.078598022461 -66.855247497559 -119.463356018066 2.781415939331
-78.972473144531 -70.102111816406 -115.060783386230 1.146236896515
115.405975341797 -74.104591369629 -124.348022460938 0.890653014183
41.256752014160 -66.210342407227 -117.783256530762 2.891045093536
45.973217010498 -72.545372009277 -116.704948425293 1.718616366386
35.211040496826 -72.624855041504 -119.749168395996 2.447167396545
-53.503669738770 -70.545143127441 -127.590454101563 1.336418032646
31.652362823486 -70.176422119141 -121.563987731934 1.865473985672
-76.273216247559 -72.948913574219 -132.101455688477 2.299761056900
-58.314144134521 -70.505729675293 -130.275085449219 1.832911014557
-74.650802612305 -69.138664245605 -126.846794128418 1.031885743141
35.991165161133 -71.040153503418 -126.335235595703 3.019114971161
-54.488716125488 -69.397148132324 -128.482437133789 1.152934074402
40.684379577637 -71.698059082031 -132.073684692383 1.027424097061
-74.681678771973 -71.645034790039 -134.148620605469 2.270602703094
-55.970455169678 -74.084930419922 -136.623886108398 0.719435393810
30.442434310913 -70.701835632324 -137.904098510742 1.894041299820
112.763000488281 -75.915718078613 -148.212036132813 1.620337247849
120.297271728516 -72.425125122070 -140.432357788086 3.931886672974
34.908317565918 -70.829406738281 -139.788619995117 1.617397427559
-46.284351348877 -68.973594665527 -140.591476440430 1.838223218918
110.012405395508 -71.809860229492 -159.972335815430 1.776520848274
-72.144805908203 -70.866737365723 -144.003906250000 0.569581210613
-48.821464538574 -73.038238525391 -135.183868408203 0.934626698494
35.597579956055 -76.013641357422 -151.153213500977 1.797375440598
-68.731079101563 -72.669761657715 -139.260726928711 1.964892387390
-68.838638305664 -73.402442932129 -141.701446533203 1.660511016846
118.219383239746 -68.147674560547 -149.916732788086 3.636679410934
-62.175617218018 -69.669044494629 -144.639465332031 4.117709636688
-39.386341094971 -69.891181945801 -147.421905517578 2.841114759445
31.970115661621 -66.892463684082 -151.906814575195 3.242210149765
-74.367172241211 -70.575538635254 -143.995620727539 0.730783104897
9.304856300354 -73.927574157715 -157.557876586914 1.096958875656
34.869804382324 -68.405975341797 -155.536117553711 3.875262498856
27.145772933960 -72.563148498535 -149.924621582031 2.760076522827
7.635916233063 -75.716476440430 -153.563613891602 2.921299695969
-46.830448150635 -68.981697082520 -149.911453247070 1.245209217072
25.992090225220 -71.408813476563 -150.761367797852 3.031591653824
-46.219207763672 -73.329864501953 -145.956619262695 1.899773597717
7.498682022095 -73.685203552246 -148.724655151367 4.625056743622
22.038461685181 -72.745361328125 -147.172332763672 1.889173746109
-71.453254699707 -75.131889343262 -148.695449829102 1.169638633728
-43.949382781982 -71.636718750000 -151.538314819336 1.837489724159
-70.040702819824 -68.422706604004 -156.932571411133 2.596142530441
11.801253318787 -65.090270996094 -163.133087158203 6.750127315521
20.735029220581 -72.357528686523 -144.840194702148 3.136459827423
2.022665977478 -69.546699523926 -160.888442993164 1.822039008141
22.926944732666 -68.076255798340 -153.923324584961 0.934231340885
29.485933303833 -72.461280822754 -161.360061645508 1.967815399170
-45.668418884277 -73.842346191406 -158.941162109375 1.763743877411
-31.907720565796 -71.143836975098 -157.381912231445 4.192424774170
-36.274688720703 -70.054077148438 -157.777862548828 3.012841224670
31.042350769043 -73.102828979492 -162.526931762695 1.544042468071
-45.212329864502 -71.478218078613 -162.134262084961 1.173090696335
-42.419898986816 -72.034675598145 -158.983139038086 1.888957738876
21.141485214233 -74.325149536133 -161.401657104492 1.400503516197
-41.917949676514 -71.126808166504 -169.203063964844 1.799489974976
32.773029327393 -68.991455078125 -172.731964111328 4.985074520111
117.895988464355 -69.656013488770 -165.927719116211 3.939157247543
-31.968164443970 -70.740325927734 -170.212280273438 1.593173623085
106.012054443359 -69.098190307617 -171.977035522461 2.097719907761
-33.323352813721 -68.003211975098 -174.585601806641 1.186203598976
-38.463989257813 -72.427246093750 -176.202331542969 2.991641283035
17.938159942627 -73.763236999512 -173.433975219727 1.553763270378
102.914512634277 -69.142555236816 -180.394226074219 2.891678094864
-28.892189025879 -70.900245666504 -179.811874389648 1.084515810013
-30.692848205566 -65.336349487305 -170.985000610352 3.610489606857
-22.501256942749 -74.297790527344 -183.713348388672 0.735221803188
-146.256607055664 -76.055953979492 -180.334243774414 2.972986936569
13.046038627625 -74.541679382324 -180.739349365234 1.760151267052
106.134643554688 -70.675407409668 -195.433181762695 3.579128503799
-159.088088989258 -70.874122619629 -186.369293212891 6.576340675354
-26.112625122070 -72.121292114258 -187.450378417969 2.247466087341
-115.481208801270 -68.795288085938 -188.557327270508 2.867630243301
-131.384109497070 -71.801254272461 -190.693984985352 4.418935298920
-108.169097900391 -69.090316772461 -196.193038940430 1.560974597931
-110.843353271484 -67.064468383789 -193.597244262695 3.023422718048
-16.672983169556 -68.182029724121 -196.801086425781 1.411174893379
18.315864562988 -73.930015563965 -196.415039062500 2.527823925018
-22.205774307251 -63.971359252930 -197.909576416016 4.098517894745
-126.257331848145 -68.784385681152 -196.116470336914 2.568862199783
-27.083200454712 -69.833267211914 -204.251739501953 4.559551715851
-130.296524047852 -75.250869750977 -196.322937011719 2.587810039520
-11.991280555725 -67.755645751953 -198.739669799805 3.179751396179
-144.982681274414 -71.085563659668 -196.093307495117 2.367434263229
89.392105102539 -71.607009887695 -210.835128784180 1.000616908073
-165.841430664063 -71.091377258301 -195.772323608398 3.328605651855
-1.418856978416 -73.589973449707 -211.399169921875 3.957388162613
12.268224716187 -65.453521728516 -210.560836791992 2.876538991928
7.643736839294 -67.294563293457 -214.667831420898 2.366583824158
81.856010437012 -71.751106262207 -219.400634765625 0.841108262539
2.185148000717 -67.693939208984 -214.622055053711 6.207309246063
14.234856605530 -72.364707946777 -212.033157348633 2.471861839294
-15.423103332520 -76.985244750977 -209.408447265625 2.339893102646
-89.753303527832 -71.652069091797 -209.118331909180 5.118952751160
-102.854866027832 -73.246925354004 -211.888061523438 7.229188919067
-4.451613903046 -70.900604248047 -218.855239868164 0.887399971485
-170.703277587891 -71.647644042969 -222.777999877930 4.841136932373
10.440696716309 -69.327346801758 -217.613922119141 1.950468182564
-144.138641357422 -72.831207275391 -215.742309570313 2.373037576675
10.538498878479 -68.848487854004 -224.272842407227 0.972942769527
-135.745574951172 -72.157821655273 -214.476608276367 9.508823394775
-117.275199890137 -70.643096923828 -222.259216308594 2.785978078842
18.209409713745 -66.094642639160 -223.508056640625 5.167322158813
72.565597534180 -71.387413024902 -230.219955444336 1.554185867310
2.008972883224 -69.098846435547 -223.782028198242 2.005083322525
-116.580894470215 -73.690567016602 -214.689025878906 10.469739913940
72.281723022461 -71.191436767578 -227.324111938477 1.756085395813
77.201484680176 -74.094223022461 -232.153533935547 1.899080991745
-123.869789123535 -72.092674255371 -223.846084594727 0.864157557487
-121.825546264648 -73.930885314941 -226.059967041016 2.339035749435
-12.934546470642 -71.282157897949 -228.906600952148 1.153338551521
67.618156433105 -75.057739257813 -228.606628417969 4.208259582520
65.234573364258 -70.272438049316 -236.286102294922 1.304841160774
70.526626586914 -70.948509216309 -234.150085449219 0.754027128220
-135.635086059570 -74.144683837891 -231.153366088867 1.570647478104
66.972221374512 -77.492736816406 -234.245635986328 4.244156837463
62.621520996094 -75.757362365723 -235.551239013672 3.243313789368
-169.172210693359 -74.256629943848 -219.158004760742 4.421106338501
-2.961474895477 -74.374885559082 -239.691848754883 1.868245244026
12.863658905029 -71.139266967773 -243.754272460938 1.073693752289
-5.575720787048 -74.509582519531 -240.565551757813 1.582868218422
12.284785270691 -75.809623718262 -242.168472290039 1.559181928635
66.868225097656 -74.019989013672 -240.883834838867 0.767114520073
7.982929229736 -76.464759826660 -238.037307739258 0.906197845936
-9.751852035522 -69.008430480957 -242.069564819336 0.722051560879
-6.918613910675 -73.596672058105 -243.955657958984 2.334865093231
63.953308105469 -71.747222900391 -245.662902832031 2.062288999557
3.897918939590 -75.158210754395 -244.242065429688 1.673084855080
-12.220970153809 -72.193840026855 -237.345840454102 0.830094635487
12.555773735046 -74.694625854492 -245.414230346680 1.274659276009
-167.531875610352 -66.215484619141 -233.063446044922 3.368527889252
58.715354919434 -70.519195556641 -250.071319580078 2.134474039078
50.060859680176 -71.699699401855 -251.597915649414 2.256472110748
54.517169952393 -76.310478210449 -241.484680175781 4.345859050751
-16.935968399048 -71.342193603516 -250.093338012695 1.760311603546
51.614894866943 -75.981582641602 -245.251312255859 4.487241268158
-76.434471130371 -74.235519409180 -243.994079589844 4.014441490173
49.076988220215 -74.325386047363 -251.156997680664 2.719151973724
-91.453353881836 -74.529342651367 -249.849487304688 2.976876974106
-130.789154052734 -74.619209289551 -247.050369262695 8.323764801025
-137.516830444336 -66.642326354980 -245.061981201172 7.973996162415
48.615383148193 -70.866409301758 -257.128753662109 3.981078147888
-140.664749145508 -68.910278320313 -249.984466552734 4.647385597229
-108.457183837891 -79.523384094238 -246.308212280273 12.727732658386
-114.365623474121 -71.000801086426 -251.940505981445 4.659722805023
-87.178466796875 -72.843727111816 -245.941955566406 4.655300140381
-115.569366455078 -73.996627807617 -257.237335205078 0.895852446556
-128.033370971680 -68.697822570801 -259.504882812500 4.295053482056
-147.485397338867 -71.633491516113 -258.536987304688 2.100769042969
-15.208436965942 -74.212379455566 -257.791076660156 2.853661537170
-175.789520263672 -70.530601501465 -258.997680664063 8.341040611267
-12.547318458557 -76.234352111816 -268.783203125000 1.001243352890
-161.132812500000 -66.152656555176 -257.802490234375 3.631479024887
-157.945266723633 -67.910285949707 -264.497985839844 2.000883817673
-172.461288452148 -65.545104980469 -265.413116455078 6.884553432465
-15.909727096558 -69.610595703125 -273.917907714844 3.007362127304
-137.230178833008 -72.280281066895 -276.350219726563 8.082220077515
-161.060028076172 -68.245483398438 -280.656860351563 1.830630779266
-146.724807739258 -71.175514221191 -274.674560546875 1.458355903625
-140.225631713867 -74.489105224609 -277.452514648438 5.547259807587
-12.860152244568 -73.043968200684 -278.744781494141 2.436448812485
-127.731025695801 -76.786605834961 -276.067596435547 8.961112976074
-145.645690917969 -72.682731628418 -278.549682617188 2.041404962540
-117.821334838867 -70.118690490723 -279.120727539063 7.347997665405
-82.105911254883 -69.738067626953 -285.371093750000 2.795503377914
-65.530113220215 -72.814819335938 -278.692596435547 7.280963897705
-9.259845733643 -73.556938171387 -286.057373046875 1.851629614830
-53.732261657715 -74.047966003418 -286.285583496094 1.245430231094
-66.105308532715 -74.455383300781 -282.898010253906 3.134421586990
-73.572196960449 -70.251594543457 -286.642761230469 1.744167923927
-91.249984741211 -73.454536437988 -291.001953125000 0.886248111725
-108.935615539551 -66.072555541992 -282.656250000000 5.789591789246
-163.374160766602 -71.440361022949 -282.730194091797 2.886099100113
-159.545700073242 -70.492759704590 -280.869598388672 1.056297779083
-131.079010009766 -74.475265502930 -290.335998535156 3.197871208191
-149.134246826172 -71.728607177734 -285.739288330078 2.804514169693
-161.812454223633 -69.979698181152 -291.106719970703 1.153790473938
-151.999755859375 -72.559616088867 -309.813476562500 2.960898399353
52.180095672607 -68.612869262695 -20.433591842651 3.239710330963
25.307903289795 -78.110031127930 -24.430147171021 5.598652362823
50.783699035645 -71.435241699219 -37.122535705566 3.943655252457
-14.998417854309 -72.088310241699 -63.137111663818 2.228105068207
84.762878417969 -69.600341796875 -67.637001037598 1.892887473106
89.433280944824 -64.499343872070 -73.079948425293 8.289535522461
80.138473510742 -68.988563537598 -74.023620605469 5.393476486206
81.805770874023 -70.215713500977 -68.882919311523 2.384226799011
100.887268066406 -72.064331054688 -75.608940124512 3.364240169525
-92.314544677734 -72.340621948242 -68.007064819336 2.341371536255
72.616737365723 -72.995658874512 -79.000442504883 2.189021348953
-31.645431518555 -67.160682678223 -73.530952453613 2.861552953720
102.411674499512 -71.931091308594 -88.804496765137 2.204451322556
68.330841064453 -77.005767822266 -89.394592285156 4.389055252075
113.678871154785 -70.258522033691 -93.024436950684 6.785790920258
109.230361938477 -74.358657836914 -100.168922424316 2.421702384949
74.891792297363 -73.304481506348 -97.621002197266 0.697086989880
-75.333747863770 -71.472808837891 -94.304435729980 4.729967594147
58.680915832520 -72.754119873047 -109.087768554688 6.308236598969
110.813407897949 -72.631202697754 -107.893569946289 0.506777107716
51.484596252441 -77.007507324219 -114.351280212402 2.996373891830
88.265213012695 -71.853721618652 -103.114051818848 1.371942996979
46.213336944580 -76.313468933105 -110.231658935547 2.325871229172
109.414726257324 -68.897239685059 -101.905380249023 0.988460659981
51.314571380615 -69.709884643555 -107.525146484375 1.727006196976
114.522430419922 -74.513244628906 -115.011062622070 3.682930231094
110.156906127930 -70.899833679199 -118.252510070801 1.500181078911
-76.101882934570 -62.175464630127 -109.178207397461 1.630661368370
-73.682487487793 -69.680885314941 -110.160827636719 2.193199634552
45.121383666992 -71.084663391113 -117.832412719727 0.852048575878
118.744873046875 -66.903900146484 -119.876617431641 5.572801589966
118.389465332031 -68.429489135742 -124.337936401367 3.820376634598
-78.204063415527 -70.090888977051 -121.321327209473 2.181423425674
110.817756652832 -70.269752502441 -123.915473937988 1.050577640533
-63.882610321045 -70.829345703125 -130.878036499023 3.084213733673
-86.494918823242 -67.239570617676 -122.053627014160 1.210050344467
-72.295272827148 -68.476982116699 -124.339653015137 3.207161188126
-54.931217193604 -64.396614074707 -120.809928894043 0.917207002640
37.913997650146 -69.969154357910 -129.803176879883 1.932942509651
44.705944061279 -69.938003540039 -133.955535888672 5.669102668762
-72.966079711914 -71.443687438965 -130.358779907227 1.699783444405
30.533521652222 -68.315353393555 -129.317459106445 3.605004072189
107.139083862305 -73.689987182617 -137.369171142578 2.616300344467
-37.339767456055 -71.139968872070 -145.582992553711 5.023933410645
27.058607101440 -69.877624511719 -144.655944824219 1.993185400963
112.084648132324 -64.966949462891 -148.691284179688 4.463200092316
37.015518188477 -72.994964599609 -143.587661743164 1.800870299339
112.721199035645 -72.943695068359 -145.998809814453 0.770640790462
-53.774120330811 -70.957168579102 -143.560546875000 2.100910186768
-65.405952453613 -73.196914672852 -145.283828735352 2.347898244858
-52.319499969482 -73.624038696289 -150.667297363281 1.188122153282
-44.533836364746 -69.537185668945 -165.232772827148 3.516867160797
2.722613096237 -68.580955505371 -151.657043457031 5.883239746094
111.230659484863 -66.144340515137 -156.776718139648 3.967793464661
108.674751281738 -69.519378662109 -163.394226074219 1.717787742615
10.304493904114 -65.266105651855 -158.583145141602 3.583072423935
1.975443005562 -69.772300720215 -158.332473754883 2.934254407883
15.983077049255 -67.543731689453 -158.354629516602 2.518501520157
21.989746093750 -69.448600769043 -147.864044189453 2.350791454315
116.181724548340 -75.387184143066 -167.873184204102 2.073758125305
107.078964233398 -73.497497558594 -174.989685058594 2.130854368210
27.071523666382 -69.817192077637 -172.549453735352 0.589022696018
27.966781616211 -69.532249450684 -163.498748779297 2.611341714859
116.219146728516 -71.188972473145 -164.653381347656 2.837393045425
-30.857183456421 -68.730491638184 -170.665374755859 1.489009857178
113.050521850586 -69.472434997559 -173.273223876953 1.805407285690
20.753086090088 -66.048431396484 -177.412780761719 1.356618165970
16.854570388794 -73.460807800293 -163.870117187500 2.235678434372
108.785949707031 -70.037757873535 -180.135879516602 2.092780590057
23.999094009399 -71.050575256348 -169.055114746094 2.868520736694
110.116432189941 -68.051986694336 -183.339355468750 2.709447622299
-40.036251068115 -68.181869506836 -173.499099731445 3.318086862564
27.763311386108 -67.362197875977 -171.087432861328 2.413758993149
108.037864685059 -70.581802368164 -187.850967407227 1.356253743172
24.508754730225 -68.472839355469 -176.038482666016 2.143492221832
-153.157333374023 -65.847869873047 -173.194824218750 3.154030323029
-32.606571197510 -70.833320617676 -185.077743530273 0.690818727016
25.018348693848 -72.726921081543 -184.782745361328 1.879679799080
-113.090370178223 -69.993400573730 -188.666091918945 2.394321203232
-113.122673034668 -71.652023315430 -183.449600219727 3.582046270370
21.076353073120 -67.244590759277 -191.681060791016 2.103733539581
12.102914810181 -71.894721984863 -185.261245727539 1.591191530228
-26.751379013062 -73.475738525391 -189.017791748047 2.624531507492
-28.488918304443 -71.119140625000 -183.836837768555 0.985603868961
-25.361845016479 -72.416793823242 -182.780014038086 1.513985276222
21.176658630371 -74.055831909180 -177.513153076172 2.774379014969
-153.506744384766 -69.274696350098 -185.507629394531 2.048641920090
-146.942001342773 -72.171592712402 -192.704818725586 1.001309037209
-141.843307495117 -69.573036193848 -185.754806518555 1.806369543076
-18.648550033569 -66.831741333008 -189.171997070313 2.723815679550
14.980932235718 -70.530838012695 -197.572769165039 2.735705375671
98.319961547852 -72.750267028809 -198.089721679688 1.963714718819
-116.597244262695 -69.613182067871 -196.981170654297 1.510340094566
16.258081436157 -68.595718383789 -200.931655883789 1.804861187935
-16.832578659058 -69.149749755859 -192.857360839844 1.426657795906
-19.197727203369 -69.278755187988 -193.026443481445 2.303931236267
95.794631958008 -70.743255615234 -203.167114257813 1.226965188980
7.448774814606 -73.117591857910 -197.187286376953 2.677873849869
-27.240932464600 -69.667564392090 -191.644042968750 1.473168015480
-122.377639770508 -71.817298889160 -196.081726074219 0.400397628546
-135.026702880859 -68.188201904297 -192.631668090820 3.083160400391
-110.532752990723 -67.556785583496 -201.570678710938 0.523396968842
-146.761962890625 -70.208244323730 -196.792678833008 1.508321762085
20.406051635742 -72.340866088867 -196.259460449219 0.839572191238
94.708389282227 -74.046821594238 -209.483108520508 1.434452176094
-167.575942993164 -68.609184265137 -197.820632934570 3.695348978043
100.491325378418 -71.804870605469 -205.237335205078 0.729328989983
-17.097089767456 -70.433029174805 -208.147506713867 1.880289196968
89.942207336426 -77.883506774902 -215.782409667969 1.037280321121
89.545394897461 -68.648635864258 -219.907653808594 2.339061737061
9.892874717712 -69.448471069336 -210.065338134766 1.548739194870
13.896205902100 -71.450126647949 -209.161422729492 2.636739253998
8.683502197266 -71.155830383301 -210.794662475586 1.377873778343
-10.619187355042 -69.620086669922 -216.528884887695 1.321226477623
-99.977554321289 -69.368293762207 -213.175933837891 4.638792991638
-8.517805099487 -72.958969116211 -217.718185424805 3.674915075302
90.350585937500 -70.090652465820 -215.647460937500 0.983438253403
-93.602661132813 -73.091178894043 -216.184906005859 1.222044110298
-103.468414306641 -73.003410339355 -215.296859741211 4.315312385559
-96.534324645996 -68.850852966309 -214.173004150391 3.050164937973
87.434829711914 -75.270011901855 -223.283554077148 2.546152353287
-136.167419433594 -73.240936279297 -220.009552001953 5.786314010620
-134.683944702148 -62.362030029297 -224.721817016602 3.097484350204
-121.616882324219 -69.495491027832 -221.254470825195 4.323576927185
-114.518913269043 -67.854896545410 -219.440582275391 6.230192661285
-133.768905639648 -67.321472167969 -214.171493530273 9.444017410278
-108.568351745605 -77.682571411133 -221.322921752930 6.216716766357
-116.012931823730 -66.792129516602 -222.316085815430 4.023605346680
-13.508957862854 -68.156806945801 -221.911254882813 2.103077173233
-22.197483062744 -73.461624145508 -223.713973999023 1.796102523804
-3.013359069824 -71.511177062988 -231.119979858398 1.584566593170
-10.553401947021 -68.879142761230 -227.157577514648 0.765079736710
13.750676155090 -73.125801086426 -230.618774414063 2.250323772430
-20.293685913086 -72.173873901367 -224.705551147461 1.078572630882
