-120.123596191406 -72.074691772461 -188.560501098633 7.503304958344
-113.802703857422 -68.509620666504 -191.424804687500 1.543469905853
-18.304239273071 -74.596427917480 -193.360778808594 1.651079773903
-154.487747192383 -67.372726440430 -190.574142456055 2.778011083603
-136.052413940430 -73.983680725098 -206.989181518555 5.403799057007
-124.010574340820 -68.143608093262 -200.766342163086 3.324948787689
14.602695465088 -68.997573852539 -204.766723632813 1.472345232964
-161.330657958984 -71.506507873535 -201.292327880859 2.751137495041
10.657268524170 -75.162132263184 -210.654800415039 2.371781587601
13.423173904419 -77.452278137207 -214.024917602539 1.315057039261
-19.108150482178 -71.114318847656 -207.720092773438 0.831638634205
-6.303667068481 -72.496055603027 -212.736633300781 1.270038485527
-167.313598632813 -72.183181762695 -208.543365478516 2.367000818253
-159.588394165039 -69.198532104492 -213.265335083008 1.699399828911
-102.580780029297 -72.496185302734 -214.977737426758 4.093902587891
-101.366363525391 -69.778518676758 -224.190628051758 1.570943951607
-159.042160034180 -68.589210510254 -215.539688110352 0.477963864803
-106.998764038086 -71.381553649902 -218.942962646484 3.564599990845
-17.436569213867 -73.496459960938 -217.466537475586 2.054553031921
-125.416526794434 -70.807029724121 -225.365524291992 1.836704969406
-145.408401489258 -74.124977111816 -219.714385986328 1.928585410118
-8.493796348572 -74.898239135742 -226.774276733398 0.893361389637
-133.204071044922 -69.029914855957 -222.770172119141 1.729927301407
-126.565277099609 -66.534652709961 -223.352325439453 1.556782126427
-112.071151733398 -73.323829650879 -227.669403076172 2.217698574066
-1.197535991669 -71.592552185059 -229.650253295898 2.212910890579
-109.253273010254 -69.191886901855 -224.038162231445 0.918615400791
-158.638427734375 -76.428215026855 -217.295532226563 5.436884403229
-147.494277954102 -76.013221740723 -221.746170043945 1.807606816292
-165.819824218750 -71.996040344238 -222.997375488281 2.034182786942
-7.872062206268 -70.937492370605 -228.336059570313 0.560652315617
-10.533576965332 -62.136978149414 -229.779830932617 6.064640998840
75.955131530762 -62.937919616699 -228.716690063477 5.215416908264
2.019743919373 -68.897331237793 -233.542755126953 0.913975238800
-144.559448242188 -69.882026672363 -229.409393310547 3.364959955215
-13.559529304504 -73.671943664551 -229.481246948242 0.899915874004
76.343986511230 -76.338417053223 -224.841018676758 2.980513095856
68.489723205566 -72.054756164551 -233.219924926758 2.273902893066
-130.995208740234 -71.256675720215 -227.437500000000 2.938574314117
-161.704666137695 -70.582664489746 -222.861099243164 3.191406488419
-112.243606567383 -67.888366699219 -228.492401123047 2.237073659897
-120.583091735840 -70.396507263184 -230.302795410156 3.006782054901
-170.204895019531 -66.879325866699 -229.084625244141 4.680348396301
-159.501510620117 -69.325195312500 -234.167144775391 2.546137094498
-136.677261352539 -70.346145629883 -236.981399536133 4.114403724670
-10.984130859375 -77.351676940918 -232.622970581055 2.396512269974
-4.136424064636 -70.406372070313 -242.888702392578 3.532693862915
-161.672348022461 -68.731948852539 -237.400466918945 1.583617687225
7.310076236725 -74.849075317383 -240.665527343750 1.672832131386
7.685121059418 -70.139770507813 -239.083618164063 2.005502462387
-165.274780273438 -70.507820129395 -237.847610473633 2.085470199585
11.848088264465 -71.549880981445 -242.612075805664 1.437444090843
50.022979736328 -70.875183105469 -248.689880371094 0.947298407555
51.122959136963 -68.338081359863 -253.163070678711 2.604833602905
-8.694005012512 -72.614654541016 -244.531799316406 1.439035415649
49.235218048096 -69.314125061035 -247.064697265625 1.447899222374
-164.293899536133 -71.863586425781 -251.164901733398 2.540548563004
-166.271392822266 -68.824356079102 -244.748153686523 1.329477190971
-164.399200439453 -73.336647033691 -242.487777709961 1.786259770393
53.443565368652 -69.819656372070 -255.579498291016 4.833896160126
-91.931556701660 -74.972579956055 -250.398315429688 2.850985050201
-125.698219299316 -70.322143554688 -248.910202026367 5.167684555054
-109.102546691895 -73.295639038086 -251.184432983398 5.848906040192
29.799402236938 -71.975318908691 -256.852508544922 2.980320692062
37.096794128418 -72.597679138184 -254.326400756836 2.000554084778
-98.676246643066 -71.272956848145 -250.143173217773 3.758690595627
-93.960182189941 -69.952819824219 -254.394927978516 2.575688600540
43.570461273193 -69.896743774414 -257.002960205078 2.237296104431
39.240623474121 -69.307846069336 -255.026565551758 2.122286796570
-158.808639526367 -72.560531616211 -255.947402954102 3.117609024048
31.996011734009 -68.358879089355 -254.636413574219 1.443676710129
-140.614654541016 -73.442008972168 -261.839508056641 1.781038403511
-119.321838378906 -67.823593139648 -256.174407958984 3.198262214661
-133.852005004883 -68.771743774414 -262.399353027344 1.969019651413
34.073764801025 -75.999679565430 -264.812896728516 7.677511215210
-129.460937500000 -74.193283081055 -260.558044433594 2.600437879562
-11.529144287109 -68.439277648926 -256.576080322266 1.034055471420
19.444488525391 -74.199348449707 -275.130828857422 3.247412204742
-15.092905998230 -70.263542175293 -267.345855712891 1.294480681419
22.095222473145 -68.529685974121 -284.380279541016 4.536311149597
-152.100143432617 -73.347816467285 -278.905456542969 3.322840452194
-13.617886543274 -75.346534729004 -275.410858154297 2.772374153137
-156.410079956055 -74.262306213379 -284.764892578125 1.213986277580
-129.230072021484 -70.478775024414 -281.297210693359 3.650456428528
-162.521194458008 -73.298286437988 -285.149993896484 1.946661591530
-124.631195068359 -71.169921875000 -282.553955078125 2.134287595749
-108.754173278809 -75.436859130859 -287.599334716797 2.231494188309
-10.976874351501 -72.044425964355 -288.750946044922 2.212538480759
-113.720443725586 -72.387680053711 -290.680389404297 1.344621181488
-120.796852111816 -77.041282653809 -286.781707763672 2.624199867249
-124.117156982422 -74.613998413086 -288.125732421875 1.151193022728
-139.820571899414 -68.858886718750 -286.438659667969 3.181118488312
-127.216049194336 -76.142799377441 -290.174682617188 1.170835733414
-161.891250610352 -72.934379577637 -284.851745605469 2.405018806458
-147.974182128906 -78.079895019531 -292.898590087891 2.314568996429
-155.478485107422 -71.195343017578 -293.360015869141 1.960825800896
-157.064041137695 -68.987167358398 -302.592285156250 2.763525009155
-161.893112182617 -70.026428222656 -297.404357910156 4.739187717438
-150.591415405273 -73.958679199219 -308.267211914063 4.030985355377
-152.956344604492 -73.043983459473 -309.285217285156 3.358235359192
38.362365722656 -70.613731384277 -17.597690582275 0.927443563938
49.134811401367 -72.860527038574 -19.723577499390 2.225465059280
34.644336700439 -66.673294067383 -31.848968505859 4.857045173645
56.037990570068 -68.901626586914 -31.614442825317 6.202742099762
36.001674652100 -68.616195678711 -38.127735137939 2.117217063904
45.369464874268 -75.610717773438 -36.339744567871 3.927461624146
-50.835464477539 -70.633316040039 -43.421581268311 4.442586898804
88.762374877930 -70.061843872070 -61.347927093506 3.693939447403
87.427810668945 -69.762191772461 -67.992530822754 1.933314323425
-90.194770812988 -66.526054382324 -61.134037017822 2.005775213242
-10.231766700745 -68.278732299805 -60.888458251953 2.400157690048
-83.430419921875 -74.167999267578 -64.497314453125 3.229861736298
100.699790954590 -68.690353393555 -71.654060363770 1.652179479599
-12.906796455383 -67.316413879395 -66.456916809082 1.622990965843
72.117950439453 -72.427398681641 -79.116363525391 1.764447569847
-36.030490875244 -72.741813659668 -75.556106567383 1.252705216408
-26.288560867310 -74.776206970215 -79.439315795898 2.784635066986
58.928352355957 -66.912918090820 -88.062637329102 2.841038942337
-44.048679351807 -80.679084777832 -86.692543029785 3.000591993332
65.232391357422 -65.826110839844 -81.796012878418 0.830226123333
56.687713623047 -69.261489868164 -86.029624938965 1.512865781784
52.334671020508 -74.476768493652 -93.156372070313 0.871307730675
68.531089782715 -69.018798828125 -93.787757873535 1.334271311760
61.194274902344 -69.738746643066 -100.389099121094 3.357560873032
106.506347656250 -66.282089233398 -97.698699951172 1.119583010674
106.615432739258 -73.939544677734 -97.893386840820 1.456116437912
60.812351226807 -74.820137023926 -99.233947753906 3.348464965820
111.614944458008 -68.667083740234 -102.493095397949 2.249761104584
-68.916412353516 -77.527969360352 -98.125236511230 2.192086458206
-68.861778259277 -73.441780090332 -101.112045288086 2.164869785309
107.605941772461 -74.746383666992 -99.259895324707 2.395825624466
57.017753601074 -68.937057495117 -102.953208923340 2.020963668823
74.187606811523 -72.882575988770 -103.595741271973 3.170854330063
-65.759948730469 -62.706600189209 -98.561950683594 1.231900215149
-77.618667602539 -67.916839599609 -104.235542297363 1.679215550423
97.403343200684 -68.996711730957 -113.175910949707 7.803938388824
45.766025543213 -70.541389465332 -104.362594604492 2.082384347916
104.087776184082 -70.432586669922 -104.183555603027 1.456797361374
46.057170867920 -68.827842712402 -111.507911682129 1.433904290199
116.070892333984 -66.924835205078 -111.630645751953 4.862502574921
-83.067893981934 -65.425025939941 -105.276046752930 1.991576790810
107.446800231934 -65.501815795898 -112.878242492676 2.353810548782
-84.244148254395 -66.740684509277 -113.416275024414 2.708570241928
-56.616783142090 -72.181251525879 -122.521530151367 4.038419723511
-57.151924133301 -69.192298889160 -127.126274108887 1.722942948341
-71.120246887207 -72.699111938477 -128.308746337891 4.709860324860
-48.026218414307 -72.048614501953 -129.594070434570 4.484648227692
-85.149421691895 -70.745811462402 -130.925949096680 2.022120952606
-76.478866577148 -74.082847595215 -132.709243774414 2.248477458954
-84.106315612793 -70.698577880859 -125.942169189453 0.686515986919
-52.797111511230 -74.130485534668 -136.123260498047 1.739078998566
-70.581871032715 -69.235565185547 -137.158752441406 1.866509914398
-58.354530334473 -70.418136596680 -133.304336547852 1.327463269234
-61.828815460205 -72.664939880371 -135.907546997070 3.035829067230
24.291864395142 -73.311042785645 -140.335723876953 0.813559651375
-84.722259521484 -73.231544494629 -142.224029541016 7.248221874237
-44.558925628662 -74.255393981934 -146.039001464844 1.280476093292
-97.121879577637 -68.130836486816 -147.486923217773 2.118841648102
-101.649520874023 -69.196846008301 -149.887969970703 3.338432788849
18.941268920898 -76.066329956055 -153.835601806641 3.463917493820
15.732145309448 -74.718765258789 -160.196884155273 2.537736415863
-99.740928649902 -71.276466369629 -156.861267089844 2.830617904663
-98.613517761230 -68.407119750977 -155.336517333984 1.041631340981
-94.287269592285 -69.784347534180 -165.555175781250 6.247736930847
19.127077102661 -67.693405151367 -170.843551635742 1.085805892944
-113.111312866211 -74.040267944336 -163.875015258789 10.174896240234
19.783691406250 -73.169860839844 -169.248504638672 2.146771192551
-144.750900268555 -74.041618347168 -174.539306640625 2.249904155731
17.453964233398 -70.923393249512 -176.552001953125 1.621050238609
22.453962326050 -72.900733947754 -187.517532348633 2.172213077545
-153.141998291016 -68.348175048828 -183.813537597656 2.432727813721
19.286499023438 -74.197090148926 -180.488189697266 2.256639242172
14.899900436401 -69.550209045410 -177.933181762695 1.887418508530
-137.057144165039 -78.213813781738 -188.559738159180 7.236385345459
-151.055038452148 -73.420639038086 -185.824554443359 1.414317846298
16.829664230347 -69.993293762207 -189.975296020508 1.271842718124
21.083168029785 -68.527877807617 -186.334793090820 1.341764926910
-146.621963500977 -70.436935424805 -188.507858276367 2.369572401047
-108.659660339355 -75.840118408203 -191.011230468750 6.171085834503
22.177078247070 -70.167373657227 -196.666595458984 1.707854151726
-126.249473571777 -67.163490295410 -188.332855224609 6.558137893677
11.172079086304 -72.852813720703 -198.089767456055 0.918010056019
-132.457931518555 -67.309745788574 -191.962066650391 3.005477428436
-150.038513183594 -71.064369201660 -188.858871459961 0.389288306236
-162.279754638672 -74.225189208984 -197.505722045898 2.678086519241
-163.357116699219 -69.143081665039 -197.680572509766 0.987734019756
-19.474960327148 -67.883155822754 -203.529983520508 2.022652626038
-166.704452514648 -70.601089477539 -197.739456176758 2.884725570679
-20.988574981689 -69.693870544434 -193.713104248047 0.796996831894
-16.072530746460 -69.763275146484 -197.129104614258 1.060944795609
12.201115608215 -70.760467529297 -195.603607177734 1.522224187851
-158.906280517578 -67.669639587402 -192.792388916016 2.328711509705
-111.065277099609 -69.054946899414 -199.179138183594 1.925169229507
-17.174518585205 -73.987785339355 -207.451934814453 2.496524810791
-156.036880493164 -72.783836364746 -195.822982788086 1.566167831421
18.224901199341 -67.270423889160 -199.995925903320 2.097263336182
-163.801513671875 -70.766716003418 -195.371475219727 2.932482242584
-121.048782348633 -74.055702209473 -202.010528564453 2.813750982285
-109.919860839844 -69.995124816895 -205.184143066406 4.105798244476
-127.000869750977 -66.547134399414 -205.050704956055 1.919247984886
-14.431531906128 -74.161895751953 -201.998580932617 1.421642422676
-19.551990509033 -67.773963928223 -203.550216674805 1.992492675781
-162.718795776367 -67.793899536133 -205.022201538086 2.705722332001
-161.154357910156 -69.018295288086 -208.795410156250 2.276006698608
-166.521926879883 -72.297851562500 -214.217483520508 2.855963706970
-149.493011474609 -74.051422119141 -204.448699951172 2.118044853210
-144.375000000000 -69.978324890137 -220.449676513672 1.434517025948
-7.444349765778 -68.872032165527 -220.678466796875 0.887397289276
-15.131295204163 -69.717010498047 -218.165054321289 0.838765084743
-102.467475891113 -70.713539123535 -219.704299926758 1.497059464455
-8.377258300781 -69.541786193848 -219.222808837891 1.066199183464
-165.816772460938 -69.633537292480 -221.640396118164 1.187613844872
-115.293609619141 -66.398574829102 -228.964691162109 1.697819709778
-1.584323048592 -68.328887939453 -229.527603149414 2.098453521729
4.640988826752 -69.033004760742 -229.854125976563 2.442906618118
-113.789642333984 -69.768630981445 -230.452255249023 2.225068569183
-4.366281032562 -65.150764465332 -231.750259399414 3.029167175293
-116.732131958008 -69.662704467773 -234.416427612305 1.598085403442
-5.539210796356 -67.530509948730 -240.685501098633 2.657312393188
-5.346446037292 -73.140869140625 -232.157211303711 1.761151909828
-2.696654081345 -68.529052734375 -241.177047729492 2.418495178223
65.211563110352 -72.088981628418 -238.150482177734 0.792670905590
-16.563388824463 -73.390678405762 -234.913146972656 2.125725269318
3.377271890640 -69.142219543457 -237.127120971680 1.902766942978
9.220752716064 -71.126075744629 -241.755874633789 0.533930122852
6.656889915466 -75.808853149414 -239.530151367188 1.375465750694
0.360271006823 -76.255874633789 -241.263732910156 0.897350132465
65.512290954590 -74.023651123047 -240.614990234375 1.371970772743
69.862144470215 -70.023727416992 -242.111373901367 2.249703407288
13.859051704407 -72.902908325195 -241.686233520508 1.208270549774
57.879035949707 -70.856307983398 -241.087158203125 1.509244203568
55.934200286865 -74.610427856445 -240.446090698242 3.172079801559
45.509765625000 -65.603721618652 -246.083465576172 1.728445053101
34.679805755615 -72.397598266602 -252.428634643555 3.286986827850
37.577594757080 -72.645629882813 -254.436340332031 1.977524876595
-135.517364501953 -70.959274291992 -250.770507812500 4.125412940979
-17.391233444214 -75.633712768555 -250.586135864258 4.332225322723
24.433300018311 -73.226066589355 -258.526733398438 2.135527133942
46.407512664795 -71.065589904785 -254.692077636719 2.527652263641
22.644699096680 -65.856941223145 -255.873413085938 2.392846345901
-102.036842346191 -69.717781066895 -258.718444824219 1.260840058327
31.508028030396 -69.816505432129 -255.170944213867 1.170480608940
-152.239898681641 -70.211036682129 -256.443572998047 2.525585651398
-117.897758483887 -67.088806152344 -258.461700439453 1.837906599045
-104.801811218262 -71.874114990234 -252.023971557617 3.554178714752
-8.568302154541 -69.374755859375 -258.980041503906 3.055635929108
-156.676635742188 -76.590698242188 -250.635528564453 3.588737726212
29.300123214722 -68.350372314453 -258.104400634766 1.474578499794
-113.835372924805 -73.347442626953 -251.571624755859 5.301945209503
27.570163726807 -71.050575256348 -258.121215820313 1.733077883720
-133.605529785156 -69.016670227051 -257.431823730469 2.613697052002
-120.598434448242 -71.987785339355 -256.722961425781 3.319116830826
-106.991539001465 -66.649642944336 -258.321319580078 0.848808288574
-118.124916076660 -70.903266906738 -261.999206542969 1.696305036545
-139.853149414063 -72.807754516602 -259.821960449219 2.450587511063
25.852827072144 -69.039489746094 -264.846801757813 1.077938675880
-120.240959167480 -67.641738891602 -263.060455322266 2.417716979980
-145.453338623047 -71.855384826660 -266.252288818359 0.955163061619
-6.940153121948 -73.347152709961 -272.974609375000 4.446630477905
-156.462310791016 -69.961799621582 -275.076690673828 2.665730237961
-12.820755004883 -72.918136596680 -282.217742919922 3.951117038727
-5.233342170715 -75.117683410645 -287.199340820313 0.987826168537
-137.518447875977 -74.289054870605 -284.246215820313 2.621614217758
-123.615127563477 -67.210975646973 -286.880737304688 1.426022291183
-141.172576904297 -66.926719665527 -287.610595703125 1.762243866920
-130.781311035156 -72.434761047363 -291.724365234375 4.467121601105
-152.278045654297 -72.719360351563 -292.066284179688 3.294393777847
-152.637893676758 -75.916725158691 -297.689880371094 1.641883611679
-152.823928833008 -77.271034240723 -301.731140136719 1.702653050423
-152.993804931641 -67.839714050293 -293.137359619141 2.158026218414
-144.816452026367 -72.740013122559 -299.781982421875 0.658434331417
-147.020690917969 -72.414779663086 -301.031463623047 2.231660604477
-154.028274536133 -72.528488159180 -306.908569335938 2.100011587143
28.300542831421 -74.548927307129 -31.997798919678 2.676991939545
53.275318145752 -72.737487792969 -35.948547363281 5.873373031616
31.765907287598 -76.536636352539 -37.732646942139 4.278693675995
36.569396972656 -72.543197631836 -41.707477569580 1.313759684563
-42.831256866455 -68.134132385254 -50.178661346436 2.486653089523
-75.407958984375 -69.042472839355 -48.093963623047 1.569746851921
83.407073974609 -69.333625793457 -65.574005126953 1.210183024406
85.507583618164 -65.301467895508 -62.581279754639 2.210614204407
73.790306091309 -70.249221801758 -68.070991516113 1.032701730728
-94.214469909668 -68.133804321289 -68.765312194824 1.876175880432
103.570800781250 -71.387153625488 -75.168327331543 4.315418720245
-32.931118011475 -64.020042419434 -75.152259826660 2.317263364792
73.970123291016 -70.955978393555 -78.264549255371 3.933964729309
-40.221035003662 -66.325859069824 -78.696044921875 1.297192931175
-47.831939697266 -68.739295959473 -78.962257385254 4.616066932678
55.272018432617 -69.235580444336 -90.586891174316 2.261437416077
104.713920593262 -68.652404785156 -90.851570129395 1.901574254036
67.894088745117 -68.293655395508 -95.277374267578 0.896607816219
58.721454620361 -69.790679931641 -96.048301696777 0.591144263744
50.330177307129 -71.050468444824 -104.968620300293 1.464009165764
63.875209808350 -68.325668334961 -99.428329467773 4.301652431488
108.336891174316 -69.579200744629 -102.193016052246 1.796423912048
73.354713439941 -74.166900634766 -110.104087829590 7.898755073547
54.009399414063 -69.633445739746 -108.682495117188 2.855848550797
80.161834716797 -70.305740356445 -108.494613647461 3.583622694016
93.373489379883 -69.786972045898 -113.918128967285 7.503307819366
-78.888565063477 -71.660217285156 -109.725479125977 3.453045606613
-83.790809631348 -72.890792846680 -106.839790344238 1.328415393829
-84.581825256348 -71.149864196777 -114.011459350586 3.442116260529
-60.288005828857 -69.945388793945 -114.577728271484 5.868972301483
-52.673751831055 -75.180305480957 -120.665817260742 8.737836837769
-91.724327087402 -65.908935546875 -118.156311035156 1.792233109474
-77.457382202148 -70.442367553711 -118.148689270020 1.708107471466
-75.678695678711 -70.249832153320 -124.227394104004 2.494784116745
-59.134559631348 -73.042701721191 -123.540702819824 4.943190097809
-87.276863098145 -62.509574890137 -127.736450195313 2.242895364761
-92.766868591309 -70.404388427734 -128.183822631836 4.527420043945
-49.537464141846 -70.270599365234 -136.604660034180 0.266208261251
-56.005084991455 -66.528457641602 -135.135269165039 3.129745483398
-75.515098571777 -68.314064025879 -136.403350830078 0.871762216091
-56.234672546387 -69.161369323730 -141.849472045898 1.605196118355
-72.636901855469 -71.136169433594 -146.693359375000 1.410433769226
22.165721893311 -68.071517944336 -143.648849487305 1.409379124641
-58.507884979248 -69.096603393555 -144.142822265625 1.607790708542
-47.971454620361 -70.130279541016 -147.260940551758 1.812425136566
16.289155960083 -71.923889160156 -153.710601806641 1.437656164169
14.379199981689 -68.860786437988 -152.956085205078 1.680021166801
-143.326950073242 -67.320137023926 -172.288635253906 2.983587980270
-105.226318359375 -73.430915832520 -178.100463867188 4.809159755707
-108.586265563965 -71.774993896484 -182.853485107422 2.547128438950
-147.246765136719 -71.473228454590 -191.420928955078 1.879943609238
-110.348869323730 -70.116119384766 -182.704544067383 1.039954185486
-153.138336181641 -67.279869079590 -192.545227050781 2.014285802841
-115.067420959473 -65.569908142090 -192.131668090820 1.859733700752
-144.843093872070 -72.623077392578 -194.454772949219 1.589204788208
-150.252883911133 -76.332679748535 -197.712341308594 2.044636726379
-153.788787841797 -75.581733703613 -205.967422485352 3.444034814835
-145.526702880859 -73.079826354980 -216.548538208008 0.991162240505
-155.094100952148 -75.267402648926 -218.761764526367 3.840683460236
-105.083404541016 -70.519966125488 -220.325012207031 1.305777072906
-101.596466064453 -70.846237182617 -224.776718139648 1.914254784584
-123.267082214355 -64.448074340820 -221.873001098633 3.806269168854
-112.507896423340 -66.763511657715 -225.080215454102 1.893446087837
-155.412643432617 -72.437294006348 -229.527450561523 0.520984590054
-5.272198200226 -73.182975769043 -230.606857299805 1.171110033989
-130.509017944336 -68.517837524414 -224.476211547852 1.600200057030
-159.006927490234 -71.582313537598 -232.506851196289 3.142428398132
-136.853866577148 -69.047859191895 -230.622985839844 3.486193895340
-11.698936462402 -71.923698425293 -242.480255126953 1.150092363358
5.122237205505 -73.638053894043 -243.973281860352 1.196671009064
61.648113250732 -65.409858703613 -242.192855834961 1.210394620895
19.125785827637 -72.021018981934 -248.363037109375 0.674175322056
60.617317199707 -69.434707641602 -248.681121826172 2.464629650116
38.478946685791 -67.658416748047 -243.760650634766 6.665410995483
52.443336486816 -70.528633117676 -249.651473999023 1.279601097107
-153.898056030273 -72.353561401367 -247.579559326172 1.385670185089
-154.693054199219 -68.739257812500 -246.879211425781 2.852499246597
40.737850189209 -76.901092529297 -252.419723510742 5.534396648407
28.381937026978 -67.958526611328 -260.870697021484 1.617187023163
47.163127899170 -66.418479919434 -250.608459472656 0.863154232502
-144.602905273438 -72.794639587402 -253.991714477539 0.966553509235
-137.172088623047 -69.400596618652 -250.535629272461 4.896686553955
-127.213615417480 -70.802970886230 -255.208999633789 2.075072765350
-134.181793212891 -64.845817565918 -254.834014892578 1.688409209251
-141.252014160156 -65.870719909668 -255.607070922852 2.130415916443
-124.508979797363 -70.070137023926 -252.854934692383 2.252942800522
-144.095779418945 -70.569747924805 -256.430480957031 2.463011264801
-128.095733642578 -72.327445983887 -257.225219726563 3.770193576813
-127.087417602539 -64.905044555664 -257.548248291016 0.507795155048
-128.197479248047 -75.438514709473 -259.535125732422 1.703536033630
-120.280754089355 -71.605537414551 -256.428833007813 3.011511564255
-4.840186119080 -71.627281188965 -264.592620849609 4.973946571350
27.781372070313 -73.715202331543 -263.385345458984 4.311583518982
-147.329330444336 -74.405235290527 -260.151428222656 0.786987602711
29.610450744629 -66.635246276855 -268.389465332031 4.145053863525
-9.186435699463 -69.870689392090 -268.295898437500 1.911852955818
13.997724533081 -74.851013183594 -283.848663330078 0.921154916286
-144.790527343750 -71.622055053711 -286.436126708984 2.649732828140
-124.886062622070 -69.427597045898 -285.079711914063 0.586418509483
-135.640060424805 -71.970672607422 -279.918090820313 4.575438976288
-160.109817504883 -69.027183532715 -284.396057128906 2.754417657852
-126.081977844238 -71.237594604492 -284.851593017578 1.255030155182
-119.066825866699 -66.517379760742 -285.204406738281 3.938283443451
-129.280014038086 -68.583297729492 -285.842651367188 2.803066968918
-156.776306152344 -72.490592956543 -292.203887939453 2.657472372055
34.188117980957 -72.036468505859 -14.383133888245 2.068799257278
29.891855239868 -75.352584838867 -20.955730438232 4.237457752228
43.605453491211 -74.893470764160 -19.242507934570 3.187297821045
49.087867736816 -66.615043640137 -27.163511276245 3.830093145370
28.633184432983 -72.622474670410 -28.079914093018 3.466944694519
30.518041610718 -73.039054870605 -31.725839614868 3.487214326859
-32.872970581055 -72.799110412598 -42.686740875244 8.548810005188
-75.669151306152 -71.394569396973 -48.262218475342 3.500759601593
-9.740738868713 -69.713226318359 -55.815418243408 6.194179058075
73.137275695801 -68.623199462891 -68.393585205078 1.622666358948
99.213378906250 -69.548545837402 -68.682395935059 3.406429290771
66.427314758301 -67.778861999512 -81.509490966797 0.944172084332
65.471557617188 -63.011745452881 -83.716316223145 1.284409284592
100.274185180664 -64.465644836426 -85.059135437012 3.740047454834
-59.125976562500 -66.317832946777 -84.847923278809 3.510088443756
-61.014053344727 -65.166641235352 -90.514381408691 1.879558563232
52.060420989990 -65.371719360352 -94.991729736328 1.777602553368
-58.303436279297 -65.843879699707 -96.252700805664 6.327101707458
-67.739105224609 -63.423248291016 -98.008331298828 1.542288780212
-99.410865783691 -66.743019104004 -95.002433776855 1.723668694496
-69.640937805176 -67.186874389648 -98.178009033203 1.542950510979
51.257122039795 -69.345230102539 -107.581878662109 1.403000950813
-68.627998352051 -70.902122497559 -101.734375000000 1.790809750557
52.618892669678 -70.128417968750 -99.911453247070 1.958616971970
100.138305664063 -71.366180419922 -103.167686462402 2.928017854691
91.597740173340 -71.070220947266 -109.963333129883 4.787299633026
-72.659614562988 -69.534469604492 -109.562515258789 2.061341047287
-80.829208374023 -69.985366821289 -107.196754455566 3.313831329346
-62.164539337158 -64.732826232910 -116.570182800293 1.658814668655
-92.463111877441 -66.912345886230 -113.343582153320 4.115823745728
-75.779106140137 -74.176803588867 -127.051689147949 4.195023536682
-87.394813537598 -63.302364349365 -126.086006164551 2.555268049240
-63.261295318604 -68.044418334961 -119.844161987305 3.252342939377
-57.735946655273 -69.766532897949 -116.158370971680 5.350353717804
-87.998001098633 -65.674667358398 -129.466461181641 1.825753211975
-59.354175567627 -68.191101074219 -127.960739135742 1.440642356873
-79.409690856934 -67.128135681152 -122.885993957520 1.552756309509
-69.251022338867 -68.583305358887 -130.055145263672 4.008162975311
-67.833976745605 -70.815101623535 -129.460937500000 5.914471149445
-58.581066131592 -66.127182006836 -135.478561401367 2.167611360550
-52.663387298584 -68.447319030762 -136.253463745117 2.389406919479
-89.780525207520 -68.780868530273 -135.019104003906 1.244653701782
-96.536209106445 -67.767150878906 -137.041595458984 2.989554882050
-87.915794372559 -71.305473327637 -137.248336791992 2.642806768417
26.085542678833 -70.431022644043 -149.405792236328 1.730598092079
-49.574047088623 -70.159347534180 -142.027633666992 1.973887681961
15.438966751099 -66.013122558594 -149.260437011719 2.024388790131
-97.213546752930 -65.446861267090 -158.037811279297 1.217628359795
-95.006683349609 -64.748001098633 -167.328292846680 5.777975082397
-95.801277160645 -62.008266448975 -169.179885864258 6.471757888794
-109.941055297852 -71.555549621582 -166.776153564453 5.545785903931
-106.292572021484 -71.605323791504 -180.585067749023 2.811608076096
-107.739341735840 -63.452434539795 -180.228683471680 1.840944290161
-146.940460205078 -68.648445129395 -183.227844238281 3.124678850174
-109.026527404785 -69.498176574707 -184.114562988281 1.161850333214
-133.813201904297 -63.316516876221 -185.679595947266 8.294912338257
-143.359863281250 -73.718772888184 -193.765716552734 0.953989446163
-125.420661926270 -70.251007080078 -194.537521362305 2.112935304642
-157.168380737305 -72.343521118164 -194.280044555664 1.817828774452
-141.196548461914 -66.959320068359 -196.048919677734 0.387148201466
-121.391975402832 -62.455165863037 -194.840682983398 3.545684337616
-135.245742797852 -68.124145507813 -199.310424804688 3.905087947845
-147.660507202148 -66.211837768555 -208.282958984375 3.250893354416
-131.708633422852 -67.291656494141 -218.715240478516 5.930695056915
-113.113235473633 -67.003067016602 -225.050033569336 1.703647255898
-153.751358032227 -71.833457946777 -222.758712768555 0.774142920971
-119.860252380371 -65.638153076172 -229.375015258789 1.607900381088
-107.146049499512 -67.826606750488 -230.655075073242 1.878227949142
-125.731529235840 -71.895835876465 -231.572158813477 2.243672132492
-133.115661621094 -71.800643920898 -231.615570068359 2.012332201004
-120.163108825684 -64.356285095215 -234.426132202148 2.414135932922
0.716566979885 -71.797737121582 -235.971511840820 2.494845151901
-150.247207641602 -69.489097595215 -231.957199096680 2.587447643280
5.912872791290 -73.053062438965 -232.878952026367 2.270755767822
6.832116127014 -66.747222900391 -242.666107177734 2.257395267487
-0.088524997234 -72.028808593750 -240.467727661133 1.718974828720
11.715932846069 -69.836784362793 -241.036987304688 0.772234559059
-144.122116088867 -69.876487731934 -233.782943725586 2.026821374893
-5.887228012085 -70.302703857422 -244.448715209961 2.937074661255
17.120193481445 -64.811843872070 -241.637420654297 1.593409895897
46.046585083008 -66.953224182129 -250.214706420898 1.607030272484
49.246417999268 -68.900222778320 -244.797225952148 2.235553026199
-149.666503906250 -71.356010437012 -246.882766723633 2.983716487885
-8.045015335083 -73.897171020508 -254.800765991211 4.724163532257
29.609006881714 -69.023712158203 -256.677276611328 1.494722604752
-134.512466430664 -62.227020263672 -256.668304443359 3.190178632736
-130.655120849609 -67.121589660645 -257.594451904297 3.297915935516
-130.516540527344 -70.590332031250 -255.473312377930 2.766119718552
23.041145324707 -68.405296325684 -261.990356445313 2.326585769653
-140.949981689453 -68.519966125488 -259.152221679688 2.365859031677
29.726783752441 -72.008674621582 -257.377288818359 2.801586151123
28.527177810669 -68.482208251953 -267.261230468750 3.630441665649
-156.478698730469 -67.512741088867 -260.105621337891 2.857052803040
-150.425827026367 -72.931152343750 -285.112365722656 2.942989826202
-157.960235595703 -70.663528442383 -287.830535888672 0.892252564430
-144.894287109375 -70.038200378418 -285.450988769531 1.704802632332
4.892138957977 -71.268676757813 -295.631347656250 3.905653953552
-157.307922363281 -71.069030761719 -292.258087158203 2.079625129700
49.302772521973 -73.798919677734 -27.739791870117 2.920306682587
40.636554718018 -74.329200744629 -40.915489196777 2.530396938324
-63.494598388672 -68.452377319336 -46.534797668457 2.156512737274
-73.944602966309 -65.660179138184 -44.748638153076 1.672679185867
-24.697114944458 -69.210983276367 -50.718601226807 3.522496938705
-20.098325729370 -69.169692993164 -60.911571502686 2.533620119095
-10.335655212402 -69.974250793457 -67.444007873535 3.174098253250
-26.359230041504 -64.333229064941 -71.559577941895 1.921228170395
70.483230590820 -69.694442749023 -74.154800415039 2.153558731079
-95.038406372070 -67.057746887207 -80.101844787598 2.793053388596
-47.970348358154 -67.293663024902 -82.216453552246 2.035354614258
56.266643524170 -65.621696472168 -84.702659606934 1.884365081787
59.934597015381 -69.290679931641 -89.465545654297 1.970018982887
73.912979125977 -67.785606384277 -86.818946838379 6.825570106506
105.703895568848 -68.789253234863 -97.273307800293 1.299366831779
57.781929016113 -67.835716247559 -92.072265625000 3.043110847473
99.664039611816 -68.756141662598 -104.346351623535 2.959943294525
-77.116424560547 -69.473709106445 -102.379226684570 2.994565248489
-96.365638732910 -69.393989562988 -102.047744750977 1.655988931656
79.224334716797 -69.022132873535 -112.380455017090 5.668382644653
-75.090591430664 -67.289070129395 -99.139778137207 1.302282333374
-80.062820434570 -69.005508422852 -115.874252319336 2.072389841080
-82.615386962891 -65.958915710449 -118.569282531738 1.773938059807
-52.853702545166 -69.544349670410 -123.678604125977 3.196868896484
-79.112564086914 -64.446640014648 -122.566581726074 1.771928787231
-60.421600341797 -71.183212280273 -128.330261230469 1.135446310043
-77.970596313477 -72.630851745605 -133.962310791016 1.186945557594
-72.514007568359 -63.062561035156 -130.586624145508 3.493428707123
-81.010032653809 -66.226104736328 -124.216880798340 1.261020779610
-86.231109619141 -66.966339111328 -124.637420654297 2.221101522446
-59.437168121338 -69.398674011230 -129.144027709961 1.116450667381
-88.484504699707 -69.682647705078 -130.645111083984 1.552396059036
-51.738693237305 -70.504524230957 -130.188201904297 1.746709942818
-51.500190734863 -69.198432922363 -141.089736938477 2.261239767075
26.897510528564 -69.110633850098 -139.813064575195 2.210755586624
-58.825428009033 -63.126121520996 -132.631454467773 2.505273818970
11.918277740479 -69.951637268066 -147.174789428711 1.945220470428
20.423532485962 -65.320770263672 -147.292816162109 0.994290590286
18.646961212158 -68.754829406738 -152.244628906250 1.364289999008
-96.562858581543 -71.320281982422 -142.643661499023 4.069072723389
-95.083236694336 -67.830429077148 -154.355072021484 2.279446363449
-99.210945129395 -62.009437561035 -151.396697998047 3.309563398361
-93.898918151855 -68.530982971191 -153.575195312500 2.114320278168
-91.588920593262 -64.617538452148 -158.015869140625 4.505643367767
-151.867187500000 -73.525344848633 -173.694992065430 3.603264331818
-153.407379150391 -70.636596679688 -173.285186767578 3.058578252792
-105.209701538086 -70.825088500977 -184.721939086914 3.341430187225
-142.859390258789 -63.282810211182 -174.749893188477 2.434444904327
-111.579032897949 -70.319366455078 -176.008728027344 3.905038833618
-149.609008789063 -68.303306579590 -184.933593750000 3.771370410919
-114.835319519043 -69.292098999023 -188.347564697266 2.703175783157
-104.147056579590 -68.787536621094 -184.159744262695 2.646012783051
-146.142791748047 -69.417861938477 -191.771148681641 3.225832462311
-134.906509399414 -68.283485412598 -197.152343750000 2.058736801147
-107.334297180176 -67.542289733887 -197.134521484375 1.009777784348
-115.697853088379 -69.457916259766 -198.770385742188 2.209820747375
-116.353759765625 -66.091041564941 -200.243698120117 2.324904680252
-112.932136535645 -66.259475708008 -202.504074096680 1.040691018105
-133.939117431641 -67.379898071289 -196.022033691406 0.734374463558
-136.369903564453 -68.320350646973 -194.867187500000 3.260038137436
-131.886749267578 -71.140098571777 -196.435714721680 0.944614946842
-123.666877746582 -65.203048706055 -200.202865600586 1.443990111351
-122.112106323242 -64.481857299805 -206.663391113281 2.055444240570
-117.506858825684 -64.978836059570 -203.490890502930 1.555580258369
-147.564239501953 -68.943145751953 -215.380523681641 3.866669893265
-152.830093383789 -67.749191284180 -224.235656738281 0.955946266651
-158.703475952148 -65.371559143066 -219.180908203125 2.990715980530
-141.680084228516 -69.743194580078 -220.850784301758 2.734948158264
-139.208953857422 -67.266098022461 -226.119064331055 2.716842889786
-126.494407653809 -69.288047790527 -219.977432250977 4.057609558105
-143.301010131836 -64.600502014160 -230.164337158203 2.365432262421
-148.765991210938 -70.405960083008 -227.791366577148 2.133541584015
-143.338134765625 -67.108161926270 -222.150024414063 1.488148570061
-132.037948608398 -64.841094970703 -225.043304443359 1.947103857994
-150.945159912109 -67.591758728027 -228.794723510742 1.177085995674
-138.008956909180 -68.170593261719 -231.086791992188 3.632752656937
-126.618949890137 -64.726783752441 -228.765151977539 1.961642503738
-8.085483551025 -70.540306091309 -237.712448120117 0.753758788109
1.843935012817 -68.853599548340 -236.335678100586 1.340378522873
7.419974803925 -67.727661132813 -242.798477172852 1.933385372162
11.591812133789 -67.782051086426 -240.381637573242 0.685285270214
-10.751122474670 -70.635169982910 -245.256576538086 1.566409587860
-14.159983634949 -64.018943786621 -248.682846069336 3.153681755066
43.216411590576 -62.227329254150 -253.898651123047 2.005724668503
48.765037536621 -70.498626708984 -250.387817382813 1.934354305267
-149.317260742188 -67.402763366699 -254.588638305664 2.660037279129
40.983360290527 -66.599365234375 -259.827056884766 2.232110500336
29.386297225952 -66.817909240723 -252.307952880859 3.597534656525
-160.885147094727 -64.489921569824 -251.944030761719 4.058779716492
-153.059280395508 -66.697799682617 -258.040924072266 2.877907037735
-148.828781127930 -67.899116516113 -258.747039794922 1.609448313713
0.168590992689 -70.037681579590 -264.705932617188 5.021403312683
-158.501174926758 -67.533843994141 -262.674133300781 2.042173624039
-0.051341000944 -67.456855773926 -277.024841308594 3.957806348801
-146.140197753906 -71.194732666016 -269.526885986328 3.808190107346
-147.184646606445 -67.444618225098 -283.492523193359 1.490456342697
-155.499465942383 -68.826263427734 -279.796020507813 2.993169307709
-153.357559204102 -65.843322753906 -278.998046875000 4.198799610138
-149.588989257813 -66.549865722656 -280.051086425781 3.408356904984
-158.028747558594 -62.713909149170 -286.542510986328 2.724859714508
-152.958129882813 -64.155212402344 -280.913604736328 2.230382919312
-154.309341430664 -68.185600280762 -280.348205566406 2.711469888687
-146.868301391602 -72.815551757813 -285.543823242188 2.849035501480
-144.052062988281 -67.427917480469 -285.385742187500 2.300568342209
12.087003707886 -70.721199035645 -295.509826660156 3.849757671356
-152.373046875000 -61.908042907715 -285.542083740234 1.978503584862
-161.747390747070 -67.471839904785 -287.748077392578 2.578761816025
-153.509170532227 -66.437606811523 -286.059082031250 2.238509893417
-151.045684814453 -66.459495544434 -291.677093505859 1.510156869888
-156.660369873047 -67.413475036621 -283.743743896484 2.858611345291
-154.961349487305 -72.440315246582 -288.659545898438 2.718035697937
1.219288945198 -63.002971649170 -295.033020019531 2.682844638824
-147.801879882813 -67.547637939453 -290.408386230469 2.414442300797
-147.147277832031 -69.227729797363 -290.167968750000 1.961549639702
35.331569671631 -63.036319732666 -20.855255126953 3.555560112000
42.294441223145 -66.510543823242 -14.911085128784 2.719667673111
45.528469085693 -64.636146545410 -26.848102569580 2.083643198013
22.268667221069 -72.796051025391 -32.687026977539 0.971848309040
33.980979919434 -63.877689361572 -37.739799499512 1.153113365173
46.126560211182 -76.974754333496 -38.322925567627 5.885023593903
-54.499847412109 -66.875640869141 -42.470588684082 3.176308155060
-53.563182830811 -68.854896545410 -46.613739013672 0.657565653324
95.106475830078 -67.253028869629 -60.973579406738 4.491927146912
-93.545753479004 -65.252677917480 -62.961799621582 2.875327587128
96.361312866211 -70.054428100586 -71.148315429688 1.277721047401
64.445976257324 -63.976673126221 -69.098739624023 2.561955690384
106.606620788574 -69.104087829590 -80.757598876953 4.734613418579
68.364921569824 -66.582855224609 -73.171554565430 2.376336336136
-37.775646209717 -71.028984069824 -78.132682800293 1.838004708290
60.405796051025 -66.129776000977 -86.115753173828 1.671493649483
-57.595146179199 -65.505645751953 -73.484710693359 7.441607475281
63.838962554932 -63.533847808838 -86.718742370605 1.157763600349
68.484481811523 -66.111625671387 -82.024406433105 3.072361230850
-97.758140563965 -66.917137145996 -77.260658264160 2.091658115387
53.330276489258 -68.569580078125 -92.656097412109 2.176174402237
52.020023345947 -69.714042663574 -97.068473815918 4.068362236023
68.445091247559 -66.748596191406 -93.936920166016 2.417840242386
54.757030487061 -63.853458404541 -95.914405822754 1.543423891068
-79.887092590332 -69.676620483398 -109.186828613281 2.398216962814
87.805541992188 -72.747467041016 -107.407592773438 3.316170930862
-73.887695312500 -64.187606811523 -112.880737304688 2.337162256241
-72.029098510742 -65.776542663574 -106.502677917480 0.916458547115
-83.982192993164 -68.357719421387 -119.807693481445 1.626634955406
-84.884628295898 -66.276138305664 -107.239959716797 0.882078886032
-87.005859375000 -69.605560302734 -117.749023437500 2.595874547958
-76.388549804688 -66.845520019531 -121.622467041016 2.182386398315
-51.850856781006 -63.026218414307 -125.932861328125 1.500965118408
-70.931037902832 -71.254585266113 -133.525894165039 1.939469695091
-52.072628021240 -64.031005859375 -137.203628540039 1.125073790550
-89.476387023926 -66.588455200195 -132.834793090820 2.125753402710
28.123100280762 -65.126045227051 -139.835815429688 2.156274080276
20.640565872192 -66.652801513672 -139.560211181641 1.250240445137
-91.797370910645 -68.867858886719 -136.959777832031 2.036237239838
19.236461639404 -66.398246765137 -156.551177978516 4.234897613525
-86.485603332520 -69.860923767090 -143.272888183594 4.077486991882
-94.052658081055 -66.396743774414 -143.426223754883 1.945721030235
19.718776702881 -66.440444946289 -155.789230346680 3.626766920090
-95.383811950684 -63.377006530762 -144.928771972656 1.649868726730
-93.882606506348 -64.153076171875 -142.784286499023 1.270653605461
-98.367416381836 -65.216842651367 -154.400192260742 2.794342517853
-98.328567504883 -69.517555236816 -155.603805541992 1.339709877968
-106.037544250488 -65.690414428711 -171.200485229492 3.149407625198
-103.709793090820 -64.048851013184 -165.516708374023 2.476719856262
-100.126136779785 -71.181999206543 -160.974929809570 3.118761301041
-104.958480834961 -64.614921569824 -170.419204711914 2.068606615067
-132.446853637695 -75.087882995605 -174.736312866211 10.608283042908
-107.374435424805 -66.888999938965 -173.860580444336 1.633947610855
-142.447799682617 -65.533386230469 -184.958343505859 2.980699062347
-148.986083984375 -71.592056274414 -181.860855102539 1.908943891525
-148.563369750977 -65.809936523438 -191.753952026367 2.260499477386
-126.082138061523 -66.044990539551 -192.537338256836 3.116720199585
-130.028732299805 -63.227718353271 -197.438919067383 0.320222049952
-118.099060058594 -66.122810363770 -193.519119262695 4.240905284882
-141.362777709961 -69.873085021973 -201.233108520508 1.874846816063
-124.762344360352 -66.479843139648 -200.405441284180 3.079946994781
-147.300659179688 -68.931327819824 -202.303573608398 2.487241983414
-151.681900024414 -73.089233398438 -201.884384155273 1.686995267868
-161.063110351563 -65.449211120605 -226.976165771484 1.761684298515
-142.825668334961 -68.170196533203 -232.848358154297 0.781579732895
-129.682449340820 -66.236618041992 -232.275680541992 3.283840417862
-152.701385498047 -65.071868896484 -228.526519775391 3.299326419830
-3.899602890015 -70.047447204590 -235.273742675781 1.243835568428
12.148366928101 -73.284255981445 -240.960586547852 1.267641305923
-1.787930011749 -64.105918884277 -240.218551635742 2.908878087997
-153.257080078125 -69.349700927734 -241.026153564453 2.982862949371
-7.054278850555 -68.240989685059 -248.861389160156 4.565402030945
-151.575637817383 -64.674507141113 -249.228164672852 3.454945564270
-9.055483818054 -67.484718322754 -251.416809082031 2.753192901611
-151.901000976563 -69.667053222656 -247.766906738281 0.769752800465
24.734161376953 -68.730102539063 -255.639312744141 0.948376953602
-156.948608398438 -67.133636474609 -252.410903930664 2.832980871201
-148.230972290039 -69.792304992676 -247.612640380859 3.391412496567
-151.919555664063 -62.418968200684 -249.573089599609 2.374347448349
-153.676132202148 -66.727737426758 -255.763702392578 2.994833469391
31.689935684204 -68.636711120605 -253.849563598633 1.796177387238
27.401298522949 -69.659347534180 -261.834136962891 0.855169773102
-147.076629638672 -67.166229248047 -252.507797241211 0.565166354179
-152.090759277344 -62.205181121826 -255.242446899414 0.953931272030
-158.964782714844 -64.837944030762 -254.004974365234 4.386069297791
-149.681335449219 -68.627670288086 -260.313110351563 0.340847641230
24.981155395508 -66.870178222656 -262.995239257813 1.512880086899
25.385080337524 -65.130645751953 -265.417846679688 1.302390336990
-155.076034545898 -62.875175476074 -258.514678955078 0.226927325130
-143.754913330078 -67.138587951660 -258.964080810547 1.939230322838
-153.756591796875 -68.349044799805 -263.004028320313 1.748383760452
-148.048446655273 -65.675933837891 -255.698684692383 2.457617044449
-150.815444946289 -70.706260681152 -260.117370605469 2.134344577789
-154.273178100586 -64.237670898438 -264.877807617188 1.067665219307
-153.160247802734 -68.483200073242 -266.151519775391 1.675417661667
-155.034530639648 -68.161659240723 -277.734130859375 3.749090909958
-149.934844970703 -72.244812011719 -280.276123046875 3.393933773041
-151.644775390625 -69.309112548828 -274.360290527344 2.140500783920
11.301730155945 -68.135208129883 -285.525268554688 3.137411594391
-157.752349853516 -64.172500610352 -280.609283447266 5.075167179108
-146.673522949219 -63.579772949219 -278.170227050781 1.588360309601
-7.340940952301 -72.692802429199 -290.049102783203 2.107161045074
7.166243076324 -69.343299865723 -296.792297363281 4.787552356720
-155.020187377930 -68.692108154297 -291.905914306641 1.458596587181
28.928316116333 -73.197700500488 -20.520933151245 2.231147766113
44.946132659912 -65.531837463379 -27.324136734009 2.209921360016
56.111175537109 -71.891609191895 -30.462940216064 6.244919776917
44.955287933350 -66.150314331055 -34.150177001953 2.901696205139
29.221668243408 -73.635162353516 -39.043777465820 1.314637541771
43.256923675537 -75.212882995605 -37.670459747314 4.452753067017
83.201301574707 -67.914093017578 -64.224586486816 1.617475390434
80.931266784668 -64.185737609863 -59.908340454102 1.032799601555
-12.933662414551 -71.127082824707 -69.996009826660 2.230803012848
68.519264221191 -64.937461853027 -66.542304992676 1.185806035995
-24.420457839966 -73.414237976074 -74.592506408691 2.455584287643
-24.039005279541 -66.919548034668 -79.251655578613 5.236870765686
-50.936542510986 -67.249549865723 -77.279174804688 5.409588813782
-47.055614471436 -69.670471191406 -78.822105407715 4.609802246094
66.824363708496 -71.414207458496 -83.255271911621 1.394559860229
104.438400268555 -68.637893676758 -95.073600769043 1.970847964287
-59.465938568115 -60.277412414551 -84.972152709961 2.772871255875
54.659156799316 -68.478691101074 -98.283157348633 2.415780782700
66.145668029785 -61.998466491699 -96.250511169434 3.302823543549
107.494461059570 -63.823722839355 -97.572952270508 3.453341722488
-61.707172393799 -62.291202545166 -97.297805786133 3.263756752014
60.953300476074 -60.376026153564 -98.605133056641 3.440730810165
-68.770286560059 -69.593261718750 -99.937591552734 1.097369670868
