# This PCD file was generated using the MATLAB® pcwrite function
# from Computer Vision Toolbox®.
# .PCD v.7 - Point Cloud Data file format
VERSION .7
FIELDS x y z
SIZE 8 8 8
TYPE F F F
COUNT 1 1 1
WIDTH 799
HEIGHT 1
VIEWPOINT 0 0 0 1 0 0 0
POINTS 799
DATA ascii
114.750000000000000 131.293418334788441 -61.099709266490194
-83.875000000000000 131.693514098360424 -60.981528080102720
-81.968803405761719 131.693469662221787 -61.037329454011427
-81.015602111816406 132.093725484594984 -60.718151932427730
42.772300720214844 132.093421132890739 -61.100346330288986
110.561996459960938 132.093587084917914 -60.891949484743918
32.343898773193359 132.493422531941917 -61.100664862188367
37.171901702880859 132.493505984881494 -60.995867532135023
107.703002929687500 132.494152684408448 -60.183764518142738
114.961997985839844 132.493422531941917 -61.100664862188367
-81.015602111816406 132.894158951351784 -60.168389384391844
41.937500000000000 132.893859453964581 -60.544487897955435
-84.828102111816406 133.293564618167068 -60.916807959854154
-82.921897888183594 133.293456401527578 -61.052702692156871
-81.968803405761719 133.293612000918642 -60.857306330771010
107.369003295898438 133.293417700652128 -61.101301919911663
36.218799591064453 133.693467114305889 -61.041325365948254
-85.781196594238281 134.493803335335201 -60.623261390628841
-84.828102111816406 134.493540230137000 -60.953659845440285
-81.968803405761719 134.494004172829648 -60.371056575575452
37.245201110839844 134.493421897805575 -61.102257515609836
41.831001281738281 134.493421897805575 -61.102257515609836
111.718002319335938 134.493421897805575 -61.102257515609836
-82.921897888183594 134.893629002243358 -60.834677566805524
111.208000183105469 134.893415667464637 -61.102576041433736
31.200000762939453 135.293417066515786 -61.102894573333131
35.203300476074219 135.293417066515786 -61.102894573333131
-85.781196594238281 135.693636101793061 -60.829913020988869
37.006099700927734 135.693418465566936 -61.103213105232527
36.218799591064453 135.693514579829070 -60.982516122017330
115.290000915527344 135.693418465566936 -61.103213105232527
-82.921897888183594 136.094014879946087 -60.356331861838214
-83.875000000000000 136.493692491798413 -60.763251216965827
-57.187500000000000 136.494035386415334 -60.332655955544709
-86.734397888183594 136.893971183742565 -60.405774140903333
-84.828102111816406 137.293628892287529 -60.837687384590552
108.152000427246094 137.293416432379445 -61.104487226754600
-79.109397888183594 137.694045970333605 -60.316010537564523
-78.156196594238281 137.693719157540471 -60.726410798064620
-76.250000000000000 137.693864568333737 -60.543808927250950
40.031200408935547 137.693951046867653 -60.435212159925726
115.795997619628906 137.693417831430622 -61.104805758653995
-86.734397888183594 138.093834370182151 -60.574225404957517
-85.781196594238281 138.093690709130186 -60.754630010842888
30.251399993896484 138.093411601089656 -61.105124284477895
35.265598297119141 138.093607815135755 -60.858725436821899
-75.296897888183594 138.893804281653559 -60.616160368259699
-53.375000000000000 138.893834859598030 -60.577761637758940
40.306598663330078 138.893414399191954 -61.105761348276673
33.359401702880859 139.293513089726275 -60.993485317459530
36.218799591064453 139.293550441842797 -60.946579814753647
-85.781196594238281 139.693863375252249 -60.546103484746723
-79.109397888183594 139.693707137934666 -60.742300932304360
-78.156196594238281 139.693436626713378 -61.081999616100589
-60.046901702880859 139.693582432413535 -60.898901834799616
-86.734397888183594 140.494102443110535 -60.250041118693701
29.499700546264648 140.493419995396579 -61.107035475874241
34.312500000000000 140.493745769280849 -60.697939841425324
-57.187500000000000 140.893848077580373 -60.561959277164561
-54.328098297119141 140.894100040328681 -60.245553127486914
-51.111301422119141 141.293422793498905 -61.107672539673018
29.106000900268555 141.293422793498905 -61.107672539673018
39.373699188232422 141.293422793498905 -61.107672539673018
32.406200408935547 141.693540466714296 -60.952397242760469
-58.140598297119141 142.493824766600483 -60.599534052432034
-52.421901702880859 142.493981167956321 -60.403130611287366
-49.819801330566406 142.493419361260266 -61.108628129295710
108.948997497558594 142.493419361260266 -61.108628129295710
116.181999206542969 142.493419361260266 -61.108628129295710
-60.289100646972656 142.893413130919299 -61.108946655119610
34.312500000000000 142.893759847019822 -60.673552506059906
35.265598297119141 142.893608943983025 -60.863051347343017
109.609001159667969 142.894157615468288 -60.174048575081272
-52.421901702880859 143.352412619174203 -61.109312168788207
38.562099456787109 143.293422159362564 -61.109265193094487
-72.825103759765625 143.693415929021626 -61.109583718918387
31.453100204467773 144.093522137786152 -60.968705084921581
32.406200408935547 144.093715563182030 -60.725808128245092
-72.609901428222656 144.493418727123924 -61.110220782717178
-60.442798614501953 144.493418727123924 -61.110220782717178
-57.962501525878906 144.493418727123924 -61.110220782717178
28.000900268554688 144.493418727123924 -61.110220782717178
-50.515598297119141 145.111414746997298 -61.110712909610967
-78.821296691894531 145.693415294885284 -61.111176372339855
-60.426700592041016 145.693415294885284 -61.111176372339855
-50.234199523925781 145.693415294885284 -61.111176372339855
109.236999511718750 145.693415294885284 -61.111176372339855
-49.450401306152344 146.493418092987582 -61.111813436138632
-47.004398345947266 146.493418092987582 -61.111813436138632
30.500000000000000 146.493494376848219 -61.016018788777700
37.171901702880859 146.493849300936631 -60.570317330974390
-78.712196350097656 146.893411862646644 -61.112131961962547
-58.140598297119141 146.893525334585547 -60.969637805482762
27.074399948120117 146.893411862646644 -61.112131961962547
31.453100204467773 146.893738116494660 -60.702433605536768
34.312500000000000 146.893553846863171 -60.933833068300160
-75.296897888183594 147.293771750675063 -60.671853105457188
-60.312400817871094 147.293420891089909 -61.112450499937424
-46.736999511718750 147.293420891089909 -61.112450499937424
-71.058403015136719 147.693414660748942 -61.112769025761324
116.641998291015625 147.693414660748942 -61.112769025761324
-74.253700256347656 148.093408430408005 -61.113087551585224
-60.178798675537109 148.093408430408005 -61.113087551585224
37.074501037597656 148.093408430408005 -61.113087551585224
36.218799591064453 148.094105052241645 -60.238293822606892
-78.437500000000000 148.493417458851269 -61.113406089560101
29.779800415039063 148.493417458851269 -61.113406089560101
-48.209499359130859 148.893411228510303 -61.113724615384001
26.317199707031250 148.893411228510303 -61.113724615384001
30.500000000000000 149.293699207031381 -60.763747243918800
32.406200408935547 149.293712907262801 -60.746542964705753
33.359401702880859 149.293546712215999 -60.955244985935309
-78.072700500488281 149.693414026612629 -61.114361679182792
-74.770500183105469 149.693414026612629 -61.114361679182792
109.712997436523438 149.693414026612629 -61.114361679182792
36.586399078369141 150.093407796271663 -61.114680205006692
-72.569503784179688 150.493416824714927 -61.114998742981570
-47.436298370361328 150.493416824714927 -61.114998742981570
31.453100204467773 150.493774853379051 -60.665398665808922
-77.880302429199219 150.893410594373989 -61.115317268805470
-69.862998962402344 150.893410594373989 -61.115317268805470
-59.437599182128906 150.893410594373989 -61.115317268805470
33.031101226806641 150.893410594373989 -61.115317268805470
-56.971801757812500 151.293419622817254 -61.115635806780361
116.797996520996094 151.293419622817254 -61.115635806780361
-44.507099151611328 151.693413392476288 -61.115954332604261
28.593799591064453 151.693554337783922 -60.938960064993054
29.546899795532227 151.693806057512603 -60.622859090999896
30.500000000000000 151.693886648896125 -60.521655204631401
-77.203102111816406 152.420418166848947 -61.116533266108476
-74.261199951171875 152.493416190578614 -61.116591396403038
-69.113700866699219 152.493416190578614 -61.116591396403038
35.778400421142578 152.493416190578614 -61.116591396403038
110.561996459960938 152.494129459256641 -60.220893133037251
-74.007698059082031 152.893409960237648 -61.116909922226938
-71.587799072265625 152.893409960237648 -61.116909922226938
-56.234401702880859 153.238411071551866 -61.117184655914215
30.500000000000000 152.893943497675707 -60.446911965716708
32.406200408935547 152.893574800450011 -60.909909255438407
-58.337299346923828 153.293418988680912 -61.117228460201815
35.410999298095703 153.293418988680912 -61.117228460201815
109.830001831054688 153.293418988680912 -61.117228460201815
27.640600204467773 153.693475663970162 -61.038552260095884
28.593799591064453 154.093835506242954 -60.579169393590576
-76.773399353027344 154.493415556442272 -61.118184049824507
-68.557998657226563 154.493415556442272 -61.118184049824507
-46.703098297119141 154.494087973521147 -60.273785819021228
-72.437500000000000 154.893880589760215 -60.526705888288362
-43.210098266601563 154.893409326101306 -61.118502575648407
-73.074996948242188 155.293418354544571 -61.118821113623284
-71.049697875976563 155.293418354544571 -61.118821113623284
-68.120903015136719 155.293418354544571 -61.118821113623284
-57.000000000000000 155.293418354544571 -61.118821113623284
-45.578498840332031 155.293418354544571 -61.118821113623284
24.154199600219727 155.293418354544571 -61.118821113623284
27.640600204467773 155.293703914756207 -60.760224425565099
31.453100204467773 155.293721910359523 -60.737626166128734
-68.625000000000000 155.694132640942001 -60.214339511291527
-54.768001556396484 155.693412124203633 -61.119139639447184
29.546899795532227 155.694056745912775 -60.309645877557273
30.500000000000000 155.693890313921855 -60.518645445079216
34.604698181152344 156.093405893862666 -61.119458165271084
109.932998657226563 156.093405893862666 -61.119458165271084
-42.359798431396484 156.493414922305931 -61.119776703245975
26.687500000000000 156.493476315138992 -61.042681695952069
-75.856597900390625 156.893408691964993 -61.120095229069875
-72.440498352050781 156.893408691964993 -61.120095229069875
28.593799591064453 156.894014855818313 -60.358895519250268
-55.958999633789063 157.293417720408257 -61.120413767044752
116.716003417968750 157.293417720408257 -61.120413767044752
-67.371803283691406 157.693411490067291 -61.120732292868652
-44.687301635742188 157.693411490067291 -61.120732292868652
23.303600311279297 157.693411490067291 -61.120732292868652
34.140300750732422 157.693411490067291 -61.120732292868652
-53.179698944091797 158.093405259726353 -61.121050818692552
-45.750000000000000 158.094164234320544 -60.167956638466592
14.296899795532227 158.094089700201238 -60.261554020899212
16.203100204467773 158.093679750393989 -60.776354883062822
31.089599609375000 158.093405259726353 -61.121050818692552
17.156200408935547 158.493763233975216 -60.683175220702552
26.095199584960938 158.493414288169618 -61.121369356667444
26.687500000000000 158.493715778317721 -60.742768402491038
28.593799591064453 158.493983500888788 -60.406571609674316
-54.929500579833984 158.893408057828651 -61.121687882491344
-41.249401092529297 158.893408057828651 -61.121687882491344
13.343799591064453 159.293512483626131 -61.002209705520272
15.197099685668945 159.293417086271916 -61.122006420466221
22.970800399780273 159.293417086271916 -61.122006420466221
27.640600204467773 159.294116338793032 -60.243909164703311
29.546899795532227 159.293835152934662 -60.597012690440692
16.003799438476563 159.693410855930978 -61.122324946290121
17.156200408935547 159.693692436696210 -60.768725510065437
110.561996459960938 159.693996873457280 -60.386424300714609
-51.603199005126953 160.093404625590011 -61.122643472114021
33.503101348876953 160.093404625590011 -61.122643472114021
116.502998352050781 160.093404625590011 -61.122643472114021
17.156200408935547 160.493896145198903 -60.517066206105483
22.527000427246094 160.493413654033276 -61.122962010088898
26.687500000000000 160.494088300817225 -60.275763792380445
28.593799591064453 160.494129073435005 -60.224562941915394
-73.920097351074219 160.893407423692310 -61.123280535912812
116.323997497558594 160.893407423692310 -61.123280535912812
-50.672599792480469 161.293416452135602 -61.123599073887689
30.519599914550781 161.293416452135602 -61.123599073887689
32.406200408935547 161.294108298633574 -60.254802047109564
-43.843799591064453 161.693765856715430 -60.677323503031161
-39.780899047851563 161.693410221794636 -61.123917599711589
-73.191398620605469 162.093403991453670 -61.124236125535489
-66.718803405761719 162.093663354149612 -60.798537376265159
-42.890598297119141 162.093468652900697 -61.043036505285215
32.906299591064453 162.093403991453670 -61.124236125535489
8.711119651794434 162.493413019896934 -61.124554663510366
15.837300300598145 162.493413019896934 -61.124554663510366
22.146099090576172 162.493413019896934 -61.124554663510366
109.879997253417969 162.493413019896934 -61.124554663510366
-66.718803405761719 162.893848909086216 -60.569674695936499
25.734399795532227 162.894146176768345 -60.196376169278082
29.546899795532227 162.893723723601340 -60.726878320408616
-52.107299804687500 163.293415817999261 -61.125191727309158
-39.123298645019531 163.293415817999261 -61.125191727309158
15.447500228881836 163.293415817999261 -61.125191727309158
-48.731399536132813 163.693409587658294 -61.125510253133058
-47.656200408935547 163.693818261612506 -60.612311563313014
-41.937500000000000 164.093504331971985 -60.999028282051995
7.025889873504639 164.093403357317356 -61.125828778956958
-71.484397888183594 164.493657416374106 -60.818446303654213
-67.671897888183594 164.494157350273383 -60.190646514916637
-51.236301422119141 164.493412385760621 -61.126147316931835
-43.843799591064453 164.494101285645655 -60.261050545328132
6.671879768371582 164.801410945330616 -61.126392584489452
29.546899795532227 164.493561296036489 -60.939150916261525
14.296899795532227 165.155414739337232 -61.126674487255713
110.561996459960938 164.894121416858638 -60.228265138777147
116.107002258300781 164.893406155419655 -61.126465842755735
-46.703098297119141 165.293771456710260 -60.679389197878407
-37.934398651123047 165.293415183862919 -61.126784380730626
-70.531196594238281 165.693741896485193 -60.709004589413198
-68.625000000000000 165.694144039286925 -60.204007496113789
23.828100204467773 165.693523227425658 -60.983601670315934
24.781200408935547 165.694154950868153 -60.190305107880249
29.569799423217773 165.693408953521981 -61.127102906554526
31.453100204467773 165.693975140646813 -60.416104596833279
-66.718803405761719 166.093897237742624 -60.506427061404935
-44.796901702880859 166.094061998973615 -60.299525576713862
15.250000000000000 166.409412144468831 -61.127673079201230
-49.769401550292969 166.493411751624279 -61.127739970353304
-40.984401702880859 166.493580012337901 -60.916443955805590
21.098300933837891 166.493411751624279 -61.127739970353304
-69.578102111816406 166.893758209591169 -60.685164654671198
-43.843799591064453 166.894088606923816 -60.270263052824887
-42.890598297119141 166.894073156951066 -60.289664596966247
-37.052700042724609 166.893405521283341 -61.128058496177204
23.828100204467773 166.893747061065824 -60.699164589197096
31.820800781250000 166.893405521283341 -61.128058496177204
-45.750000000000000 167.293627647561209 -60.860776105816242
109.469001770019531 167.293414549726606 -61.128377034152081
115.328002929687500 167.293950954796259 -60.454778004564901
-36.498798370361328 167.693408319385640 -61.128695559975995
15.708200454711914 167.693408319385640 -61.128695559975995
-68.625000000000000 168.093672758228735 -60.789117037808737
-66.718803405761719 168.093821911524230 -60.601815461453938
-48.774501800537109 168.093402089044702 -61.129014085799895
-44.796901702880859 168.093773732883363 -60.662316540903788
4.121119976043701 168.093402089044702 -61.129014085799895
11.437500000000000 168.299410934858628 -61.129178136198476
15.250000000000000 168.094057543353671 -60.305917117773916
20.528799057006836 168.093402089044702 -61.129014085799895
109.609001159667969 168.093735110989286 -60.710816586561108
13.995900154113770 168.493411117487966 -61.129332623774772
28.593799591064453 168.493585593428492 -60.910231741096268
-39.539100646972656 168.893404887147000 -61.129651149598672
-35.745098114013672 168.893404887147000 -61.129651149598672
13.343799591064453 168.894163861741191 -60.176556969372712
15.250000000000000 168.893708442961923 -60.748456202104123
115.681999206542969 168.893404887147000 -61.129651149598672
-66.718803405761719 169.293660932889196 -60.819773863075241
-44.796901702880859 169.293509233963107 -61.010272154725058
10.293700218200684 169.293413915590264 -61.129969687573549
22.795200347900391 169.293413915590264 -61.129969687573549
-66.718803405761719 169.785402895338365 -61.130361471663733
-40.984401702880859 169.693788885834778 -60.651589634708827
-40.031200408935547 169.693667363870759 -60.804192735737288
-35.420200347900391 169.693407685249326 -61.130288213397449
14.296899795532227 169.694166659843518 -60.177194033171489
8.578120231628418 170.093401454908360 -61.130606739221349
20.015600204467773 170.493410483351624 -61.130925277196241
31.210800170898438 170.093401454908360 -61.130606739221349
3.541520118713379 170.493410483351624 -61.130925277196241
4.765620231628418 170.493859686903960 -60.566830912595634
5.718750000000000 170.493926420093288 -60.483029669635101
31.032600402832031 170.893404253010658 -61.131243803020141
115.277999877929688 170.893404253010658 -61.131243803020141
-46.622898101806641 171.293413281453951 -61.131562340995018
-43.392700195312500 171.293413281453951 -61.131562340995018
-41.937500000000000 171.693721919491509 -60.736479991211425
-40.984401702880859 171.693801392984739 -60.636679912991582
-34.102199554443359 171.693407051112985 -61.131880866818918
-46.350898742675781 172.093400820772018 -61.132199392642818
26.687500000000000 172.094153428252014 -60.187100815350462
30.802700042724609 172.093400820772018 -61.132199392642818
-38.125000000000000 172.893621255100470 -60.859536372197951
108.721000671386719 173.293412647317609 -61.133154994416486
-41.817001342773438 173.693406416976643 -61.133473520240386
-40.984401702880859 173.693624928073433 -60.859074803532579
19.235399246215820 173.693406416976643 -61.133473520240386
21.703800201416016 173.693406416976643 -61.133473520240386
114.375000000000000 173.693949268141893 -60.451779705622144
-36.633499145507813 174.093400186635705 -61.133792046064286
-32.679199218750000 174.093400186635705 -61.133792046064286
27.895900726318359 174.093400186635705 -61.133792046064286
-44.898399353027344 174.493409215078970 -61.134110584039178
114.736999511718750 174.893402984738003 -61.134429109863078
-36.218799591064453 175.293503109088107 -61.020352542507453
-31.955099105834961 175.293412013181268 -61.134747647837955
18.724100112915039 175.293412013181268 -61.134747647837955
30.135099411010742 175.293412013181268 -61.134747647837955
113.421997070312500 175.294164620661292 -60.189649070545599
-40.666698455810547 175.693405782840330 -61.135066173661855
108.655998229980469 175.693808083604807 -60.629870716167517
114.415000915527344 175.693405782840330 -61.135066173661855
20.968799591064453 176.455398949439598 -61.135672969366212
29.901899337768555 176.493408580942628 -61.135703237460632
-43.491100311279297 176.893402350601690 -61.136021763284532
-39.078098297119141 176.893599597481170 -60.888325918969457
-38.125000000000000 176.893690298481118 -60.774426724126243
-37.171901702880859 176.893713792403474 -60.744923864828323
18.404800415039063 176.893402350601690 -61.136021763284532
-39.469100952148438 177.293411379044954 -61.136340301259423
114.050003051757813 177.693405148703988 -61.136658827083323
-33.975101470947266 178.493407946806315 -61.137295890882100
-30.281700134277344 178.493407946806315 -61.137295890882100
20.586500167846680 178.493407946806315 -61.137295890882100
-42.192600250244141 178.893401716465348 -61.137614416706000
26.999500274658203 178.893401716465348 -61.137614416706000
108.655998229980469 178.894095391686022 -60.266520942902090
-38.125000000000000 179.293541021654676 -60.974335899618737
-35.265598297119141 179.293743608890452 -60.719933819637021
-33.359401702880859 179.293447374041762 -61.091935349636373
17.849399566650391 179.293410744908613 -61.137932954680892
28.593799591064453 179.294126723255488 -60.238831982433055
112.469001770019531 179.294116449600779 -60.251733284494804
-37.171901702880859 179.693645480677901 -60.835654530550244
107.539001464843750 179.693404514567646 -61.138251480504792
113.499000549316406 179.693404514567646 -61.138251480504792
-33.359401702880859 180.093592110604959 -60.895169509772799
26.804300308227539 180.093398284226708 -61.138570006328692
-37.823001861572266 180.493407312669973 -61.138888544303569
-29.546899795532227 180.493812402084671 -60.630191195829724
19.927700042724609 180.493407312669973 -61.138888544303569
107.703002929687500 180.493772030449293 -60.680888506415371
-41.135700225830078 180.893401082329007 -61.139207070127469
-35.265598297119141 180.893796378052798 -60.642808301738512
-36.218799591064453 181.693712454601553 -60.752347308547016
-28.359399795532227 181.693403880431333 -61.139844133926260
111.515998840332031 181.694160072450813 -60.190244215287692
112.469001770019531 181.693844566145771 -60.586446177066975
-40.387901306152344 182.093397650090367 -61.140162659750160
17.156200408935547 182.493406678533631 -61.140481197725038
112.930000305175781 182.093397650090367 -61.140162659750160
-33.359401702880859 182.493854612308439 -60.577981376075883
19.546699523925781 182.493406678533631 -61.140481197725038
106.935997009277344 182.493406678533631 -61.140481197725038
26.185499191284180 182.893400448192693 -61.140799723548938
-39.657001495361328 183.293409476635958 -61.141118261523815
-36.218799591064453 183.293537924659319 -60.979817653487430
-30.869600296020508 183.293409476635958 -61.141118261523815
-31.453100204467773 183.693676625147873 -60.798137030474521
28.135700225830078 183.693403246294992 -61.141436787347715
-38.997299194335938 184.093397015954054 -61.141755313171615
-33.359401702880859 184.093863741221412 -60.555657781719390
-30.500000000000000 184.093513756506923 -60.995156543735462
-26.991800308227539 184.093397015954054 -61.141755313171615
16.529100418090820 184.093397015954054 -61.141755313171615
107.703002929687500 184.094091250119845 -60.269959935293386
-38.903301239013672 184.493406044397318 -61.142073851146506
-35.265598297119141 184.493617945360256 -60.875975913056777
106.750000000000000 184.493748465125947 -60.712073682310134
-149.641006469726563 185.073407691551893 -61.142535722096852
-147.733993530273438 185.024396476623025 -61.142496693144892
-144.875000000000000 185.211408136077580 -61.142645615571766
18.848499298095703 184.893399814056352 -61.142392376970406
25.820999145507813 184.893399814056352 -61.142392376970406
27.891099929809570 184.893399814056352 -61.142392376970406
112.123001098632813 184.893399814056352 -61.142392376970406
111.515998840332031 184.893846550959495 -60.581395545567361
-30.500000000000000 185.293684451057544 -60.796611171166901
-26.242300033569336 185.293408842499616 -61.142710914945283
16.277000427246094 185.293408842499616 -61.142710914945283
-143.029006958007813 185.693402612158678 -61.143029440769183
-35.198299407958984 185.693402612158678 -61.143029440769183
-34.312500000000000 185.693695098429629 -60.775735245703075
-33.359401702880859 185.693832307310515 -60.603433054240881
-31.453100204467773 185.693842265039706 -60.590928480568977
106.068000793457031 185.693402612158678 -61.143029440769183
-151.270996093750000 186.093396381817712 -61.143347966593083
-37.848300933837891 186.093396381817712 -61.143347966593083
25.330200195312500 186.493405410260976 -61.143666504567975
110.561996459960938 186.493997557957385 -60.400067802351245
-151.809005737304688 186.893399179920010 -61.143985030391875
-34.312500000000000 186.893479291339759 -61.043383866000255
15.639900207519531 186.893399179920010 -61.143985030391875
18.229400634765625 186.893399179920010 -61.143985030391875
-30.500000000000000 187.293828504731096 -60.616509851436049
-28.593799591064453 187.293445633385716 -61.097306512955527
106.750000000000000 187.694063641482757 -60.313727887425998
-33.359401702880859 188.093547525588860 -60.954343146267277
-32.406200408935547 188.093753776345494 -60.695340542841905
-31.453100204467773 188.093852758239194 -60.571042486549743
105.796997070312500 188.093734103906769 -60.720044514501254
-141.929992675781250 188.493404776124635 -61.145259157989443
-36.576999664306641 188.493404776124635 -61.145259157989443
-24.295200347900391 188.493404776124635 -61.145259157989443
-23.828100204467773 189.264400625416329 -61.145873122772755
17.684299468994141 188.893398545783697 -61.145577683813343
27.107500076293945 188.893398545783697 -61.145577683813343
109.609001159667969 188.894028440503519 -60.354577568403442
110.837997436523438 188.893398545783697 -61.145577683813343
-35.265598297119141 189.294123552573808 -60.246795249540384
14.930100440979004 189.293407574226961 -61.145896221788220
-27.204700469970703 189.693401343885995 -61.146214747612120
-151.996994018554688 190.093395113545057 -61.146533273436020
-35.621398925781250 190.093395113545057 -61.146533273436020
-23.184900283813477 190.093395113545057 -61.146533273436020
17.045499801635742 190.493404141988321 -61.146851811410897
-151.927993774414063 190.893397911647355 -61.147170337234797
-28.593799591064453 190.893770509338054 -60.679274977777069
-27.640600204467773 190.893680604227399 -60.792174722253577
105.796997070312500 190.894017131730095 -60.369575063766050
-152.113006591796875 191.293406940090620 -61.147488875209689
14.485799789428711 191.293406940090620 -61.147488875209689
-34.794998168945313 191.693400709749682 -61.147807401033589
-31.324600219726563 191.693400709749682 -61.147807401033589
-30.500000000000000 191.693631724206227 -60.857707395358844
-28.593799591064453 191.693806200146753 -60.638606512680340
24.057699203491211 191.693400709749682 -61.147807401033589
26.325099945068359 191.693400709749682 -61.147807401033589
108.655998229980469 191.693985451422975 -60.413508927801644
104.844001770019531 192.093913921708491 -60.495828160047594
108.655998229980469 192.094110457755590 -60.249024954609652
109.986999511718750 192.093394479408715 -61.148125926857489
-151.951995849609375 192.493403507851980 -61.148444464832366
24.128299713134766 192.493403507851980 -61.148444464832366
-152.151992797851563 192.893397277511042 -61.148762990656266
-24.890499114990234 192.893397277511042 -61.148762990656266
-21.416099548339844 192.893397277511042 -61.148762990656266
13.995900154113770 192.893397277511042 -61.148762990656266
26.208200454711914 192.893397277511042 -61.148762990656266
-33.713600158691406 193.293406305954306 -61.149081528631157
103.736999511718750 193.293406305954306 -61.149081528631157
-32.406200408935547 193.694119316498671 -60.246202098642968
-27.640600204467773 193.693804849102548 -60.641099434371057
16.163400650024414 193.693400075613340 -61.149400054455057
26.111999511718750 193.693400075613340 -61.149400054455057
104.844001770019531 193.694091442147567 -60.281205749653793
-152.039993286132813 194.093393845272374 -61.149718580278957
-25.734399795532227 194.093793916331805 -60.647323109689808
-24.245599746704102 194.093393845272374 -61.149718580278957
103.890998840332031 194.093763180424617 -60.685920204385482
-152.164001464843750 194.493402873715667 -61.150037118253834
-32.972499847412109 194.493402873715667 -61.150037118253834
-28.909000396728516 194.893396643374700 -61.150355644077734
-27.640600204467773 194.893751561387603 -60.704661815666540
107.703002929687500 194.894081399775104 -60.290462117894563
109.014999389648438 194.893396643374700 -61.150355644077734
-20.364900588989258 195.293405671817965 -61.150674182052626
16.203100204467773 195.294148643569798 -60.217675820650229
-24.781200408935547 195.693817672178000 -60.625792984263967
-31.802200317382813 196.093393211136060 -61.151311233700426
-28.299800872802734 196.093393211136060 -61.151311233700426
15.567700386047363 196.093393211136060 -61.151311233700426
108.473999023437500 196.093393211136060 -61.151311233700426
12.962499618530273 196.493402239579325 -61.151629771675303
103.890998840332031 196.494093211206660 -60.283931377361327
-152.171997070312500 196.893396009238359 -61.151948297499203
-152.500000000000000 196.894114296271681 -60.249948156248735
-25.734399795532227 196.894089769515915 -60.280748012205734
15.176699638366699 196.893396009238359 -61.151948297499203
25.187099456787109 196.893396009238359 -61.151948297499203
102.390998840332031 196.893396009238359 -61.151948297499203
107.703002929687500 196.893775454007027 -60.675454613131009
-26.687500000000000 197.293848512046281 -60.595366987635288
-23.828100204467773 197.293925354852064 -60.498870436200036
-19.448699951171875 197.293405037681651 -61.152266835474080
102.938003540039063 197.293872558838274 -60.565169853655149
23.007600784301758 197.693398807340685 -61.152585361297980
107.728996276855469 197.693398807340685 -61.152585361297980
-30.820400238037109 198.093392576999719 -61.152903887121880
106.750000000000000 198.093949365340535 -60.453708246998218
-150.250000000000000 198.493401605442983 -61.153222425096772
-143.785003662109375 198.493401605442983 -61.153222425096772
-27.295999526977539 198.493401605442983 -61.153222425096772
15.250000000000000 198.494052120378086 -60.336328152858016
-109.609001159667969 198.894043107462409 -60.340140940269308
-26.687500000000000 199.293707084489597 -60.773763173865149
14.577199935913086 199.293404403545310 -61.153859488895549
101.984001159667969 199.293830435176289 -60.618863625810917
107.026000976562500 199.693398173204343 -61.154178014719449
-143.805999755859375 200.093391942863406 -61.154496540543349
-17.799200057983398 200.093391942863406 -61.154496540543349
11.946999549865723 200.093391942863406 -61.154496540543349
22.361799240112305 200.093391942863406 -61.154496540543349
101.030998229980469 200.445396836136638 -61.154776851531054
-110.561996459960938 200.493906956394625 -60.519416415236904
24.163000106811523 200.493400971306670 -61.154815078518240
105.796997070312500 200.493917946957225 -60.505614844905907
-150.264999389648438 201.293403769408968 -61.155452142317017
-19.894599914550781 201.293403769408968 -61.155452142317017
101.984001159667969 201.294088446827999 -60.295657798231304
106.310997009277344 201.293403769408968 -61.155452142317017
-16.886199951171875 201.693397539068030 -61.155770668140917
23.777599334716797 201.693397539068030 -61.155770668140917
100.378997802734375 201.693397539068030 -61.155770668140917
101.030998229980469 201.693847143602738 -60.591172763660907
-28.337999343872070 202.493400337170328 -61.156407731939709
-19.062500000000000 202.689399420533050 -61.156563811294546
-16.452400207519531 202.493400337170328 -61.156407731939709
21.526399612426758 202.493400337170328 -61.156407731939709
-150.455001831054688 202.893394106829390 -61.156726257763609
-111.515998840332031 202.893963319548561 -60.441928510770481
104.844001770019531 202.893862423875305 -60.568629825577986
-151.546997070312500 203.293909120360610 -60.521646132457150
-28.062599182128906 203.293403135272655 -61.157044795738486
101.030998229980469 203.294073085702337 -60.315744098132768
-156.311996459960938 203.694024326926808 -60.369468368742147
-155.358993530273438 203.693590567271713 -60.914168818593524
-153.453002929687500 203.693514040391449 -61.010268641638945
-151.546997070312500 203.693652045161627 -60.836966999810045
-143.177993774414063 203.693396904931689 -61.157363321562386
-111.515998840332031 203.693783202853808 -60.672263682891611
-109.609001159667969 203.693827159028672 -60.617065030959765
10.915800094604492 203.693396904931689 -61.157363321562386
-142.988998413085938 204.093390674590722 -61.157681847386286
-110.561996459960938 204.093711594157952 -60.754682097235033
105.000000000000000 204.093390674590722 -61.157681847386286
-157.266006469726563 204.494145779361560 -60.221103404589428
-24.867399215698242 204.493399703034015 -61.158000385361163
13.083100318908691 204.893393472693049 -61.158318911185063
22.808700561523438 204.893393472693049 -61.158318911185063
103.890998840332031 204.893899457781004 -60.522920247903727
-159.171997070312500 205.294060264131758 -60.332641312131329
-141.688995361328125 205.293402501136313 -61.158637449159954
-132.483993530273438 205.293912070763753 -60.518737444532405
-123.905998229980469 205.304388825777892 -61.158646197866489
-122.000000000000000 205.445395250795798 -61.158758485084718
-17.707300186157227 205.293402501136313 -61.158637449159954
-14.788399696350098 205.293402501136313 -61.158637449159954
10.484399795532227 205.623388968773696 -61.158900226281631
20.503999710083008 205.293402501136313 -61.158637449159954
99.125000000000000 205.293755031481396 -60.715941971848864
-109.609001159667969 205.693783121587131 -60.673162061630876
-160.125000000000000 206.093762085275443 -60.692073416032230
-115.185997009277344 206.093390040454409 -61.159274500807754
-114.375000000000000 206.094149015048600 -60.206180320581794
103.890998840332031 206.093547073661284 -60.962077602883411
-112.469001770019531 206.494158043491865 -60.206498858556671
-109.609001159667969 206.493900114611733 -60.530397071288519
-16.972999572753906 206.493399068897673 -61.159593038782631
10.120499610900879 206.493399068897673 -61.159593038782631
99.125000000000000 206.493971465173956 -60.440797490322709
102.938003540039063 206.493943517916961 -60.475892694038876
-161.078002929687500 206.893534901754634 -60.981513488846687
-114.375000000000000 206.893560382362438 -60.949515818328067
-111.515998840332031 206.893497555713594 -61.028411362160440
-26.281400680541992 206.893392838556707 -61.159911564606531
-22.875000000000000 206.894137639031243 -60.224616756178364
22.286699295043945 206.893392838556707 -61.159911564606531
-115.328002929687500 207.293431011128632 -61.123631908619146
10.484399795532227 207.294076513783949 -60.313031884872970
101.984001159667969 207.294088695142705 -60.297734953687979
-114.375000000000000 207.693608096567118 -60.893748786241275
-111.515998840332031 207.693533003502665 -60.988048072748214
-110.561996459960938 207.693546460714458 -60.971148969219669
-109.609001159667969 207.693941835419622 -60.474651018733255
-14.296899795532227 207.694148961046920 -60.214549782843719
12.282299995422363 207.693395636659034 -61.160548628405323
-23.072299957275391 208.093389406318067 -61.160867154229223
19.563800811767578 208.093389406318067 -61.160867154229223
102.938003540039063 208.093441485423938 -61.095468005043344
-115.328002929687500 208.542394390905969 -61.161224709005069
97.218803405761719 208.493510235940306 -61.020789618555170
-15.940999984741211 208.893392204420394 -61.161504218028000
-13.126799583435059 208.893392204420394 -61.161504218028000
98.171897888183594 208.894057452420299 -60.326108669917133
101.030998229980469 208.894108735636905 -60.261708971097960
-25.142099380493164 209.293401232863658 -61.161822756002891
-22.497100830078125 209.293401232863658 -61.161822756002891
-111.250000000000000 209.693395002522692 -61.162141281826791
97.218803405761719 209.693949324214287 -60.466043174900690
101.984001159667969 209.693638915245913 -60.855844076697821
-110.561996459960938 210.093743854232883 -60.716559985652466
96.265602111816406 210.093497152859470 -61.026359081760944
-111.515998840332031 210.493600624804941 -60.908078719351494
9.139559745788574 210.493397800625019 -61.162778345625568
12.390600204467773 210.494085424656987 -60.299283746365433
21.123899459838867 210.493397800625019 -61.162778345625568
-24.355699539184570 210.893391570284052 -61.163096871449468
96.265602111816406 211.293948310285089 -60.475618081116338
100.078002929687500 211.294048009086680 -60.350419756554942
-23.847799301147461 211.693394368386379 -61.163733935248246
-20.968799591064453 211.694025611865101 -60.371040094789436
11.414999961853027 211.693394368386379 -61.163733935248246
95.112602233886719 211.693394368386379 -61.163733935248246
101.030998229980469 211.693461338519825 -61.079635145995340
-122.000000000000000 212.093443163764249 -61.094953056711844
-118.188003540039063 212.093499465336123 -61.024251480007976
-114.375000000000000 212.093576387123250 -60.927655746475267
-113.421997070312500 212.093698625995188 -60.774152377177558
-141.061996459960938 212.493495510455858 -61.040874028926666
-140.108993530273438 212.493569090723156 -60.948474461055667
-122.791999816894531 212.493397166488677 -61.164370999047037
8.841369628906250 212.493397166488677 -61.164370999047037
18.376499176025391 212.493397166488677 -61.164370999047037
-165.527999877929688 212.893390936147711 -61.164689524870937
-134.391006469726563 212.893749359718726 -60.714593537211002
-142.016006469726563 213.484394166728094 -61.165160156678795
-132.934997558593750 213.293399964591003 -61.165008062845814
-23.301399230957031 213.293399964591003 -61.165008062845814
-14.296899795532227 213.294095073627460 -60.292114052503422
-13.343799591064453 213.682392150824228 -61.165317827812203
-10.993599891662598 213.293399964591003 -61.165008062845814
94.359397888183594 213.293491935368479 -61.049514325051149
100.078002929687500 213.293615923981719 -60.893813690825127
-20.383899688720703 213.693393734250037 -61.165326588669714
-20.015600204467773 213.694032468808757 -60.363225707736547
20.349800109863281 213.693393734250037 -61.165326588669714
99.125000000000000 213.693974490401445 -60.436032996663386
-142.457000732421875 214.093387503909071 -61.165645114493614
-128.671997070312500 214.461398861833743 -61.165938171860702
-123.333999633789063 214.093387503909071 -61.165645114493614
11.059399604797363 214.093387503909071 -61.165645114493614
-132.483993530273438 214.493997993775906 -60.410669092143749
-131.531005859375000 214.493513272905233 -61.019364883032353
-124.859001159667969 214.659396845929848 -61.166095842994110
-22.577400207519531 214.493396532352335 -61.165963652468506
94.359397888183594 214.493962561514422 -60.455163706942173
-12.390600204467773 215.243396294551218 -61.166560897501554
-9.969329833984375 214.893390302011397 -61.166282178292406
17.649599075317383 214.893390302011397 -61.166282178292406
99.125000000000000 214.893671402812885 -60.813285464044583
-143.921997070312500 215.293630818799471 -60.875905618007792
8.250929832458496 215.293399330454662 -61.166600716267283
-19.523300170898438 215.693393100113695 -61.166919242091183
19.658199310302734 215.693393100113695 -61.166919242091183
98.171897888183594 216.093833606675872 -60.606240936512037
-144.201004028320313 216.493395898216022 -61.167556305889974
-8.934109687805176 216.493395898216022 -61.167556305889974
92.453102111816406 216.493707576961953 -60.776160861141392
93.406196594238281 216.494078030004459 -60.310958677099279
-165.680999755859375 216.893389667875056 -61.167874831713874
-21.274000167846680 216.893389667875056 -61.167874831713874
-18.583099365234375 217.293398696318320 -61.168193369688751
17.077499389648438 217.293398696318320 -61.168193369688751
16.203100204467773 217.294157670912540 -60.215099189462791
92.453102111816406 217.293977465784309 -60.441394588903108
97.218803405761719 217.293934858368374 -60.494899515786059
-8.198209762573242 217.693392465977382 -61.168511895512651
91.500000000000000 217.693571000345685 -60.944314578903189
-18.314300537109375 218.093386235636416 -61.168830421336551
16.203100204467773 218.093842687249094 -60.595634191946075
-144.208999633789063 218.493395264079680 -61.169148959311428
90.546897888183594 218.848390879060901 -61.169431651891472
97.218803405761719 218.493486603006147 -61.054448678296438
-10.208000183105469 218.893389033738742 -61.169467485135328
-7.539219856262207 218.893389033738742 -61.169467485135328
-165.791000366210938 219.293398062182007 -61.169786023110220
7.761149883270264 219.293398062182007 -61.169786023110220
10.289500236511230 219.293398062182007 -61.169786023110220
91.500000000000000 219.294123196293270 -60.259187556949286
95.312500000000000 219.694077390206218 -60.309203942992127
96.265602111816406 219.693694354822554 -60.790206598098635
-9.430919647216797 220.093385601500074 -61.170423074758020
-6.814129829406738 220.093385601500074 -61.170423074758020
16.327499389648438 220.093385601500074 -61.170423074758020
18.616199493408203 220.093385601500074 -61.170423074758020
-19.072599411010742 220.493394629943367 -61.170741612732897
89.593803405761719 220.493716187437087 -60.766940776409854
95.312500000000000 220.893815628105045 -60.634561285226056
-9.531250000000000 221.294134743515713 -60.245483279185763
-6.026050090789795 221.293397428045665 -61.171378676531688
7.435880184173584 221.293397428045665 -61.171378676531688
-16.147100448608398 221.693391197704699 -61.171697202355588
10.484399795532227 221.693639168855668 -60.860303563295659
88.229499816894531 221.693391197704699 -61.171697202355588
-166.080001831054688 222.093384967363761 -61.172015728179488
15.250000000000000 222.093624657620950 -60.871020950568507
-144.171997070312500 222.493393995807025 -61.172334266154365
-17.908199310302734 222.493393995807025 -61.172334266154365
-8.187990188598633 222.493393995807025 -61.172334266154365
-5.273540019989014 222.493393995807025 -61.172334266154365
94.820999145507813 222.493393995807025 -61.172334266154365
-15.250000000000000 223.236389976046894 -61.172925933887001
10.484399795532227 222.893603093005765 -60.902251876737253
11.437500000000000 222.893921861849293 -60.501952931393717
87.687500000000000 222.893701673917064 -60.778457360324495
14.296899795532227 223.293776238677992 -60.696477645584963
17.893199920654297 223.293396793909324 -61.172971329953157
-166.024993896484375 223.693390563568386 -61.173289855777057
-7.532390117645264 223.693390563568386 -61.173289855777057
93.406196594238281 223.693859202615300 -60.584789065809488
-4.267549991607666 224.093384333227419 -61.173608381600957
7.099810123443604 224.093384333227419 -61.173608381600957
86.298301696777344 224.093384333227419 -61.173608381600957
93.678596496582031 224.093384333227419 -61.173608381600957
-4.172579765319824 224.493393361670684 -61.173926919575834
12.390600204467773 224.493867177035668 -60.578925887528655
13.343799591064453 224.493785789762882 -60.681129224263842
-6.671879768371582 225.243393123869566 -61.174524164608883
93.181999206542969 224.893387131329746 -61.174245445399734
17.661500930786133 225.293396159773010 -61.174563983374611
85.304702758789063 225.293396159773010 -61.174563983374611
-166.264007568359375 225.693389929432044 -61.174882509198511
-144.240005493164063 225.693389929432044 -61.174882509198511
14.296899795532227 225.693472507500985 -61.071183811609330
-96.265602111816406 226.397384457194278 -61.175443119022930
-93.406196594238281 226.093972578173521 -60.435706945762064
-92.453102111816406 226.094008253454632 -60.390907155279152
-90.546897888183594 226.093838479943855 -60.604102888462805
92.339401245117188 226.093383699091106 -61.175201035022425
-15.647700309753418 226.493392727534371 -61.175519572997302
-5.718750000000000 226.844390541048796 -61.175799082020234
17.396200180053711 226.493392727534371 -61.175519572997302
-96.265602111816406 226.894056204603459 -60.334842576899973
-15.529000282287598 226.893386497193404 -61.175838098821202
-12.880200386047363 226.893386497193404 -61.175838098821202
6.959239959716797 226.893386497193404 -61.175838098821202
83.875000000000000 227.128387033033761 -61.176025236084257
-98.738403320312500 227.293395525636669 -61.176156636796080
-15.108400344848633 227.293395525636669 -61.176156636796080
-166.266998291015625 227.693389295295731 -61.176475162619980
-99.445198059082031 227.693389295295731 -61.176475162619980
-90.546897888183594 227.693921878881753 -60.507675020671371
-2.240679979324341 227.693389295295731 -61.176475162619980
12.390600204467773 227.693775909143369 -60.690978795559374
-90.546897888183594 228.093582784558976 -60.925992681539142
-14.795599937438965 228.093383064954764 -61.176793688443880
-5.718750000000000 228.094107877065028 -60.266599580064891
-4.765620231628418 228.444396137253420 -61.177073209617802
11.437500000000000 228.093751683199088 -60.713895580819653
13.975899696350098 228.093383064954764 -61.176793688443880
13.343799591064453 228.093612487632754 -60.888692583502532
16.203100204467773 228.094064078852909 -60.321599867801822
82.964103698730469 228.093383064954764 -61.176793688443880
90.672897338867188 228.493392093398029 -61.177112226418771
-101.733001708984375 228.893385863057063 -61.177430752242671
-92.453102111816406 228.894137753629195 -60.233232443219549
-91.500000000000000 228.893843590522806 -60.602632350508628
-1.483430027961731 228.893385863057063 -61.177430752242671
-166.445999145507813 229.293394891500355 -61.177749290217548
-102.119003295898438 229.293394891500355 -61.177749290217548
-14.000200271606445 229.293394891500355 -61.177749290217548
-11.251000404357910 229.293394891500355 -61.177749290217548
-92.453102111816406 229.693812305122549 -60.646070304056920
7.625000000000000 229.693988372841631 -60.424970520645019
-103.651000976562500 230.093382430818423 -61.178386341865348
-3.683120012283325 230.093382430818423 -61.178386341865348
16.718700408935547 230.093382430818423 -61.178386341865348
81.015602111816406 230.226393252902739 -61.178492261969382
-144.287002563476563 230.493391459261716 -61.178704879840240
-93.048797607421875 230.493391459261716 -61.178704879840240
-13.134799957275391 230.493391459261716 -61.178704879840240
-10.557999610900879 230.493391459261716 -61.178704879840240
6.903580188751221 230.493391459261716 -61.178704879840240
7.625000000000000 230.494041342345753 -60.362604064381159
10.484399795532227 230.493574374058767 -60.949006771517872
11.437500000000000 230.493676065621287 -60.821306006343676
12.390600204467773 230.493658148999373 -60.843805083682582
-2.859380006790161 231.271391090512395 -61.179324421923980
88.640602111816406 230.893576582574326 -60.938728071697909
-105.347999572753906 231.293394257364014 -61.179341943639017
-94.677101135253906 231.293394257364014 -61.179341943639017
-12.441900253295898 231.293394257364014 -61.179341943639017
79.968101501464844 231.293394257364014 -61.179341943639017
-94.950996398925781 231.693388027023047 -61.179660469462917
-20.837299346923828 231.693388027023047 -61.179660469462917
-9.730959892272949 231.693388027023047 -61.179660469462917
-144.272003173828125 232.093381796682110 -61.179978995286817
-17.156200408935547 232.200391650447983 -61.180064210118701
-12.033900260925293 232.093381796682110 -61.179978995286817
16.431900024414063 232.093381796682110 -61.179978995286817
-106.742996215820313 232.493390825125374 -61.180297533261694
-96.674102783203125 232.493390825125374 -61.180297533261694
-18.109399795532227 232.493742881582193 -60.738197148535349
-11.437500000000000 232.643384674051447 -61.180416977407916
-9.025070190429688 232.493390825125374 -61.180297533261694
1.398300051689148 232.493390825125374 -61.180297533261694
-107.462997436523438 232.893384594784408 -61.180616059085594
-97.046699523925781 232.893384594784408 -61.180616059085594
-20.015600204467773 232.893702087774898 -60.781919286085625
10.484399795532227 232.893422019806820 -61.133619003674369
12.390600204467773 232.893492975462152 -61.044515333195847
-166.565994262695313 233.293393623227672 -61.180934597060485
-143.985992431640625 233.293393623227672 -61.180934597060485
-107.612998962402344 233.293393623227672 -61.180934597060485
-16.203100204467773 233.293803967941813 -60.665637824409586
77.928497314453125 233.293393623227672 -61.180934597060485
-98.768501281738281 233.693387392886734 -61.181253122884385
-128.671997070312500 234.327389877411548 -61.181757996157557
-125.811996459960938 234.200391016311642 -61.181656863540169
-123.905998229980469 234.477383726337621 -61.181877440303779
