# This PCD file was generated using the MATLAB® pcwrite function
# from Computer Vision Toolbox®.
# .PCD v.7 - Point Cloud Data file format
VERSION .7
FIELDS x y z
SIZE 8 8 8
TYPE F F F
COUNT 1 1 1
WIDTH 809
HEIGHT 1
VIEWPOINT 0 0 0 1 0 0 0
POINTS 809
DATA ascii
26.687500000000000 257.706793904627375 -44.355372898948545
9.531250000000000 258.106813394876099 -44.323392393265394
21.207000732421875 258.506285541323678 -44.997908868108276
27.640600204467773 258.506565530310411 -44.646308332616989
-14.296899795532227 258.906417312715121 -44.824929566799334
-18.535200119018555 259.306288339426033 -44.998545931907060
8.857390403747559 259.306288339426033 -44.998545931907060
22.875000000000000 259.306700199975069 -44.481345625924156
-17.156200408935547 259.706774239016568 -44.380864623161514
-13.343799591064453 259.706535101629015 -44.681165126090285
22.875000000000000 260.106564546569189 -44.636683861431280
23.828100204467773 260.106818893947604 -44.317283175349587
-18.109399795532227 260.506621513671462 -44.576802680944752
10.484399795532227 260.506696208791254 -44.483003119621166
23.828100204467773 260.507010916169293 -44.087804422904647
-15.250000000000000 260.906864852335502 -44.263721037583217
24.781200408935547 260.906818107510389 -44.322421580494577
-18.569099426269531 261.306287705289719 -45.000138585328529
12.390600204467773 261.307038323046527 -44.057538633952916
23.828100204467773 261.306385970275528 -44.876740797305608
26.124799728393555 261.306287705289719 -45.000138585328529
12.390600204467773 262.106815392179669 -44.322476901848020
24.781200408935547 262.106843023511146 -44.287778426521676
24.469900131225586 262.506284273051051 -45.001094174951213
25.734399795532227 262.506712935369478 -44.462794785081989
29.070299148559570 262.506284273051051 -45.001094174951213
-17.156200408935547 262.906519011858109 -44.698811936124507
-15.250000000000000 262.906548714931887 -44.661511838087904
-16.203100204467773 263.331280959712956 -45.001751142057365
-13.419599533081055 263.306287071153349 -45.001731238749990
-18.109399795532227 263.706331407121070 -44.938550334023958
24.781200408935547 263.706396706494616 -44.856549627601900
-15.301500320434570 264.106274610471473 -45.002368290397797
13.343799591064453 264.106823120956221 -44.313567697027025
12.784299850463867 264.906277408573715 -45.003005354196574
24.781200408935547 264.906368668518837 -44.888404255279035
25.734399795532227 264.906426640850668 -44.815604595744311
-15.050499916076660 265.706280206676070 -45.003642417995358
24.781200408935547 266.106466924804977 -44.761662894423573
23.233999252319336 266.906292033221632 -45.004598019769027
25.734399795532227 266.906344352309418 -44.938897509594710
-15.167799949645996 267.306285802880666 -45.004916545592927
13.532600402832031 267.306285802880666 -45.004916545592927
24.781200408935547 267.306685239051376 -44.503318346479496
13.614700317382813 268.106273342198790 -45.005553597240727
-15.282600402832031 268.506267111857824 -45.005872123064627
23.790899276733398 268.506267111857824 -45.005872123064627
27.375200271606445 268.506267111857824 -45.005872123064627
24.781200408935547 269.306823803519080 -44.330110182522027
15.250000000000000 269.707024060878950 -44.071128558628182
-15.250000000000000 271.706820441562172 -44.327623017214698
27.640600204467773 271.706370837027464 -44.892220921694708
14.389499664306641 272.106272073926107 -45.008738904083664
-14.136699676513672 272.506265843585140 -45.009057429907564
-15.139200210571289 274.506265209448827 -45.010650083329026
-13.343799591064453 274.906739262211545 -44.446168550083904
15.250000000000000 274.906816824962959 -44.348767915683347
27.794000625610352 274.906289496676322 -45.010968633454894
-14.834500312805176 275.706277035994390 -45.011605685102694
-13.864500045776367 275.706277035994390 -45.011605685102694
-13.343799591064453 276.106535982593925 -44.678924133404877
-14.711299896240234 276.906288862540009 -45.012561286876355
-13.343799591064453 276.996285171895636 -45.012632953364090
-14.296899795532227 277.306662162024566 -44.536279316842489
24.781200408935547 277.650276663754425 -45.013153744422773
-14.118200302124023 278.506263941176144 -45.013835390171963
27.640600204467773 278.506338876277880 -44.919734467859939
-12.390600204467773 278.906528398624630 -44.712556440709974
24.509700775146484 278.906288228403639 -45.014153940297824
24.781200408935547 278.906874722856003 -44.277654387441501
-12.390600204467773 279.564277521729252 -45.014677914913612
-11.437500000000000 279.706698694777003 -44.483693748230330
25.301099777221680 280.106269537380797 -45.015109517769524
-13.553000450134277 280.506263307039831 -45.015428043593431
23.368999481201172 280.906287594267326 -45.015746593719292
-11.437500000000000 281.853278260803506 -45.016500707920976
-10.484399795532227 281.706757627788761 -44.410484026687612
14.121700286865234 281.706275133585393 -45.016383645367092
-12.390600204467773 282.106682036608788 -44.497903507560579
-12.399999618530273 282.906286960131013 -45.017339247140761
-10.484399795532227 282.906616637517971 -44.603341728259750
24.479299545288086 282.906286960131013 -45.017339247140761
-10.737700462341309 283.306280729790046 -45.017657772964661
-11.860199928283691 283.706274499449080 -45.017976298788561
-9.531250000000000 283.706735969417025 -44.438478191513390
-11.596400260925293 284.506262038767204 -45.018613350436361
-9.984219551086426 284.506262038767204 -45.018613350436361
20.721399307250977 285.306280095653733 -45.019250426386122
-10.850399971008301 285.706273865312767 -45.019568952210022
20.429800033569336 286.506261404630834 -45.020206003857830
-10.080499649047852 286.906285691858329 -45.020524553983691
-8.689530372619629 286.906285691858329 -45.020524553983691
13.426899909973145 286.906285691858329 -45.020524553983691
-7.625000000000000 287.306757815273841 -44.420142891852585
-7.951290130615234 288.106267000835487 -45.021480131455391
18.109399795532227 288.506993948555419 -44.101098875961782
24.853799819946289 288.506260770494521 -45.021798657279291
-8.682250022888184 289.306278827381050 -45.022435733229059
-6.970320224761963 289.706272597040083 -45.022754259052959
18.407600402832031 289.706272597040083 -45.022754259052959
-8.007690429687500 290.106266366699117 -45.023072784876859
-6.488880157470703 290.106266366699117 -45.023072784876859
14.296899795532227 290.106935758183681 -44.182473991345468
24.781200408935547 290.106986801418373 -44.118375653514718
-5.718750000000000 290.506885173723219 -44.238490894284567
-5.718750000000000 291.306278193244736 -45.024028386650521
15.250000000000000 291.306941770484684 -44.190730921370516
14.296899795532227 291.706794591798371 -44.368047529501681
16.253299713134766 291.706271962903770 -45.024346912474428
-4.765620231628418 292.106818462475871 -44.330566232105625
15.250000000000000 292.506598259429609 -44.599584318729512
-10.484399795532227 292.986270336353755 -45.025366209692088
-9.930239677429199 293.706271328767457 -45.025939565895889
14.296899795532227 293.706459738845808 -44.789340672408031
-8.578120231628418 294.106387732205292 -44.872258811934792
-3.748960018157959 294.106265098426491 -45.026258091719789
-9.296879768371582 295.306276924972053 -45.027213693493458
-8.578120231628418 295.306603257801441 -44.617416154970222
-2.665770053863525 295.706270694631087 -45.027532219317358
18.109399795532227 295.706338302691108 -44.942632343892662
-6.671879768371582 296.106546124036754 -44.674152126819109
17.156200408935547 296.106978291913322 -44.131450577701145
-7.625000000000000 296.506737620539070 -44.426172086351080
-5.718750000000000 296.906373301157998 -44.914489444150355
-7.625000000000000 297.306611463503998 -44.607908042868416
-3.020800113677979 297.306276290835740 -45.028806346914926
20.015600204467773 297.306405294766478 -44.866807649500274
-6.671879768371582 297.706870173159416 -44.275524037462986
-7.142409801483154 298.506257599812841 -45.029761924386627
-4.765620231628418 298.506723690191450 -44.444461664410120
15.908399581909180 298.506257599812841 -45.029761924386627
-5.718750000000000 298.906971904815634 -44.163579894760133
-1.906250000000000 298.906281887040336 -45.030080474512488
-6.337659835815430 299.306275656699427 -45.030399000336388
13.343799591064453 300.106664144985302 -44.527538134234824
-5.124450206756592 300.506256965676528 -45.031354577808095
-0.953125000000000 300.506338826837577 -44.928556148488148
1.247730016708374 300.506256965676528 -45.031354577808095
-1.906250000000000 300.906957731448415 -44.182174648503668
12.390600204467773 300.906447842857688 -44.822475196217106
-3.812500000000000 301.434265704637539 -45.032093576189034
-0.953125000000000 301.306736571512431 -44.452394364385228
0.000000000000000 301.306374004456757 -44.907693597465695
-3.216799974441528 302.106262561881181 -45.032628705405656
0.000000000000000 302.107001551148869 -44.104631410532818
0.953125000000000 302.106642091706703 -44.556028209547890
6.671879768371582 302.106655150973836 -44.539628831202691
8.578120231628418 302.106414339788614 -44.842031231658375
0.953125000000000 302.506706097075437 -44.468147147858566
3.812500000000000 302.907025662261844 -44.097665797242769
-1.389969944953918 303.306274388426743 -45.033584307179325
3.812500000000000 303.306688396661741 -44.513687011084755
7.625000000000000 303.306998884611517 -44.123786927190167
9.531250000000000 303.306958115031478 -44.174983962959168
3.812500000000000 303.706659155399905 -44.542901859533657
8.578120231628418 303.706937470588969 -44.193403221569291
0.953125000000000 304.501281333746704 -45.034535923431122
2.859380006790161 305.109282849953104 -45.035020091432159
4.765620231628418 305.514281500837740 -45.035342602777924
6.671879768371582 305.495269055694109 -45.035327462655218
32.406200408935547 22.168316163145622 -43.856607971342648
39.078098297119141 22.609616415374198 -43.856959390632376
27.950099945068359 23.307116423100915 -43.857514828695372
29.899900436401367 28.507113629937638 -43.861655726679864
49.435798645019531 33.707112744122384 -43.865796626183226
43.701599121093750 34.107112235825518 -43.866115156563744
19.600500106811523 34.507111727528645 -43.866433686944262
49.562500000000000 36.036511114430809 -43.867651588913589
19.388200759887695 36.907112492443474 -43.868344872265119
49.581600189208984 37.707111475849729 -43.868981933026156
43.208301544189453 40.507109825119656 -43.871211647208661
20.120500564575195 40.907111224170805 -43.871530179108056
48.149799346923828 43.707109573440732 -43.873759893290561
40.086601257324219 44.907109955898150 -43.874715485950986
34.733600616455078 47.307106906116914 -43.876626668234103
45.425498962402344 47.307106906116914 -43.876626668234103
25.916700363159180 48.907108687625488 -43.877900792793916
32.834098815917969 50.907108053489154 -43.879493446215385
39.078098297119141 51.015708635510435 -43.879579927787070
37.171901702880859 51.483306448675791 -43.879952288533637
-68.625000000000000 52.597205326450833 -43.880839316244312
-72.437500000000000 53.008505855220179 -43.881166845945366
-71.206398010253906 52.907107419352826 -43.881086099636853
-55.281200408935547 54.274508108840337 -43.882174997675421
-79.046401977539063 54.507105386165335 -43.882360221158926
-50.515598297119141 55.438707568811189 -43.883102081095963
-82.921897888183594 55.931707443014155 -43.883494670188661
-45.750000000000000 56.739003939975746 -43.884137542156509
-44.593498229980469 57.307103735435263 -43.884589935341431
-39.078098297119141 58.907598044820006 -43.267364500148460
-36.218799591064453 58.907178541303722 -43.794162581408521
-88.971298217773438 59.307103101298935 -43.886182588762900
-31.453100204467773 59.509606241437318 -43.886343847473526
-30.500000000000000 59.754704277738178 -43.886539025648467
-25.734399795532227 60.203102725653153 -43.886896097422813
-90.357803344726563 60.507103483756346 -43.887138181423325
-20.015600204467773 60.907602826983592 -43.262155550501895
-17.156200408935547 61.007103325222261 -43.887536344778695
-13.343799591064453 61.383705378665262 -43.887836243148257
-11.003000259399414 62.107105265264913 -43.888412305983145
-92.937400817871094 63.307101833026273 -43.889367895605830
-94.672599792480469 65.707102597941088 -43.891279080926687
-7.944320201873779 66.107103996992251 -43.891597612826082
-95.289901733398438 66.907102980398506 -43.892234673587119
76.250000000000000 68.107309054667439 -43.634889566896511
88.640602111816406 68.298803283763419 -43.893342922063411
75.614601135253906 68.507100947211029 -43.893508795109192
83.295402526855469 68.507100947211029 -43.893508795109192
72.437500000000000 68.907679204986351 -43.169427990042244
83.875000000000000 69.109700853801968 -43.893988661662846
84.828102111816406 69.132600474226763 -43.894006897248040
92.624702453613281 68.907102346262178 -43.893827327008587
71.722702026367188 69.307099930617284 -43.894145855870228
93.813499450683594 69.307099930617284 -43.894145855870228
-9.531250000000000 69.707500288913081 -43.393465095937010
-17.156200408935547 70.107554404996620 -43.327583392478736
-14.296899795532227 70.107782074895567 -43.041683367161767
-10.484399795532227 70.107737960757945 -43.097080383288535
-13.343799591064453 70.507419561881989 -43.494199781210263
95.312500000000000 70.564999769814264 -43.895147555429219
-63.859401702880859 70.907858144127218 -42.945518700803056
-62.906200408935547 71.307681331523156 -43.164838930245743
-23.828100204467773 71.307673925500040 -43.174139159230535
96.763603210449219 71.307099296480942 -43.895738509291697
-97.789802551269531 71.707100695532105 -43.896057041191092
-63.859401702880859 71.707854657846525 -42.949257109457712
-24.781200408935547 71.729100047687666 -43.896074559868381
68.757102966308594 71.707100695532105 -43.896057041191092
97.218803405761719 71.776902003966740 -43.896112625855061
-27.640600204467773 72.107327297832995 -43.613573080971072
-28.593799591064453 72.507155901528847 -43.826091707345725
-63.859401702880859 72.907310831266528 -43.633611685873461
-61.852401733398438 73.307098662344615 -43.897331162713165
-32.406200408935547 74.507705918775684 -43.140985667961075
66.250900268554688 74.507102859498090 -43.898286758411338
99.901802062988281 74.507102859498090 -43.898286758411338
-61.067600250244141 75.307098028208287 -43.898923816134634
65.765602111816406 75.589103248851970 -43.899148384495597
-65.658897399902344 75.707099427259436 -43.899242348034022
-33.359401702880859 75.707490424573578 -43.408241374564462
65.159500122070313 76.507102225361749 -43.899879411832806
-99.125000000000000 76.907464057357728 -43.437997919410748
-34.312500000000000 76.907442237233056 -43.465398881181756
101.670997619628906 77.307097394071960 -43.900516469556095
-66.262702941894531 78.107100192174272 -43.901153533354879
-35.265598297119141 78.107548125949052 -43.338653711705724
-99.577697753906250 79.307096759935618 -43.902109122977564
-65.765602111816406 79.307324909798325 -43.615606375683733
-36.218799591064453 79.307730239194925 -43.106607666221457
-63.859401702880859 79.707599687702356 -43.272625150709921
-64.812500000000000 80.107405109651552 -43.519044983972933
-66.009002685546875 80.507100957089094 -43.903064718675736
-63.825099945068359 81.307096125799291 -43.903701776399032
64.177101135253906 81.307096125799291 -43.903701776399032
-64.812500000000000 81.763493991343921 -43.904065218325321
64.198501586914063 82.507100322952766 -43.904657372097205
-37.570400238037109 82.907094092611800 -43.904975897921105
-38.125000000000000 83.307512370567281 -43.381792245952909
64.812500000000000 83.307846188401157 -42.962595296347430
-99.867698669433594 84.107098289765275 -43.905931493619278
-38.125000000000000 84.107392613872165 -43.536329407439233
64.812500000000000 84.107240592945075 -43.727232056870996
104.282997131347656 84.507099688816439 -43.906250025518673
64.400901794433594 84.907093458475472 -43.906568551342573
64.003700256347656 85.707096256577785 -43.907205615141358
104.667999267578125 86.107097655628948 -43.907524147040746
81.015602111816406 86.507610456067979 -43.265642412590758
63.752498626708984 86.907092824339145 -43.908161204764042
73.390602111816406 86.907764129603237 -43.065159152717307
79.109397888183594 86.907536617667049 -43.350860813839361
104.771003723144531 87.307094223390308 -43.908479736663431
-39.078098297119141 87.707387555842772 -43.542198348178928
80.062500000000000 87.901393351363154 -43.908952993083254
82.921897888183594 87.885798873885790 -43.908940574780360
76.250000000000000 88.107374622811477 -43.560514616071032
63.926799774169922 88.507098420543770 -43.909435332361603
74.343803405761719 88.507377136715178 -43.559433154517833
76.488296508789063 88.507098420543770 -43.909435332361603
86.244201660156250 88.507098420543770 -43.909435332361603
87.687500000000000 88.507390672908343 -43.542434868891824
-100.078002929687500 88.907575243351317 -43.303152335431712
-44.796901702880859 89.278696991812325 -43.910049777108689
71.484397888183594 89.307554582295921 -43.331173190090546
-43.843799591064453 89.810091781819992 -43.910472941108090
-42.890598297119141 89.955492736694524 -43.910588727808936
67.671897888183594 89.707848394712144 -42.964289079629175
73.080902099609375 89.707094988305130 -43.910390921984288
88.834197998046875 89.707094988305130 -43.910390921984288
90.546897888183594 89.707550407084398 -43.338491689252891
104.814002990722656 89.707094988305130 -43.910390921984288
63.991401672363281 90.507097786407442 -43.911027985783072
64.812500000000000 90.507643110297380 -43.226229008575160
66.718803405761719 90.907730369606568 -43.109146448576347
69.578102111816406 90.907456352827182 -43.453247291621324
93.406196594238281 90.907844643510245 -42.965645212337755
70.883499145507813 91.307092955117639 -43.911665043506360
90.695098876953125 91.307092955117639 -43.911665043506360
-100.341003417968750 91.707094354168802 -43.911983575405756
-49.562500000000000 91.707815827796949 -43.005981817992428
-50.704200744628906 92.107095753219951 -43.912302107305145
67.671897888183594 92.507459482382615 -43.457618952416453
64.812500000000000 92.907187996119788 -43.791036737859521
105.231002807617188 92.907090921930148 -43.912939165028440
67.949897766113281 93.307092320981312 -43.913257696927829
92.404197692871094 93.307092320981312 -43.913257696927829
93.406196594238281 93.307507207124701 -43.392257953673052
65.765602111816406 93.707317808429679 -43.632173730160396
-100.402000427246094 94.107095119083624 -43.913894760726613
66.718803405761719 94.307092003913141 -43.914054023638563
95.312500000000000 94.107852106992382 -42.963295391721353
-100.515998840332031 94.907090287793821 -43.914531818449902
93.369598388671875 94.907090287793821 -43.914531818449902
94.359397888183594 95.707457086767562 -43.458069112629737
-100.541999816894531 97.707092451759806 -43.916761535670155
-61.953098297119141 98.107822888424977 -43.001579716976515
95.312500000000000 98.107510647696159 -43.393680880495474
104.352996826171875 98.507095249862118 -43.917398599468939
-63.859401702880859 99.707382955135515 -43.552753719074431
95.274398803710938 99.707091817623478 -43.918354189091623
104.329002380371094 100.507094615725791 -43.918991252890400
96.556701660156250 103.707090549350809 -43.921539495934553
103.466003417968750 103.707090549350809 -43.921539495934553
102.938003540039063 103.707800394489865 -43.030140395023999
-68.625000000000000 104.487890167506691 -43.922161267723368
79.109397888183594 104.247793197735376 -43.921970072032551
81.968803405761719 104.107184879106981 -43.805158846085554
83.875000000000000 104.107248826683843 -43.724855679408464
78.156196594238281 104.507371185716124 -43.573276829049782
82.921897888183594 104.507677375256264 -43.188774540074583
85.781196594238281 104.507617331182146 -43.264175822319572
88.640602111816406 104.507392209951533 -43.546875317645473
80.062500000000000 104.907814562947635 -43.008993635697607
84.828102111816406 104.907812333242560 -43.011793622602788
71.484397888183594 105.690091629588466 -43.923118613162849
73.390602111816406 105.307293172103684 -43.665813729460716
74.343803405761719 105.307624921232986 -43.249214587869446
92.453102111816406 105.307539077587819 -43.357014083718937
94.359397888183594 105.707417444915521 -43.511831620586683
-100.559997558593750 106.507092713316794 -43.923769213154806
67.671897888183594 106.874089362090515 -43.924061462481632
69.578102111816406 106.507555061193159 -43.343168658719428
94.359397888183594 106.507538019441867 -43.364569103594185
102.646003723144531 106.507092713316794 -43.923769213154806
67.671897888183594 107.307602230027840 -43.278505749354295
93.406196594238281 107.307661876157312 -43.203604192292659
95.312500000000000 107.307380213372952 -43.557306625310858
90.546897888183594 107.707752940337258 -43.091324340703963
94.359397888183594 107.707480038410409 -43.434025190296353
100.078002929687500 107.707810435743042 -43.019123588450050
-100.497001647949219 108.107090680129303 -43.925043334676879
64.331199645996094 108.107090680129303 -43.925043334676879
84.828102111816406 108.107822664356291 -43.005842728909428
89.593803405761719 108.107579705485122 -43.310942119476778
90.546897888183594 108.434887512230489 -43.925304368132743
64.812500000000000 108.507694661532057 -43.168659683406815
85.781196594238281 108.507379155227000 -43.564861645186092
101.808998107910156 108.507092079180467 -43.925361866576267
78.156196594238281 109.279491736620798 -43.925976949249872
81.046401977539063 108.907085848839500 -43.925680392400167
98.991996765136719 108.907085848839500 -43.925680392400167
100.078002929687500 108.907528287332994 -43.370081355916511
101.030998229980469 108.907539517877467 -43.355978424597083
-100.078002929687500 109.953289130402894 -43.926513512282291
61.953098297119141 109.707583802467695 -43.304518184357633
73.390602111816406 109.707815852795406 -43.013117367327752
74.343803405761719 109.707676496228572 -43.188116548901611
75.296897888183594 109.707257308637807 -43.714517901771842
101.043998718261719 109.707088646941813 -43.926317456198952
73.390602111816406 110.219089522200250 -43.926725176301112
69.578102111816406 110.507825418994301 -43.005255288313535
-100.004997253417969 110.907085214703173 -43.927273045821636
70.560699462890625 110.907085214703173 -43.927273045821636
59.093799591064453 111.307610916446620 -43.269190297221371
68.625000000000000 111.619090604183242 -43.927840034911242
66.718803405761719 112.107459703898641 -43.463228636368669
57.187500000000000 112.507507209848356 -43.405647711528488
65.765602111816406 112.742091346748154 -43.928734310682266
57.187500000000000 113.307733632996985 -43.115883402588601
61.953098297119141 113.307834528670242 -42.989182087781096
-99.702400207519531 113.707087378669158 -43.929502763041889
55.281200408935547 113.707304219006019 -43.657202129164936
62.906200408935547 113.707466908494695 -43.452902267184129
-73.939697265625000 114.107088777720307 -43.929821294941277
-74.328201293945313 114.507090176771470 -43.930139826840666
55.281200408935547 114.907738446887464 -43.108559199200215
60.046901702880859 114.907624731928934 -43.251358531364488
-63.148998260498047 115.307085345481667 -43.930776884563961
-61.953098297119141 115.307505009998451 -43.403776624412927
53.375000000000000 115.307334835505287 -43.617475897475984
58.140598297119141 115.307739447993981 -43.109377456282957
-61.228698730468750 115.707086744532830 -43.931095416463350
-63.761699676513672 116.107088143583979 -43.931413948362746
54.328098297119141 116.107744156838109 -43.107615076262448
56.234401702880859 116.107769561502266 -43.075712773145234
58.140598297119141 116.107541095714055 -43.362612248828903
-74.842796325683594 116.507089542635143 -43.931732480262134
52.421901702880859 116.507474327760093 -43.448532560227314
-98.990600585937500 116.907083312294176 -43.932051006086034
-75.296897888183594 116.907207540889289 -43.776049010871589
-64.155899047851563 116.907083312294176 -43.932051006086034
57.187500000000000 116.907225217529344 -43.753851294521105
-65.765602111816406 117.307692946940975 -43.168568205455564
52.421901702880859 117.307626851678179 -43.251568362244321
56.234401702880859 117.307438280599314 -43.488369434623152
-70.531196594238281 117.767083649966935 -43.932735847543306
-68.625000000000000 117.707368329088254 -43.578287547488358
-66.718803405761719 117.707700318199443 -43.161387044908651
-64.812500000000000 117.707382983171712 -43.559885453713704
51.468799591064453 117.707529107835128 -43.376387129326837
-71.870201110839844 118.107087509447652 -43.933006601784207
-72.582496643066406 118.507088908498815 -43.933325133683603
-68.884902954101563 118.507088908498815 -43.933325133683603
-67.671897888183594 118.507381081882002 -43.566423852311281
53.375000000000000 118.507627862236802 -43.256525574105346
-75.822303771972656 118.907082678157849 -43.933643659507503
-60.861801147460938 118.907082678157849 -43.933643659507503
-73.178199768066406 119.307084077209012 -43.933962191406891
-66.718803405761719 119.307590065334722 -43.298559713429498
-65.765602111816406 119.307570234933237 -43.323462049283755
51.468799591064453 119.707560245477168 -43.338081876697494
-98.171897888183594 120.319084793933357 -43.934768074864422
49.562500000000000 120.107468236897290 -43.455698497626081
-73.316497802734375 120.507088274362474 -43.934917787105071
-69.477203369140625 120.507088274362474 -43.934917787105071
-67.671897888183594 120.507510408566205 -43.404816179060425
-63.859401702880859 120.507197690911369 -43.797516249860195
-60.514999389648438 121.307083443072685 -43.935554844828360
-77.291000366210938 121.707084842123834 -43.935873376727756
48.609401702880859 121.707308131594019 -43.655474143123691
-72.437500000000000 122.107482493788552 -43.438591510980523
-69.070503234863281 122.107086241174997 -43.936191908627144
-65.765602111816406 122.507470912553927 -43.455210239127652
-97.769699096679688 122.907081409885194 -43.936828966350433
-63.859401702880859 122.907198469401322 -43.789829653828392
-61.000000000000000 122.907687734739014 -43.175427077639860
-72.134002685546875 123.307082808936343 -43.937147498249828
-67.671897888183594 123.307272573849119 -43.698847250320952
-79.001098632812500 123.707084207987506 -43.937466030149217
-79.291198730468750 124.107085607038655 -43.937784562048613
-63.859401702880859 124.107123752006714 -43.889883423672096
-71.345596313476563 124.507087006089819 -43.938103093948001
-64.812500000000000 124.907192343021450 -43.798319277719301
-80.762802124023438 125.307082174800016 -43.938740151671297
-60.046901702880859 125.307140068150446 -43.866039674234031
-69.578102111816406 126.507246196848314 -43.738993143769569
-96.666496276855469 126.907080141612525 -43.940014273193370
-83.127998352050781 126.907080141612525 -43.940014273193370
-68.625000000000000 126.907674361051235 -43.193813948266381
-84.828102111816406 127.707139560249971 -43.869549217202398
-68.807899475097656 127.707082939714837 -43.940651336992154
-85.781196594238281 128.107658730840967 -43.219668065122754
-61.000000000000000 128.107634204085201 -43.250467921079753
-67.671897888183594 128.507408966070841 -43.535389481637040
-95.774902343750000 129.307080906527347 -43.941925458514227
-65.765602111816406 129.307784223551693 -43.058724139428250
-63.859401702880859 129.707828065980550 -43.005743738031725
-95.012298583984375 130.107083704629673 -43.942562522313011
-94.762100219726563 130.507085103680822 -43.942881054212400
-65.765602111816406 130.507447193810435 -43.488180728412743
-63.859401702880859 130.507730448373366 -43.132479394661146
-61.000000000000000 130.507436920155754 -43.501082030474493
-90.174896240234375 130.907078873339856 -43.943199580036300
-63.859401702880859 131.707431021267894 -43.505135153294738
-61.953098297119141 131.707408165272057 -43.533836926420875
-61.953098297119141 132.507084469544509 -43.944473707633868
-4.765620231628418 246.507540055760529 -43.417754843271375
-8.578120231628418 247.017042668906555 -44.035661074905583
-6.671879768371582 246.907126424280676 -43.929673701267809
-4.765620231628418 246.907380294733059 -43.610871922466920
-10.484399795532227 247.387037668780380 -44.035955711900236
-5.718750000000000 247.307252512240069 -43.782992926720652
0.953125000000000 247.307793616701758 -43.103492562334665
11.437500000000000 247.307379049521643 -43.624091762503554
-2.859380006790161 247.707509150153157 -43.453210544025481
-0.953125000000000 247.707243894231311 -43.786309803644649
-10.484399795532227 248.107622051070649 -43.303928134617074
-4.765620231628418 248.107658282259166 -43.258430254755893
18.109399795532227 248.261045570371152 -44.036651707958342
-13.573800086975098 248.507047689637318 -44.036847606078929
-6.671879768371582 248.507358177587065 -43.646947522184341
1.906250000000000 248.615049364377768 -44.036933610724596
-12.390600204467773 248.907533510246509 -43.419265479430848
-9.531250000000000 248.907640697090329 -43.284663929091153
0.000000000000000 248.907501498486255 -43.459464746470090
12.390600204467773 248.907661481343865 -43.258563778675274
19.566299438476563 248.907041459296352 -44.037166131902829
-15.250000000000000 249.659040122228618 -44.037764968714427
-4.765620231628418 249.307300296726510 -43.723783139703841
-1.906250000000000 249.307426991970800 -43.564683611291827
4.344480037689209 249.307050487739616 -44.037484669877706
9.531250000000000 249.307763200510266 -43.142484495890194
-7.625000000000000 249.707474353532888 -43.497703269293915
-0.953125000000000 249.707340811210628 -43.665401122616387
9.531250000000000 249.707655916533298 -43.269702700716515
17.156200408935547 249.707754661482852 -43.145702190716740
-14.296899795532227 250.107634716183355 -43.288820048704906
-10.484399795532227 250.107256620173615 -43.763620008024191
0.953125000000000 250.107469635989105 -43.496122076481875
-3.812500000000000 250.507641353921059 -43.292140752475937
0.000000000000000 250.507668590345645 -43.257938187636896
13.343799591064453 250.507263099948574 -43.767139075990137
18.109399795532227 250.507798867091708 -43.094341132574733
21.496000289916992 250.507047055500976 -44.038440259500391
-16.367500305175781 250.907040825160010 -44.038758785324291
-15.250000000000000 250.907713245276653 -43.194356739824961
-12.390600204467773 250.907404428086807 -43.582158740888694
-10.484399795532227 250.907151116579570 -43.900258615615257
-9.531250000000000 250.907189261547643 -43.852357477238733
-5.718750000000000 250.907558040792452 -43.389257190723526
-2.859380006790161 250.907721286188519 -43.184259239364451
5.718750000000000 250.907774082202309 -43.117959821909331
-10.484399795532227 251.307375153599281 -43.630576781435018
-6.671879768371582 251.307732942281518 -43.181278065250801
20.015600204467773 251.307711283157346 -43.208476848130843
7.625000000000000 252.084042405095175 -44.039696063418155
-3.812500000000000 252.107094013456503 -43.968612255157218
-1.906250000000000 252.107775908300823 -43.112312172658896
0.953125000000000 252.107637824549272 -43.285712996585247
1.906250000000000 252.147045925157812 -44.039746234819958
9.531250000000000 252.107766907461411 -43.123615117073136
18.245500564575195 252.107037392921370 -44.039714374946975
20.015600204467773 252.107656856023738 -43.261813925793746
-14.296899795532227 252.507121754410974 -43.945432265426490
-12.390600204467773 252.507550179785284 -43.407430421849647
3.812500000000000 252.727047572312387 -44.040208105770297
20.968799591064453 252.507710557549785 -43.206033543567536
-17.099100112915039 252.907040191023697 -44.040351438745759
-16.203100204467773 252.907726226314878 -43.178851925522963
-12.390600204467773 252.907776874642707 -43.115249498179509
7.625000000000000 252.907438594360940 -43.540050236291414
17.156200408935547 252.907297803978310 -43.716849954403756
22.973600387573242 252.907040191023697 -44.040351438745759
5.718750000000000 253.307324828024889 -43.694570232942269
15.250000000000000 253.307106635891358 -43.968568406564188
20.968799591064453 253.307620743910320 -43.322969246028819
16.203100204467773 253.707792889974911 -43.099288819438179
21.921899795532227 253.707782060412825 -43.112888210878197
14.068699836730957 254.107036758785057 -44.041307028368443
-16.203100204467773 254.507512913478081 -43.455024495011699
13.528300285339355 254.907039556887355 -44.041944092167228
-13.343799591064453 255.307217247026614 -43.830463075715002
13.343799591064453 255.653041517619442 -44.042538153643171
-15.250000000000000 256.107515991202376 -43.440299775198973
21.921899795532227 256.107641492612743 -43.282699422337011
-17.170700073242188 256.507045153092008 -44.043218219764789
21.921899795532227 256.907752671392814 -43.147235760246048
25.530099868774414 256.907038922751042 -44.043536745588696
11.289799690246582 257.307047951194306 -44.043855283563573
12.390600204467773 257.307592561214051 -43.359952759928845
22.875000000000000 257.307495805987742 -43.481454644011876
-16.203100204467773 258.107162027793947 -43.885591170994282
-14.296899795532227 258.507519607135919 -43.448211483491576
-12.759099960327148 258.507044518955695 -44.044810873186258
23.828100204467773 258.507434003472611 -43.555709618352637
25.734399795532227 258.907396317278824 -43.595529321837518
26.687500000000000 258.907626295864247 -43.306730127517902
11.437500000000000 259.307552348293939 -43.411247088265320
21.914400100708008 259.307047317057936 -44.045447936985042
26.687500000000000 259.707313909662503 -43.703164795314017
25.734399795532227 260.107478011777403 -43.489585683879945
-12.834899902343750 260.507043884819325 -44.046403526607726
12.390600204467773 260.507480910050617 -43.497602278496046
25.734399795532227 260.507692653050867 -43.231702704601240
26.687500000000000 260.507333986460196 -43.682103867945671
29.949100494384766 260.907037654478358 -44.046722052431626
24.781200408935547 261.307164459345699 -43.899141009615228
27.640600204467773 261.307243057968208 -43.800439563859548
28.593799591064453 261.307762582287125 -43.148038800256138
-14.511799812316895 262.107034222239690 -44.047677642054310
29.924699783325195 262.507043250682955 -44.047996180029195
14.296899795532227 262.907600263891652 -43.341012836610219
13.608799934387207 263.307046048785310 -44.048633243827972
-13.173299789428711 263.707039818444343 -44.048951769651879
26.687500000000000 263.707710008855884 -43.207349711057738
-14.649100303649902 264.107033588103377 -44.049270295475779
27.640600204467773 264.507428358561356 -43.565187284158156
-13.661499977111816 264.907036386205732 -44.049907359274556
14.220299720764160 264.907036386205732 -44.049907359274556
26.687500000000000 265.707409555331424 -43.585445235824743
28.593799591064453 266.074043462473867 -44.050836678475662
-13.955499649047852 266.907051010853593 -44.051500024847009
23.739299774169922 267.707038550171660 -44.052137076494809
15.250000000000000 268.107336756591792 -43.670154392967888
24.680200576782227 268.107032319830751 -44.052455602318709
26.687500000000000 268.107480812550648 -43.489253876595228
27.970899581909180 268.107032319830751 -44.052455602318709
-15.250000000000000 269.307044146376313 -44.053411204092377
23.828100204467773 269.012030812181308 -44.053176277019844
-14.058600425720215 269.307044146376313 -44.053411204092377
15.250000000000000 269.307204846141815 -43.851609968028320
-13.343799591064453 269.707461086110243 -43.522327310516502
-12.390600204467773 270.507652962405416 -43.266365017254280
-13.752200126647949 271.707037281899034 -44.055322383337739
-13.343799591064453 271.707303734692573 -43.720720133472469
26.687500000000000 272.107390593019375 -43.604141113353066
28.235300064086914 272.107031051558067 -44.055640909161646
-13.378399848937988 272.907049108444596 -44.056277985111407
-14.296899795532227 273.307540184353229 -43.432096434286265
28.593799591064453 273.707756766556429 -43.152614633786904
-12.390600204467773 274.107278394648176 -43.745832294131070
28.270700454711914 274.507024187080788 -44.057552088407007
-11.437500000000000 274.907404671211964 -43.610570823082064
28.593799591064453 274.907807533959328 -43.104669646817349
-14.296899795532227 276.257023632211485 -44.058945660150791
28.321399688720703 276.107029783285384 -44.058826216004576
-11.437500000000000 276.907213318310824 -43.851661538994023
-13.911100387573242 277.307041609831003 -44.059781817778237
-9.531250000000000 277.307538916080546 -43.435281741129195
26.687500000000000 277.307524104034371 -43.453882199098764
-9.531250000000000 278.507402448633684 -43.584136899392185
23.828100204467773 278.507375136265409 -43.618434831632634
28.192800521850586 278.507022918808104 -44.060737395249944
-13.343799591064453 279.125034197465709 -44.061229534294711
23.828100204467773 279.072025181070103 -44.061187321785667
25.734399795532227 279.307775268608111 -43.139274696429617
-9.531250000000000 279.707311866708835 -43.713693534609291
26.687500000000000 279.707679929045753 -43.251493516363325
23.563100814819336 280.107028515012757 -44.062011522847506
24.413200378417969 280.107028515012757 -44.062011522847506
-7.625000000000000 280.507641191866753 -43.285127688896452
25.734399795532227 280.507553595442516 -43.395128264370321
27.741399765014648 280.907046571899286 -44.062648598797274
-12.390600204467773 281.401034452380770 -44.063041974666007
22.390600204467773 281.707034111217354 -44.063285650445074
27.428800582885742 281.707034111217354 -44.063285650445074
-11.926899909973145 282.107027880876444 -44.063604176268974
-10.484399795532227 282.107628789430350 -43.309003890626435
-8.578120231628418 282.107256267683283 -43.776803882682763
-6.671879768371582 282.107636195453438 -43.299703661641651
24.084400177001953 282.107027880876444 -44.063604176268974
-11.437500000000000 282.907200586339741 -43.870038890698446
-8.578120231628418 282.907250912666541 -43.806840821136944
21.592399597167969 282.907045937762973 -44.064241252218743
20.968799591064453 282.907772985653764 -43.151239527542465
25.734399795532227 282.907621523671821 -43.341440272899902
24.781200408935547 283.307736095349242 -43.190059780660640
-7.625000000000000 284.107314960713154 -43.703895522128484
-10.817399978637695 284.507021016399108 -44.065515355514343
23.269100189208984 284.507021016399108 -44.065515355514343
26.766099929809570 284.507021016399108 -44.065515355514343
-4.765620231628418 284.907726642563546 -43.210231912520150
15.250000000000000 285.307565763645755 -43.404752799864347
-6.671879768371582 286.107290674691683 -43.735189399042795
24.781200408935547 286.107503374581711 -43.468088195890310
-9.531250000000000 286.507158387032973 -43.893806367106919
15.250000000000000 286.507598993766010 -43.340507592345091
23.828100204467773 286.507605284936574 -43.332607356812900
-3.812500000000000 286.907726008427176 -43.211824565941619
19.649000167846680 286.907044669490290 -44.067426559061673
23.828100204467773 287.307438595265637 -43.565242802806850
25.960100173950195 287.307038439149323 -44.067745084885573
22.197799682617188 287.707032208808357 -44.068063610709473
-5.718750000000000 288.107318470813880 -43.701080312075163
-8.578120231628418 288.507019748126481 -44.068700662357273
-3.812500000000000 288.507536085850518 -43.420301514916723
25.470100402832031 288.507019748126481 -44.068700662357273
15.250000000000000 288.907558702318056 -43.422718147873454
-7.625000000000000 289.307442180557587 -43.561536843406394
-6.036449909210205 289.307037805013010 -44.069337738307041
-5.718750000000000 289.307224863294664 -43.834436384564150
21.296600341796875 289.307037805013010 -44.069337738307041
-7.842040061950684 289.707031574672044 -44.069656264130941
-5.738200187683105 289.707031574672044 -44.069656264130941
-6.671879768371582 289.707718964797664 -43.206455396467128
-4.765620231628418 289.707337843193557 -43.685054793058285
17.156200408935547 289.707415008000339 -43.588153883841088
22.875000000000000 289.707381082460529 -43.630756409395673
-6.671879768371582 290.107692029184534 -43.232774890609441
15.250000000000000 290.107387194478861 -43.615575825143615
16.203100204467773 290.107508634423709 -43.463075720908670
-4.765620231628418 290.507303723387452 -43.712890627586120
-1.906250000000000 290.907644069789683 -43.316312941250501
21.921899795532227 290.907569933614980 -43.409410598499761
22.875000000000000 291.307711021771354 -43.224731624386749
-6.715590000152588 291.707030940535731 -44.071248917552410
20.047399520874023 291.707030940535731 -44.071248917552410
24.086500167846680 291.707030940535731 -44.071248917552410
-2.859380006790161 292.107440234264686 -43.549766613949750
21.921899795532227 292.107360839752801 -43.649467510072135
20.968799591064453 292.507596772393754 -43.345686095695385
-5.718750000000000 293.207030464933496 -44.072443407618508
-3.812500000000000 292.907255706953151 -43.804801955185162
-2.859380006790161 292.907442604234348 -43.570102780333244
-5.254000186920166 293.707030306399361 -44.072841570973871
20.968799591064453 293.707423135473960 -43.579540335782482
18.607900619506836 294.107024076058451 -44.073160096797771
20.015600204467773 294.107550049510621 -43.412660733467256
-2.859380006790161 294.507237872649171 -43.797176372581873
20.968799591064453 294.507710570123891 -43.203579148683339
22.307899475097656 294.907042132944980 -44.073797172747540
0.000000000000000 295.307621920130316 -43.338215052995935
19.062500000000000 295.307637370103066 -43.318813508854582
-4.008220195770264 295.707029672263047 -44.074434224395340
-1.906250000000000 295.707384994296092 -43.628233041408684
20.015600204467773 295.707581129360790 -43.381933375850153
-3.522830009460449 296.107023441922081 -44.074752750219240
-0.953125000000000 296.107477745848826 -43.504253510940430
1.906250000000000 296.107776052439874 -43.129650358230826
19.062500000000000 296.107380355733710 -43.626552666499187
18.109399795532227 296.507684057435085 -43.237669197806767
21.200099945068359 296.507017211581172 -44.075071276043140
-1.489259958267212 296.907041498808610 -44.075389826169008
-0.953125000000000 296.907492619178299 -43.508888388357001
19.062500000000000 296.907543425468873 -43.445087596818631
18.109399795532227 297.307402215952095 -43.614908327199537
2.859380006790161 297.707781408662584 -43.131225846816832
17.156200408935547 297.707609481390364 -43.347126199504260
-1.906250000000000 298.107474405081405 -43.509245058547890
-0.646468997001648 298.107022807785768 -44.076345403640708
0.953125000000000 298.107666478680642 -43.268045641616368
14.978899955749512 298.507016577444801 -44.076663929464608
17.156200408935547 298.507372537404365 -43.629661660306176
16.203100204467773 298.907570981609126 -43.411279870839429
19.351800918579102 298.907040864672297 -44.076982479590470
-1.347779989242554 299.307034634331330 -44.077301005414370
0.372954994440079 299.307034634331330 -44.077301005414370
0.953125000000000 299.307535923065018 -43.447799862235769
17.156200408935547 299.307607115664496 -43.358398645464874
-3.812500000000000 299.807034475797252 -44.077699168769740
15.250000000000000 299.707647071203496 -43.300718532451739
-3.812500000000000 300.507313214028329 -43.704954241531610
0.000000000000000 300.683041278121436 -44.078396756606395
1.906250000000000 300.507158963396193 -43.898656877868554
2.859380006790161 300.507669568894755 -43.257456061885875
11.437500000000000 300.507655154793213 -43.275556794672099
-2.859380006790161 300.907316795983661 -43.731273759975892
15.250000000000000 300.907448907527908 -43.565372628495844
17.615499496459961 300.907040230535983 -44.078575133011938
-3.353159904479980 301.307034000195017 -44.078893658835838
3.812500000000000 301.307452230895990 -43.553693935223286
10.545900344848633 301.307034000195017 -44.078893658835838
13.343799591064453 301.307399276919512 -43.620191716873329
4.765620231628418 301.707349804273804 -43.674812441055892
8.578120231628418 301.707271445633125 -43.773212525823148
14.296899795532227 301.707597064592392 -43.364311440873095
1.793169975280762 302.107021539513084 -44.079530710483638
16.276399612426758 302.107021539513084 -44.079530710483638
-1.906250000000000 302.723018658653075 -44.080021245598878
0.000000000000000 302.507604990219363 -43.339348067288370
11.437500000000000 302.507178794550100 -43.874549923960032
12.390600204467773 302.507225539375156 -43.815849381048672
13.343799591064453 302.507767439726138 -43.135349566295993
-0.953125000000000 302.907613988474623 -43.358865982664618
5.718750000000000 302.907625294962713 -43.344667683943790
8.578120231628418 302.907434576197886 -43.584165746434294
2.859380006790161 303.702022254492135 -44.080800852559335
11.437500000000000 303.307487272040760 -43.510486798161850
14.763099670410156 303.307033366058704 -44.080486312257307
9.531250000000000 303.707142126529277 -43.936403333573374
-0.313690006732941 304.107020905376771 -44.081123363905107
3.812500000000000 304.107754642382815 -43.159721678513279
4.765620231628418 304.178035287157229 -44.081179914572097
6.671879768371582 304.226039422327290 -44.081218141559276
12.482799530029297 304.507014675035805 -44.081441889729007
1.906250000000000 305.202021778889900 -44.081995342625440
10.484399795532227 305.091029382441434 -44.081906956387435
34.312500000000000 21.931875514680002 -42.903218091103881
31.453100204467773 22.298575570835368 -42.903510104246010
37.171901702880859 22.142975072380821 -42.903386195373599
38.125000000000000 22.327675026025357 -42.903533276926794
29.546899795532227 22.742375402654702 -42.903863514018362
30.825199127197266 22.507875545671716 -42.903676775459374
27.540899276733398 23.707874974455116 -42.904632367360364
41.750400543212891 23.707874974455116 -42.904632367360364
25.938999176025391 24.507874911535389 -42.905269428880842
42.864299774169922 24.507874911535389 -42.905269428880842
24.781200408935547 25.522274118405008 -42.906077222320739
44.204200744628906 25.307874848615658 -42.905906490401314
24.372800827026367 25.707874340318785 -42.906225020781832
23.828100204467773 26.449773595442522 -42.906815815162680
45.217998504638672 26.107873832021912 -42.906543551162351
45.750000000000000 26.893573427261856 -42.907169224935032
23.171300888061523 26.907874722776199 -42.907180613442264
22.875000000000000 27.433473082126614 -42.907599161587640
32.705799102783203 27.307874214479327 -42.907499143822783
46.703098297119141 27.958672805739170 -42.908017392288627
22.138000488281250 28.107873197885585 -42.908136204583819
38.914100646972656 28.107873197885585 -42.908136204583819
21.921899795532227 28.779873869825263 -42.908671336838189
28.593799591064453 29.232073662360143 -42.909031435725744
21.410699844360352 29.307873580342996 -42.909091797244244
28.267400741577148 29.707873072046123 -42.909410327624762
27.640600204467773 30.205172108704318 -42.909806340256445
20.982599258422852 30.507872055452381 -42.910047388385806
27.258499145507813 30.907873454503537 -42.910365920285194
26.687500000000000 31.475072981693817 -42.910817596562225
20.317800521850586 31.707872437909792 -42.911002981046231
49.212501525878906 32.507871421316054 -42.911640041807267
26.170299530029297 32.907872820367203 -42.911958573706663
20.017799377441406 33.307872312070330 -42.912277104087181
25.734399795532227 33.564971382163705 -42.912481839008912
19.553199768066406 34.507870787179719 -42.913232695228736
25.404300689697266 35.707871169637130 -42.914188287889168
25.323900222778320 36.907871552094548 -42.915143880549593
19.442800521850586 38.107870027203930 -42.916099471691147
25.541400909423828 38.907870917958213 -42.916736533971061
19.754999160766602 39.707869901364475 -42.917373594732098
20.015600204467773 40.041169432526587 -42.917639010135595
25.734399795532227 40.052270198049854 -42.917647849974493
26.424200057983398 41.307869775525006 -42.918647717773048
42.890598297119141 41.534569532747270 -42.918828244902279
49.143100738525391 41.307869775525006 -42.918647717773048
20.400299072265625 42.107870666279297 -42.919284780052955
26.687500000000000 42.214869075957012 -42.919369985771603
42.371200561523438 42.107870666279297 -42.919284780052955
20.968799591064453 42.854067176510235 -42.919878996453917
27.107400894165039 42.507868250634395 -42.919603308914603
41.937500000000000 43.048170355933074 -42.920033566049341
28.051200866699219 43.707868633091806 -42.920558901575035
