-48.379035949707 -74.581542968750 -78.122276306152 6.730329513550
22.214691162109 -68.688072204590 -248.382247924805 1.973673224449
54.408126831055 -58.344242095947 -96.116157531738 4.510754108429
48.224445343018 -53.844051361084 -88.711799621582 8.794084548950
0.005199119449 -83.746208190918 -254.281051635742 1.631893754005
-79.643020629883 -87.587989807129 -95.460403442383 2.492979526520
58.647789001465 -68.698257446289 -82.451850891113 3.118599414825
67.808410644531 -61.806518554688 -90.768981933594 2.917325735092
7.459022521973 -87.585632324219 -264.371398925781 1.922609329224
25.723165512085 -61.740577697754 -266.574340820313 0.983837306499
-46.354190826416 -68.538215637207 -39.637168884277 7.173570632935
76.568916320801 -76.649139404297 -91.694038391113 2.500749826431
-76.321197509766 -70.756378173828 -55.022975921631 4.470387935638
-118.424346923828 -72.842872619629 -287.975250244141 1.662454128265
-119.104248046875 -64.208343505859 -285.010559082031 4.462771892548
-143.957641601563 -65.584945678711 -266.632995605469 2.589711189270
-152.036727905273 -62.974189758301 -260.956542968750 1.273249268532
-147.476669311523 -88.640525817871 -284.833496093750 2.061314582825
-140.438812255859 -85.737358093262 -287.593597412109 2.051132678986
-95.076751708984 -59.818832397461 -79.060119628906 4.270309448242
66.370452880859 -74.255233764648 -230.807846069336 3.457611083984
-155.266494750977 -83.592697143555 -278.222991943359 4.850317001343
-158.969512939453 -68.357963562012 -274.490661621094 1.994950652122
-166.963485717773 -69.867454528809 -267.501098632813 2.506179809570
-64.466316223145 -74.709762573242 -100.957359313965 3.687390804291
-148.769073486328 -80.181350708008 -270.257080078125 1.464197397232
23.856111526489 -75.655555725098 -168.238021850586 2.155017852783
16.209915161133 -78.113136291504 -175.729370117188 1.914074182510
-94.803421020508 -70.616676330566 -71.269020080566 1.250512480736
19.161836624146 -80.947425842285 -180.237350463867 3.032632589340
69.384796142578 -69.255798339844 -236.408187866211 1.324244499207
-153.576477050781 -71.441757202148 -274.835876464844 0.820699512959
-60.862174987793 -80.663536071777 -92.126846313477 2.152865409851
-166.655700683594 -68.270103454590 -286.558502197266 1.835998654366
-142.026397705078 -79.192237854004 -288.841766357422 0.838045597076
-150.265563964844 -88.310852050781 -280.819091796875 2.093775749207
-149.486801147461 -84.009040832520 -286.852142333984 0.946740627289
-79.899093627930 -70.970161437988 -107.711929321289 3.349261045456
-80.553306579590 -65.355163574219 -109.315475463867 2.108621120453
16.940048217773 -62.822998046875 -141.483200073242 1.059802770615
-134.394805908203 -58.768463134766 -264.168243408203 6.122610569000
98.069915771484 -58.025463104248 -67.110610961914 2.679813385010
33.401596069336 -65.397315979004 -133.642791748047 2.048283576965
23.697633743286 -61.043579101563 -134.850845336914 1.862907171249
91.786483764648 -72.696662902832 -78.139694213867 3.219339370728
-74.105751037598 -81.806510925293 -65.361289978027 4.055275440216
-154.140289306641 -71.686798095703 -310.668151855469 1.944199800491
-156.586410522461 -76.239242553711 -306.412170410156 2.197041034698
78.733711242676 -72.990486145020 -75.933860778809 1.994977712631
-143.460128784180 -83.757698059082 -290.917419433594 1.469730854034
-52.091110229492 -86.621398925781 -198.783340454102 3.103848934174
-142.475952148438 -82.605552673340 -285.899230957031 2.429853439331
-143.980300903320 -83.800949096680 -292.052276611328 1.831080913544
-149.523513793945 -84.726493835449 -302.402770996094 1.897563934326
-62.235565185547 -81.250793457031 -204.221313476563 2.701887607574
-148.679733276367 -69.169143676758 -306.118041992188 2.782732963562
24.978124618530 -70.961532592773 -131.204025268555 4.383078575134
20.611400604248 -64.742889404297 -141.782394409180 1.024631023407
-76.094406127930 -63.249832153320 -112.277549743652 1.824810266495
-79.255035400391 -61.556751251221 -107.860832214355 2.087360620499
97.221893310547 -65.544303894043 -68.383323669434 1.332766056061
-82.549430847168 -66.906654357910 -113.780776977539 1.201432704926
-53.032154083252 -76.175140380859 -70.573608398438 4.859666824341
-63.130096435547 -79.002296447754 -73.020889282227 3.117844343185
-26.893911361694 -84.250366210938 -181.439834594727 2.849476575851
-39.553348541260 -66.974723815918 -153.515335083008 3.184906005859
-33.645503997803 -85.991699218750 -188.332427978516 2.259293317795
-18.666034698486 -62.586208343506 -197.939178466797 4.968238830566
-42.911750793457 -65.801086425781 -150.853546142578 3.882341861725
-12.631957054138 -64.393814086914 -195.488372802734 6.175256729126
-28.052507400513 -87.208770751953 -194.213836669922 5.342445850372
-104.906913757324 -67.853157043457 -228.169738769531 1.361477613449
-42.939712524414 -82.307533264160 -197.419952392578 1.579675197601
16.197559356689 -78.131195068359 -262.260833740234 2.988485574722
32.088737487793 -72.135040283203 -265.711334228516 5.216944694519
9.728924751282 -84.081367492676 -256.211700439453 1.537760019302
22.300621032715 -64.333786010742 -256.275207519531 2.159500598907
-1.542118072510 -80.965675354004 -257.325927734375 2.279517650604
-40.058494567871 -78.843635559082 -202.437255859375 0.840633571148
-93.401184082031 -77.460960388184 -216.713851928711 1.716516971588
-44.491664886475 -86.385803222656 -69.588737487793 5.061697959900
111.634712219238 -82.969131469727 -148.017257690430 5.599175453186
4.692173957825 -84.558486938477 -244.189498901367 5.667534351349
-52.264404296875 -83.815383911133 -203.320449829102 1.441318988800
-152.149612426758 -70.542610168457 -175.291397094727 0.924478232861
-55.096672058105 -75.201187133789 -73.815025329590 6.781364917755
-153.849151611328 -70.674629211426 -181.026565551758 2.211066961288
-147.716323852539 -64.499191284180 -175.977569580078 0.990423560143
3.695717573166 -62.531627655029 -255.708969116211 2.494341373444
57.559581756592 -71.322898864746 -104.014533996582 1.476085066795
-57.078067779541 -85.439361572266 -203.103027343750 1.336274981499
-69.889739990234 -65.551933288574 -103.708595275879 1.801208138466
-76.295112609863 -69.258262634277 -106.492599487305 2.076899051666
30.760725021362 -77.976181030273 -152.626571655273 1.951440811157
-146.042282104492 -84.814170837402 -252.491867065430 1.920484185219
-150.350967407227 -82.130340576172 -254.901260375977 1.329665184021
-169.343078613281 -74.851768493652 -245.496643066406 5.150507450104
80.421279907227 -76.277069091797 -235.853530883789 4.086734294891
-148.149658203125 -67.835861206055 -275.628021240234 3.298634529114
-89.062965393066 -73.743820190430 -68.426330566406 3.864154338837
-141.880050659180 -87.063873291016 -256.957733154297 3.112042427063
-132.747100830078 -68.804931640625 -288.075714111328 2.015479564667
-153.539443969727 -58.540779113770 -277.749023437500 6.537041664124
-164.900375366211 -73.477668762207 -291.574279785156 1.244154691696
-148.237274169922 -81.937461853027 -300.348510742188 2.301943063736
-101.393363952637 -67.628273010254 -253.849441528320 2.398767709732
97.244949340820 -74.300399780273 -209.285797119141 1.734773397446
-129.675857543945 -74.392768859863 -257.868804931641 2.486940383911
-55.571178436279 -73.741012573242 -56.619365692139 2.134772539139
-116.535827636719 -69.329368591309 -257.625244140625 1.984466195107
-116.093482971191 -66.031776428223 -257.942077636719 1.600111126900
-91.330619812012 -74.041206359863 -90.983695983887 3.214394807816
-141.524383544922 -83.970451354980 -258.699890136719 1.210898518562
14.870381355286 -80.288955688477 -276.734649658203 2.443081140518
58.080234527588 -74.377586364746 -101.902717590332 3.051064491272
72.646781921387 -67.204933166504 -71.762962341309 2.886786460876
-1.526697516441 -84.660469055176 -266.313964843750 0.697233200073
-165.018310546875 -72.682533264160 -255.708114624023 1.217926025391
12.774194717407 -66.593002319336 -151.951766967773 0.660117626190
84.798599243164 -63.342948913574 -103.763885498047 2.596961498260
-135.013107299805 -77.058357238770 -282.356384277344 4.488978862762
-138.238601684570 -81.647949218750 -261.684509277344 2.665765047073
81.682624816895 -64.950492858887 -231.042968750000 5.809741020203
-144.171691894531 -66.079444885254 -273.406768798828 3.465817213058
-136.777877807617 -66.921325683594 -289.035614013672 1.813729047775
-155.650985717773 -70.983856201172 -277.965942382813 3.105189323425
-150.783584594727 -85.248733520508 -262.758972167969 1.456238746643
-155.186920166016 -66.604217529297 -277.109436035156 4.220293521881
-168.866256713867 -68.585815429688 -260.412231445313 1.633120417595
-133.432769775391 -66.903755187988 -294.547637939453 3.207229137421
29.042140960693 -71.891227722168 -174.695526123047 1.594228982925
16.372690200806 -79.021179199219 -152.347808837891 6.982854843140
-68.369178771973 -78.987358093262 -100.256607055664 2.816311120987
9.189828872681 -70.590354919434 -150.343124389648 0.622377276421
30.619682312012 -68.698158264160 -162.361694335938 2.389132022858
89.720901489258 -69.417022705078 -106.281753540039 1.583387851715
88.750991821289 -66.100463867188 -67.886535644531 2.538681268692
42.428268432617 -77.007049560547 -109.250137329102 1.001594305038
-55.929367065430 -82.845291137695 -205.688720703125 1.202671051025
54.728416442871 -68.638351440430 -102.784812927246 1.745289921761
4.666971206665 -83.929450988770 -267.965637207031 2.343821287155
-91.990844726563 -68.552749633789 -91.952987670898 4.497375488281
1.497572422028 -85.711639404297 -268.380889892578 2.396096467972
-68.405632019043 -82.529144287109 -68.800773620605 2.052533149719
3.617971420288 -84.552978515625 -277.804870605469 3.227138996124
-78.673271179199 -84.326011657715 -83.645240783691 3.007611751556
6.937561035156 -77.229263305664 -283.913848876953 2.050302743912
27.440469741821 -67.938262939453 -268.530548095703 2.857887506485
-64.326309204102 -79.998298645020 -205.573959350586 1.155564785004
-54.041248321533 -85.674835205078 -212.809295654297 6.889784336090
59.197658538818 -76.532745361328 -91.618171691895 2.538390874863
41.714187622070 -76.472900390625 -110.513946533203 1.138838052750
1.290724277496 -86.123916625977 -270.794586181641 2.514249086380
-75.259780883789 -69.408973693848 -103.153381347656 1.849540948868
-129.064407348633 -66.092300415039 -260.364166259766 2.785524606705
-82.321815490723 -78.242599487305 -81.557754516602 2.891876697540
-148.563858032227 -81.343399047852 -296.618041992188 2.189558029175
-153.285781860352 -78.439178466797 -282.567260742188 2.050370216370
-80.668411254883 -81.744300842285 -86.734992980957 2.246965408325
-147.332855224609 -78.485786437988 -291.653411865234 3.385697364807
-164.066131591797 -72.913719177246 -280.818969726563 4.026047229767
-147.620849609375 -70.402496337891 -305.451660156250 3.051626682281
-66.140991210938 -84.668121337891 -84.156204223633 1.515372395515
-124.697624206543 -71.978660583496 -263.051086425781 1.900968432426
-126.963882446289 -64.232902526855 -265.646697998047 2.245674610138
-53.928710937500 -82.946815490723 -75.338096618652 2.426269054413
122.003143310547 -71.422470092773 -142.765670776367 4.956647872925
112.770286560059 -74.223251342773 -139.845016479492 1.263560533524
-38.640773773193 -86.690345764160 -82.234138488770 4.911813735962
13.234533309937 -72.834358215332 -291.118011474609 1.442387580872
12.956271171570 -66.689796447754 -283.951660156250 3.872586011887
-102.798156738281 -69.393936157227 -164.388412475586 1.740612864494
-60.182495117188 -82.312614440918 -209.741546630859 1.394306898117
-62.924629211426 -78.433830261230 -203.894989013672 3.175423860550
53.523330688477 -73.523948669434 -107.997253417969 1.238205909729
-72.505050659180 -59.683761596680 -113.039566040039 1.379323840141
41.164142608643 -80.295257568359 -107.565834045410 2.110800743103
108.288055419922 -71.127784729004 -167.441528320313 1.347778677940
-75.562110900879 -80.115470886230 -92.461570739746 4.528997898102
-74.025909423828 -84.763969421387 -85.697143554688 3.150501728058
-153.317276000977 -73.421501159668 -177.600479125977 2.532394647598
-154.299438476563 -66.282539367676 -176.086837768555 3.024755716324
-73.823966979980 -68.086921691895 -105.254203796387 2.321115970612
-148.052017211914 -63.858715057373 -179.161926269531 1.414020538330
1.837787747383 -62.994327545166 -270.262481689453 1.240373611450
-142.646118164063 -64.891883850098 -170.641830444336 4.267223834991
-64.101722717285 -84.170776367188 -72.898536682129 1.700768351555
-117.369773864746 -75.423843383789 -251.476638793945 4.464074611664
-55.127777099609 -71.468528747559 -51.912372589111 2.375634431839
97.162178039551 -77.304740905762 -198.044784545898 1.491845965385
-39.857330322266 -78.665977478027 -200.163650512695 1.173189520836
-52.477504730225 -84.491889953613 -183.782470703125 3.630063295364
-88.606079101563 -79.378234863281 -86.500427246094 3.758534908295
64.205810546875 -71.715286254883 -94.678634643555 3.154615402222
-138.291015625000 -73.907409667969 -288.639709472656 3.090034961700
-121.545333862305 -70.887527465820 -256.425537109375 1.077249526978
-81.304153442383 -80.586944580078 -98.855979919434 3.869967460632
-157.757446289063 -76.913162231445 -292.253448486328 2.624025821686
-141.364746093750 -76.263053894043 -304.260162353516 1.975160479546
-143.689865112305 -67.340827941895 -284.887756347656 2.116776704788
-145.591125488281 -66.656608581543 -294.861175537109 1.009314179420
-150.838516235352 -72.669319152832 -286.455383300781 1.876910567284
57.049091339111 -67.049102783203 -85.685424804688 1.130251288414
52.608436584473 -62.149005889893 -91.766723632813 1.265194773674
51.806652069092 -64.502296447754 -92.002746582031 1.462422013283
-142.364852905273 -70.377960205078 -282.721649169922 2.046731710434
-144.370605468750 -65.106834411621 -294.163391113281 1.194511055946
64.209175109863 -61.936992645264 -83.773078918457 0.065174438059
46.508739471436 -66.224357604980 -95.418777465820 1.937628984451
87.776634216309 -59.891155242920 -57.876842498779 1.920149564743
-107.936164855957 -70.186721801758 -256.648529052734 2.690110921860
-84.346954345703 -80.822036743164 -97.515151977539 1.103459119797
-85.050102233887 -82.082023620605 -98.454711914063 1.489528417587
33.777698516846 -60.892810821533 -256.481140136719 2.850891113281
-6.813939094543 -72.463035583496 -289.834014892578 2.641302108765
-8.641052246094 -76.080200195313 -292.197113037109 1.962541103363
-0.342502176762 -64.286468505859 -293.460754394531 2.791299343109
24.088562011719 -74.010131835938 -260.664520263672 0.605035543442
-5.079619407654 -67.305023193359 -288.916717529297 1.863421201706
113.199935913086 -68.831947326660 -164.778320312500 1.625469446182
-21.857494354248 -78.558044433594 -183.537750244141 1.637108683586
24.330127716064 -67.517654418945 -138.768478393555 2.520430088043
31.826843261719 -65.310348510742 -130.540283203125 2.782417058945
-32.258003234863 -70.846008300781 -154.474044799805 4.915779113770
-21.072389602661 -83.088218688965 -180.275329589844 1.175650835037
-106.248855590820 -68.542251586914 -233.021957397461 4.388439178467
-22.391485214233 -80.864227294922 -183.589447021484 1.588638067245
-40.118167877197 -73.777084350586 -153.574966430664 2.431782007217
-115.655120849609 -65.862495422363 -233.862808227539 1.363360643387
-39.129531860352 -84.445930480957 -189.463394165039 3.595653533936
-48.515029907227 -78.874328613281 -194.661697387695 1.565143465996
-55.089099884033 -86.619949340820 -198.955749511719 3.206977605820
-39.587173461914 -81.681121826172 -66.061080932617 2.910520553589
-45.071056365967 -82.784271240234 -71.282028198242 1.901091337204
-152.008911132813 -80.428749084473 -228.633483886719 1.399791955948
-134.085647583008 -77.643959045410 -197.583999633789 1.704338908195
-143.822845458984 -81.969352722168 -215.943634033203 1.894961118698
-59.888545989990 -60.482574462891 -138.205291748047 1.309413790703
-48.348419189453 -67.707405090332 -143.112228393555 1.773915290833
-23.227800369263 -68.303970336914 -243.799652099609 5.101353168488
-153.689559936523 -85.837524414063 -220.669113159180 5.828100681305
8.726351737976 -74.943740844727 -214.597793579102 1.604051351547
14.180943489075 -80.240951538086 -210.369674682617 0.677344024181
-31.311861038208 -77.829963684082 -237.255432128906 2.387596607208
-148.614852905273 -83.064140319824 -223.357803344727 1.235143661499
-144.134170532227 -84.269294738770 -223.706954956055 2.116142034531
-140.512451171875 -90.461502075195 -231.050399780273 7.224936008453
-18.859006881714 -74.489822387695 -214.584045410156 2.709376573563
-149.200515747070 -84.944793701172 -229.720397949219 1.998990178108
-165.483947753906 -67.366828918457 -231.251510620117 1.592665910721
16.392847061157 -73.411880493164 -185.313323974609 2.750951051712
36.573257446289 -74.913154602051 -149.129806518555 1.918454766273
-144.343399047852 -84.947738647461 -228.173294067383 2.095414400101
-145.547332763672 -83.719299316406 -237.332046508789 2.718941450119
-142.971603393555 -82.975555419922 -238.964355468750 1.266978144646
-148.549057006836 -83.302780151367 -231.525650024414 1.264637231827
-168.232681274414 -65.547393798828 -234.995330810547 4.251806735992
10.143843650818 -65.715522766113 -217.105331420898 2.338836431503
-24.689115524292 -83.381294250488 -216.232513427734 2.849006891251
-140.182876586914 -79.211174011230 -239.886383056641 5.097054481506
-78.175537109375 -72.282135009766 -212.198791503906 1.156869411469
10.214332580566 -68.196495056152 -156.526275634766 0.996643066406
-51.946907043457 -72.806076049805 -238.804306030273 4.614897727966
-54.512935638428 -81.628433227539 -241.057922363281 1.731702446938
20.139390945435 -67.504753112793 -174.507690429688 1.213210701942
-164.641983032227 -70.714797973633 -263.513549804688 2.389002561569
97.573448181152 -74.555175781250 -97.944793701172 2.596242189407
-134.614440917969 -70.244422912598 -286.354156494141 1.520461201668
-147.846084594727 -65.908912658691 -280.414764404297 2.062507867813
16.067321777344 -69.058280944824 -148.446517944336 2.272359848022
27.882266998291 -70.096450805664 -166.159332275391 1.700672268867
72.507202148438 -71.987243652344 -92.132484436035 1.574409008026
-146.135833740234 -78.277290344238 -253.878158569336 2.372208356857
29.328273773193 -66.342185974121 -172.326446533203 1.818386673927
9.948684692383 -71.892143249512 -149.300506591797 1.598858475685
64.928443908691 -65.913063049316 -87.265968322754 1.075125336647
-147.261795043945 -83.672706604004 -259.812866210938 0.579790174961
-170.235763549805 -75.494667053223 -256.879943847656 5.200044155121
-149.582672119141 -89.421310424805 -259.520965576172 4.490610599518
8.005486488342 -57.080097198486 -282.381042480469 1.380939841270
71.682189941406 -61.538642883301 -66.705734252930 3.229308605194
-49.035560607910 -78.208282470703 -71.130523681641 2.270033121109
16.584907531738 -81.658729553223 -255.069717407227 1.612723350525
-73.953262329102 -75.150825500488 -252.174667358398 0.976193845272
32.630973815918 -65.599273681641 -251.787826538086 3.884088516235
115.087181091309 -73.831176757813 -155.898132324219 1.849175333977
11.113906860352 -76.141258239746 -174.922119140625 6.713399410248
-160.311721801758 -71.455139160156 -258.028747558594 3.124137401581
-149.530517578125 -79.975860595703 -263.345794677734 1.786328196526
13.187423706055 -70.475463867188 -184.125823974609 1.965713739395
1.552455186844 -81.622138977051 -268.989532470703 3.020249843597
9.478832244873 -79.210006713867 -293.005065917969 2.721079826355
86.115303039551 -76.911132812500 -97.471000671387 1.789718627930
81.163276672363 -68.674034118652 -102.827552795410 1.715147495270
-1.585443615913 -77.541572570801 -277.367950439453 2.719067811966
7.573494911194 -82.700866699219 -271.594940185547 1.774707913399
49.119667053223 -75.708267211914 -110.741622924805 1.431401610374
-87.452972412109 -78.477188110352 -215.579284667969 1.205058455467
30.571212768555 -67.434417724609 -266.919281005859 3.560413599014
67.179794311523 -71.641456604004 -233.536437988281 1.865175366402
40.481594085693 -73.952766418457 -104.448936462402 0.505106925964
-88.578231811523 -82.663948059082 -107.452941894531 2.139574766159
-2.601111412048 -80.133270263672 -266.064300537109 4.214940547943
43.876407623291 -70.093658447266 -113.660995483398 1.228369593620
3.466456651688 -55.661571502686 -253.910598754883 3.691885232925
-52.817802429199 -80.625831604004 -95.567474365234 3.961531162262
-156.389984130859 -78.013137817383 -262.079040527344 3.359755754471
-159.127807617188 -76.243118286133 -259.446960449219 3.344344615936
-149.041229248047 -84.374153137207 -278.062988281250 1.377140760422
-166.568771362305 -66.635261535645 -281.566070556641 4.931558132172
72.346771240234 -70.125007629395 -103.472015380859 2.175228595734
-148.499618530273 -65.201873779297 -258.091278076172 2.207729339600
-85.506103515625 -62.307758331299 -55.305744171143 4.163162231445
-147.757904052734 -62.787994384766 -259.896636962891 1.159895896912
33.399532318115 -68.700851440430 -149.536682128906 2.375704526901
-153.584381103516 -82.496208190918 -268.221527099609 2.889998197556
-154.588073730469 -79.091651916504 -272.548736572266 1.868985772133
-143.672744750977 -72.006408691406 -251.982955932617 2.055886268616
21.534744262695 -74.455909729004 -160.244476318359 1.926990628242
29.309743881226 -65.479690551758 -151.053207397461 3.626548767090
-165.363189697266 -66.956344604492 -270.689147949219 3.136548757553
-156.586166381836 -68.695503234863 -271.774444580078 2.115466833115
-128.862899780273 -70.057128906250 -258.538452148438 4.561012744904
48.043426513672 -63.779056549072 -104.660461425781 2.733631849289
-162.854812622070 -70.211387634277 -305.439025878906 6.807622909546
31.871263504028 -72.356231689453 -119.429214477539 1.182666182518
-34.707042694092 -78.399368286133 -184.602447509766 2.554110050201
-90.240409851074 -82.040664672852 -103.641761779785 3.322869300842
-149.205993652344 -79.070602416992 -295.414245605469 2.235947608948
-30.675914764404 -83.866416931152 -174.306549072266 4.443020820618
-142.764785766602 -83.565544128418 -285.876129150391 1.855425596237
-64.009040832520 -78.752632141113 -213.068481445313 3.597240209579
-144.551010131836 -76.089118957520 -292.453918457031 1.681678056717
-56.192573547363 -85.905952453613 -202.582641601563 0.655352830887
-58.369029998779 -83.812149047852 -200.444015502930 2.462924957275
-43.970947265625 -77.981567382813 -186.587066650391 1.497367262840
-153.997436523438 -73.095848083496 -295.638183593750 1.698332309723
-57.046249389648 -88.126976013184 -208.521759033203 5.332115173340
-154.105133056641 -66.281616210938 -308.211273193359 2.363123178482
-85.654586791992 -67.823623657227 -104.781806945801 0.959546387196
-64.557655334473 -78.093750000000 -80.808998107910 5.865270614624
-47.046840667725 -76.519477844238 -58.121562957764 0.495726406574
-86.199966430664 -81.495292663574 -101.696121215820 1.322531461716
14.323336601257 -84.352874755859 -255.319259643555 1.975527167320
-47.562767028809 -84.636596679688 -78.003089904785 0.660160839558
-50.204101562500 -78.572875976563 -79.097053527832 3.861247539520
-136.490676879883 -80.267494201660 -261.159576416016 1.903925776482
-33.599018096924 -75.575180053711 -165.097305297852 1.171200513840
-15.514594078064 -81.610641479492 -176.927490234375 1.599222660065
-12.209881782532 -72.131935119629 -174.446807861328 4.063803195953
92.604690551758 -75.639457702637 -72.201263427734 2.377038478851
-135.904144287109 -73.473930358887 -258.251647949219 1.483195066452
24.237928390503 -77.660430908203 -137.177169799805 2.324800491333
-147.746612548828 -81.395385742188 -303.629577636719 3.240330696106
-13.936921119690 -75.265190124512 -171.147506713867 3.679652452469
-153.789154052734 -70.969009399414 -313.460296630859 2.100067138672
31.197669982910 -75.784889221191 -133.272659301758 2.187514543533
26.753906250000 -71.878433227539 -133.495803833008 2.695359230042
84.306037902832 -75.310340881348 -80.047119140625 1.396862149239
-0.578682720661 -79.829917907715 -164.290008544922 0.697693109512
66.898155212402 -68.850669860840 -67.607208251953 3.862718105316
94.382369995117 -75.568267822266 -75.027992248535 1.860828995705
-39.200836181641 -77.467193603516 -66.467353820801 1.162149906158
-40.894912719727 -84.405097961426 -73.616050720215 2.690812349319
-163.377929687500 -74.595809936523 -288.069244384766 2.647220849991
-135.066925048828 -70.328987121582 -256.966278076172 0.839551091194
-101.361106872559 -75.358978271484 -218.327606201172 3.156623840332
-42.533580780029 -82.144531250000 -73.794792175293 1.551740765572
-40.173355102539 -75.216514587402 -209.712295532227 3.461754083633
78.011962890625 -66.810523986816 -225.167327880859 1.726298093796
-4.459074020386 -75.412559509277 -250.702438354492 3.317816972733
106.900146484375 -68.169372558594 -127.651962280273 1.355084180832
-62.692287445068 -65.622680664063 -95.033523559570 1.160061717033
60.485347747803 -57.551147460938 -71.019248962402 4.268802165985
95.138977050781 -70.400314331055 -80.239929199219 3.780114650726
-40.517959594727 -82.979225158691 -80.035392761230 1.859772562981
-35.991489410400 -79.206375122070 -244.008880615234 2.069509506226
-134.949508666992 -79.632041931152 -288.872009277344 1.986963748932
-73.326766967773 -77.241348266602 -212.389312744141 2.152722358704
-130.747222900391 -74.893218994141 -283.810150146484 0.303957581520
-74.217552185059 -84.460960388184 -75.211158752441 3.400980949402
20.623691558838 -60.534126281738 -141.589981079102 1.255807995796
-74.227188110352 -82.792007446289 -82.517127990723 2.111909151077
-85.603073120117 -68.331253051758 -108.864082336426 1.275937438011
56.845001220703 -59.546321868896 -98.275085449219 2.466846704483
-20.464120864868 -64.452690124512 -292.353271484375 7.818583488464
-77.541870117188 -82.376983642578 -78.817573547363 1.861197113991
-69.784889221191 -66.849227905273 -98.594573974609 1.173354148865
-88.385719299316 -68.140678405762 -112.612525939941 1.593008637428
46.993251800537 -66.211982727051 -98.280708312988 2.149213075638
-144.593139648438 -75.016937255859 -268.153320312500 2.774155378342
-129.451522827148 -71.603797912598 -280.322906494141 4.803325176239
-154.185256958008 -72.222656250000 -250.578018188477 2.000862360001
-156.430511474609 -75.445472717285 -251.350357055664 3.859860181808
-48.821826934814 -79.092895507813 -85.419769287109 1.573687911034
-150.533386230469 -75.327491760254 -259.010467529297 1.291198134422
-124.293548583984 -69.365562438965 -287.816284179688 1.006255745888
-131.193313598633 -63.382324218750 -288.127258300781 2.833331584930
-149.155685424805 -70.623649597168 -270.876129150391 4.525969982147
-155.631973266602 -60.945095062256 -267.891143798828 4.596665859222
-141.253723144531 -76.909477233887 -258.268646240234 0.965067744255
91.097465515137 -76.868949890137 -98.173568725586 2.714787006378
-67.977737426758 -78.405647277832 -103.408073425293 2.537833929062
-47.391716003418 -81.738235473633 -69.358596801758 2.163729190826
-79.392326354980 -80.687545776367 -107.111366271973 1.527091264725
49.551628112793 -70.934959411621 -97.833251953125 2.482452392578
53.706302642822 -69.084083557129 -91.892234802246 1.632053494453
-38.196243286133 -75.511390686035 -174.351516723633 2.032983541489
-149.623443603516 -73.472564697266 -290.227416992188 1.294739723206
-142.357391357422 -72.224060058594 -303.851531982422 1.678059577942
-145.505325317383 -78.238945007324 -302.389770507813 1.242704153061
70.350440979004 -69.253311157227 -69.720420837402 0.873276829720
64.948341369629 -65.367187500000 -78.409713745117 1.468760728836
59.802330017090 -66.071350097656 -84.621452331543 1.610570430756
35.305431365967 -70.377441406250 -109.929054260254 3.549027681351
-36.916019439697 -70.882888793945 -177.825393676758 1.414664030075
-121.319183349609 -64.715347290039 -263.197784423828 2.716202259064
-151.625381469727 -68.511108398438 -294.379913330078 1.531013011932
81.508934020996 -70.173637390137 -65.948493957520 2.042572498322
-28.274404525757 -63.053733825684 -177.758605957031 6.066133499146
-109.259216308594 -66.118919372559 -256.932342529297 1.993207097054
-116.659332275391 -64.506355285645 -260.465515136719 1.428704500198
46.213520050049 -65.563430786133 -98.327659606934 2.152337551117
61.898475646973 -68.412033081055 -81.774497985840 1.697817683220
87.762519836426 -65.173637390137 -59.073253631592 4.078529357910
-153.313827514648 -62.938575744629 -286.730346679688 1.017942547798
-147.023147583008 -64.044845581055 -295.245697021484 1.273780465126
-149.998153686523 -64.153205871582 -296.819976806641 1.119397759438
-11.583273887634 -80.532196044922 -181.905075073242 3.925830364227
-35.400352478027 -78.380371093750 -162.639266967773 1.235196232796
-13.491432189941 -82.406265258789 -179.078262329102 2.025462865829
17.206975936890 -76.619842529297 -218.282165527344 1.286626815796
-145.209228515625 -84.058898925781 -189.407272338867 1.972235202789
-38.941822052002 -76.926124572754 -153.093734741211 1.694177746773
-58.989040374756 -74.325866699219 -174.174835205078 2.075517892838
-8.814984321594 -78.091712951660 -211.980300903320 2.017627477646
25.486948013306 -81.535377502441 -245.604660034180 4.757554531097
-31.668094635010 -80.438468933105 -191.762176513672 1.095965504646
-2.635436296463 -66.110626220703 -234.318801879883 1.786381363869
-93.227333068848 -67.994316101074 -146.838836669922 0.820174396038
-41.505596160889 -74.058433532715 -198.560333251953 1.983852267265
-43.078594207764 -79.066688537598 -188.088150024414 2.399689435959
-45.682941436768 -81.080795288086 -192.266632080078 1.687098979950
-91.245872497559 -71.869461059570 -218.621826171875 1.647104144096
-42.049186706543 -76.839401245117 -55.928714752197 3.415534496307
12.994256973267 -72.795661926270 -248.579421997070 3.109225273132
-124.810470581055 -74.169425964355 -228.596191406250 1.793868184090
-148.264266967773 -72.876220703125 -198.055587768555 1.723323941231
-30.160926818848 -80.331092834473 -69.830261230469 1.076539635658
-152.081115722656 -76.445770263672 -188.267089843750 3.316691160202
-156.118515014648 -70.721496582031 -197.072753906250 2.480721473694
-128.201278686523 -65.376426696777 -222.366073608398 3.471075296402
-137.921249389648 -68.873863220215 -199.827636718750 3.232494115829
-142.744079589844 -58.940032958984 -197.003128051758 1.323725819588
-66.387550354004 -73.857467651367 -155.991088867188 0.816404283047
15.767616271973 -77.707221984863 -246.804061889648 2.271537542343
-69.282844543457 -70.284820556641 -146.555786132813 1.216174364090
-9.615957260132 -68.319519042969 -217.271621704102 0.462704867125
-68.276924133301 -72.943420410156 -248.010025024414 1.032032012939
-8.658333778381 -81.664909362793 -214.875671386719 0.868551969528
-86.603599548340 -62.082508087158 -117.265106201172 2.188690423965
-40.770385742188 -74.307861328125 -289.013366699219 2.251670122147
-21.210958480835 -70.297897338867 -61.977375030518 3.668415784836
-139.029129028320 -70.335731506348 -182.116836547852 2.385109901428
-142.149658203125 -60.311317443848 -181.621749877930 1.718307256699
-14.991044044495 -78.452720642090 -202.610702514648 1.100723743439
-148.227844238281 -70.853759765625 -188.391616821289 2.025120258331
-150.581115722656 -82.908233642578 -200.431869506836 1.020715355873
-153.748840332031 -67.923690795898 -186.050598144531 2.405650854111
-160.349822998047 -65.171989440918 -199.847869873047 1.104583859444
-148.199066162109 -59.257106781006 -191.087081909180 3.373431205750
-115.040046691895 -71.534515380859 -227.439224243164 1.128690600395
34.937240600586 -74.953834533691 -137.954711914063 1.338222265244
-51.468437194824 -76.971343994141 -190.801559448242 0.663416385651
-48.691688537598 -77.694686889648 -196.681076049805 1.391009211540
-143.368865966797 -87.895133972168 -204.311508178711 5.310909748077
-144.899124145508 -80.066482543945 -201.277084350586 2.788002729416
-146.683059692383 -81.547615051270 -206.954925537109 2.666517496109
-9.851474761963 -61.958068847656 -57.456623077393 1.909997582436
-48.164619445801 -76.482208251953 -284.808258056641 1.374049901962
-81.469421386719 -69.899856567383 -249.202621459961 1.134023308754
-104.164184570313 -69.712600708008 -229.911590576172 1.618950843811
-142.519088745117 -86.402626037598 -199.248275756836 3.696546554565
-146.063476562500 -68.913269042969 -189.440216064453 3.618983030319
-26.674348831177 -62.575260162354 -76.513534545898 5.740796566010
-149.658065795898 -65.351707458496 -187.931106567383 0.841464638710
-32.543361663818 -58.500133514404 -67.876708984375 2.474018812180
-34.917617797852 -78.613075256348 -197.537261962891 2.970280408859
-53.270683288574 -74.078002929688 -187.752258300781 2.461251020432
78.427406311035 -79.317001342773 -70.812858581543 5.920981884003
98.474777221680 -68.549224853516 -68.874679565430 2.599644422531
47.916549682617 -71.553016662598 -249.610671997070 1.284247159958
-70.520538330078 -78.295204162598 -75.480934143066 2.864317178726
9.709542274475 -79.662345886230 -277.491516113281 2.053794622421
11.139441490173 -75.592727661133 -279.597961425781 2.135388135910
-64.872261047363 -83.035545349121 -210.353775024414 1.943577051163
-88.149223327637 -71.075813293457 -85.318748474121 3.202369451523
-81.327476501465 -83.546676635742 -83.062416076660 2.622498750687
-100.856781005859 -71.016082763672 -222.858596801758 1.937578678131
-56.327682495117 -68.402244567871 -46.784515380859 2.078135013580
102.464401245117 -69.991722106934 -198.726821899414 2.667427778244
-116.400688171387 -62.555130004883 -201.387359619141 0.556413471699
-147.180358886719 -76.181243896484 -225.091888427734 2.099570989609
-145.649475097656 -75.154403686523 -216.789489746094 1.368646979332
13.260707855225 -78.500076293945 -187.613372802734 1.490002274513
-164.768676757813 -68.029518127441 -214.927413940430 2.109622478485
-10.470582008362 -62.447059631348 -245.748306274414 3.532311916351
-68.459678649902 -56.399951934814 -119.391098022461 1.814319372177
-146.691360473633 -79.524063110352 -215.536209106445 1.686190247536
24.124818801880 -68.134162902832 -198.948944091797 3.892505407333
-29.351558685303 -74.408821105957 -242.909103393555 2.836443185806
100.694244384766 -68.604194641113 -83.276107788086 0.950193405151
-3.143862724304 -70.446456909180 -242.080627441406 2.660197257996
-146.554367065430 -78.079505920410 -217.424667358398 1.284936547279
-113.088996887207 -61.419357299805 -198.996154785156 2.883188009262
-163.592025756836 -70.838424682617 -231.294845581055 2.345242977142
-153.932098388672 -79.401580810547 -231.269973754883 1.220801711082
-95.576698303223 -73.035491943359 -291.260192871094 1.298278331757
-153.189788818359 -71.096389770508 -248.512008666992 2.510543346405
-140.521331787109 -81.257568359375 -228.709976196289 1.211771965027
-151.813446044922 -69.084014892578 -247.564712524414 0.500762760639
5.871706008911 -77.453941345215 -245.056930541992 0.608910202980
12.916228294373 -75.276855468750 -241.646392822266 1.579653263092
9.838682174683 -78.793205261230 -237.509078979492 2.216261863708
-33.882068634033 -62.470542907715 -54.377567291260 7.330625057220
-24.926303863525 -82.928779602051 -217.040847778320 2.592185974121
-58.911079406738 -80.277778625488 -168.308975219727 2.226302385330
11.817318916321 -84.830337524414 -239.003265380859 2.540944576263
-14.057473182678 -71.678314208984 -205.966018676758 2.447271585464
34.856986999512 -80.982780456543 -117.107017517090 2.259869813919
36.453037261963 -73.247261047363 -108.978424072266 1.538112998009
8.359123229980 -82.727081298828 -245.031814575195 2.724825620651
14.806401252747 -83.224395751953 -237.275833129883 1.063482761383
-98.186485290527 -69.702674865723 -150.161972045898 0.954788088799
4.632025718689 -65.717536926270 -238.319946289063 1.736090064049
-143.674591064453 -81.026733398438 -209.877853393555 1.461392402649
-161.310791015625 -65.736282348633 -210.967498779297 2.492235660553
48.572811126709 -79.480453491211 -115.341873168945 3.286595344543
-133.891372680664 -69.612113952637 -225.079635620117 0.346548497677
34.689186096191 -79.983856201172 -122.129562377930 1.659161806107
-133.394287109375 -80.128067016602 -227.788314819336 1.863550186157
14.006480216980 -84.260108947754 -247.017105102539 1.352575778961
-96.366813659668 -66.546844482422 -142.210922241211 1.081575751305
4.803032875061 -64.740402221680 -235.329421997070 1.583821296692
-2.769796371460 -78.389900207520 -224.544616699219 1.522730827332
-68.621742248535 -72.572349548340 -158.292739868164 0.962939500809
-19.386892318726 -76.257629394531 -212.853713989258 2.041040182114
102.056358337402 -77.230400085449 -192.607650756836 0.423289090395
20.707349777222 -76.582939147949 -247.559555053711 2.004225969315
34.877452850342 -72.823883056641 -133.581970214844 2.616281986237
-78.687683105469 -60.375579833984 -111.720108032227 1.861572146416
19.898422241211 -84.083999633789 -238.313964843750 3.323494672775
-80.195281982422 -63.530303955078 -126.832489013672 0.555035710335
5.281688690186 -71.319427490234 -285.656005859375 3.397915363312
-1.988772153854 -79.369812011719 -258.409759521484 4.246067047119
-166.102584838867 -77.614425659180 -274.138366699219 3.362958431244
95.970695495605 -75.541236877441 -82.117317199707 2.294620275497
-145.035705566406 -72.083442687988 -256.266448974609 2.536611318588
81.179183959961 -72.065170288086 -99.077606201172 2.133647203445
82.149810791016 -71.697143554688 -103.322860717773 0.618019998074
-154.472808837891 -67.703315734863 -257.518615722656 1.727604269981
24.394517898560 -75.772933959961 -152.301620483398 1.494102954865
-140.202392578125 -79.717086791992 -260.337402343750 2.342903137207
37.874172210693 -74.596221923828 -150.517761230469 2.401997566223
87.341979980469 -77.721641540527 -90.265144348145 1.788799405098
-64.874732971191 -77.217201232910 -242.762588500977 3.748000383377
24.366060256958 -77.229316711426 -162.417755126953 1.298445463181
-147.735046386719 -81.139122009277 -259.930511474609 1.255541443825
-162.824844360352 -73.055282592773 -264.841156005859 2.022642850876
-149.381835937500 -79.160629272461 -261.452453613281 2.485833883286
-112.301109313965 -75.007652282715 -288.092681884766 1.196519851685
-154.793991088867 -63.287166595459 -261.978912353516 0.967173099518
-156.052810668945 -77.174102783203 -244.553955078125 4.450323104858
86.587432861328 -76.715400695801 -223.760559082031 1.489224553108
-150.212341308594 -84.664642333984 -254.904800415039 1.387341499329
-47.750270843506 -79.886459350586 -80.141937255859 4.163492202759
-6.749914169312 -86.726234436035 -260.277069091797 3.698518991470
21.887838363647 -59.432769775391 -39.776500701904 3.850143194199
-11.432529449463 -71.582656860352 -271.972412109375 2.118591308594
-1.952042579651 -71.731521606445 -267.356750488281 5.972442150116
-6.776759147644 -71.121177673340 -277.850250244141 3.869099378586
0.009579256177 -66.495101928711 -278.565338134766 1.700089454651
-63.202930450439 -71.748489379883 -246.674728393555 1.741661906242
-2.453311204910 -82.555038452148 -266.679840087891 2.141156911850
-6.729475975037 -76.996429443359 -262.313293457031 4.735594749451
47.021343231201 -63.283973693848 -97.649238586426 1.354514360428
10.254703521729 -81.777717590332 -275.173187255859 1.170204520226
-69.129348754883 -61.392032623291 -102.140838623047 2.431905031204
50.148571014404 -74.358337402344 -104.528709411621 1.157841563225
-87.298866271973 -76.486289978027 -100.717147827148 4.102531433105
103.359657287598 -79.344749450684 -168.958343505859 5.887613773346
-67.207313537598 -62.570941925049 -44.580619812012 1.985454797745
-64.092414855957 -77.634361267090 -204.371231079102 2.984499692917
-51.921031951904 -81.656066894531 -185.191040039063 1.273615717888
10.058105468750 -79.156906127930 -275.827026367188 1.722139596939
15.327131271362 -78.980415344238 -275.444519042969 2.182646512985
69.133071899414 -67.777793884277 -243.006683349609 3.178614616394
27.161500930786 -72.015235900879 -273.708160400391 5.592456340790
-134.338623046875 -79.165435791016 -287.706817626953 2.874904870987
-145.698410034180 -80.381980895996 -282.536132812500 1.490961790085
18.148654937744 -72.508354187012 -179.718170166016 2.556045055389
5.217651367188 -74.730995178223 -160.554016113281 2.275140285492
21.371103286743 -79.924003601074 -167.716659545898 3.073813915253
24.484519958496 -77.432319641113 -166.356246948242 1.973078846931
-155.641235351563 -67.452095031738 -274.126983642578 3.532325267792
-151.842773437500 -77.234771728516 -277.587310791016 1.361372709274
-66.959770202637 -77.788314819336 -91.397087097168 4.091988086700
-152.048858642578 -80.279922485352 -279.422882080078 2.147530317307
-154.647384643555 -68.288536071777 -282.793945312500 2.728467226028
-59.150150299072 -80.570709228516 -66.748443603516 1.145426154137
38.093784332275 -69.779060363770 -139.768280029297 3.036987543106
50.298255920410 -69.110809326172 -93.097488403320 1.835539579391
-64.301963806152 -80.889892578125 -78.218849182129 3.137881278992
58.904869079590 -65.483001708984 -99.400428771973 1.973883628845
-81.920318603516 -62.838966369629 -112.058204650879 1.143017292023
26.491760253906 -66.015449523926 -141.876266479492 1.778651595116
91.766288757324 -64.355438232422 -65.029708862305 3.105391502380
-40.291812896729 -74.392623901367 -210.549301147461 4.613509654999
-47.194751739502 -77.167350769043 -157.449295043945 1.512883067131
-16.348524093628 -72.893455505371 -188.280639648438 3.698951721191
-51.194583892822 -59.485443115234 -38.625400543213 5.689433574677
32.099006652832 -75.818656921387 -142.507080078125 2.251039743423
-82.939537048340 -76.648361206055 -254.614730834961 1.947614431381
36.186706542969 -78.424438476563 -146.422668457031 3.034182786942
-33.813255310059 -81.404708862305 -75.698509216309 1.150042772293
-139.094726562500 -76.296386718750 -184.449447631836 4.691865444183
-77.600204467773 -80.598953247070 -75.795173645020 2.405332088470
90.098838806152 -73.366996765137 -89.703582763672 3.552606821060
-48.846298217773 -82.386459350586 -79.455276489258 2.601945161819
-52.643222808838 -79.384422302246 -91.768020629883 1.705628633499
110.895957946777 -69.537536621094 -161.471206665039 2.203948497772
-89.023696899414 -77.774200439453 -93.059478759766 1.584880709648
-47.901821136475 -81.627479553223 -59.704792022705 4.585419178009
53.093299865723 -59.660217285156 -249.832626342773 4.606615543365
-45.126705169678 -75.211677551270 -203.621047973633 3.362964868546
58.457267761230 -61.549961090088 -93.155311584473 1.856196403503
-71.390037536621 -83.486015319824 -100.640625000000 1.741959929466
-28.600467681885 -77.424613952637 -187.703048706055 0.825243830681
-21.875907897949 -77.549270629883 -198.150650024414 1.345467448235
-37.895397186279 -81.349617004395 -186.002914428711 4.120526790619
-22.079050064087 -79.220207214355 -194.325439453125 0.739157080650
6.288907051086 -77.469337463379 -222.598678588867 1.771049499512
-2.558808565140 -79.212005615234 -225.793991088867 1.321927547455
7.428382873535 -77.802574157715 -218.828018188477 2.442483901978
16.308353424072 -75.158561706543 -223.890304565430 1.313888907433
-3.941338300705 -74.259376525879 -228.470703125000 1.942845106125
3.735563993454 -73.843742370605 -225.651138305664 1.632230997086
-48.084636688232 -77.769828796387 -181.536041259766 2.614667892456
-27.312469482422 -83.243431091309 -191.989334106445 2.775860786438
-43.816543579102 -82.803726196289 -166.063888549805 4.008213043213
-90.466041564941 -70.471839904785 -219.516891479492 1.483026504517
-45.640056610107 -70.671150207520 -196.852355957031 5.369462966919
-49.165855407715 -71.997131347656 -45.389762878418 2.871742486954
-46.505073547363 -78.837142944336 -181.519744873047 3.360209226608
-40.131282806396 -80.041893005371 -199.066406250000 1.355851531029
-145.585861206055 -72.325073242188 -199.328430175781 1.167603135109
-53.986980438232 -66.683319091797 -287.959594726563 3.398240566254
-145.092269897461 -79.954872131348 -192.820434570313 1.095951914787
-140.280014038086 -64.436393737793 -201.175674438477 0.897206962109
-126.596733093262 -62.700855255127 -228.803024291992 2.278251886368
-149.792785644531 -61.771514892578 -202.471557617188 1.474585533142
-145.828567504883 -53.468444824219 -203.533248901367 6.376483917236
-89.028625488281 -71.209701538086 -256.457305908203 1.654978513718
32.019515991211 -82.318138122559 -138.426788330078 2.002607345581
-145.523742675781 -74.945579528809 -192.915039062500 0.560923814774
32.002857208252 -81.237678527832 -130.329986572266 1.963790416718
49.609600067139 -71.126441955566 -117.447135925293 3.174396038055
-19.697154998779 -78.421188354492 -223.053375244141 0.704101741314
-138.181686401367 -79.103103637695 -197.226196289063 3.554421663284
32.263145446777 -63.465862274170 -37.753074645996 2.444578170776
113.448814392090 -62.837955474854 -101.815666198730 6.819066047668
-52.742733001709 -75.192436218262 -188.019958496094 1.573788881302
-38.153213500977 -82.108886718750 -197.418731689453 0.787236869335
2.864356040955 -63.113075256348 -278.243072509766 2.672405004501
-136.593505859375 -86.784774780273 -196.288238525391 4.656311035156
19.398574829102 -78.888725280762 -237.094940185547 2.756911039352
40.128864288330 -71.803680419922 -136.574295043945 2.964742183685
-106.386116027832 -74.313308715820 -226.323989868164 2.793764829636
-17.834634780884 -71.875350952148 -193.688201904297 2.273929595947
-41.365295410156 -69.615791320801 -161.399444580078 1.627437710762
-17.706979751587 -78.662368774414 -198.756530761719 0.831718802452
-82.605812072754 -68.377708435059 -119.505203247070 2.095771312714
-67.216056823730 -67.755599975586 -45.223400115967 2.547275066376
-36.853828430176 -74.147224426270 -210.612335205078 3.190563917160
-44.075675964355 -63.617668151855 -154.589370727539 4.015155792236
45.498779296875 -72.673263549805 -123.322128295898 1.762700676918
-147.271438598633 -81.421844482422 -199.779586791992 1.168796777725
-163.023223876953 -65.763290405273 -209.337585449219 1.788512468338
38.604396820068 -71.996246337891 -140.121582031250 1.042874932289
38.921863555908 -77.362030029297 -132.581237792969 1.752880811691
-28.575864791870 -71.844451904297 -213.398437500000 0.601962268353
42.040641784668 -77.054634094238 -119.368164062500 1.468307137489
47.295818328857 -74.523796081543 -120.438873291016 1.779104232788
-94.234146118164 -64.514747619629 -141.818328857422 1.234434247017
-0.742250025272 -70.746246337891 -239.596603393555 1.448714494705
-135.182525634766 -78.034774780273 -232.216857910156 1.600683331490
40.385070800781 -81.440589904785 -114.681571960449 2.081440448761
-133.840759277344 -63.081390380859 -228.646545410156 1.220896124840
-143.176773071289 -80.411773681641 -205.102447509766 0.889865458012
-159.192306518555 -63.838191986084 -210.282516479492 3.800315618515
32.584453582764 -71.514373779297 -135.310516357422 2.637208223343
-84.134864807129 -71.103385925293 -243.838226318359 5.778754711151
115.658576965332 -71.368202209473 -188.410583496094 6.712959289551
-145.060791015625 -74.594772338867 -208.576522827148 3.053871393204
-108.876731872559 -67.754386901855 -228.896179199219 1.587180972099
-166.463333129883 -69.210952758789 -211.948242187500 1.591513752937
40.207126617432 -77.559600830078 -112.798278808594 1.602370977402
46.053005218506 -79.341827392578 -119.537918090820 2.056633472443
-123.307563781738 -66.891578674316 -232.411392211914 2.206609249115
-27.661943435669 -71.575454711914 -195.907409667969 1.393593430519
-23.731754302979 -80.233612060547 -195.675567626953 1.053146243095
13.596393585205 -84.129371643066 -225.961685180664 3.120388984680
11.378361701965 -79.380195617676 -227.677795410156 1.220711827278
-20.840768814087 -74.236289978027 -199.213363647461 2.001874208450
-143.757141113281 -80.530410766602 -208.328018188477 2.798861980438
7.284395217896 -79.522598266602 -228.413284301758 1.800501585007
13.447189331055 -76.956855773926 -229.679748535156 2.027867317200
-23.244041442871 -76.317649841309 -193.201751708984 1.864924192429
6.245417594910 -59.327167510986 -235.222915649414 3.790703296661
