43.263244628906 -70.973190307617 -21.454591751099 1.081213116646
18.599439620972 -75.329467773438 -23.807811737061 3.980777978897
48.320117950439 -70.553962707520 -25.255353927612 1.562654256821
45.858566284180 -74.013122558594 -35.285022735596 0.930430650711
86.478660583496 -73.717353820801 -70.209953308105 1.039853096008
94.417938232422 -75.658493041992 -73.910171508789 2.588503599167
100.112686157227 -73.736793518066 -78.090507507324 1.789649963379
97.196739196777 -74.593132019043 -83.456886291504 2.468420505524
55.606884002686 -74.171897888184 -89.582351684570 2.782062053680
44.391277313232 -78.039741516113 -91.417633056641 6.174893856049
62.263347625732 -72.291625976563 -90.928077697754 1.843281984329
-66.216056823730 -68.330833435059 -93.947425842285 3.062544107437
69.736450195313 -72.967514038086 -87.944801330566 0.616233587265
99.908004760742 -68.044189453125 -98.898101806641 1.554342150688
73.477165222168 -74.292961120605 -101.226783752441 2.726927995682
93.276725769043 -72.924507141113 -102.589073181152 2.080077886581
-85.596092224121 -71.221450805664 -104.375411987305 3.320488691330
44.108501434326 -71.986846923828 -98.394035339355 1.672276973724
-87.538467407227 -71.605552673340 -103.202896118164 5.121139049530
50.120201110840 -74.423721313477 -110.605476379395 1.851801872253
36.632377624512 -77.813369750977 -103.942207336426 3.888367652893
101.118469238281 -73.196403503418 -103.282867431641 2.581653594971
36.159622192383 -72.551078796387 -106.284942626953 3.985654592514
41.573581695557 -73.898704528809 -118.864318847656 3.003379583359
41.728553771973 -72.664222717285 -113.361732482910 1.876315474510
109.077606201172 -72.973663330078 -112.367248535156 1.305785775185
-82.378143310547 -74.216659545898 -122.461891174316 3.601532936096
111.160507202148 -77.358062744141 -123.987770080566 2.658063173294
39.089202880859 -69.401321411133 -125.085212707520 2.922120571136
39.538490295410 -72.095115661621 -120.568267822266 1.837348222733
33.971328735352 -73.084747314453 -121.247337341309 1.804616212845
-56.809917449951 -74.870780944824 -130.382019042969 2.346250057220
29.179084777832 -71.718910217285 -123.858337402344 1.431540727615
-78.345245361328 -68.756851196289 -138.735809326172 1.232520699501
-56.409709930420 -74.028160095215 -133.429992675781 1.463163256645
-80.464164733887 -68.342208862305 -135.813293457031 2.268799066544
34.586441040039 -70.869552612305 -131.123794555664 1.545346975327
-60.652610778809 -71.816413879395 -134.456420898438 3.043573617935
34.132854461670 -71.954711914063 -133.764434814453 2.569169282913
-72.946472167969 -68.716613769531 -140.531845092773 0.564470052719
-60.209819793701 -68.439216613770 -141.604034423828 1.619488358498
24.661682128906 -73.168617248535 -143.083328247070 1.297764420509
109.823318481445 -76.692138671875 -143.179702758789 2.469087600708
114.297554016113 -70.458610534668 -137.179199218750 2.453602313995
29.694877624512 -72.574195861816 -141.937622070313 2.478961944580
-49.244609832764 -72.262672424316 -141.026367187500 2.141714811325
105.827323913574 -72.022956848145 -152.316268920898 4.546490669250
-76.584037780762 -70.256820678711 -144.013259887695 2.009636163712
-59.658695220947 -70.780128479004 -143.174026489258 1.462099075317
30.642921447754 -68.757827758789 -147.874267578125 0.929852545261
-78.597694396973 -71.615623474121 -147.124542236328 2.937073230743
-71.656242370605 -70.405662536621 -151.184509277344 1.596172213554
113.795524597168 -77.726249694824 -149.648605346680 3.127204179764
-65.656715393066 -69.957168579102 -156.013046264648 1.758869051933
-40.326221466064 -68.516242980957 -153.019393920898 2.354575395584
24.676977157593 -70.914794921875 -146.456634521484 1.909533262253
-74.251380920410 -70.838462829590 -146.987014770508 1.541834473610
11.353624343872 -71.698638916016 -150.314865112305 2.567291498184
30.824939727783 -71.937591552734 -157.398315429688 1.506711363792
29.977390289307 -70.290710449219 -150.694931030273 0.822171926498
14.099214553833 -76.350624084473 -154.695190429688 4.054840087891
-50.978908538818 -72.287445068359 -154.094894409180 2.030488491058
23.684244155884 -73.643409729004 -153.664916992188 0.596669435501
-47.242664337158 -70.090156555176 -151.004577636719 1.395647525787
3.662460088730 -72.157371520996 -154.655014038086 3.248298406601
19.400573730469 -71.500640869141 -150.490600585938 2.901276111603
-69.938285827637 -69.833030700684 -158.345245361328 3.303385496140
-47.669052124023 -68.171005249023 -154.940612792969 3.007400751114
-69.246696472168 -69.993080139160 -154.697006225586 0.782406866550
17.084478378296 -71.058265686035 -159.018661499023 1.727364778519
23.142511367798 -71.522811889648 -150.609191894531 0.767000615597
1.461117982864 -71.876724243164 -165.138092041016 1.797281980515
20.239419937134 -72.076065063477 -154.108795166016 1.234569311142
29.684495925903 -72.107757568359 -167.658843994141 2.323332786560
-48.423130035400 -72.142692565918 -164.065979003906 1.614022374153
-38.003574371338 -77.028686523438 -164.032058715820 2.871603727341
-41.960388183594 -71.740074157715 -161.647293090820 1.456857085228
26.715866088867 -72.658699035645 -159.195755004883 2.675223588943
-45.341693878174 -69.292037963867 -167.615127563477 4.021042346954
-40.852802276611 -69.568542480469 -167.189788818359 2.133186101913
20.272571563721 -70.921768188477 -166.296478271484 2.285942316055
-40.957588195801 -71.480476379395 -176.008987426758 3.014331340790
26.877485275269 -68.941864013672 -170.602859497070 2.296288251877
110.608978271484 -70.942611694336 -165.053848266602 1.788830041885
-34.631298065186 -70.998657226563 -172.790206909180 1.059615969658
101.681182861328 -71.491897583008 -173.433410644531 3.990515470505
-35.668445587158 -70.666648864746 -178.190719604492 1.650889039040
-38.560390472412 -73.809814453125 -182.206222534180 3.161081314087
19.993846893311 -74.843887329102 -177.554046630859 2.236831188202
104.707489013672 -74.112228393555 -182.184677124023 1.685208559036
-32.558208465576 -69.566894531250 -183.661087036133 1.736045360565
-36.282382965088 -70.490074157715 -178.278823852539 1.687131047249
-24.351457595825 -74.581474304199 -187.558593750000 0.849882364273
-150.115753173828 -69.391830444336 -190.166748046875 2.466559886932
11.843305587769 -71.682609558105 -183.933547973633 2.302136898041
103.921180725098 -72.347885131836 -191.289886474609 0.456691324711
-160.006195068359 -68.231529235840 -194.358200073242 1.337859511375
-24.005853652954 -68.290191650391 -190.243103027344 1.286308288574
-116.709098815918 -71.029716491699 -198.465286254883 2.654255390167
-131.874298095703 -70.519554138184 -196.762527465820 0.971193492413
-108.929458618164 -70.073989868164 -200.884979248047 2.566304922104
-114.671409606934 -68.671310424805 -201.335281372070 2.539131164551
-13.399806976318 -72.182212829590 -197.042007446289 1.557420849800
19.066173553467 -70.861335754395 -196.653518676758 1.312376499176
-16.778190612793 -67.735900878906 -202.570587158203 2.601604700089
-127.731849670410 -69.211662292480 -206.726623535156 3.033153057098
-21.808292388916 -67.634178161621 -203.717575073242 2.466104269028
-130.355529785156 -68.036727905273 -204.103866577148 1.999331116676
-16.453910827637 -71.429092407227 -200.953918457031 1.409652352333
-147.071746826172 -67.682449340820 -204.064895629883 3.439902067184
90.867416381836 -69.660079956055 -206.699935913086 2.555581808090
-165.453994750977 -63.809650421143 -202.806701660156 2.995626688004
-3.739556074142 -73.094200134277 -218.501113891602 1.492132902145
10.459798812866 -72.903663635254 -210.472991943359 1.873590111732
9.334821701050 -73.804550170898 -217.609970092773 2.146441221237
81.697639465332 -73.045677185059 -216.985046386719 2.493319272995
7.536827087402 -72.668487548828 -213.661529541016 1.581480622292
11.686875343323 -70.888282775879 -215.337722778320 1.685310125351
-16.836524963379 -74.404800415039 -216.611404418945 2.286332368851
-91.411239624023 -70.173072814941 -215.482528686523 1.010540962219
-98.925003051758 -69.754302978516 -217.649948120117 0.999108731747
-0.897584021091 -70.473861694336 -219.771697998047 0.812028706074
-167.389633178711 -70.147361755371 -223.330001831055 2.259987354279
14.259336471558 -69.792671203613 -220.193054199219 0.729410648346
-145.510955810547 -68.096069335938 -222.517929077148 2.013563632965
12.067930221558 -72.035324096680 -225.536300659180 2.229138374329
-135.542480468750 -70.252525329590 -226.089782714844 1.484141707420
-116.804595947266 -70.219360351563 -228.334457397461 0.743276774883
15.874656677246 -71.050956726074 -221.452545166016 2.162035703659
77.489707946777 -72.993560791016 -221.664047241211 2.511560440063
5.854228019714 -71.594482421875 -224.085952758789 2.629235506058
-110.709823608398 -68.670860290527 -232.025146484375 0.678262531757
71.470947265625 -73.738883972168 -228.132110595703 2.450157165527
83.124931335449 -74.114997863770 -229.764907836914 1.724530816078
-126.024627685547 -68.850486755371 -236.272415161133 2.773824930191
-117.879188537598 -69.247055053711 -231.601898193359 1.675328373909
-10.843534469604 -68.154937744141 -228.502212524414 1.582086205482
71.119201660156 -73.524642944336 -231.727981567383 1.254032373428
63.794132232666 -73.271072387695 -233.568374633789 3.495264053345
72.432243347168 -72.362518310547 -229.823226928711 2.036463022232
-136.024673461914 -65.614730834961 -235.319625854492 2.040485143661
69.303474426270 -73.875846862793 -232.706024169922 0.698321223259
65.376388549805 -70.561164855957 -235.690551757813 1.520423293114
-166.947021484375 -66.906089782715 -231.902908325195 2.660242319107
0.513091027737 -77.756851196289 -241.618270874023 1.991073369980
18.525873184204 -73.034568786621 -240.074935913086 1.284058928490
-6.783444881439 -68.782829284668 -241.372924804688 2.237435817719
15.035669326782 -66.908737182617 -239.884490966797 3.451327085495
65.386093139648 -73.651870727539 -238.518310546875 0.766811668873
8.153808593750 -69.818855285645 -244.018859863281 1.833722591400
-11.633212089539 -65.351219177246 -241.509765625000 2.302723646164
-1.304011940956 -68.328712463379 -238.137420654297 1.444038152695
64.130096435547 -73.305938720703 -242.829589843750 1.294911026955
2.246803998947 -72.001380920410 -243.234375000000 1.371859550476
-7.805673122406 -72.032852172852 -243.852951049805 1.128825187683
13.432115554810 -74.048385620117 -243.520553588867 1.658291816711
-168.301681518555 -69.817138671875 -242.516220092773 2.484484195709
55.229579925537 -72.802894592285 -247.693313598633 1.919099211693
49.276115417480 -66.890052795410 -251.294754028320 1.746367335320
57.375675201416 -73.254135131836 -243.239578247070 0.934071481228
-12.915700912476 -69.490425109863 -248.645660400391 1.761393904686
56.393581390381 -72.327606201172 -246.119384765625 1.870090961456
-74.655273437500 -69.490173339844 -250.858566284180 1.449358582497
49.981277465820 -72.771194458008 -249.118240356445 0.658768355846
-89.507980346680 -69.473320007324 -253.546875000000 1.813209533691
-123.978965759277 -70.058815002441 -257.866180419922 2.233156919479
-133.161315917969 -68.773475646973 -254.167633056641 1.997836828232
45.311199188232 -73.811470031738 -252.350204467773 2.327708244324
-133.373275756836 -71.292678833008 -254.421188354492 1.181721806526
-109.923919677734 -67.493499755859 -256.220306396484 0.823294103146
-116.785324096680 -66.884361267090 -258.611694335938 0.587086141109
-84.521492004395 -70.141517639160 -255.707214355469 2.027431726456
-111.711334228516 -67.500289916992 -260.277435302734 1.375714421272
-124.871261596680 -72.117736816406 -263.624847412109 2.064826726913
-147.175277709961 -65.986213684082 -268.889617919922 3.151585340500
-16.017158508301 -69.673400878906 -266.367401123047 2.277848005295
-172.096099853516 -69.956253051758 -265.856750488281 5.168732643127
-15.291118621826 -70.412498474121 -274.525177001953 1.793669462204
-159.660507202148 -65.026893615723 -268.608123779297 4.529792308807
-153.404266357422 -68.520042419434 -274.739898681641 3.405526876450
-170.619461059570 -67.882484436035 -278.904174804688 5.037118434906
-14.940373420715 -70.992126464844 -280.084960937500 4.208832263947
-130.919845581055 -70.964721679688 -284.379577636719 2.863221406937
-158.709777832031 -67.842208862305 -287.548370361328 2.678448438644
-144.641616821289 -67.464683532715 -282.229339599609 1.651297569275
-135.636047363281 -71.355079650879 -281.742797851563 2.747988224030
-8.799501419067 -65.376106262207 -285.168518066406 3.819150924683
-126.628822326660 -72.154525756836 -284.627166748047 0.847169399261
-141.686965942383 -66.429214477539 -286.855865478516 1.513870954514
-116.481384277344 -71.761116027832 -286.887023925781 0.905245840549
-79.655799865723 -67.740013122559 -289.040832519531 2.434813976288
-61.422733306885 -70.598548889160 -287.989715576172 2.699426889420
-7.734529972076 -71.939559936523 -288.553192138672 2.256190299988
-54.616092681885 -68.918991088867 -286.611175537109 2.856667995453
-57.874477386475 -67.729095458984 -289.531768798828 2.413983821869
-71.073158264160 -68.023574829102 -291.280456542969 3.572703361511
-88.727668762207 -68.465736389160 -294.814727783203 3.290433645248
-95.703041076660 -67.042823791504 -290.043365478516 3.025869369507
-161.009445190430 -67.119117736816 -292.791107177734 3.155226707458
-161.794097900391 -68.889549255371 -295.046966552734 3.354023218155
-125.368865966797 -71.413139343262 -295.076843261719 1.570262193680
-145.349227905273 -68.469146728516 -296.248291015625 2.276643276215
-153.765396118164 -70.322792053223 -305.033996582031 1.830062508583
-151.164184570313 -70.409957885742 -313.433837890625 0.965247929096
46.320964813232 -71.404022216797 -15.105518341064 2.445229530334
15.142208099365 -73.838172912598 -30.379251480103 5.635456085205
40.444705963135 -69.312995910645 -35.144763946533 1.514023661613
-16.994430541992 -74.513641357422 -67.093734741211 2.431549549103
80.364257812500 -71.413909912109 -65.457572937012 2.511181116104
87.278137207031 -69.407447814941 -66.264732360840 0.969610452652
76.384437561035 -76.146446228027 -65.833221435547 5.724831581116
71.260627746582 -74.195198059082 -69.602424621582 3.751543760300
89.725067138672 -75.615127563477 -75.244323730469 2.320917129517
-97.505683898926 -66.842674255371 -71.275276184082 2.599088907242
66.376075744629 -73.462493896484 -75.790176391602 4.442562580109
-37.983158111572 -71.990257263184 -78.168113708496 2.116154193878
97.519195556641 -73.230026245117 -86.137802124023 1.151491880417
60.133007049561 -70.031661987305 -90.796394348145 1.193328261375
105.654846191406 -77.744361877441 -93.895919799805 5.856418609619
100.114845275879 -76.665138244629 -98.677116394043 2.423740148544
70.948272705078 -72.538246154785 -101.010978698730 2.949496984482
-81.518783569336 -68.839378356934 -102.474052429199 2.201168537140
52.990447998047 -72.257957458496 -104.670234680176 2.337626218796
105.790779113770 -70.658546447754 -106.253204345703 1.130714416504
45.709537506104 -72.777191162109 -112.863304138184 1.761692404747
78.551071166992 -71.647499084473 -105.747772216797 2.389654397964
40.272544860840 -71.673912048340 -107.929550170898 1.678139328957
102.869338989258 -72.782165527344 -103.474655151367 0.801344394684
46.193496704102 -71.566978454590 -108.244880676270 2.605591058731
105.794036865234 -77.823997497559 -110.152618408203 3.537382841110
108.720901489258 -76.002868652344 -111.556404113770 1.028872013092
-80.750846862793 -67.921127319336 -115.106140136719 2.674503564835
-84.275756835938 -68.021179199219 -120.314064025879 1.219099402428
42.523441314697 -74.874778747559 -120.527801513672 2.486402988434
112.420532226563 -74.664505004883 -121.506004333496 1.243339180946
112.338859558105 -72.790626525879 -123.786544799805 1.967169404030
-88.571136474609 -68.712593078613 -127.942543029785 0.397559970617
104.599456787109 -74.713867187500 -126.008956909180 5.031563282013
-60.748504638672 -74.183074951172 -132.673919677734 3.532720088959
-87.520889282227 -69.913139343262 -128.258499145508 1.364703893661
-73.892951965332 -69.999763488770 -128.057678222656 1.498896837234
-60.483268737793 -66.344985961914 -127.611282348633 1.442842960358
30.295484542847 -71.265373229980 -130.678207397461 0.969163537025
41.082489013672 -70.211563110352 -135.164443969727 3.211623430252
-74.444419860840 -69.409416198730 -137.516143798828 2.009987354279
27.432569503784 -69.648803710938 -131.452407836914 2.553558826447
110.391960144043 -72.857658386230 -143.108367919922 2.010584831238
-41.437679290771 -70.274505615234 -149.056472778320 2.147813558578
29.110076904297 -72.246101379395 -149.352081298828 2.122971773148
112.651420593262 -71.269012451172 -147.877685546875 2.600964069366
34.261165618896 -72.101860046387 -143.226104736328 1.583245396614
109.101280212402 -71.643455505371 -141.004074096680 1.323732376099
-53.589851379395 -70.238166809082 -150.210632324219 1.866546273232
-72.474266052246 -67.167617797852 -151.859298706055 1.339570999146
-56.361400604248 -70.403121948242 -153.381149291992 3.668579816818
-43.327621459961 -73.431068420410 -165.748657226563 1.817157149315
3.454381942749 -72.194335937500 -156.458419799805 1.821842789650
108.589996337891 -72.932640075684 -153.696929931641 3.456539154053
107.757667541504 -72.547622680664 -159.806915283203 2.463618516922
8.836002349854 -70.394844055176 -158.007263183594 2.288091182709
2.102081060410 -70.896812438965 -161.897872924805 1.148079037666
18.013380050659 -70.432144165039 -155.776809692383 2.961211442947
24.450719833374 -69.967124938965 -156.156387329102 1.609488129616
107.550300598145 -72.194404602051 -165.805969238281 2.446404695511
108.334434509277 -75.644844055176 -167.906875610352 1.476894378662
22.830457687378 -68.527267456055 -174.882400512695 2.634613037109
23.762233734131 -73.212532043457 -164.329360961914 3.043083906174
111.052635192871 -70.795982360840 -162.145767211914 0.783304452896
-30.222227096558 -69.044723510742 -177.887695312500 1.013761758804
109.026397705078 -72.832916259766 -167.931045532227 2.324708938599
16.351387023926 -71.521141052246 -168.128784179688 2.264522314072
20.456560134888 -70.983932495117 -168.234710693359 2.049653291702
107.379104614258 -72.731536865234 -173.031188964844 1.724053144455
25.597553253174 -70.323005676270 -170.863357543945 0.429048478603
111.193664550781 -71.870407104492 -183.862396240234 1.547994375229
-39.392440795898 -69.356658935547 -178.447036743164 3.972476005554
23.967662811279 -70.735054016113 -171.597442626953 1.421502351761
106.386146545410 -72.307937622070 -184.034088134766 1.553751826286
21.968788146973 -72.014869689941 -179.069091796875 0.725903332233
-152.903747558594 -66.523994445801 -187.659805297852 0.930324256420
-29.236341476440 -67.151756286621 -190.019973754883 1.400902986526
23.535381317139 -68.975578308105 -185.384292602539 1.692979931831
-114.831329345703 -69.954177856445 -192.912048339844 1.563440561295
-111.865898132324 -66.229476928711 -192.336944580078 2.473237991333
22.695344924927 -71.498970031738 -189.029998779297 0.812717318535
10.614664077759 -68.924255371094 -185.563308715820 4.508407115936
-27.912088394165 -67.533905029297 -190.903747558594 1.042367339134
-30.769716262817 -73.775199890137 -189.931610107422 0.785087525845
-29.088279724121 -70.394416809082 -187.887252807617 2.482901811600
13.731150627136 -68.878929138184 -180.505737304688 2.341909646988
-151.878219604492 -67.813926696777 -196.261825561523 2.024948120117
-146.383605957031 -67.610687255859 -194.010314941406 2.936991453171
-145.452468872070 -70.787261962891 -199.497650146484 1.762171506882
-23.959573745728 -69.172668457031 -192.064346313477 2.083676099777
12.656145095825 -68.543907165527 -200.097183227539 0.838637530804
97.808647155762 -71.383514404297 -193.562271118164 1.984973311424
-114.723503112793 -67.348052978516 -199.384384155273 2.927071571350
20.179525375366 -74.030662536621 -198.885345458984 1.965941548347
-16.341356277466 -69.154060363770 -196.204849243164 0.804258406162
-18.734998703003 -69.500480651855 -199.389083862305 2.347606897354
99.947067260742 -71.050628662109 -199.748626708984 1.864180684090
6.873840808868 -72.416099548340 -199.858810424805 2.591320514679
-22.974487304688 -68.371551513672 -197.166641235352 2.055945873260
-122.392333984375 -71.178977966309 -204.177307128906 1.636958599091
-135.177505493164 -68.187088012695 -204.423141479492 2.374248504639
-114.999259948730 -64.044723510742 -205.971206665039 2.995974063873
-143.213012695313 -70.638732910156 -204.557846069336 1.410216331482
16.483911514282 -70.365776062012 -198.290985107422 1.372181534767
92.766731262207 -73.270454406738 -202.117050170898 1.534398794174
-166.851028442383 -63.080310821533 -202.697250366211 3.460912942886
98.979553222656 -71.800064086914 -202.420883178711 1.465390682220
-22.694393157959 -73.562103271484 -206.773239135742 3.679278135300
93.644592285156 -69.991401672363 -210.809463500977 1.808794617653
87.056991577148 -73.281974792480 -211.830444335938 1.682301521301
11.105951309204 -72.244224548340 -206.563919067383 2.024316549301
18.801454544067 -70.110733032227 -212.553680419922 1.030326008797
11.890174865723 -67.798622131348 -208.428359985352 0.437850266695
-11.807909011841 -70.421081542969 -223.088378906250 2.610735177994
-95.398216247559 -70.538154602051 -219.608352661133 2.071588277817
-11.446304321289 -72.168624877930 -212.977798461914 2.437638759613
88.083702087402 -72.102081298828 -216.629608154297 0.860161960125
-94.526023864746 -70.762329101563 -218.683624267578 2.232213020325
-102.035026550293 -66.277664184570 -222.231384277344 1.661280512810
-95.396652221680 -69.256660461426 -220.505065917969 1.972657799721
87.256515502930 -73.417907714844 -222.308532714844 1.282632708549
-136.213180541992 -68.292236328125 -226.322158813477 1.390726327896
-133.420074462891 -71.757369995117 -227.887115478516 2.012085437775
-117.571189880371 -68.103584289551 -225.915054321289 1.820796251297
-113.992790222168 -65.692710876465 -224.259887695313 2.947697162628
-134.229415893555 -66.501548767090 -228.357559204102 2.301644563675
-112.723136901855 -74.817779541016 -228.610809326172 2.380640029907
-113.112045288086 -68.140243530273 -229.137695312500 2.518506050110
-7.849528789520 -73.348678588867 -225.345733642578 1.113688588142
-16.914159774780 -72.242431640625 -223.905548095703 2.155338287354
-1.848366022110 -68.336784362793 -231.116836547852 0.987030923367
-11.033231735229 -67.339691162109 -227.701400756836 0.885392010212
14.482140541077 -71.292015075684 -234.143295288086 0.600930809975
-19.738145828247 -68.315505981445 -229.872573852539 3.609315395355
-167.739120483398 -65.777084350586 -223.560607910156 2.652574062347
-5.001012802124 -70.192733764648 -234.165512084961 0.544680058956
79.946655273438 -68.979942321777 -231.575958251953 2.304320573807
10.043556213379 -72.235794067383 -234.306350708008 1.914900660515
-6.770989894867 -69.473747253418 -235.483291625977 1.747010231018
-157.693572998047 -65.270652770996 -237.747024536133 2.734121561050
-143.153076171875 -66.344436645508 -231.601531982422 0.656753122807
61.724349975586 -70.164070129395 -236.353027343750 1.439634680748
-6.562026977539 -71.114112854004 -234.829757690430 1.047933697701
8.371776580811 -72.487220764160 -231.386016845703 2.285021543503
68.483886718750 -73.710647583008 -230.725845336914 1.758336663246
76.056823730469 -72.080459594727 -234.720474243164 1.603296279907
70.152702331543 -72.664382934570 -241.811325073242 1.800302624702
-2.502420902252 -73.024528503418 -236.400131225586 1.029752612114
57.192596435547 -69.700538635254 -238.433685302734 2.512208938599
-19.923999786377 -72.451438903809 -240.491943359375 1.397279024124
-16.098787307739 -67.733734130859 -241.118286132813 2.345932483673
7.359994888306 -70.331230163574 -240.012680053711 2.065886974335
63.850761413574 -74.586158752441 -238.369064331055 1.349633336067
64.595848083496 -70.005294799805 -241.111160278320 2.456873178482
48.766567230225 -71.367050170898 -246.638839721680 2.467297315598
60.222007751465 -74.433784484863 -243.218933105469 2.317249536514
-16.429218292236 -74.339363098145 -250.414962768555 3.346449851990
-84.362350463867 -66.170890808105 -255.137115478516 3.013523817062
-77.629501342773 -66.864685058594 -253.876739501953 3.297955513000
43.377368927002 -73.800285339355 -248.323425292969 3.193029880524
-149.958557128906 -68.673751831055 -251.864395141602 1.073405146599
35.201732635498 -70.870079040527 -256.787536621094 2.949726819992
-92.912231445313 -72.015083312988 -252.912857055664 1.558665871620
-156.986755371094 -63.765899658203 -255.896972656250 2.078217029572
-141.030990600586 -61.674919128418 -254.451202392578 2.958814382553
44.353584289551 -70.884071350098 -254.041305541992 1.406786799431
-125.712051391602 -64.178375244141 -258.961761474609 1.002794265747
-117.682144165039 -68.358764648438 -256.428649902344 1.632749199867
-93.097488403320 -64.646659851074 -258.059082031250 3.285947799683
-14.472001075745 -66.857894897461 -251.100891113281 2.283359766006
31.076913833618 -70.485588073730 -257.774414062500 1.676327109337
24.194898605347 -68.133850097656 -260.046325683594 1.767352700233
-159.668716430664 -62.994884490967 -261.512115478516 4.216369628906
-115.566139221191 -70.700325012207 -263.751953125000 1.254650115967
-14.703923225403 -69.606559753418 -262.671661376953 0.890043854713
-133.553085327148 -67.533905029297 -266.508300781250 2.779151678085
-14.877327919006 -68.648910522461 -271.025970458984 1.945459008217
-165.623016357422 -66.353012084961 -273.750152587891 4.284389972687
-8.069609642029 -70.874969482422 -280.182464599609 2.058522224426
-161.595367431641 -67.406120300293 -289.019683837891 2.500161886215
-164.635910034180 -68.893554687500 -279.124725341797 2.768223047256
-143.340560913086 -67.648040771484 -286.365936279297 1.655704736710
-170.939071655273 -68.860900878906 -285.914947509766 3.196810960770
13.254241943359 -72.453346252441 -288.618682861328 1.371873855591
-103.921936035156 -69.141090393066 -287.577667236328 1.596527457237
-87.868370056152 -64.411102294922 -286.958587646484 4.814805507660
-168.473983764648 -64.243644714355 -285.808197021484 5.698791027069
-92.849044799805 -72.155487060547 -285.010253906250 3.753901958466
-154.458648681641 -67.664344787598 -289.674530029297 3.199278116226
-76.226890563965 -69.512847900391 -294.561920166016 4.332548618317
-71.379096984863 -68.051986694336 -289.639892578125 3.196204662323
-83.300125122070 -69.496696472168 -292.284667968750 2.140794515610
-4.429498195648 -67.387977600098 -289.628967285156 1.970442533493
-88.785827636719 -68.364921569824 -289.623229980469 2.405900716782
-99.780784606934 -69.576545715332 -291.957183837891 0.782416462898
-117.424278259277 -68.192825317383 -293.746551513672 1.801648736000
-117.294456481934 -65.237907409668 -293.871276855469 3.714845418930
-134.923522949219 -66.941612243652 -293.339630126953 2.791870594025
-143.550537109375 -67.592948913574 -301.969390869141 1.742043972015
-144.964019775391 -68.743095397949 -312.924865722656 1.952511906624
22.367820739746 -69.452163696289 -15.684673309326 3.761330366135
30.791337966919 -70.803344726563 -16.914020538330 1.191946148872
27.786062240601 -73.374298095703 -18.787672042847 1.972616910934
42.664432525635 -69.727310180664 -21.033807754517 1.393514990807
23.424724578857 -71.153022766113 -32.189079284668 1.444083690643
-76.284294128418 -67.516296386719 -47.922302246094 1.341496944427
88.407173156738 -67.993873596191 -65.765869140625 1.050013780594
-18.926790237427 -68.362854003906 -68.202217102051 4.014273166656
101.325218200684 -71.284484863281 -73.104164123535 2.432330846786
93.711303710938 -75.942016601563 -75.864517211914 1.781769394875
67.191162109375 -73.076042175293 -78.833953857422 2.598691940308
68.918495178223 -74.928794860840 -82.956718444824 2.153945922852
-46.003845214844 -72.802520751953 -83.208656311035 1.721861958504
59.821697235107 -74.825988769531 -82.769653320313 4.980823040009
-95.679870605469 -69.007736206055 -89.256370544434 1.461732864380
-50.441692352295 -67.272140502930 -86.012901306152 1.148693799973
-57.265899658203 -75.953254699707 -88.384742736816 3.526395082474
99.665267944336 -77.542480468750 -97.789672851563 3.330212593079
57.906806945801 -74.553985595703 -92.633399963379 1.228188157082
64.636352539063 -70.893180847168 -91.342605590820 2.663073062897
-96.848098754883 -63.284606933594 -97.835403442383 1.881355404854
106.577857971191 -73.766845703125 -93.253677368164 4.412054061890
42.892906188965 -69.879806518555 -99.350585937500 1.606601595879
100.183830261230 -71.948921203613 -98.295761108398 1.074321389198
105.581954956055 -70.224723815918 -106.144699096680 1.417060136795
100.061279296875 -72.505905151367 -104.722084045410 3.623115777969
72.609024047852 -73.890808105469 -101.005943298340 2.490354537964
86.066513061523 -73.952713012695 -106.785484313965 4.449174404144
48.837047576904 -70.997673034668 -111.575454711914 2.483310222626
109.462921142578 -70.223152160645 -103.728691101074 1.156827807426
44.960979461670 -73.709701538086 -105.828163146973 3.158857584000
39.379810333252 -69.242103576660 -101.975593566895 2.961578130722
111.560028076172 -72.748031616211 -110.485877990723 1.109913825989
-79.658508300781 -66.051528930664 -110.493217468262 1.981958389282
44.944705963135 -70.300643920898 -113.253440856934 1.460439682007
33.562927246094 -72.798255920410 -115.492759704590 2.245213508606
104.319442749023 -69.965194702148 -110.241302490234 2.723619461060
38.284267425537 -68.201499938965 -111.903053283691 2.323796033859
-89.207771301270 -68.029289245605 -113.735916137695 2.075003623962
-96.656478881836 -65.400894165039 -115.687126159668 1.469633579254
102.848365783691 -75.262054443359 -119.299293518066 4.430170536041
-95.923690795898 -69.554870605469 -119.519607543945 1.669041275978
37.801795959473 -72.904815673828 -121.679756164551 2.976456165314
35.838527679443 -70.553833007813 -121.171653747559 1.795774102211
-84.512786865234 -68.046516418457 -125.043380737305 2.671126842499
31.355733871460 -68.927490234375 -135.101486206055 1.163576245308
109.741554260254 -73.539451599121 -131.352340698242 0.907906889915
-53.679374694824 -68.652908325195 -136.759307861328 2.416221141815
-89.286468505859 -67.095481872559 -132.475723266602 2.609014272690
36.801280975342 -73.993568420410 -132.057556152344 1.995618700981
-90.062332153320 -64.018043518066 -136.703857421875 1.425226569176
-89.966743469238 -70.219329833984 -140.455795288086 2.764027833939
-50.727268218994 -70.137741088867 -137.498474121094 1.887527704239
-71.845275878906 -66.706871032715 -140.280395507813 2.221549034119
-51.736213684082 -68.007141113281 -134.152999877930 2.206855058670
114.406875610352 -69.668136596680 -137.655868530273 1.767194032669
-74.289085388184 -69.875061035156 -137.578781127930 2.200874090195
35.438507080078 -71.067749023438 -131.692016601563 1.442150831223
-79.690612792969 -67.263229370117 -140.925918579102 2.162379026413
-74.362007141113 -68.145713806152 -136.527755737305 0.706483960152
-92.363838195801 -66.070571899414 -140.967071533203 2.392494678497
-54.823543548584 -66.698219299316 -147.739135742188 1.889861226082
30.500617980957 -66.736007690430 -146.190811157227 2.087970018387
26.564386367798 -68.719993591309 -149.947647094727 0.786323964596
18.218152999878 -65.733749389648 -144.786727905273 1.504952073097
111.815284729004 -71.518913269043 -146.421875000000 2.045489072800
-94.436698913574 -66.425277709961 -153.318572998047 1.450650930405
11.997092247009 -71.564735412598 -152.882812500000 1.343762397766
-72.876136779785 -67.763587951660 -154.081375122070 1.831373095512
22.501344680786 -69.354690551758 -150.213058471680 2.002218961716
-50.092235565186 -67.732902526855 -156.107513427734 3.006957769394
8.624442100525 -68.634719848633 -153.741134643555 1.819905281067
14.114847183228 -72.359626770020 -158.881576538086 1.686751127243
16.792148590088 -74.206008911133 -164.371917724609 2.291411399841
-49.865058898926 -70.606613159180 -163.248672485352 3.182990550995
-40.117286682129 -67.976097106934 -155.499176025391 1.620173811913
-47.307376861572 -69.087547302246 -161.718780517578 0.967685461044
-104.567138671875 -68.024223327637 -172.813247680664 2.105582714081
20.834783554077 -71.074905395508 -174.507553100586 1.659353852272
-35.632537841797 -68.642364501953 -176.609222412109 1.716311693192
14.505529403687 -73.491371154785 -178.797317504883 2.498656749725
-144.492736816406 -66.709075927734 -176.748641967773 1.470564842224
-33.070537567139 -66.048606872559 -173.450271606445 2.169439792633
-155.949905395508 -70.888145446777 -178.876571655273 2.969938278198
22.640451431274 -65.907379150391 -182.261596679688 3.730199813843
-33.837162017822 -69.909889221191 -172.125961303711 2.040037393570
-108.506332397461 -65.780876159668 -178.574432373047 1.384182214737
-108.035316467285 -71.389396667480 -184.430633544922 3.086203575134
-30.768610000610 -64.654151916504 -185.845535278320 4.415098667145
-24.551137924194 -72.901985168457 -182.398178100586 2.208909511566
13.153703689575 -68.823181152344 -189.775604248047 3.201823949814
16.201551437378 -67.428733825684 -197.703994750977 1.991369128227
13.013865470886 -69.652572631836 -187.459671020508 2.899089097977
-143.670715332031 -65.652214050293 -188.479248046875 1.110174059868
20.791528701782 -66.563697814941 -190.410339355469 2.944437026978
6.737957954407 -69.426589965820 -197.269058227539 1.978879928589
-137.872894287109 -65.282646179199 -195.423278808594 4.013772487640
-115.135818481445 -66.832221984863 -196.336395263672 1.218592762947
14.121720314026 -68.113403320313 -201.689498901367 1.260029911995
-117.138458251953 -66.055572509766 -197.718154907227 2.184698581696
-108.503463745117 -62.716484069824 -193.060363769531 4.167821407318
-166.130828857422 -67.426300048828 -201.199249267578 1.211154937744
-25.091747283936 -67.905715942383 -200.651245117188 1.371493697166
12.127067565918 -68.180641174316 -200.758453369141 0.654440820217
-143.759414672852 -66.812393188477 -204.984786987305 1.813374400139
-136.583511352539 -68.514900207520 -207.372116088867 4.823198795319
-20.853292465210 -67.315849304199 -207.918518066406 2.153609275818
-12.713006973267 -70.171508789063 -205.152618408203 0.453588545322
-15.571615219116 -69.649238586426 -206.561920166016 1.604887247086
-141.642028808594 -69.778434753418 -205.478851318359 2.197305679321
-17.295063018799 -69.300369262695 -213.531509399414 1.584701418877
-11.289314270020 -72.663711547852 -214.903854370117 3.509752988815
16.832197189331 -67.197982788086 -211.508224487305 1.933233737946
-15.678741455078 -72.288406372070 -212.125640869141 0.549798905849
9.720015525818 -69.779586791992 -210.591842651367 1.368657350540
-11.143331527710 -69.973068237305 -216.213287353516 2.217123746872
-21.703914642334 -66.413162231445 -212.618423461914 5.146821022034
11.875774383545 -73.826156616211 -221.551651000977 2.959530830383
-2.380995988846 -73.986465454102 -220.387237548828 0.949858963490
10.551650047302 -66.188766479492 -221.727813720703 1.464057207108
-6.764660835266 -71.100563049316 -227.503982543945 1.049587130547
-159.473632812500 -66.814231872559 -226.454513549805 0.375761747360
80.066703796387 -73.068084716797 -220.436676025391 2.807162761688
-135.897262573242 -64.844535827637 -225.428176879883 2.297281026840
-135.734710693359 -68.302787780762 -224.227340698242 1.627922058105
-9.109582901001 -69.843261718750 -225.865844726563 2.313132286072
7.902340888977 -69.255104064941 -234.405975341797 1.616559505463
-157.541229248047 -65.906074523926 -230.707305908203 2.242511510849
87.343681335449 -69.706115722656 -220.306625366211 1.550127267838
-2.817557096481 -68.102325439453 -226.355636596680 1.891859889030
-0.078065000474 -69.987785339355 -223.587402343750 1.950106143951
73.291587829590 -73.256797790527 -229.725387573242 1.053331613541
0.017991000786 -67.131233215332 -235.467391967773 1.547482252121
-15.427750587463 -70.855613708496 -227.818161010742 2.149090051651
-127.102668762207 -65.279708862305 -235.378265380859 1.910638213158
-4.895998001099 -68.907867431641 -237.521148681641 1.945530533791
1.849295020103 -67.200462341309 -232.572891235352 0.873242974281
65.427757263184 -68.693527221680 -238.666183471680 0.908887147903
-158.867080688477 -67.385726928711 -239.451477050781 1.712665438652
-13.086153030396 -68.453994750977 -245.366821289063 1.798586845398
-169.730072021484 -68.183334350586 -240.073959350586 2.771625280380
9.292295455933 -66.786529541016 -242.658416748047 1.749848008156
-165.189437866211 -66.780883789063 -240.226150512695 1.467502236366
-161.363616943359 -67.428001403809 -247.332443237305 2.165773391724
56.419456481934 -70.237266540527 -245.682678222656 1.024676442146
61.623775482178 -71.728721618652 -243.092712402344 1.270856618881
55.528278350830 -70.816436767578 -244.936828613281 0.826481878757
51.143371582031 -70.115447998047 -249.403121948242 1.574571967125
-156.041442871094 -66.943801879883 -245.258666992188 2.768958091736
-157.042282104492 -63.882656097412 -249.681976318359 4.784024715424
-13.992385864258 -71.715713500977 -250.120498657227 0.636532723904
-151.960906982422 -65.877021789551 -247.952117919922 1.903383493423
19.030767440796 -70.963264465332 -251.796478271484 1.832092285156
-170.381454467773 -70.400360107422 -252.390640258789 2.779308557510
-168.163894653320 -64.344886779785 -249.621276855469 4.429246425629
-82.753761291504 -69.005096435547 -249.876388549805 2.218567609787
-169.985992431641 -65.497062683105 -261.128021240234 4.091663837433
-85.958282470703 -67.123672485352 -257.716552734375 3.243412256241
41.944805145264 -69.173988342285 -253.739761352539 0.929999589920
21.609857559204 -72.847816467285 -256.882843017578 1.287603497505
-159.242645263672 -66.852676391602 -263.152465820313 2.760172128677
-101.299835205078 -61.859001159668 -260.667480468750 3.143784761429
38.649570465088 -70.149276733398 -256.298339843750 0.452734887600
-105.526245117188 -73.237152099609 -260.166961669922 1.289626359940
-154.573669433594 -62.007450103760 -266.191864013672 2.494087934494
-105.758384704590 -66.101654052734 -259.586608886719 1.802716851234
-168.449127197266 -67.803153991699 -260.985046386719 1.511731386185
-113.694160461426 -67.991050720215 -264.467315673828 3.563739776611
-153.876510620117 -68.234359741211 -267.045837402344 2.161755323410
-159.101806640625 -64.565757751465 -264.860473632813 4.010663509369
-166.599441528320 -65.331245422363 -265.097778320313 3.649653911591
-164.606384277344 -64.344680786133 -263.635284423828 3.648661136627
-166.269515991211 -65.973548889160 -267.059875488281 2.701057910919
-166.289611816406 -66.578315734863 -264.043395996094 2.045112371445
25.184160232544 -70.880325317383 -265.878112792969 1.238389968872
-150.459869384766 -69.483657836914 -264.964416503906 2.507250070572
-150.280532836914 -65.789047241211 -285.489440917969 0.354760557413
24.167284011841 -70.450851440430 -277.046203613281 2.474657297134
-12.245180130005 -70.549964904785 -275.226409912109 1.969267129898
-126.293121337891 -65.445693969727 -285.596923828125 1.376652956009
-136.871566772461 -67.438987731934 -287.330657958984 0.980784177780
-134.941421508789 -65.539138793945 -289.749237060547 1.088756561279
-127.372215270996 -67.242744445801 -287.117248535156 1.347429037094
-114.838928222656 -65.761825561523 -291.058654785156 0.656863868237
-105.781036376953 -63.780353546143 -286.674835205078 4.232735633850
8.739041328430 -72.030082702637 -293.143890380859 3.412081956863
-85.522239685059 -68.163619995117 -291.000579833984 1.316756725311
-149.632766723633 -66.881332397461 -289.638885498047 1.626153469086
-102.225906372070 -67.325935363770 -291.850311279297 2.365433692932
-129.716262817383 -64.201408386230 -293.102172851563 3.276621818542
9.026400566101 -71.752326965332 -288.861968994141 2.048357248306
-112.461280822754 -61.983078002930 -290.231903076172 5.054847717285
2.382462978363 -69.400382995605 -293.880401611328 1.894263863564
-143.707153320313 -65.919105529785 -290.070343017578 1.571754097939
-153.472305297852 -66.677940368652 -297.265197753906 2.609221696854
-158.448226928711 -65.595634460449 -315.468872070313 6.408057689667
-155.658218383789 -65.260643005371 -313.145141601563 3.887425661087
46.442634582520 -73.160621643066 -25.082496643066 1.455334305763
21.969266891479 -70.724861145020 -35.999240875244 1.327305197716
29.461261749268 -71.753875732422 -37.101184844971 1.862333297729
-46.228195190430 -71.098976135254 -48.236843109131 3.027613639832
-13.936807632446 -67.808601379395 -62.853145599365 0.654746115208
93.015602111816 -72.735557556152 -68.672851562500 2.116749286652
67.468582153320 -67.088867187500 -69.937164306641 2.019254684448
-25.448274612427 -69.225997924805 -75.079963684082 1.514848351479
-99.304290771484 -71.593009948730 -87.319793701172 3.695437431335
-43.733982086182 -68.933357238770 -83.291465759277 3.015452623367
60.302459716797 -70.144241333008 -81.819633483887 2.351876735687
60.933586120605 -73.185394287109 -86.343063354492 1.692335724831
52.276409149170 -68.459144592285 -87.968002319336 0.704216063023
-60.102207183838 -67.369689941406 -91.080566406250 2.452263355255
65.637954711914 -67.200950622559 -89.637443542480 1.788432955742
42.406322479248 -73.513900756836 -98.332344055176 2.603092670441
67.221565246582 -72.445899963379 -95.034011840820 4.300023555756
-63.436569213867 -66.552345275879 -96.797859191895 2.026222467422
48.884063720703 -72.334045410156 -93.598953247070 1.726958155632
44.445438385010 -71.990997314453 -98.818550109863 1.432385206223
102.165664672852 -68.775970458984 -100.749282836914 1.379619717598
-67.689064025879 -68.116912841797 -99.661796569824 1.305558800697
109.386314392090 -71.011230468750 -100.545310974121 1.696930527687
-80.246101379395 -69.935958862305 -101.943435668945 1.362013459206
53.261043548584 -73.024253845215 -105.370903015137 2.279942512512
46.825160980225 -68.665763854980 -101.099189758301 1.611215829849
90.658630371094 -69.451362609863 -104.048950195313 1.713681459427
83.327835083008 -69.545875549316 -106.898094177246 2.692005634308
53.609947204590 -70.368492126465 -104.918113708496 0.723541080952
-77.463523864746 -68.485336303711 -111.875167846680 1.346108078957
-77.943939208984 -67.083419799805 -115.725578308105 1.112489104271
-81.529129028320 -68.942512512207 -119.151428222656 2.511263132095
-94.389312744141 -72.109725952148 -119.328102111816 1.154796838760
103.819213867188 -66.398384094238 -116.660781860352 3.213582754135
-89.551734924316 -69.866989135742 -119.844520568848 2.144772529602
-77.734031677246 -64.284797668457 -122.019195556641 1.606646418571
108.404541015625 -70.177017211914 -116.188316345215 2.240030050278
-62.592483520508 -60.874519348145 -118.744575500488 1.352787494659
112.556434631348 -74.615806579590 -131.580841064453 1.701282739639
108.917556762695 -72.636474609375 -129.567947387695 1.357715368271
106.146774291992 -72.248107910156 -125.957000732422 2.874454021454
-94.500526428223 -67.811576843262 -138.599151611328 1.417411446571
-48.067859649658 -68.146804809570 -142.459701538086 1.705481529236
-80.131210327148 -65.609840393066 -145.246368408203 5.182114124298
-70.331054687500 -67.740402221680 -149.714157104492 1.575802564621
-71.246261596680 -66.368225097656 -148.669555664063 2.197666168213
-56.177474975586 -67.378829956055 -144.307189941406 1.491603255272
-48.025131225586 -71.786788940430 -146.668655395508 2.261991262436
15.363985061646 -69.432540893555 -146.833374023438 2.318483829498
-95.114868164063 -64.361534118652 -143.684539794922 1.244073152542
-46.698371887207 -66.804550170898 -147.915191650391 1.688586235046
-53.062198638916 -62.310115814209 -148.307464599609 5.850791931152
-43.050735473633 -66.454772949219 -155.475509643555 1.674859523773
26.523962020874 -71.559112548828 -162.288146972656 2.417057275772
-51.038681030273 -68.384422302246 -151.638824462891 1.943957805634
-101.355140686035 -63.205936431885 -150.280090332031 2.938679695129
-46.258094787598 -65.348236083984 -157.441421508789 4.115621566772
24.664260864258 -71.392677307129 -148.574768066406 1.449619174004
-99.566108703613 -71.794296264648 -163.874328613281 3.906251668930
21.702438354492 -71.370796203613 -158.078689575195 2.681670188904
-108.527999877930 -64.273605346680 -170.697494506836 2.841219902039
-102.018051147461 -67.298789978027 -164.513031005859 1.954560756683
21.249607086182 -69.175270080566 -165.349288940430 1.946640968323
25.278774261475 -67.750381469727 -168.241485595703 1.027852177620
-109.251426696777 -68.901054382324 -174.527404785156 1.031715869904
-142.946151733398 -64.217163085938 -175.593551635742 0.735572993755
-20.674024581909 -68.807083129883 -189.957962036133 2.100454807281
-28.274326324463 -67.528457641602 -182.276168823242 1.421675086021
-116.185134887695 -67.801017761230 -187.905838012695 2.868862152100
-144.537963867188 -61.835083007813 -188.036071777344 1.352997899055
-104.211753845215 -64.286041259766 -182.490554809570 1.910500764847
-158.826965332031 -65.956520080566 -191.618103027344 3.652094364166
-132.099761962891 -70.291091918945 -196.260177612305 0.674283742905
-134.034027099609 -68.093719482422 -197.210845947266 1.071569681168
-20.633382797241 -66.747413635254 -189.995697021484 1.945518970490
-121.112655639648 -67.016479492188 -198.969879150391 2.227899551392
-117.717605590820 -63.327091217041 -199.928726196289 1.640054941177
-27.761108398438 -70.134933471680 -195.192092895508 1.588563323021
-155.056411743164 -63.519100189209 -198.979537963867 2.297956943512
-133.003265380859 -67.975944519043 -205.881072998047 1.730916023254
-125.639884948730 -64.275619506836 -205.510467529297 1.538859605789
17.306299209595 -70.995330810547 -202.297607421875 1.456758022308
-162.729080200195 -65.080612182617 -204.327117919922 2.515437602997
10.510990142822 -67.932319641113 -215.763381958008 0.654007494450
13.182335853577 -69.945327758789 -215.173614501953 1.498827695847
-17.695934295654 -64.977882385254 -209.605438232422 4.036293029785
-5.761825084686 -68.706977844238 -216.938049316406 1.760914802551
-170.697814941406 -62.903541564941 -211.504913330078 7.427309989929
-159.738372802734 -62.343162536621 -214.085037231445 5.054429531097
-95.403625488281 -66.616668701172 -219.386184692383 2.098639011383
-99.332771301270 -68.217506408691 -223.726699829102 1.114378333092
-161.629196166992 -65.959724426270 -226.348571777344 1.771934509277
-107.155120849609 -64.823211669922 -220.275817871094 2.519074678421
-12.774859428406 -66.888748168945 -214.788497924805 0.721687972546
-128.155731201172 -67.741157531738 -223.396987915039 2.720036268234
-142.806915283203 -66.521324157715 -225.195007324219 2.307089567184
-3.856165885925 -69.982284545898 -221.889007568359 1.756840825081
-134.952209472656 -64.479209899902 -225.877960205078 1.661688923836
-124.502388000488 -70.039154052734 -224.291519165039 1.323129892349
-115.060165405273 -68.381797790527 -225.796325683594 1.315216302872
-0.265816003084 -64.035903930664 -228.682662963867 3.921638250351
-107.896263122559 -65.066276550293 -231.690567016602 2.442065477371
-161.035583496094 -60.503002166748 -224.132049560547 4.926206111908
-147.320098876953 -64.877929687500 -227.943023681641 2.477787017822
-166.076370239258 -64.842056274414 -226.390686035156 0.616815924644
-8.623745918274 -67.945266723633 -227.295837402344 2.461307764053
-9.085512161255 -68.565109252930 -233.184478759766 1.529620051384
77.698905944824 -72.253501892090 -225.776855468750 0.737163066864
-0.838851988316 -70.451103210449 -230.087432861328 1.137013673782
-143.616165161133 -65.595130920410 -237.355468750000 3.514833450317
-14.896365165710 -66.789871215820 -229.808807373047 2.939666748047
73.368881225586 -70.333923339844 -228.349563598633 1.297074437141
73.984580993652 -70.429237365723 -233.399246215820 1.377961397171
-135.208770751953 -64.587974548340 -233.594085693359 2.030690670013
-158.100631713867 -67.942253112793 -229.660751342773 0.335579276085
-114.828216552734 -65.047607421875 -233.992233276367 1.319494843483
-125.288696289063 -62.073738098145 -236.736358642578 3.624451160431
-164.316116333008 -64.111938476563 -236.124511718750 3.208056449890
