-50.958309173584 -68.930915832520 -152.720611572266 1.622826933861
-101.302169799805 -63.973339080811 -151.569503784180 1.752193570137
-46.160198211670 -65.811683654785 -158.464401245117 3.940150260925
24.739448547363 -71.663215637207 -149.292175292969 1.854902267456
-99.406806945801 -72.404533386230 -165.247436523438 4.616018295288
21.827087402344 -71.549087524414 -158.810699462891 2.171161174774
-108.364135742188 -64.846069335938 -172.034759521484 2.377985477448
-101.874000549316 -67.912345886230 -165.849716186523 0.889155864716
21.403024673462 -69.275733947754 -166.059082031250 1.637297153473
25.441253662109 -67.802719116211 -168.914306640625 0.781100511551
-109.048431396484 -69.434097290039 -175.918884277344 2.531289100647
-142.756256103516 -64.876525878906 -177.110595703125 1.629984378815
-20.393062591553 -68.808700561523 -190.882080078125 1.701637029648
-28.038490295410 -67.645576477051 -183.226760864258 1.013351798058
-115.916885375977 -68.215583801270 -189.320709228516 2.168080091476
-144.293121337891 -62.364501953125 -189.534439086914 2.028498888016
-103.986534118652 -64.711372375488 -183.804412841797 2.761540889740
-158.546081542969 -66.504714965820 -193.236419677734 2.285569190979
-131.777328491211 -70.678794860840 -197.785293579102 1.698341131210
-133.715713500977 -68.479042053223 -198.721969604492 2.647194862366
-20.360759735107 -66.748596191406 -190.897033691406 2.360009670258
-120.789939880371 -67.329750061035 -200.401199340820 3.553358078003
-117.405258178711 -63.616214752197 -201.301712036133 1.058763384819
-27.447233200073 -70.107963562012 -196.167602539063 1.223379015923
-154.747375488281 -63.971229553223 -200.550811767578 2.940793752670
-132.640319824219 -68.261863708496 -207.384841918945 3.099290847778
-125.294372558594 -64.535766601563 -206.935043334961 2.300848245621
17.659725189209 -70.706092834473 -203.045318603516 0.922190070152
-162.385559082031 -65.505271911621 -205.955398559570 2.425709009171
10.921987533569 -67.523216247559 -216.512222290039 0.766627192497
13.598546028137 -69.531646728516 -215.930541992188 1.641212940216
-17.328609466553 -64.751869201660 -210.470489501953 4.115056514740
-5.341135978699 -68.351425170898 -217.780761718750 1.362510204315
-170.325759887695 -63.282108306885 -213.150650024414 7.006091594696
-159.355453491211 -62.648651123047 -215.666885375977 5.013889312744
-94.976837158203 -66.600730895996 -220.676589965820 3.304458856583
-98.876663208008 -68.169853210449 -225.054962158203 2.097972154617
-161.167388916016 -66.138038635254 -227.979064941406 2.547411680222
-106.730873107910 -64.845649719238 -221.608215332031 1.652856230736
-12.372739791870 -66.585578918457 -215.648269653320 1.475361108780
-127.702659606934 -67.814956665039 -224.871429443359 1.830131411552
-142.349212646484 -66.635345458984 -226.732894897461 0.982569277287
-3.404454946518 -69.564491271973 -222.735321044922 2.278199911118
-134.499588012695 -64.553771972656 -227.352172851563 0.579476535320
-124.035224914551 -70.088043212891 -225.771896362305 1.664701700211
-114.592247009277 -68.375686645508 -227.208831787109 1.167643308640
0.196544006467 -63.529254913330 -229.444458007813 3.956765413284
-107.411560058594 -64.966400146484 -233.028686523438 3.721754074097
-160.607940673828 -60.703601837158 -225.699798583984 4.735620498657
-146.854797363281 -64.980331420898 -229.486404418945 2.049586772919
-165.618881225586 -65.038162231445 -228.032287597656 1.191521883011
-8.152218818665 -67.487731933594 -228.144470214844 2.692717075348
-8.580745697021 -68.044761657715 -234.041885375977 1.832256317139
78.178443908691 -71.459564208984 -226.219451904297 1.092553734779
-0.342579007149 -69.930931091309 -230.922424316406 2.151003122330
-143.098968505859 -65.579002380371 -238.886566162109 3.520639657974
-14.416400909424 -66.330459594727 -230.677520751953 3.102616310120
73.853958129883 -69.529571533203 -228.793685913086 2.022071361542
74.496330261230 -69.566917419434 -233.840805053711 1.714216470718
-134.715515136719 -64.578849792480 -235.070266723633 1.769699454308
-157.613449096680 -68.069648742676 -231.294204711914 1.380006551743
-114.331451416016 -64.950790405273 -235.366378784180 2.737467288971
-124.789726257324 -61.989742279053 -238.132659912109 4.542296409607
-163.811019897461 -64.194023132324 -237.748153686523 3.186913967133
-160.227813720703 -65.844451904297 -238.576660156250 1.433235287666
-146.820297241211 -62.204414367676 -236.859893798828 1.174680352211
-12.887143135071 -66.808464050293 -236.834991455078 2.588669538498
-5.294047832489 -67.185546875000 -241.904769897461 2.536607027054
-160.786254882813 -63.926841735840 -243.533264160156 3.968414306641
5.332425117493 -68.858398437500 -239.546875000000 1.684210658073
2.698395013809 -68.707267761230 -238.029190063477 1.367124080658
-160.187026977539 -65.123878479004 -241.700195312500 2.301325798035
16.640081405640 -71.823127746582 -243.546615600586 1.860274314880
50.676582336426 -70.892150878906 -246.334426879883 2.542538404465
50.468948364258 -70.852127075195 -245.370315551758 1.585470318794
-16.056207656860 -68.594459533691 -248.497253417969 1.839709043503
48.168281555176 -67.403076171875 -250.111297607422 1.008191823959
-161.501388549805 -62.186763763428 -252.956649780273 7.030788421631
-159.208419799805 -65.508598327637 -250.339675903320 2.843766212463
-160.623535156250 -68.608222961426 -252.476318359375 0.950468838215
54.637016296387 -68.430198669434 -249.623092651367 1.651982069016
-92.275863647461 -65.150741577148 -255.019653320313 2.260125875473
-124.941001892090 -64.930267333984 -256.912689208984 1.315845251083
-106.006149291992 -69.938385009766 -256.084899902344 2.134999513626
26.447454452515 -71.686256408691 -258.654602050781 2.716722965240
41.203758239746 -66.503196716309 -252.167098999023 1.039767742157
-100.861747741699 -63.624866485596 -257.199645996094 2.124032258987
-93.727050781250 -62.328311920166 -253.817840576172 3.941677808762
45.259120941162 -72.078819274902 -255.540710449219 2.709301948547
42.130985260010 -66.803863525391 -257.701385498047 0.449004203081
-155.069458007813 -69.738021850586 -260.818084716797 1.275623083115
30.342844009399 -68.099937438965 -260.365081787109 1.426616072655
-143.007171630859 -68.107543945313 -267.034149169922 2.404988527298
-113.567466735840 -65.321052551270 -264.816284179688 3.525983810425
-137.118835449219 -64.344787597656 -265.141418457031 4.126781463623
31.138280868530 -67.766586303711 -263.866607666016 2.260699987411
-126.286239624023 -64.365684509277 -266.013092041016 2.139456033707
-11.408546447754 -66.283607482910 -259.583892822266 2.949074745178
21.433303833008 -70.840446472168 -272.262725830078 3.374857902527
-5.890902996063 -71.475051879883 -266.809936523438 4.090969085693
19.695541381836 -69.608764648438 -281.111236572266 2.126524925232
-153.312118530273 -66.659873962402 -285.218078613281 2.096512317657
-10.973699569702 -65.942451477051 -282.074707031250 3.186563968658
-153.188278198242 -68.257942199707 -285.304443359375 1.599796533585
-123.828460693359 -66.964668273926 -287.487609863281 0.803541839123
-160.567886352539 -70.376152038574 -289.146606445313 1.813295483589
-114.746063232422 -65.336677551270 -289.434570312500 1.662255883217
-104.443572998047 -65.838638305664 -291.821105957031 4.503530979156
-6.974586009979 -65.714271545410 -286.656921386719 2.715462446213
-108.329307556152 -66.776771545410 -291.521026611328 2.483229160309
-116.489059448242 -63.277996063232 -287.525451660156 4.089198112488
-120.208877563477 -62.378822326660 -293.958984375000 5.260105133057
-138.044479370117 -64.789588928223 -292.365478515625 3.026263237000
-126.181823730469 -62.923252105713 -293.912414550781 4.343554019928
-157.753067016602 -69.058830261230 -292.700927734375 2.646816015244
-146.794052124023 -63.052455902100 -295.383117675781 1.400657176971
-156.370910644531 -62.311397552490 -304.439331054688 6.231646060944
-153.970596313477 -62.871170043945 -313.695892333984 3.607882976532
-158.210540771484 -63.116924285889 -303.763244628906 6.826678276062
-141.602249145508 -65.628105163574 -313.177154541016 4.711151599884
-149.383163452148 -65.736526489258 -316.470886230469 3.635182619095
33.451965332031 -72.903915405273 -9.818287849426 3.859932661057
44.849540710449 -76.012466430664 -17.227689743042 4.211120605469
22.321727752686 -68.724479675293 -24.402935028076 2.891278505325
48.616199493408 -72.775566101074 -28.092185974121 1.775338411331
26.384235382080 -74.002632141113 -35.258487701416 2.820364952087
31.100574493408 -72.947280883789 -35.445175170898 2.452314853668
-59.268566131592 -66.117744445801 -48.976890563965 3.766304016113
78.412918090820 -68.302833557129 -61.557926177979 1.453136444092
79.676437377930 -72.792091369629 -67.286643981934 2.242292404175
-91.839874267578 -70.027153015137 -64.257270812988 2.539429426193
-14.072088241577 -67.918655395508 -62.642990112305 0.460968345404
-93.887016296387 -70.769363403320 -72.021903991699 1.739268779755
94.992156982422 -73.893028259277 -69.002288818359 2.762228012085
-15.105066299438 -67.331130981445 -69.152305603027 1.228038787842
66.268577575684 -73.857475280762 -79.342979431152 3.867633581161
-43.317367553711 -73.640571594238 -80.786811828613 2.077717781067
-28.599521636963 -73.373046875000 -77.169853210449 0.800945520401
54.996654510498 -67.836708068848 -86.757530212402 1.302038431168
-45.481491088867 -79.347412109375 -86.032341003418 2.137917280197
63.697391510010 -64.067855834961 -87.386817932129 1.770823955536
51.593860626221 -74.862907409668 -90.396690368652 1.752941131592
52.453887939453 -70.953681945801 -94.278587341309 1.524883985519
58.274517059326 -75.349670410156 -91.420181274414 1.946439385414
55.681903839111 -68.035591125488 -96.266075134277 1.786625742912
98.587982177734 -68.689216613770 -97.867820739746 1.000302433968
104.847679138184 -67.632347106934 -98.687576293945 1.320678353310
58.583671569824 -73.259437561035 -100.499412536621 3.034380912781
105.787353515625 -67.660461425781 -99.579185485840 1.634864568710
-78.081588745117 -68.209205627441 -100.936683654785 1.837427854538
-73.809097290039 -68.142341613770 -103.661354064941 2.240232229233
99.164558410645 -68.408798217773 -98.610359191895 1.185464620590
52.061439514160 -71.217666625977 -101.418022155762 2.495822906494
69.219276428223 -72.292953491211 -99.121803283691 2.355290412903
-73.587516784668 -68.597625732422 -109.009757995605 0.962346374989
-86.227470397949 -67.020263671875 -108.936325073242 2.610161304474
87.987770080566 -73.828414916992 -104.632019042969 3.537124156952
39.044528961182 -71.468620300293 -104.956092834473 1.713036060333
103.756935119629 -68.024436950684 -105.894599914551 0.895641207695
45.448520660400 -72.376853942871 -114.141395568848 1.765707015991
108.941680908203 -71.534492492676 -103.607131958008 2.188529729843
-79.771316528320 -67.806556701660 -112.737861633301 2.028824806213
103.462898254395 -67.188186645508 -108.613471984863 2.963379859924
-85.260993957520 -65.694145202637 -122.892410278320 1.858887672424
-59.551898956299 -70.498451232910 -130.048873901367 0.662074208260
-56.879322052002 -67.402328491211 -126.321403503418 1.154679417610
-73.450706481934 -69.341934204102 -131.575057983398 1.340152382851
-51.935665130615 -69.637756347656 -132.385665893555 1.953258514404
-85.001792907715 -69.334564208984 -134.645416259766 1.950047492981
-78.408088684082 -64.957183837891 -134.648345947266 1.634763956070
-81.555572509766 -67.948989868164 -132.641525268555 1.416304945946
-61.165794372559 -72.345031738281 -143.098602294922 3.355393409729
-72.507743835449 -67.606468200684 -142.263717651367 1.077645659447
-61.010749816895 -71.233795166016 -136.654708862305 2.385245800018
-59.495784759521 -68.314224243164 -143.346649169922 1.096320748329
15.890485763550 -65.809051513672 -144.612762451172 1.165974140167
-91.903198242188 -67.935752868652 -143.999877929688 1.492516517639
-48.604541778564 -71.700202941895 -148.134017944336 2.178422212601
-97.321128845215 -65.546279907227 -151.546707153320 3.051830291748
-101.732673645020 -65.038360595703 -151.087051391602 1.488628745079
18.256675720215 -70.830596923828 -154.626327514648 2.337520837784
13.200831413269 -70.123161315918 -159.029876708984 0.680288374424
-96.676788330078 -68.786132812500 -161.599319458008 2.287084817886
-104.355895996094 -67.270042419434 -156.120697021484 2.669875383377
-101.120910644531 -65.829452514648 -170.262161254883 1.578809618950
21.291959762573 -68.110099792480 -170.671325683594 1.745647549629
-111.252075195313 -66.479072570801 -174.738204956055 1.752643346786
21.880552291870 -68.954948425293 -167.255065917969 1.393641591072
-148.331176757813 -66.234016418457 -178.901733398438 3.308897495270
17.091142654419 -68.365547180176 -177.265060424805 1.021601319313
23.470355987549 -69.240211486816 -186.691925048828 1.117034077644
-152.964187622070 -64.606544494629 -189.014694213867 2.260812044144
20.655275344849 -69.393768310547 -177.222869873047 0.521437108517
18.472232818604 -63.206111907959 -181.177673339844 3.592035055161
-144.390701293945 -69.444229125977 -187.195526123047 1.851554155350
-152.479904174805 -63.565540313721 -191.648422241211 3.763207674026
19.252557754517 -68.481758117676 -189.169906616211 1.517220735550
17.795049667358 -70.027290344238 -190.694778442383 1.189744234085
-142.801406860352 -67.798156738281 -196.176605224609 1.972422242165
-109.625404357910 -66.762130737305 -199.779037475586 2.153284072876
23.278984069824 -68.853340148926 -199.315322875977 3.010481357574
-125.460647583008 -66.007720947266 -197.038391113281 2.204546689987
10.051997184753 -70.139541625977 -200.874359130859 1.648329734802
-130.738845825195 -61.387157440186 -196.597473144531 2.018119573593
-160.041885375977 -63.546157836914 -193.197906494141 4.390001296997
-162.090652465820 -64.978302001953 -199.335968017578 1.994502305984
-159.424194335938 -66.594718933105 -197.684219360352 1.997866392136
-20.754774093628 -67.541473388672 -205.832077026367 1.667113542557
-168.229248046875 -67.550842285156 -202.288024902344 1.962986946106
-27.089282989502 -64.671447753906 -193.948455810547 3.787471055984
-16.127330780029 -69.004325866699 -197.125457763672 1.471037268639
9.206749916077 -63.809093475342 -196.556121826172 4.927547454834
-158.373046875000 -65.497848510742 -206.476257324219 2.702816486359
-108.695907592773 -65.108123779297 -204.326492309570 3.542753458023
-18.060863494873 -64.752441406250 -202.841674804688 3.009747028351
-160.698028564453 -61.505607604980 -204.264862060547 4.859449386597
16.126804351807 -68.312347412109 -202.426132202148 1.296136260033
-169.359588623047 -63.347560882568 -207.717102050781 4.912661075592
-121.359809875488 -68.287651062012 -205.075805664063 2.257633209229
-115.929985046387 -63.518218994141 -209.453933715820 6.258934974670
-123.558845520020 -65.105178833008 -206.532135009766 1.522891879082
-15.405278205872 -66.794181823730 -204.812042236328 1.394483685493
-17.962308883667 -67.801345825195 -205.736572265625 1.856622815132
-164.833633422852 -64.579582214355 -213.436584472656 2.105301380157
-160.580703735352 -63.395572662354 -215.070541381836 4.375932693481
-165.311203002930 -65.469688415527 -222.267745971680 1.658010721207
-141.892517089844 -67.436149597168 -216.659561157227 2.670226812363
-145.212860107422 -65.447463989258 -226.415512084961 3.074873924255
-3.420492887497 -65.915069580078 -221.063369750977 2.030852317810
-10.103479385376 -70.806869506836 -218.167007446289 1.463684439659
-100.430847167969 -64.495674133301 -222.919113159180 3.071803808212
-7.148691177368 -65.860588073730 -233.298660278320 1.917722105980
-167.441955566406 -62.568119049072 -231.741378784180 5.482118129730
-107.120735168457 -63.716407775879 -234.457733154297 5.588088512421
0.996469974518 -67.463409423828 -227.723373413086 1.790595650673
2.455832004547 -66.375473022461 -230.926605224609 1.861939549446
-112.163452148438 -66.203704833984 -235.281646728516 3.852005481720
-1.876714944839 -68.036994934082 -229.902038574219 1.271678447723
-118.036804199219 -62.880916595459 -236.525634765625 3.817788362503
-8.057313919067 -64.449195861816 -234.271514892578 2.251228570938
-2.528212070465 -66.166870117188 -235.985397338867 1.195812463760
-1.889737963676 -66.802673339844 -238.772872924805 1.482730388641
71.369346618652 -65.559379577637 -236.766418457031 2.926837205887
-11.102004051208 -69.831253051758 -238.838409423828 1.906998753548
7.045285224915 -67.886947631836 -238.242126464844 1.430161118507
10.874258041382 -66.437324523926 -240.074295043945 1.070818543434
5.140256881714 -67.882369995117 -239.877563476563 2.136449813843
2.282639980316 -68.562438964844 -242.193023681641 0.834013938904
63.933727264404 -64.248504638672 -238.934066772461 2.525711774826
68.725051879883 -65.358650207520 -240.572341918945 4.162423610687
8.134142875671 -66.912628173828 -247.899917602539 2.720046997070
53.779975891113 -68.821006774902 -242.750549316406 2.344856023788
55.258136749268 -71.455932617188 -241.236541748047 1.437547922134
46.829666137695 -64.637542724609 -249.910781860352 1.155025482178
41.164760589600 -65.499732971191 -251.902511596680 1.786404848099
40.590671539307 -66.385429382324 -257.045684814453 1.795794010162
-131.955581665039 -61.198806762695 -260.201049804688 3.834580659866
-10.572981834412 -66.319442749023 -251.185485839844 1.687784790993
28.258037567139 -66.063575744629 -258.798767089844 2.331479787827
44.840034484863 -66.769523620605 -248.679382324219 2.132655382156
27.179031372070 -69.553749084473 -254.692947387695 2.171454668045
-103.054206848145 -66.798004150391 -260.876647949219 2.892093896866
31.083875656128 -68.059967041016 -257.002624511719 1.696787238121
-147.294662475586 -66.456199645996 -263.503784179688 1.779062271118
-116.564437866211 -66.467323303223 -259.094055175781 1.147953391075
-109.000411987305 -65.005638122559 -260.051818847656 2.640792608261
-3.728321075439 -68.634300231934 -260.144714355469 3.699689388275
-150.634124755859 -65.846427917480 -259.936553955078 1.601450920105
35.155963897705 -66.981857299805 -262.527526855469 2.127953290939
-109.923721313477 -63.936355590820 -258.801666259766 3.338938951492
25.973041534424 -70.329139709473 -260.038085937500 1.299803733826
-135.108764648438 -66.296737670898 -265.218231201172 1.832637429237
-116.624984741211 -64.036811828613 -266.253448486328 3.023359298706
-109.699981689453 -64.426673889160 -263.465515136719 3.357567787170
-115.208984375000 -69.010749816895 -263.756256103516 2.885138750076
-140.215026855469 -66.124221801758 -260.348114013672 1.857125639915
28.837902069092 -67.563056945801 -260.947387695313 1.361583113670
-117.508163452148 -63.663761138916 -265.234527587891 3.089485168457
-144.504608154297 -66.043190002441 -266.043792724609 2.523753643036
-5.139301776886 -64.536514282227 -271.818634033203 3.544395685196
-150.807220458984 -66.480346679688 -283.761505126953 1.783241510391
-8.327259063721 -66.805755615234 -287.384857177734 2.209383726120
-5.349660873413 -64.109680175781 -283.972656250000 2.236699342728
-134.291656494141 -64.054992675781 -290.133697509766 2.119015932083
-127.503120422363 -64.711418151855 -292.810852050781 2.326045513153
-135.600708007813 -64.130729675293 -296.415435791016 6.531640052795
-126.511543273926 -63.216945648193 -294.117889404297 4.183243274689
-154.778961181641 -64.425704956055 -297.110107421875 3.786131143570
-156.025527954102 -64.166862487793 -302.840698242188 4.436262130737
-147.767868041992 -67.009094238281 -303.589355468750 1.151588916779
-149.632659912109 -64.591453552246 -305.926727294922 3.137280941010
-144.977096557617 -63.928386688232 -301.639465332031 4.388231754303
-149.314712524414 -63.091369628906 -306.794281005859 4.279868602753
-145.969696044922 -61.644622802734 -317.339538574219 7.818246841431
17.467315673828 -73.739295959473 -28.398487091064 3.462861537933
47.443225860596 -73.941719055176 -36.500362396240 2.436532974243
23.534185409546 -76.234672546387 -38.645122528076 5.295014381409
30.641218185425 -71.855087280273 -43.324485778809 2.279865264893
-44.276283264160 -64.188308715820 -49.303958892822 2.415791988373
-78.260910034180 -66.670005798340 -52.305881500244 4.472981452942
78.743499755859 -69.865737915039 -61.805683135986 2.509370565414
72.910934448242 -71.204597473145 -62.691070556641 4.579946517944
69.938186645508 -72.142036437988 -66.691551208496 3.837570905685
-100.870674133301 -67.665931701660 -74.740119934082 4.643491744995
97.711952209473 -73.997611999512 -75.993392944336 1.576456189156
-32.003566741943 -69.725967407227 -83.990715026855 6.427428722382
61.547657012939 -68.781463623047 -76.988456726074 4.949156284332
-44.672920227051 -65.547607421875 -84.102333068848 1.626265525818
-55.444385528564 -66.143196105957 -84.186004638672 1.603296041489
49.339569091797 -70.805000305176 -91.092124938965 1.351897358894
100.870445251465 -70.037483215332 -90.566429138184 1.051337480545
62.673927307129 -67.820938110352 -94.217445373535 0.880467236042
55.348087310791 -68.382110595703 -93.443756103516 2.081564664841
47.332031250000 -67.148307800293 -102.027610778809 1.525961041451
55.277053833008 -66.317138671875 -100.894981384277 2.278302907944
101.727676391602 -68.532493591309 -97.955856323242 1.597111463547
68.451728820801 -69.088623046875 -106.725074768066 4.492398738861
48.827419281006 -69.192062377930 -106.363731384277 1.105328440666
75.221214294434 -74.231277465820 -107.411041259766 5.656912803650
94.345855712891 -66.793716430664 -108.020156860352 1.707946896553
-76.595207214355 -65.737075805664 -103.348114013672 2.154515028000
-88.123291015625 -67.858810424805 -112.112152099609 1.368628382683
-83.509231567383 -68.070892333984 -114.645317077637 1.051203608513
-61.394870758057 -66.598274230957 -120.277473449707 1.929851055145
-58.403633117676 -70.760078430176 -127.662757873535 1.767007589340
-95.839416503906 -66.534973144531 -123.712783813477 2.677296638489
-76.360801696777 -68.575698852539 -121.252616882324 2.301525831223
-77.892219543457 -70.337860107422 -134.182388305664 0.568113803864
-62.014282226563 -65.094276428223 -129.928985595703 0.801001489162
-89.683532714844 -63.526546478271 -132.258941650391 1.843309879303
-90.925514221191 -66.228317260742 -131.996841430664 1.474950313568
-49.324996948242 -70.864112854004 -136.899429321289 1.708545088768
-52.581974029541 -67.951530456543 -138.209503173828 1.504934072495
-78.384391784668 -68.489227294922 -140.305648803711 0.475450485945
-55.045707702637 -68.866760253906 -143.135375976563 1.894011616707
-75.469352722168 -69.700859069824 -145.638107299805 1.158631086349
20.076026916504 -66.219505310059 -139.592575073242 0.910052418709
-58.533287048340 -70.848091125488 -146.470275878906 2.072128057480
-56.006404876709 -64.370262145996 -147.126541137695 3.677023410797
8.202001571655 -70.897666931152 -156.154144287109 1.918881535530
15.768000602722 -66.515220642090 -151.961959838867 0.189371898770
-143.086898803711 -65.822387695313 -176.571060180664 1.814961552620
-111.059768676758 -65.056221008301 -180.213867187500 2.633820533752
-110.253410339355 -62.649272918701 -191.772277832031 2.841055154800
-153.173263549805 -66.692314147949 -193.979827880859 1.666233062744
-113.683448791504 -65.013366699219 -187.847152709961 1.732185125351
-152.575378417969 -61.375610351563 -198.677078247070 0.761755824089
-114.650657653809 -64.188369750977 -200.666061401367 1.000677466393
-150.775253295898 -62.639003753662 -202.811935424805 1.942018508911
-151.011947631836 -64.941497802734 -208.763290405273 1.669833779335
-153.413619995117 -68.358634948730 -210.509002685547 3.240205287933
-148.126174926758 -64.410896301270 -226.363494873047 2.838947296143
-150.623764038086 -67.246574401855 -227.809768676758 2.397501230240
-105.313018798828 -63.172595977783 -228.066009521484 3.456341266632
-102.207626342773 -65.108840942383 -224.478897094727 3.111678838730
-123.488006591797 -60.806972503662 -232.673233032227 4.449106216431
-108.340339660645 -64.570869445801 -228.211471557617 1.801998376846
-156.717590332031 -65.464691162109 -233.189041137695 2.481616735458
-3.210982084274 -66.208679199219 -227.103317260742 2.440432071686
-134.108963012695 -66.409599304199 -233.133621215820 0.875861883163
-153.617431640625 -65.582672119141 -237.690582275391 3.084617614746
-137.188156127930 -66.911277770996 -235.645324707031 3.241561174393
-11.436164855957 -65.582710266113 -237.211517333984 2.606078386307
8.711576461792 -66.775337219238 -244.019546508789 1.936830163002
62.761772155762 -63.444541931152 -241.127838134766 3.194920301437
18.124011993408 -69.474754333496 -249.513275146484 2.251763820648
55.864967346191 -66.701171875000 -244.155700683594 2.384919404984
41.132175445557 -68.427093505859 -250.306030273438 2.042305469513
58.800662994385 -64.788467407227 -252.025405883789 4.469988346100
-152.531433105469 -64.131881713867 -252.784027099609 1.237860441208
-149.531738281250 -67.609680175781 -256.922119140625 0.791503131390
42.778091430664 -65.564002990723 -257.396209716797 1.537859559059
29.367881774902 -66.231552124023 -256.457946777344 2.137194156647
47.689643859863 -64.684501647949 -253.252029418945 2.300794363022
-144.812088012695 -66.829307556152 -262.012054443359 0.888350784779
-136.400558471680 -62.768806457520 -257.639709472656 3.785768508911
-124.906013488770 -62.217704772949 -260.129455566406 2.425036907196
-134.041412353516 -64.538070678711 -258.382293701172 0.957247316837
-140.862747192383 -64.842163085938 -260.329528808594 2.254372358322
-123.672554016113 -63.666881561279 -261.686462402344 1.537014722824
-142.741470336914 -62.536808013916 -262.673797607422 1.060549259186
-126.301689147949 -65.995941162109 -261.769561767578 0.937277793884
-122.389160156250 -64.442848205566 -266.611236572266 3.802455186844
-127.553665161133 -64.768241882324 -267.087829589844 2.742162466049
-120.374519348145 -61.393039703369 -266.203186035156 5.556111335754
-5.231649875641 -66.323623657227 -267.100250244141 1.455960631371
27.996534347534 -64.008880615234 -262.836486816406 0.935792744160
-146.152908325195 -60.452472686768 -269.295532226563 4.498523235321
26.248634338379 -66.611320495605 -269.890106201172 2.150364160538
-4.744585990906 -61.651317596436 -275.403869628906 5.238350868225
17.147354125977 -71.174743652344 -284.500823974609 2.351109981537
-141.428771972656 -64.169998168945 -291.576049804688 2.281908273697
-125.289001464844 -65.031242370605 -289.548095703125 0.821359753609
-132.001113891602 -60.177402496338 -292.575256347656 6.546061992645
-158.251464843750 -59.499675750732 -294.440246582031 6.050862312317
-125.815963745117 -59.554340362549 -291.495971679688 5.836122989655
-117.895065307617 -61.948963165283 -291.367492675781 4.935646057129
-125.391036987305 -65.461105346680 -297.948577880859 5.766952991486
-150.698364257813 -65.990173339844 -296.134796142578 2.376170635223
26.002958297729 -74.132698059082 -13.266869544983 3.447491884232
29.251520156860 -74.703834533691 -18.207691192627 2.202381134033
35.816749572754 -71.376014709473 -20.575849533081 3.648513317108
46.019401550293 -65.696395874023 -24.086454391479 3.059768676758
25.239015579224 -75.514793395996 -28.783439636230 3.123394966125
18.336032867432 -73.609519958496 -35.375476837158 3.353732585907
-36.255989074707 -69.258064270020 -47.708980560303 1.945642828941
-84.241920471191 -69.373092651367 -54.951820373535 1.658411622047
-18.241291046143 -68.576469421387 -59.790447235107 1.264187693596
70.989318847656 -68.183799743652 -65.113044738770 2.318787336349
99.990631103516 -69.384460449219 -68.714668273926 3.332522153854
63.100799560547 -67.886787414551 -83.347999572754 1.798338174820
59.756671905518 -64.791946411133 -83.499412536621 1.164857625961
98.639572143555 -69.751739501953 -84.475440979004 1.885926961899
-65.619827270508 -64.959625244141 -92.148040771484 1.755620241165
-66.990364074707 -67.210075378418 -92.866737365723 3.329713582993
48.105327606201 -66.854644775391 -93.878479003906 0.984864115715
-68.743873596191 -68.560111999512 -97.648437500000 2.553703308105
-73.026077270508 -66.733283996582 -102.524414062500 1.191510558128
-98.167449951172 -65.551475524902 -101.758872985840 0.713156223297
-77.216064453125 -63.787750244141 -101.823158264160 2.031195878983
45.427520751953 -65.608818054199 -102.172157287598 1.137462615967
-68.992057800293 -68.907356262207 -105.114830017090 3.316745281219
48.036800384521 -66.566749572754 -103.576850891113 1.010385036469
94.729888916016 -68.838806152344 -104.804138183594 1.615085601807
89.394134521484 -68.698005676270 -111.383872985840 5.063346862793
-74.267532348633 -66.282142639160 -116.179779052734 1.572602510452
-85.932113647461 -67.358894348145 -114.306930541992 1.953815698624
-63.233394622803 -66.530342102051 -120.768402099609 1.833717226982
-97.513778686523 -62.874061584473 -121.050933837891 1.658395528793
-77.991424560547 -68.047698974609 -129.050109863281 1.846584081650
-94.662330627441 -60.080280303955 -127.181541442871 3.547100067139
-64.685089111328 -64.927658081055 -119.550827026367 1.064904808998
-61.504722595215 -61.166309356689 -121.975784301758 3.431352376938
-89.952583312988 -66.515197753906 -131.457244873047 1.875713348389
-64.595321655273 -69.495765686035 -129.110656738281 3.463261604309
-85.359848022461 -65.091957092285 -134.326263427734 1.417387127876
-80.773872375488 -66.812835693359 -135.692199707031 1.432392001152
-63.365612030029 -69.684188842773 -136.194656372070 1.259028196335
-62.045658111572 -62.732131958008 -136.177764892578 1.990930914879
-55.848934173584 -61.802425384521 -136.973709106445 1.319097280502
-97.518974304199 -63.459186553955 -134.275909423828 6.097199440002
-98.094474792480 -63.139041900635 -146.068237304688 2.473166227341
-89.719055175781 -66.196983337402 -136.856048583984 1.967113494873
19.498390197754 -69.348991394043 -149.354400634766 2.140060424805
-51.086841583252 -66.912559509277 -143.364608764648 1.472738623619
16.933639526367 -66.834579467773 -151.091796875000 1.377357006073
-99.084007263184 -65.860488891602 -166.516677856445 3.043528318405
-103.792633056641 -69.076156616211 -173.496597290039 1.734142065048
-103.267051696777 -62.046852111816 -173.300018310547 2.454730510712
-108.640220642090 -60.488208770752 -173.360534667969 3.101585149765
-108.267074584961 -65.536117553711 -181.664321899414 2.720985174179
-111.337532043457 -64.517959594727 -180.447616577148 2.607188224792
-142.786224365234 -62.791271209717 -189.463363647461 1.874999761581
-112.587478637695 -63.481594085693 -188.601303100586 2.914762258530
-134.219100952148 -61.410583496094 -201.981826782227 2.349027395248
-149.863937377930 -65.915306091309 -200.926544189453 1.116267442703
-127.014144897461 -64.529098510742 -200.334259033203 1.055549979210
-157.429992675781 -65.612472534180 -199.114959716797 2.160191297531
-147.781127929688 -67.024627685547 -204.555892944336 3.137176752090
-125.679420471191 -59.910926818848 -201.043182373047 2.335533142090
-135.052459716797 -63.099960327148 -203.815643310547 2.486233711243
-142.031051635742 -68.595870971680 -208.981964111328 1.499258995056
-132.421783447266 -66.071334838867 -225.908660888672 1.726351261139
-110.836578369141 -65.578262329102 -231.755874633789 2.619533538818
-144.328628540039 -64.567131042480 -230.852111816406 2.215144634247
-118.936424255371 -62.406288146973 -233.327606201172 2.143532752991
-115.944046020508 -60.114711761475 -233.075805664063 4.257710456848
-122.991371154785 -64.665443420410 -235.453643798828 1.267654538155
-130.910568237305 -63.664932250977 -236.799880981445 4.617671966553
-115.852432250977 -61.126178741455 -238.702331542969 6.858666896820
4.239739894867 -64.656555175781 -236.791549682617 0.769582927227
-152.209579467773 -65.043617248535 -240.329635620117 2.935729265213
6.260663986206 -66.523559570313 -236.059127807617 0.885301351547
5.380671024323 -62.229396820068 -243.120498657227 1.890792012215
1.701087951660 -67.132583618164 -242.381988525391 1.645267128944
13.885548591614 -62.327156066895 -241.624023437500 2.038279294968
-144.662933349609 -62.023715972900 -237.722900390625 1.747851252556
-5.153713226318 -66.310127258301 -248.267517089844 3.988606214523
19.284311294556 -65.190704345703 -242.138870239258 1.242066264153
49.570255279541 -64.128005981445 -250.234634399414 1.915140390396
50.623508453369 -64.283889770508 -250.851409912109 1.829532504082
-146.898284912109 -64.897392272949 -255.032470703125 1.751065611839
-5.941112995148 -65.857444763184 -252.674865722656 0.446557164192
22.773424148560 -65.970947265625 -256.699035644531 0.650021076202
-132.380020141602 -58.518833160400 -260.809936523438 6.125474452972
-124.170280456543 -61.830287933350 -260.962554931641 2.650259733200
-124.878715515137 -64.116836547852 -260.466705322266 0.922055304050
26.433069229126 -65.036514282227 -259.681823730469 0.760497748852
-133.981414794922 -61.050552368164 -268.024078369141 6.735258579254
30.614681243896 -63.354602813721 -261.380249023438 2.372857809067
32.538135528564 -65.443519592285 -264.240478515625 3.000306367874
-153.079193115234 -64.936386108398 -269.762878417969 3.601207494736
-146.650436401367 -67.808616638184 -289.671295166016 2.015937566757
-149.438171386719 -59.575416564941 -290.614685058594 3.506440401077
-143.788681030273 -60.409782409668 -296.834106445313 4.812182903290
12.150315284729 -67.629783630371 -293.286376953125 2.867327928543
-154.277389526367 -60.309677124023 -302.648223876953 6.821695804596
43.508052825928 -74.130584716797 -26.989664077759 3.711990833282
33.229988098145 -75.118721008301 -41.194137573242 3.474802494049
-63.404140472412 -65.258331298828 -47.833324432373 4.000254154205
-74.290184020996 -65.150840759277 -48.488071441650 1.998765707016
-29.097589492798 -65.700897216797 -52.116123199463 2.693603754044
-24.207487106323 -70.783218383789 -56.041683197021 2.877552986145
-13.335186004639 -64.308006286621 -68.070838928223 0.111404202878
-28.299064636230 -64.105819702148 -71.308731079102 3.064895153046
62.975959777832 -68.298912048340 -74.488922119141 3.949267864227
-98.689872741699 -61.312793731689 -80.877609252930 1.725899577141
-48.254863739014 -67.090866088867 -87.988273620605 2.577327013016
52.787906646729 -69.261360168457 -86.707733154297 1.128161907196
56.824787139893 -68.211585998535 -87.260726928711 1.441768407822
60.437942504883 -68.724739074707 -89.542999267578 2.138715028763
104.476791381836 -67.851226806641 -91.102928161621 1.283160805702
50.462432861328 -65.417732238770 -91.643180847168 1.067590117455
97.264579772949 -64.168731689453 -100.625175476074 3.260404348373
-83.691230773926 -67.766639709473 -105.380500793457 1.098297953606
-95.820495605469 -65.873992919922 -104.048011779785 1.956780791283
73.684555053711 -64.657241821289 -112.574195861816 4.202810764313
-79.210174560547 -65.375991821289 -105.826049804688 1.765319466591
-79.365188598633 -69.646171569824 -116.880836486816 2.263074159622
-85.593307495117 -69.870811462402 -121.182022094727 2.575562715530
-56.825901031494 -66.970268249512 -128.494094848633 1.984756112099
-78.941955566406 -65.832260131836 -130.915039062500 1.081699132919
-63.966640472412 -62.832183837891 -131.486038208008 2.009537458420
-85.322959899902 -66.897140502930 -137.165634155273 2.557554483414
-77.324928283691 -64.286216735840 -135.109191894531 1.700949549675
-81.225723266602 -62.617435455322 -127.476753234863 1.930812120438
-90.132850646973 -63.704105377197 -132.520156860352 2.175728082657
-67.002998352051 -62.910602569580 -136.338562011719 4.690369129181
-91.967582702637 -64.955001831055 -135.038650512695 1.708498120308
-51.458770751953 -67.508895874023 -135.355926513672 1.957513570786
-57.085994720459 -69.661750793457 -141.070266723633 1.347887992859
26.453454971313 -66.619483947754 -140.695770263672 2.177556037903
-58.217399597168 -60.409549713135 -138.845687866211 1.594699740410
13.952158927917 -70.067306518555 -145.386001586914 2.900351524353
15.216212272644 -65.374221801758 -149.358169555664 2.057426929474
16.621557235718 -62.976318359375 -154.610778808594 2.941396474838
-99.214004516602 -63.496608734131 -147.510848999023 0.877220094204
-92.549461364746 -65.110160827637 -152.338302612305 1.789092183113
-97.386543273926 -61.537677764893 -153.508926391602 1.882474541664
-105.930122375488 -64.763717651367 -163.674972534180 2.655539274216
-98.701690673828 -63.479347229004 -161.518234252930 0.953067064285
-152.921188354492 -63.730766296387 -178.355026245117 0.846142292023
-154.755386352539 -63.802101135254 -178.746398925781 2.450552463531
-111.290054321289 -62.136283874512 -184.113128662109 3.569471836090
-142.809234619141 -61.694763183594 -180.327362060547 0.943181812763
-110.864799499512 -61.040077209473 -183.695434570313 2.922217845917
-150.528991699219 -57.706832885742 -189.868377685547 5.795690536499
-112.304489135742 -60.925403594971 -194.671020507813 4.013202667236
-111.198699951172 -64.218856811523 -186.321533203125 2.446864843369
-144.752944946289 -62.946926116943 -201.686660766602 1.668458819389
-131.045196533203 -64.710838317871 -199.391128540039 1.768639445305
-107.961067199707 -63.896823883057 -200.158462524414 1.662664532661
-116.678642272949 -58.969482421875 -201.360778808594 4.011168003082
-113.648284912109 -64.224754333496 -202.868133544922 2.064725160599
-116.718368530273 -59.772502899170 -205.101089477539 5.143819332123
-134.970275878906 -60.998558044434 -200.180541992188 3.179385185242
-139.078170776367 -62.971912384033 -205.533432006836 3.843641042709
-131.642791748047 -61.830772399902 -209.663574218750 4.195911884308
-128.170608520508 -58.833503723145 -203.817474365234 4.821377754211
-125.110900878906 -62.080421447754 -207.443054199219 2.517507314682
-114.438842773438 -62.465065002441 -207.151443481445 4.922149181366
-148.642791748047 -62.123546600342 -216.753570556641 2.058967590332
-152.576507568359 -62.488761901855 -222.906585693359 1.611578345299
-153.553817749023 -61.391624450684 -225.393844604492 1.172632813454
-140.917236328125 -67.131217956543 -228.069442749023 1.863053321838
-132.494262695313 -59.213790893555 -229.765731811523 4.329558372498
-122.930091857910 -64.758445739746 -223.047805786133 2.930410861969
-141.317398071289 -64.340957641602 -231.745223999023 1.986797690392
-151.700637817383 -64.493522644043 -229.065780639648 2.674656629562
-134.583053588867 -63.682727813721 -229.033630371094 1.171268105507
-133.944564819336 -60.003459930420 -231.081863403320 3.562555551529
-148.145034790039 -62.835388183594 -232.242691040039 0.846464574337
-135.266250610352 -57.504226684570 -232.408432006836 6.540935039520
-128.113983154297 -61.338939666748 -233.248794555664 3.664706707001
-11.005147933960 -66.409812927246 -238.457931518555 1.520336866379
4.560109138489 -63.074562072754 -241.926071166992 1.937562108040
13.373612403870 -60.248081207275 -244.151016235352 1.576864123344
9.103951454163 -66.649147033691 -245.009750366211 2.269487380981
-8.808630943298 -66.316154479980 -241.495346069336 1.682204127312
-12.673343658447 -64.351936340332 -248.276153564453 2.036237239838
37.733757019043 -63.049797058105 -251.307693481445 1.858327746391
47.580780029297 -64.248703002930 -253.808502197266 2.082718372345
-146.234436035156 -60.666030883789 -256.877105712891 2.141381263733
41.752010345459 -62.788200378418 -255.898696899414 1.350696206093
38.099998474121 -65.321708679199 -254.466049194336 0.700516939163
-158.790374755859 -65.015640258789 -260.255432128906 3.676107883453
-151.120788574219 -61.373439788818 -260.118652343750 1.891042232513
-151.073165893555 -64.952270507813 -262.184783935547 1.728171110153
2.383733987808 -64.838371276855 -264.898315429688 1.435372591019
-151.160217285156 -62.242465972900 -269.458435058594 3.823457002640
-0.564393997192 -63.913967132568 -275.640106201172 3.206593751907
-146.592346191406 -63.951675415039 -277.517242431641 2.112989902496
-147.956130981445 -61.757987976074 -284.309906005859 1.120735049248
-151.183242797852 -61.347908020020 -287.785583496094 1.889701962471
-149.896957397461 -55.529872894287 -286.193634033203 7.082904815674
-145.273910522461 -59.942699432373 -292.022308349609 3.488712549210
-155.420837402344 -60.553691864014 -288.032104492188 2.893225669861
-151.263214111328 -61.303298950195 -288.889831542969 1.086622357368
-151.716644287109 -59.062850952148 -290.241333007813 3.185823678970
-147.629684448242 -60.780849456787 -290.127471923828 3.571394681931
-144.073089599609 -60.910602569580 -289.864776611328 2.956030607224
11.335191726685 -64.852981567383 -286.397003173828 2.847390890121
-146.922943115234 -60.792331695557 -295.960235595703 2.940524816513
-157.089370727539 -57.891773223877 -294.219299316406 7.038963317871
-155.287063598633 -56.885772705078 -291.323150634766 6.634756565094
-150.657104492188 -59.240955352783 -295.974243164063 3.647404670715
-148.840682983398 -55.873905181885 -291.857177734375 6.832282543182
-146.703384399414 -62.546043395996 -294.622100830078 1.343340277672
4.021952152252 -64.802490234375 -293.793029785156 2.356460571289
-144.166381835938 -59.158313751221 -297.002166748047 5.682230949402
-147.864410400391 -58.151523590088 -296.019317626953 4.464563369751
26.715118408203 -62.490470886230 -17.616790771484 3.343132257462
39.878913879395 -72.980911254883 -21.536842346191 3.879156112671
40.395439147949 -65.676483154297 -22.494964599609 2.749632120132
15.567094802856 -72.893280029297 -32.800254821777 4.965054512024
24.576427459717 -60.127132415771 -36.132926940918 1.469483613968
35.365871429443 -69.810066223145 -36.984958648682 1.083770632744
-58.666507720947 -64.669692993164 -46.200672149658 3.016398429871
-52.914531707764 -66.077964782715 -43.895828247070 3.667674064636
87.981040954590 -68.247787475586 -64.857551574707 0.640580475330
-97.634979248047 -63.564979553223 -67.525451660156 1.968441963196
94.275863647461 -75.520492553711 -63.458026885986 7.535839557648
66.084533691406 -68.728141784668 -70.645729064941 4.158891201019
98.716194152832 -69.892852783203 -78.209472656250 2.500369310379
61.758914947510 -71.187644958496 -77.012077331543 5.384929656982
-43.818153381348 -66.636344909668 -79.480232238770 2.271911859512
58.213424682617 -64.267173767090 -82.550605773926 1.580025434494
-55.381946563721 -62.743518829346 -80.234840393066 1.772869348526
57.162006378174 -66.531898498535 -84.910209655762 1.676941156387
60.571067810059 -64.646087646484 -86.029388427734 1.774606585503
-100.051696777344 -64.809295654297 -85.727790832520 1.651515126228
49.815452575684 -65.715209960938 -87.109443664551 3.077845335007
50.225120544434 -70.869644165039 -93.937629699707 1.719389438629
63.153442382813 -68.273361206055 -92.857185363770 1.634808778763
50.676174163818 -65.560295104980 -97.154678344727 2.047153234482
-82.561470031738 -63.141883850098 -108.601501464844 2.008579969406
81.316276550293 -70.667892456055 -106.510208129883 2.639181852341
-82.400772094727 -67.231994628906 -119.465469360352 1.453152298927
-78.378494262695 -62.857177734375 -108.491516113281 1.103444218636
-81.174110412598 -65.455200195313 -124.459548950195 2.402067661285
-87.406707763672 -63.680084228516 -116.923248291016 0.739264607430
-95.199584960938 -62.320476531982 -121.814735412598 2.246792554855
-81.953247070313 -65.238388061523 -124.852188110352 2.126589775085
-54.128166198730 -62.593105316162 -127.416252136230 1.309722661972
-79.416793823242 -62.357528686523 -136.494384765625 3.620329618454
-58.105922698975 -59.948642730713 -132.235794067383 1.602427244186
-89.485740661621 -61.751285552979 -138.853378295898 1.672302484512
28.237829208374 -64.854980468750 -138.861068725586 1.060565233231
18.327640533447 -65.631790161133 -141.832214355469 2.294648170471
-94.314933776855 -56.347564697266 -144.120834350586 6.745387554169
19.626270294189 -66.664390563965 -149.447463989258 1.080821275711
-91.355186462402 -65.787216186523 -148.404907226563 2.095853567123
-95.269042968750 -59.716670989990 -149.549484252930 2.581909418106
17.773172378540 -65.341453552246 -159.453292846680 5.595492839813
-97.230834960938 -62.478939056396 -148.912628173828 1.032464742661
-99.357162475586 -61.302593231201 -149.585006713867 2.935051441193
-104.427886962891 -62.161075592041 -158.708312988281 2.871278047562
-97.032325744629 -62.607124328613 -163.221694946289 2.191833019257
-104.951965332031 -64.392692565918 -180.177032470703 1.817996740341
-109.819480895996 -67.470726013184 -171.146636962891 2.690209865570
-100.398422241211 -63.261554718018 -167.329147338867 3.146901845932
-106.497444152832 -63.233219146729 -171.508804321289 2.119298458099
-141.603973388672 -63.469314575195 -180.585083007813 1.989980340004
-110.911834716797 -62.207958221436 -180.305526733398 1.549638628960
-142.159713745117 -61.947986602783 -190.163894653320 3.042264938354
-149.366516113281 -59.335922241211 -192.637969970703 2.728760480881
-153.657699584961 -58.646484375000 -192.406600952148 3.547082901001
-123.517036437988 -60.168087005615 -198.750885009766 2.386390209198
-130.698532104492 -64.187835693359 -198.090286254883 1.378728270531
-123.047546386719 -60.538192749023 -202.748443603516 3.104736566544
-143.829330444336 -63.938381195068 -204.413757324219 1.906525254250
-124.233474731445 -64.533485412598 -206.155944824219 1.678582906723
-147.031387329102 -62.637496948242 -206.921478271484 2.285522937775
-151.990768432617 -61.572513580322 -208.287628173828 2.333901643753
-155.246780395508 -59.582786560059 -230.243545532227 2.564761877060
-143.185928344727 -65.811393737793 -234.160675048828 2.728719949722
-127.887222290039 -59.666877746582 -234.304992675781 5.347310066223
-154.184417724609 -59.303405761719 -233.236236572266 2.026414394379
-3.254383087158 -67.504638671875 -240.128555297852 1.484814643860
12.118883132935 -60.908405303955 -239.992141723633 2.318669557571
-2.763781070709 -66.190216064453 -244.637069702148 1.596241831779
-149.802719116211 -59.826377868652 -247.488265991211 3.114483594894
-8.019185066223 -61.296112060547 -244.561248779297 2.064613103867
-151.271636962891 -64.163040161133 -256.092041015625 0.792160511017
-6.813107013702 -65.826469421387 -250.786102294922 1.310476303101
-149.651367187500 -62.007339477539 -256.495178222656 1.320777773857
21.740379333496 -65.282989501953 -253.528442382813 2.189230680466
-152.536087036133 -56.979270935059 -257.872497558594 5.537351608276
-149.313812255859 -60.253799438477 -257.852966308594 2.430162429810
-152.758850097656 -60.166625976563 -256.862365722656 2.843034029007
-149.579513549805 -59.104591369629 -260.362884521484 2.203896999359
33.738040924072 -63.454055786133 -259.091552734375 3.209614992142
30.712209701538 -62.688899993896 -264.368377685547 2.987034082413
-146.142471313477 -60.435012817383 -258.592956542969 2.300002574921
-151.627029418945 -56.697353363037 -262.871063232422 4.731795310974
-154.315628051758 -62.701610565186 -262.667205810547 0.876747608185
-147.399429321289 -58.238624572754 -262.366607666016 3.040408849716
26.995380401611 -61.911941528320 -263.545654296875 1.769177675247
29.044158935547 -62.665924072266 -266.816284179688 3.558287620544
-154.054718017578 -61.217842102051 -265.588409423828 2.183908700943
-143.455520629883 -59.897792816162 -265.829742431641 4.404849052429
-149.741012573242 -57.395221710205 -265.836181640625 4.743328094482
-144.282852172852 -59.656471252441 -266.770568847656 4.335668563843
-144.937774658203 -62.512935638428 -266.282226562500 2.490849733353
-147.332458496094 -63.678745269775 -268.414642333984 2.718086242676
-148.488174438477 -58.160408020020 -268.580261230469 4.867056369781
-149.932235717773 -56.839660644531 -288.140380859375 5.735568523407
-148.053710937500 -59.608959197998 -284.936157226563 2.561831235886
-148.063125610352 -59.988109588623 -282.311614990234 2.754597425461
17.299755096436 -62.808685302734 -283.286254882813 2.495542764664
-153.966384887695 -57.207935333252 -287.743682861328 5.263153553009
-146.774673461914 -58.834548950195 -290.660766601563 4.775031089783
-4.879206180573 -67.267692565918 -288.812805175781 2.042655944824
5.211843013763 -62.020389556885 -293.619934082031 2.341835975647
-151.798004150391 -60.394165039063 -297.557952880859 3.820038080215
24.630054473877 -74.037284851074 -22.880926132202 2.162599563599
43.167636871338 -68.071212768555 -29.234066009521 2.424264907837
