28.563125610352 -97.543716430664 -166.097640991211 18.145563125610
-81.341896057129 -96.070465087891 -166.543731689453 23.057903289795
-88.989608764648 -101.602447509766 -165.063171386719 31.444458007813
-85.918441772461 -87.408035278320 -163.795181274414 19.535650253296
36.505191802979 -85.790557861328 -164.140808105469 8.776041030884
-96.081771850586 -83.045883178711 -164.676025390625 15.040976524353
37.141071319580 -89.213470458984 -164.922119140625 11.852437973022
-133.199493408203 -79.256072998047 -165.084762573242 16.344215393066
32.243850708008 -79.244659423828 -164.567031860352 2.186643123627
38.542499542236 -69.768295288086 -165.489349365234 7.112582683563
-137.957992553711 -69.166503906250 -163.691009521484 12.250702857971
35.824237823486 -79.266723632813 -165.537811279297 4.225957870483
33.503295898438 -75.237960815430 -159.448837280273 2.835922002792
-129.290527343750 -70.973922729492 -168.362792968750 14.537548065186
-137.516571044922 -66.512023925781 -162.684219360352 13.204653739929
34.288742065430 -67.321746826172 -164.837127685547 4.366959571838
32.841125488281 -65.836135864258 -166.429489135742 5.800449371338
-127.816894531250 -61.952499389648 -166.833892822266 16.728078842163
-94.699066162109 -57.997314453125 -165.329055786133 7.034971237183
38.219841003418 -57.142990112305 -165.305145263672 14.837848663330
-110.516418457031 -60.886611938477 -164.782592773438 5.037537574768
25.000343322754 -55.738769531250 -166.825393676758 10.388417243958
-115.863296508789 -61.308792114258 -160.239898681641 10.687987327576
-145.092880249023 -65.039352416992 -162.809234619141 11.604094505310
-147.179183959961 -58.945587158203 -164.370529174805 11.795274734497
-144.470947265625 -60.595245361328 -165.918151855469 9.388289451599
-5.891712188721 -51.054351806641 -164.794799804688 21.787479400635
-153.304763793945 -56.096679687500 -167.086425781250 11.089364051819
-12.153264999390 -62.955368041992 -161.838088989258 14.549808502197
-1.155362963676 -59.735321044922 -166.046279907227 12.451393127441
24.096675872803 -59.965789794922 -160.441665649414 6.348590373993
-143.524703979492 -51.776885986328 -164.943862915039 15.988116264343
-93.841300964355 -53.415328979492 -163.732604980469 10.481479644775
-3.213300943375 -53.973220825195 -161.916488647461 18.154853820801
-145.891281127930 -53.949066162109 -160.954544067383 17.208606719971
31.029432296753 -54.096939086914 -164.926864624023 13.211111068726
-154.556030273438 -50.614273071289 -162.987930297852 17.685575485229
-106.459465026855 -52.844589233398 -167.123977661133 9.290241241455
-101.150375366211 -48.337417602539 -162.338851928711 13.065089225769
-108.723510742188 -51.361068725586 -164.000183105469 11.742932319641
-0.545020997524 -52.008148193359 -163.946746826172 19.559890747070
-3.094635009766 -51.125518798828 -165.008819580078 21.055768966675
-150.067840576172 -44.869064331055 -164.238296508789 20.391338348389
-145.850814819336 -43.173645019531 -163.012969970703 22.827936172485
-150.618606567383 -36.058227539063 -165.275344848633 27.596364974976
-127.116989135742 -41.458206176758 -166.781341552734 27.510765075684
-130.565292358398 -31.706573486328 -165.000015258789 34.283832550049
11.262475967407 -35.624099731445 -163.134719848633 28.914821624756
4.687717914581 -38.664413452148 -168.085479736328 30.775638580322
-85.771804809570 -34.732360839844 -163.283157348633 30.627212524414
7.412788867950 -23.427978515625 -163.332778930664 41.027183532715
-152.889343261719 -26.562500000000 -162.558044433594 37.528549194336
-92.587356567383 -23.251556396484 -162.792556762695 39.119140625000
15.637434959412 -28.944595336914 -164.717910766602 35.086372375488
17.047365188599 -25.710067749023 -163.657745361328 37.728202819824
-97.597518920898 -22.517944335938 -165.372207641602 39.232997894287
12.752348899841 -26.804473876953 -165.371353149414 37.557899475098
-103.535369873047 -21.281875610352 -162.163040161133 40.144367218018
6.472082138062 -22.442443847656 -161.951522827148 41.822360992432
12.010721206665 -20.699539184570 -163.608184814453 42.835056304932
12.631633758545 -17.916015625000 -164.277770996094 45.606086730957
85.877716064453 -19.158142089844 -161.841506958008 54.890541076660
3.468848943710 -17.991500854492 -167.452697753906 48.297809600830
21.587696075439 -18.372817993164 -165.211715698242 45.388000488281
25.374616622925 -16.479385375977 -163.730712890625 47.288715362549
19.666721343994 -16.756958007813 -165.263198852539 46.807872772217
16.797550201416 -14.481582641602 -166.025009155273 49.151824951172
78.400932312012 -17.045928955078 -160.683120727539 55.584629058838
83.192947387695 -15.376617431641 -161.742919921875 56.810867309570
22.565029144287 -8.690399169922 -164.373046875000 54.565185546875
68.284370422363 -13.404846191406 -165.475814819336 63.084930419922
69.819473266602 -14.944793701172 -168.062698364258 64.459411621094
61.197326660156 -6.251038074493 -161.516769409180 64.758728027344
55.527488708496 -4.330718994141 -162.500045776367 65.074050903320
54.916706085205 0.791869997978 -163.475921630859 69.560516357422
-117.713287353516 2.274291992188 -161.076278686523 65.708244323730
3.819154977798 -5.586243152618 -164.128540039063 58.863201141357
42.563728332520 2.424346923828 -163.377410888672 67.572479248047
59.254394531250 -7.535797119141 -163.660308837891 64.442306518555
41.581501007080 -1.746338009834 -166.818908691406 65.153228759766
-88.734069824219 3.155884027481 -166.226516723633 65.914161682129
45.438838958740 0.626007020473 -165.300094604492 67.408012390137
-132.998199462891 5.338286876678 -166.627777099609 67.854431152344
-102.229530334473 1.241454958916 -166.081954956055 62.790248870850
-94.699745178223 2.298798084259 -164.515838623047 64.079368591309
10.610865592957 3.404755115509 -166.475921630859 66.913574218750
-136.311477661133 1.747284054756 -166.014709472656 64.049598693848
49.438175201416 6.208190917969 -164.245025634766 72.956596374512
-95.627624511719 1.056213021278 -163.441696166992 62.707149505615
40.335159301758 3.573486089706 -167.697723388672 69.979293823242
-120.834014892578 7.178771972656 -166.302246093750 70.875877380371
-102.399955749512 8.437011718750 -163.766174316406 69.845390319824
-95.442298889160 5.713867187500 -164.002075195313 67.380943298340
-100.879806518555 5.876831054688 -168.676940917969 67.644073486328
-125.893859863281 2.260314941406 -166.133743286133 66.411346435547
43.146205902100 4.555023193359 -164.901275634766 70.201385498047
-103.278854370117 7.415131092072 -163.391113281250 68.830993652344
-130.240432739258 7.912689208984 -166.210784912109 70.876884460449
9.018800735474 15.126434326172 -162.586059570313 77.864051818848
-136.710540771484 25.556396484375 -167.027832031250 87.269783020020
5.713452816010 30.622039794922 -165.151351928711 93.843711853027
8.681171417236 27.282867431641 -162.354797363281 89.863716125488
-120.299911499023 32.133300781250 -164.441940307617 91.426925659180
-113.528602600098 34.868682861328 -165.032897949219 91.374992370605
-121.669784545898 38.399444580078 -164.637710571289 96.259170532227
-112.574089050293 36.208953857422 -163.543731689453 91.022468566895
-140.846801757813 38.894470214844 -165.247680664063 100.525222778320
-142.154083251953 44.615447998047 -165.099258422852 106.199394226074
-133.859802246094 45.403411865234 -167.821670532227 107.060615539551
-135.786148071289 47.759277343750 -165.471160888672 109.027801513672
-131.099533081055 43.530426025391 -164.666671752930 103.583442687988
-135.500869750977 48.653381347656 -163.980117797852 108.684539794922
-132.284149169922 59.253417968750 -162.647384643555 114.290252685547
34.181602478027 -228.165573120117 -167.580307006836 148.116149902344
64.075134277344 -219.763641357422 -167.435455322266 143.585083007813
40.185787200928 -217.898117065430 -170.140838623047 138.513961791992
47.175045013428 -213.078811645508 -165.723632812500 133.866409301758
-27.911214828491 -207.741775512695 -159.341140747070 123.985450744629
-61.879833221436 -205.124588012695 -162.408508300781 124.078125000000
95.053756713867 -194.080841064453 -163.264236450195 117.407287597656
89.234893798828 -193.275833129883 -164.709228515625 117.494804382324
86.238029479980 -189.320938110352 -165.756805419922 114.196609497070
-84.692008972168 -182.939620971680 -164.117294311523 104.694900512695
113.944381713867 -179.767486572266 -167.318588256836 101.767539978027
-15.895816802979 -173.022994995117 -165.231124877930 90.010177612305
77.693107604980 -179.058502197266 -162.692871093750 106.682075500488
-28.630941390991 -172.974761962891 -161.256454467773 89.914703369141
-39.391792297363 -173.009902954102 -162.024002075195 90.031021118164
65.379783630371 -165.113021850586 -165.132400512695 91.943397521973
116.894447326660 -165.102920532227 -163.539718627930 87.296051025391
78.633018493652 -161.806045532227 -161.987075805664 90.190246582031
71.325134277344 -162.662826538086 -162.652023315430 91.810943603516
63.205654144287 -154.142623901367 -161.681320190430 80.619331359863
71.147186279297 -155.181320190430 -160.706481933594 84.901489257813
117.654182434082 -157.682525634766 -162.138320922852 80.027732849121
84.306121826172 -149.261703491211 -163.360549926758 76.386680603027
64.690521240234 -149.824050903320 -163.769393920898 77.665893554688
91.149955749512 -148.587539672852 -168.405410766602 73.449630737305
110.146072387695 -147.667785644531 -160.676116943359 70.100975036621
-60.735301971436 -154.059722900391 -162.256240844727 73.245948791504
-72.314239501953 -145.447570800781 -164.698760986328 65.521697998047
-67.722709655762 -142.871276855469 -164.877685546875 62.370590209961
-45.691677093506 -136.992309570313 -163.143829345703 54.863700866699
-42.707530975342 -129.643035888672 -167.373901367188 47.608562469482
-80.165176391602 -133.906661987305 -163.680984497070 56.155376434326
-60.632953643799 -136.200378417969 -165.373458862305 55.170310974121
-62.264049530029 -123.315994262695 -167.363845825195 42.286994934082
-46.430732727051 -127.325241088867 -161.802581787109 45.403995513916
-74.143272399902 -125.252365112305 -160.710784912109 46.182918548584
-75.339172363281 -125.569305419922 -163.427429199219 46.839012145996
-33.720394134521 -120.317337036133 -167.479965209961 38.428199768066
-37.036418914795 -118.995010375977 -164.640472412109 36.494094848633
-62.846431732178 -117.169876098633 -165.620269775391 36.393825531006
-39.533885955811 -114.109359741211 -165.672393798828 31.798006057739
-59.965358734131 -111.827682495117 -166.869674682617 30.761070251465
35.567256927490 -116.846679687500 -161.778701782227 37.638320922852
-43.022174835205 -110.841491699219 -167.761230468750 29.384544372559
-40.605979919434 -110.058303833008 -161.255340576172 27.469650268555
23.606090545654 -100.481857299805 -166.905761718750 21.213951110840
31.142124176025 -104.527847290039 -162.338180541992 24.947216033936
-127.939636230469 -81.526611328125 -164.553237915039 21.221727371216
-95.966560363770 -77.546966552734 -163.337051391602 9.654400825500
-95.313461303711 -65.944702148438 -161.100616455078 2.119744062424
-138.182846069336 -64.236984252930 -165.858062744141 10.462847709656
-98.666122436523 -69.940994262695 -163.456466674805 3.549093008041
-137.716766357422 -59.451293945313 -160.607452392578 16.279279708862
-99.773437500000 -57.121246337891 -162.849639892578 4.788891792297
-135.937713623047 -55.318634033203 -161.907348632813 17.623374938965
-136.196487426758 -49.406738281250 -164.307098388672 19.285392761230
-138.560317993164 -47.739212036133 -167.789047241211 17.332500457764
-133.494171142578 -31.771972656250 -164.009078979492 33.692035675049
-135.960250854492 -30.395706176758 -166.906509399414 33.188274383545
-90.725311279297 -29.615280151367 -162.119186401367 33.468620300293
-87.553909301758 -33.200500488281 -163.949005126953 31.420009613037
-108.980628967285 -25.156555175781 -160.115158081055 37.017116546631
-93.731147766113 -29.522491455078 -163.567398071289 32.804870605469
-142.134841918945 -25.051422119141 -165.306732177734 38.021175384521
11.416783332825 -29.587661743164 -163.520416259766 34.531486511230
-119.514541625977 -24.891845703125 -165.892059326172 39.970687866211
-139.077972412109 -20.520996093750 -165.446685791016 42.428951263428
-122.610061645508 -22.419723510742 -166.482131958008 43.028678894043
3.082839965820 -19.555023193359 -163.184799194336 45.769878387451
23.178623199463 -12.562088012695 -164.165283203125 50.840019226074
77.194564819336 -14.851867675781 -159.932632446289 56.299560546875
32.578163146973 -7.015900135040 -166.801635742188 58.554286956787
70.321121215820 -11.945587158203 -163.345657348633 62.060157775879
55.557613372803 -5.973052978516 -165.401962280273 65.236579895020
73.147659301758 -4.017487049103 -161.511276245117 64.713951110840
-138.165008544922 -5.396453857422 -164.217620849609 57.332180023193
-135.151168823242 -1.283020019531 -167.712402343750 60.913291931152
57.087108612061 1.177428960800 -162.625564575195 70.151863098145
43.699268341064 0.092589996755 -163.490737915039 65.781379699707
62.024787902832 -2.902374029160 -161.602905273438 66.870948791504
-130.495300292969 3.866210937500 -166.937850952148 66.788261413574
-122.106948852539 -0.356353998184 -162.675888061523 64.175170898438
-110.647941589355 2.258392095566 -161.982025146484 64.298057556152
-119.727249145508 0.382384985685 -164.419036865234 64.188224792480
-126.561813354492 2.255218982697 -164.861984252930 66.484893798828
-109.406929016113 3.804992914200 -163.435897827148 65.696990966797
-128.500350952148 4.616057872772 -162.624053955078 68.767913818359
-111.999130249023 3.824920892715 -165.807373046875 66.185646057129
-108.160156250000 8.729827880859 -164.269165039063 70.483268737793
-113.323257446289 9.148742675781 -164.683898925781 71.602256774902
-106.190666198730 8.390045166016 -161.181716918945 69.078613281250
9.001856803894 10.379974365234 -164.299606323242 73.467735290527
42.229347229004 6.490845203400 -161.391189575195 70.468795776367
-132.010192871094 11.234588623047 -160.699005126953 74.922279357910
40.453514099121 13.484771728516 -164.132202148438 77.568344116211
9.331708908081 18.760192871094 -159.751998901367 81.088302612305
31.282098770142 27.929046630859 -169.069732666016 91.864791870117
-127.448211669922 33.501068115234 -164.692886352539 94.958282470703
-111.277412414551 31.623992919922 -165.265960693359 88.700363159180
-118.096069335938 34.658386230469 -160.567611694336 89.825424194336
-144.371109008789 36.266876220703 -160.335739135742 98.687866210938
-111.911293029785 33.651885986328 -159.829574584961 86.619163513184
-103.952178955078 33.566467285156 -162.095977783203 86.036140441895
-111.455810546875 40.015258789063 -165.830123901367 94.876258850098
-136.732208251953 37.936309814453 -166.731643676758 99.562576293945
42.872016906738 -243.213958740234 -167.599075317383 163.482315063477
46.080173492432 -238.249923706055 -168.196670532227 158.893081665039
52.567478179932 -235.763381958008 -164.803024291992 156.862701416016
62.642570495605 -232.060836791992 -159.018554687500 154.006210327148
41.976539611816 -227.729492187500 -169.238220214844 148.249252319336
34.978927612305 -221.178939819336 -167.547073364258 141.192337036133
-19.795347213745 -209.334304809570 -164.257247924805 125.004135131836
-67.842720031738 -202.582199096680 -165.247573852539 121.749443054199
-1.914512038231 -197.061187744141 -163.481170654297 115.355537414551
87.241233825684 -190.826538085938 -161.757934570313 115.616149902344
116.220932006836 -186.949600219727 -162.555404663086 109.134407043457
79.168609619141 -172.670288085938 -161.874313354492 100.214653015137
75.774017333984 -172.504455566406 -158.835678100586 101.414314270020
114.719772338867 -171.211044311523 -163.193145751953 93.361381530762
-49.663303375244 -165.134140014648 -161.127929687500 83.237907409668
-51.004680633545 -164.464706420898 -163.410903930664 82.812690734863
64.054885864258 -162.277893066406 -161.246658325195 88.332321166992
-52.783657073975 -159.722793579102 -164.863983154297 78.509819030762
-57.142688751221 -154.862594604492 -163.182586669922 73.935356140137
-82.290939331055 -155.865020751953 -162.387603759766 77.861595153809
-61.372150421143 -155.560226440430 -160.293136596680 74.993499755859
61.275394439697 -153.993377685547 -160.174697875977 79.547866821289
-53.100246429443 -152.265655517578 -165.333099365234 71.303543090820
63.885627746582 -152.577392578125 -161.113220214844 79.408500671387
110.594657897949 -150.911346435547 -162.663772583008 73.205368041992
105.192375183105 -144.384780883789 -162.711608886719 67.003425598145
-58.526500701904 -141.215164184570 -162.967102050781 60.375530242920
-70.153205871582 -143.223083496094 -164.198928833008 63.030120849609
-47.535831451416 -136.519088745117 -163.112823486328 54.683620452881
-81.871482849121 -136.527786254883 -160.005447387695 59.092689514160
-62.349033355713 -128.412551879883 -164.994705200195 47.567260742188
-79.126045227051 -130.325546264648 -157.264068603516 52.471031188965
-49.000865936279 -137.726119995117 -161.514297485352 56.097965240479
-45.905330657959 -135.210418701172 -157.741806030273 53.176521301270
-74.356468200684 -126.103408813477 -163.690277099609 47.136524200439
-48.932720184326 -128.238525390625 -166.230957031250 47.115077972412
-69.815780639648 -123.165954589844 -162.239929199219 43.394989013672
-65.216598510742 -121.780578613281 -163.909255981445 41.243171691895
-47.770427703857 -121.146209716797 -166.511825561523 40.043460845947
-46.561866760254 -121.040908813477 -159.540313720703 39.286140441895
-40.389019012451 -120.167587280273 -158.525161743164 37.603858947754
-81.998397827148 -123.314315795898 -160.799560546875 46.702453613281
-82.695808410645 -111.524887084961 -160.675033569336 35.765857696533
-74.181594848633 -120.698196411133 -163.453781127930 41.843025207520
34.943077087402 -107.141387939453 -165.070877075195 27.934322357178
-35.609287261963 -113.809356689453 -163.659530639648 31.319484710693
32.321292877197 -105.391021728516 -162.625213623047 25.861759185791
-83.844276428223 -91.132644653320 -163.734710693359 20.253234863281
-88.569763183594 -84.252105712891 -167.134567260742 19.865644454956
-88.154884338379 -84.333328247070 -160.095581054688 18.356626510620
-93.552658081055 -84.303039550781 -158.623474121094 16.233888626099
-93.181053161621 -76.075881958008 -163.795471191406 9.998071670532
-96.255210876465 -77.307662963867 -162.807022094727 9.175990104675
-127.815353393555 -68.586074829102 -161.721908569336 19.831506729126
-97.602355957031 -69.151870727539 -161.919616699219 2.504917383194
-119.395935058594 -55.961120605469 -160.403610229492 15.917727470398
-134.955398559570 -57.245697021484 -165.138580322266 14.667874336243
-112.125991821289 -57.583969116211 -163.381057739258 8.702645301819
-142.507003784180 -59.129119873047 -164.927154541016 11.156070709229
-132.891174316406 -53.613174438477 -166.271972656250 16.970813751221
-110.872482299805 -56.789337158203 -158.754089355469 10.730177879333
-120.220275878906 -54.162521362305 -162.134765625000 17.052410125732
-127.160827636719 -49.154022216797 -167.821609497070 22.242822647095
-117.761474609375 -32.093109130859 -165.412918090820 32.677467346191
-96.245948791504 -26.019836425781 -164.670150756836 35.861087799072
-129.739288330078 -27.247985839844 -164.176025390625 38.704952239990
-104.410728454590 -24.481063842773 -161.652236938477 37.005008697510
-101.453079223633 -24.666549682617 -159.309814453125 36.736679077148
-108.449851989746 -22.431945800781 -164.008728027344 39.669200897217
-116.397018432617 -21.150772094727 -163.155319213867 42.638896942139
-101.401054382324 -19.055892944336 -160.408523559570 42.305309295654
18.745298385620 -19.801116943359 -162.003677368164 42.981002807617
-137.705154418945 -17.859664916992 -164.927154541016 45.250484466553
20.803020477295 -20.542083740234 -163.826599121094 42.852779388428
19.784425735474 -13.423690795898 -159.659088134766 48.809364318848
16.191331863403 -14.276199340820 -164.607711791992 48.970970153809
28.304193496704 -14.835006713867 -159.598312377930 48.265201568604
-130.182373046875 -20.341995239258 -161.747146606445 45.517330169678
9.266237258911 -8.448486328125 -163.987182617188 55.059757232666
33.742752075195 -14.310195922852 -162.383682250977 50.761646270752
63.926059722900 -5.891417980194 -160.969024658203 64.220008850098
64.975509643555 -5.266479015350 -161.117919921875 64.631309509277
-132.542877197266 -3.103118896484 -164.929168701172 60.098213195801
8.428041458130 -4.042816162109 -163.616775512695 59.365200042725
37.099418640137 0.270691007376 -163.338562011719 64.704147338867
-118.186599731445 2.920685052872 -158.413330078125 66.512001037598
-109.926803588867 3.104888916016 -161.596206665039 65.032783508301
-110.593582153320 2.566162109375 -163.885574340820 64.645263671875
40.713882446289 3.304779052734 -162.393493652344 67.639305114746
-119.818679809570 10.077697753906 -161.083847045898 73.790206909180
44.850986480713 5.071715831757 -160.672546386719 69.476356506348
46.779197692871 7.918303966522 -162.775665283203 73.247802734375
-138.868087768555 11.561279296875 -165.298995971680 73.594612121582
-132.591812133789 31.486633300781 -168.383270263672 93.349731445313
-135.520233154297 32.530364990234 -160.211257934570 94.995903015137
-129.920043945313 38.793060302734 -161.054138183594 97.662155151367
26.142095565796 36.717742919922 -165.743774414063 99.089935302734
-140.466125488281 44.501129150391 -161.212280273438 106.381896972656
60.237953186035 -229.315628051758 -167.536331176758 152.062789916992
49.836734771729 -215.233535766602 -168.911727905273 136.710403442383
-47.003971099854 -209.423294067383 -160.690933227539 126.234306335449
-57.896297454834 -208.877609252930 -160.766418457031 127.451919555664
-12.738864898682 -204.799514770508 -160.657135009766 122.210952758789
-7.807154178619 -200.904464721680 -165.722702026367 118.171211242676
2.840295076370 -188.665588378906 -159.266876220703 107.688774108887
-12.156263351440 -185.577178955078 -159.353179931641 103.817550659180
79.138206481934 -181.535537719727 -162.148284912109 108.631088256836
-82.674163818359 -176.681625366211 -157.828186035156 98.323150634766
-32.226055145264 -169.150054931641 -162.917556762695 85.730224609375
68.846252441406 -169.437454223633 -163.465179443359 96.990013122559
72.860130310059 -168.827102661133 -162.360397338867 97.948562622070
76.458236694336 -166.516540527344 -162.852218627930 95.287452697754
120.459831237793 -164.495651245117 -161.305313110352 86.980361938477
66.410720825195 -164.466354370117 -159.737396240234 91.086898803711
113.095542907715 -154.990737915039 -157.888626098633 77.352630615234
-67.817710876465 -152.131561279297 -164.429931640625 71.612648010254
-79.961929321289 -153.557464599609 -162.709014892578 75.101989746094
89.409080505371 -143.291091918945 -158.939758300781 69.355957031250
-63.380153656006 -151.603149414063 -161.975875854492 70.964889526367
-63.576335906982 -140.618667602539 -166.422195434570 59.662948608398
-69.842384338379 -136.385055541992 -166.813522338867 56.130809783936
-41.199005126953 -128.736511230469 -163.573165893555 46.212566375732
-63.353359222412 -126.522949218750 -162.824371337891 45.950546264648
-48.434402465820 -125.752914428711 -159.596633911133 44.295032501221
-69.778137207031 -120.354949951172 -164.088958740234 40.463706970215
-61.802951812744 -122.288894653320 -161.319366455078 41.910774230957
-65.654121398926 -129.933532714844 -159.592208862305 49.800380706787
-74.592254638672 -124.998535156250 -160.899551391602 46.035335540771
-51.517063140869 -120.933319091797 -159.799880981445 40.538722991943
-76.431594848633 -122.518692016602 -162.219039916992 44.125083923340
-35.892219543457 -121.829757690430 -164.135025024414 39.314956665039
-41.540611267090 -116.207290649414 -166.466888427734 34.139019012451
41.939025878906 -115.685119628906 -162.094909667969 37.928794860840
-42.797924041748 -118.298202514648 -157.199783325195 36.090587615967
29.448665618896 -111.176696777344 -165.814224243164 31.621734619141
30.597970962524 -107.118942260742 -161.165054321289 27.605209350586
31.912603378296 -101.815444946289 -158.828506469727 22.177400588989
-83.823715209961 -110.099502563477 -161.073059082031 34.932472229004
-77.182365417480 -105.230407714844 -162.656845092773 28.322818756104
-82.087402343750 -104.053237915039 -159.180450439453 28.428562164307
-90.678573608398 -94.026275634766 -162.701843261719 26.509813308716
-83.450614929199 -96.089080810547 -161.269088745117 22.877386093140
-137.823364257813 -79.810165405273 -162.646270751953 15.896212577820
-139.659973144531 -79.438629150391 -162.752853393555 15.006620407104
-96.282218933105 -73.605026245117 -160.483123779297 5.437855720520
-127.765350341797 -77.703552246094 -160.481628417969 22.547971725464
-95.870452880859 -74.001174926758 -159.373855590820 5.728071212769
-135.642181396484 -68.180252075195 -156.767913818359 19.393232345581
-97.420509338379 -63.040344238281 -159.455520629883 1.914188265800
-96.179420471191 -71.428665161133 -162.598632812500 4.639793395996
-129.900390625000 -56.387329101563 -162.101928710938 20.053928375244
-116.144073486328 -58.570739746094 -163.611770629883 10.929949760437
-93.084671020508 -57.556213378906 -162.444076538086 7.339461803436
-101.891517639160 -56.365600585938 -157.675201416016 6.145509243011
-98.792488098145 -54.909942626953 -162.904937744141 7.120409011841
-101.955459594727 -52.638900756836 -158.537765502930 9.140138626099
-120.135726928711 -57.763275146484 -159.975128173828 15.602826118469
-124.264343261719 -52.483947753906 -162.097732543945 21.025995254517
-116.889495849609 -48.261093139648 -160.904281616211 19.214485168457
-113.407981872559 -54.023986816406 -157.760299682617 14.561656951904
-110.332756042480 -50.418762207031 -161.015197753906 14.178181648254
-99.653541564941 -50.607879638672 -161.225921630859 10.872372627258
-133.952072143555 -41.349685668945 -161.578598022461 27.186567306519
-137.940231323242 -35.243438720703 -162.103347778320 30.662033081055
-138.959594726563 -32.749374389648 -161.061294555664 33.157752990723
-126.259857177734 -30.035629272461 -166.641387939453 36.866382598877
-117.981979370117 -28.130142211914 -158.619201660156 37.262557983398
-108.264129638672 -34.836456298828 -163.904632568359 27.514612197876
-126.741073608398 -26.320892333984 -163.916275024414 40.701889038086
-137.093460083008 -29.107772827148 -164.191085815430 35.162548065186
-119.991577148438 -28.953277587891 -163.108566284180 36.624462127686
-119.432418823242 -26.841339111328 -159.452484130859 38.850383758545
-133.596542358398 -25.869338989258 -162.527206420898 39.432312011719
-120.807052612305 -25.489334106445 -156.995803833008 41.038993835449
-113.602966308594 -24.636428833008 -160.729431152344 38.723304748535
3.514669895172 -18.317382812500 -164.024551391602 46.988780975342
18.989381790161 -14.639480590820 -160.498168945313 47.721920013428
27.734006881714 -12.281127929688 -157.567825317383 49.912948608398
23.559093475342 -11.566085815430 -164.048568725586 51.816913604736
5.679191112518 -15.256713867188 -163.944107055664 49.241893768311
1.716496944427 -8.485626220703 -162.148849487305 56.262248992920
52.063758850098 -4.921967029572 -160.095733642578 62.383312225342
61.903446197510 -2.340270996094 -161.177734375000 66.948280334473
-131.965194702148 -1.185852050781 -160.717498779297 63.085872650146
56.031604766846 -0.286835014820 -159.843048095703 67.336853027344
52.435009002686 -1.795989990234 -162.411178588867 66.199119567871
-144.482742309570 1.996216058731 -165.318496704102 64.106498718262
-136.871490478516 1.994385004044 -161.553451538086 65.240638732910
-136.787048339844 4.004669189453 -165.163284301758 66.372337341309
16.613933563232 8.279052734375 -162.659179687500 70.657318115234
-136.989562988281 11.318541526794 -162.570510864258 74.018463134766
13.545049667358 19.003479003906 -161.951538085938 81.266357421875
-132.475021362305 19.395629882813 -164.334259033203 82.034416198730
-133.941024780273 26.207580566406 -162.270111083984 88.890922546387
-137.208572387695 29.656280517578 -161.966247558594 92.059753417969
-135.999908447266 28.168701171875 -156.104110717773 89.943641662598
-131.364791870117 33.974304199219 -160.534667968750 94.411376953125
-141.460586547852 29.872100830078 -161.243316650391 92.236862182617
-137.300186157227 30.760223388672 -161.940368652344 93.143051147461
-137.802810668945 32.141937255859 -159.729034423828 94.881797790527
-133.687942504883 32.042755126953 -161.380004882813 94.496284484863
-130.127288818359 31.814208984375 -161.449188232422 92.882087707520
25.350938796997 29.864746093750 -162.871688842773 91.734855651855
-133.038955688477 37.881500244141 -161.472473144531 98.452636718750
-143.232772827148 36.082916259766 -158.706314086914 98.808425903320
-141.418182373047 33.221343994141 -157.626220703125 96.244453430176
-136.797439575195 37.881835937500 -159.980926513672 99.262130737305
-134.994445800781 33.836608886719 -156.520828247070 93.711990356445
-132.778091430664 36.518371582031 -163.201126098633 98.316337585449
17.964876174927 37.185943603516 -163.054077148438 98.957885742188
-130.319381713867 38.976837158203 -159.811630249023 97.282432556152
-134.023132324219 37.972320556641 -158.848190307617 97.527976989746
43.354503631592 -238.675399780273 -156.017242431641 157.947463989258
56.645095825195 -234.786392211914 -166.358306884766 156.657821655273
57.035064697266 -233.708892822266 -159.062652587891 154.756500244141
32.224536895752 -223.770645141602 -166.834213256836 143.636688232422
40.994812011719 -220.147232055664 -153.981094360352 139.236724853516
51.928951263428 -219.337219238281 -163.503997802734 140.464401245117
-42.260421752930 -210.998306274414 -160.001510620117 127.419250488281
-36.464065551758 -213.266326904297 -161.281799316406 129.000778198242
104.233505249023 -190.910308837891 -161.548461914063 113.442726135254
-81.451042175293 -190.055984497070 -159.852035522461 111.238967895508
110.657539367676 -192.359420776367 -168.697418212891 114.392982482910
82.291198730469 -185.353195190430 -162.467361450195 111.407844543457
114.860748291016 -177.477355957031 -163.233963012695 99.617126464844
77.942619323730 -179.070388793945 -165.095474243164 106.514114379883
-27.713075637817 -177.604415893555 -162.258300781250 94.098907470703
74.232040405273 -173.460571289063 -158.320510864258 101.643653869629
-39.344638824463 -176.906539916992 -158.561737060547 94.233901977539
73.193687438965 -171.147506713867 -160.638626098633 99.777709960938
76.560852050781 -169.964370727539 -158.716934204102 98.757972717285
-84.027832031250 -171.900848388672 -161.422088623047 93.867996215820
65.813560485840 -169.010543823242 -159.973388671875 95.069793701172
66.238014221191 -162.260025024414 -165.227981567383 89.689170837402
79.133178710938 -163.168273925781 -162.410278320313 91.254547119141
66.572074890137 -158.955886840820 -159.963653564453 86.153823852539
-66.794136047363 -148.827270507813 -159.839340209961 68.603935241699
97.195808410645 -149.370513916016 -164.732040405273 72.909797668457
-66.675659179688 -138.027572631836 -164.097610473633 57.498271942139
-62.615375518799 -148.890274047852 -159.486648559570 68.527931213379
-65.527168273926 -132.994094848633 -162.380752563477 52.540824890137
-71.712387084961 -140.564636230469 -160.585769653320 60.869556427002
-79.574134826660 -135.731933593750 -159.427383422852 57.687198638916
-66.313529968262 -132.606048583984 -162.182556152344 52.238227844238
-38.561161041260 -129.718261718750 -159.137283325195 47.043243408203
-63.939060211182 -120.895019531250 -159.446228027344 40.746234893799
-42.628330230713 -124.898605346680 -156.632736206055 42.647411346436
-74.039306640625 -118.629287719727 -159.037078857422 39.756462097168
43.713012695313 -117.473754882813 -160.273559570313 39.683444976807
33.787570953369 -114.615997314453 -161.254257202148 35.193119049072
-79.006393432617 -113.327270507813 -153.794540405273 35.772239685059
35.027023315430 -107.005035400391 -162.386398315430 27.813896179199
-75.938468933105 -109.161575317383 -163.252624511719 31.405010223389
-79.960189819336 -107.961975097656 -157.263748168945 31.040489196777
33.053886413574 -96.999084472656 -161.251327514648 17.760112762451
-81.871086120605 -108.661880493164 -160.046356201172 32.726409912109
-84.022537231445 -107.992828369141 -158.914642333984 32.695911407471
-89.169052124023 -98.936065673828 -159.997528076172 28.083789825439
-81.812393188477 -94.355300903320 -160.397552490234 20.364099502563
-89.870101928711 -77.511337280273 -162.576263427734 12.256667137146
-94.597953796387 -86.637786865234 -165.587951660156 18.982284545898
-85.208129882813 -90.293014526367 -161.170120239258 19.943309783936
-91.347953796387 -86.175613403320 -161.304565429688 18.842014312744
-126.534439086914 -77.461395263672 -162.240692138672 21.960033416748
-95.865173339844 -77.409255981445 -160.488601684570 9.003603935242
-127.209396362305 -67.866088867188 -160.879974365234 19.703516006470
-134.481277465820 -65.424819946289 -158.421936035156 18.429336547852
-138.780441284180 -65.688980102539 -157.797058105469 17.487609863281
-108.683639526367 -59.063293457031 -158.940673828125 7.575549602509
-115.792938232422 -59.859649658203 -163.062835693359 10.038747787476
-108.247932434082 -55.067443847656 -159.366424560547 9.543532371521
-128.988082885742 -53.666824340820 -163.121597290039 21.148719787598
-109.403450012207 -51.735107421875 -163.433380126953 11.830230712891
-132.235260009766 -51.171737670898 -161.911453247070 21.444498062134
-137.224365234375 -49.839553833008 -160.946960449219 21.130863189697
-140.729293823242 -27.889419555664 -159.356414794922 38.028587341309
-128.609664916992 -23.947860717773 -165.454162597656 41.551460266113
-113.413497924805 -23.551940917969 -159.070892333984 39.749935150146
-139.701248168945 -24.882080078125 -159.107574462891 40.840957641602
11.265033721924 -16.585418701172 -165.022628784180 47.239871978760
26.531297683716 -16.462356567383 -158.182144165039 46.058563232422
11.689810752869 -12.052139282227 -163.772018432617 51.219295501709
-135.453231811523 -10.596191406250 -159.786224365234 54.006671905518
6.357718944550 -12.104766845703 -158.961273193359 51.141704559326
-136.937728881836 -2.076690912247 -164.281097412109 60.637832641602
7.574428081512 -5.939636230469 -163.569763183594 57.658832550049
-135.356262207031 -1.623443961143 -162.106613159180 61.788619995117
36.086967468262 -2.899077892303 -162.617050170898 61.420387268066
-138.334640502930 -0.196990996599 -157.147308349609 64.328491210938
-135.060302734375 -0.235016003251 -160.369613647461 63.624214172363
-138.496307373047 -1.259093999863 -160.321426391602 62.326038360596
-135.369232177734 2.289763927460 -159.264587402344 66.303947448730
47.998069763184 2.813599109650 -160.686279296875 68.203254699707
44.908218383789 8.070739746094 -160.052703857422 71.908515930176
-131.893951416016 0.534241020679 -160.512207031250 64.780799865723
-137.479797363281 4.814362049103 -156.930068969727 69.195610046387
-140.069747924805 4.489257812500 -162.972229003906 67.091964721680
-133.223266601563 4.328826904297 -158.395950317383 68.764083862305
41.187763214111 7.222534179688 -159.321868896484 70.266716003418
43.215831756592 10.501617431641 -160.094879150391 73.845512390137
-139.861602783203 7.435822010040 -161.530868530273 70.300613403320
-129.287811279297 7.805480957031 -160.046905517578 72.262252807617
-135.612335205078 7.787200927734 -157.644729614258 71.975227355957
-130.128189086914 8.741516113281 -159.833633422852 73.052497863770
-130.732406616211 8.201904296875 -162.692047119141 71.756797790527
-133.129135131836 10.291381835938 -163.929244995117 73.153953552246
-134.374664306641 10.531555175781 -158.433227539063 74.510040283203
-136.033493041992 30.094268798828 -157.444900512695 92.019348144531
-134.079208374023 26.866363525391 -160.133071899414 89.930618286133
-134.056533813477 24.236236572266 -160.470794677734 87.302665710449
31.312543869019 26.847137451172 -160.684158325195 88.356216430664
-140.057098388672 29.650878906250 -157.870773315430 92.739547729492
-132.869537353516 32.615081787109 -159.429061889648 93.454742431641
9.154137611389 32.077545166016 -165.581069946289 94.976013183594
19.111721038818 37.068511962891 -160.251068115234 98.249969482422
-137.935363769531 39.435607910156 -161.176971435547 101.523849487305
41.402534484863 -233.614044189453 -167.677429199219 153.862243652344
59.778316497803 -226.980255126953 -161.519363403320 149.032592773438
64.048301696777 -222.606216430664 -166.844375610352 146.264190673828
55.450756072998 -220.351379394531 -157.622665405273 141.254440307617
39.817703247070 -218.154342651367 -168.258483886719 138.499908447266
59.278427124023 -215.224685668945 -165.441009521484 137.921737670898
94.161048889160 -193.167419433594 -158.301376342773 116.952667236328
91.218788146973 -193.041732788086 -160.888427734375 117.095321655273
-1.922745943069 -186.168060302734 -161.479492187500 104.669403076172
81.465072631836 -184.228103637695 -157.785308837891 110.876152038574
-13.631011962891 -181.852935791016 -163.463500976563 99.216072082520
-20.084886550903 -175.696075439453 -165.134307861328 92.136268615723
-42.515663146973 -179.001602172852 -159.210754394531 96.409317016602
-40.201999664307 -176.155166625977 -157.877807617188 93.518005371094
78.462326049805 -172.901962280273 -164.704513549805 100.516334533691
121.183860778809 -165.698730468750 -164.907928466797 88.083419799805
-46.161758422852 -169.160354614258 -158.271362304688 86.868705749512
71.303092956543 -159.528076171875 -160.799789428711 88.806022644043
78.106803894043 -161.562530517578 -158.521667480469 90.347587585449
117.819793701172 -160.701766967773 -160.212158203125 83.054046630859
-51.681697845459 -161.676635742188 -162.942993164063 80.160316467285
69.564598083496 -159.363510131836 -156.849578857422 86.949089050293
-51.473636627197 -150.258636474609 -163.799163818359 68.930458068848
82.465270996094 -158.599990844727 -161.440994262695 85.907577514648
81.951705932617 -152.182922363281 -159.979461669922 80.229614257813
-60.571498870850 -146.934783935547 -159.092758178711 66.624313354492
-83.208946228027 -143.230560302734 -158.173355102539 65.938491821289
-55.573627471924 -144.512680053711 -155.229766845703 64.485145568848
-69.333847045898 -143.898391723633 -161.306884765625 63.813362121582
-48.560977935791 -140.506713867188 -162.037094116211 58.755203247070
-69.816993713379 -146.156051635742 -158.095870971680 66.285392761230
-62.322032928467 -140.152282714844 -160.961364746094 59.676082611084
-62.378444671631 -139.414077758789 -162.318099975586 58.790431976318
-54.018917083740 -135.531158447266 -163.011795043945 54.927711486816
-70.439094543457 -129.229263305664 -162.636566162109 49.401630401611
49.065803527832 -127.283920288086 -159.789688110352 50.433582305908
-35.545310974121 -125.970199584961 -160.142303466797 43.339328765869
45.803485870361 -121.121765136719 -159.542282104492 43.581356048584
45.007831573486 -122.842834472656 -160.799301147461 45.164611816406
44.922489166260 -123.083877563477 -161.973953247070 45.622802734375
-39.204040527344 -123.044754028320 -158.501770019531 40.421009063721
35.267219543457 -109.431335449219 -160.124618530273 30.099193572998
37.605377197266 -111.245513916016 -160.676040649414 32.374214172363
-131.418655395508 -78.172821044922 -160.999206542969 19.845664978027
-136.192871093750 -80.289962768555 -156.753768920898 21.556381225586
-138.105270385742 -73.892761230469 -159.964080810547 16.345615386963
-133.238769531250 -70.083526611328 -157.941040039063 19.578815460205
-134.402984619141 -63.446441650391 -160.707015991211 16.807069778442
-135.087036132813 -62.449981689453 -162.227416992188 15.302002906799
-126.753814697266 -62.409240722656 -162.153259277344 19.117595672607
-130.054428100586 -55.432556152344 -157.456665039063 23.751153945923
-107.903266906738 -55.374832153320 -162.074523925781 8.827512741089
-119.825759887695 -51.726135253906 -161.039688110352 18.519290924072
-133.577545166016 -42.250152587891 -161.368469238281 26.813419342041
-132.930465698242 -32.884170532227 -154.933700561523 37.761779785156
-137.668563842773 -28.807373046875 -159.078048706055 37.686351776123
-132.036636352539 -27.050979614258 -160.050781250000 39.875648498535
-137.910217285156 -27.108932495117 -159.148971557617 39.069480895996
-136.058334350586 -27.160491943359 -156.842178344727 40.484886169434
-133.706939697266 -24.979949951172 -160.530975341797 41.023548126221
-131.621810913086 -23.282287597656 -160.332351684570 43.095729827881
-128.006118774414 -18.660415649414 -158.421005249023 48.912872314453
-132.713241577148 -25.537857055664 -161.231842041016 40.474124908447
-140.528457641602 -21.410949707031 -159.043365478516 43.895648956299
24.324455261230 -15.520980834961 -159.303329467773 47.140415191650
5.241816997528 -14.272003173828 -164.331558227539 50.366737365723
-131.430114746094 -14.697235107422 -157.746780395508 51.755062103271
-137.836990356445 -18.587066650391 -160.331008911133 46.142009735107
-138.576370239258 -16.418182373047 -161.136535644531 47.762531280518
22.893342971802 -11.959274291992 -161.018005371094 50.727729797363
-135.693496704102 -16.961242675781 -158.739669799805 48.530887603760
-134.658767700195 -2.046875000000 -162.389785766602 61.399333953857
10.643789291382 -5.862305164337 -160.334960937500 56.720813751221
-133.875762939453 -3.698791980743 -159.093063354492 60.897388458252
-130.574432373047 -1.355774044991 -158.803222656250 63.744266510010
-128.246902465820 0.830138981342 -160.002578735352 65.918502807617
-128.799697875977 0.295502007008 -159.526885986328 65.432807922363
42.312629699707 6.937897205353 -162.186996459961 71.173446655273
-135.305831909180 8.963409423828 -162.792007446289 71.838371276855
41.755790710449 16.133087158203 -161.531845092773 79.344009399414
28.711925506592 32.627807617188 -159.711791992188 93.644439697266
15.739460945129 32.913726806641 -159.351165771484 94.174201965332
23.085380554199 38.143951416016 -157.221298217773 98.520851135254
46.332492828369 -235.388519287109 -159.494644165039 155.383865356445
57.859497070313 -217.504974365234 -168.930984497070 140.258804321289
50.407245635986 -216.459732055664 -168.226730346680 137.908065795898
-29.277368545532 -208.400512695313 -159.034667968750 124.665565490723
-76.110687255859 -200.434738159180 -160.439666748047 120.658210754395
-79.970680236816 -195.511810302734 -159.838439941406 116.360176086426
-7.440916061401 -188.712753295898 -158.487045288086 107.241882324219
116.068038940430 -186.507278442383 -161.185562133789 108.773246765137
120.769104003906 -179.908737182617 -157.681838989258 102.430938720703
119.821617126465 -178.006179809570 -161.421600341797 100.430145263672
-35.664665222168 -172.324386596680 -161.288055419922 89.339675903320
-47.856098175049 -170.713943481445 -158.074035644531 88.592369079590
72.838768005371 -166.431884765625 -158.329818725586 94.854431152344
68.549186706543 -164.952941894531 -162.049667358398 92.622459411621
-47.159370422363 -158.576629638672 -163.172286987305 76.445434570313
-82.140434265137 -148.138748168945 -156.123336791992 70.471725463867
91.983177185059 -146.679153442383 -159.725433349609 71.895416259766
-65.725280761719 -146.767196655273 -159.337371826172 66.550895690918
-53.083721160889 -146.322921752930 -160.466323852539 65.365257263184
-65.933036804199 -141.733016967773 -162.648620605469 61.228416442871
-70.213912963867 -140.028182983398 -154.129104614258 60.534469604492
-68.245903015137 -138.899047851563 -160.363845825195 58.856090545654
-55.297496795654 -136.859878540039 -153.317260742188 57.329120635986
-51.707530975342 -138.129058837891 -158.843460083008 57.111995697021
-67.352760314941 -137.428039550781 -155.290344238281 57.611389160156
-62.779705047607 -138.504592895508 -159.050247192383 58.292655944824
-48.779834747314 -135.487426757813 -158.217803955078 53.921569824219
-70.120712280273 -137.727981567383 -158.735046386719 57.905590057373
-60.719959259033 -135.018249511719 -159.734054565430 54.745357513428
-59.787395477295 -126.362548828125 -158.528274536133 46.433208465576
-65.733566284180 -126.740814208984 -159.117385864258 46.627609252930
42.150814056396 -130.740493774414 -157.267227172852 51.347320556641
-42.949882507324 -122.823486328125 -157.511489868164 40.550865173340
41.740280151367 -121.483169555664 -160.183410644531 42.842212677002
36.853878021240 -116.440109252930 -162.519943237305 37.410114288330
-129.129745483398 -61.112243652344 -159.871185302734 20.624439239502
-122.840545654297 -56.727752685547 -160.685638427734 17.968650817871
-138.278671264648 -52.979598999023 -159.492996215820 19.957736968994
-136.272201538086 -55.537033081055 -156.824874877930 21.484153747559
-142.406112670898 -53.136398315430 -162.779220581055 16.490446090698
-133.820678710938 -52.730773925781 -156.085357666016 24.294992446899
-127.554473876953 -52.554336547852 -158.068588256836 24.718753814697
-135.381225585938 -48.680770874023 -157.016815185547 25.217824935913
-134.393966674805 -32.099304199219 -160.833236694336 34.661365509033
-134.231109619141 -34.596130371094 -158.228515625000 34.139995574951
-130.687622070313 -31.424942016602 -157.124191284180 38.228981018066
-130.548904418945 -33.544586181641 -159.306655883789 35.455280303955
-135.872726440430 -28.467102050781 -159.016281127930 38.297042846680
-131.439132690430 -30.996124267578 -157.395156860352 38.177143096924
-132.828247070313 -27.974182128906 -157.664367675781 40.064933776855
-127.671752929688 -29.000549316406 -157.190567016602 41.106018066406
-127.866577148438 -27.156646728516 -161.349975585938 40.563217163086
-129.308654785156 -22.116470336914 -158.064773559570 45.723377227783
-134.610382080078 -20.380874633789 -156.350021362305 46.731979370117
-133.449478149414 -21.501434326172 -156.744750976563 45.805305480957
16.948759078979 -16.867706298828 -160.940673828125 45.591995239258
32.601470947266 -12.483078002930 -159.116287231445 50.967380523682
38.595287322998 -0.615997016430 -154.969390869141 61.151939392090
38.523750305176 2.069977045059 -157.877471923828 64.559982299805
22.858606338501 8.213073730469 -160.429489135742 70.080314636230
35.959857940674 23.478576660156 -161.610809326172 85.643936157227
19.397979736328 24.815521240234 -160.775817871094 86.340423583984
21.451002120972 36.774780273438 -157.923522949219 97.515480041504
24.984167098999 33.577453613281 -160.674118041992 94.893066406250
64.177017211914 -234.305618286133 -166.407318115234 157.603897094727
47.061367034912 -217.222274780273 -157.302719116211 137.222061157227
-15.610834121704 -205.571258544922 -157.804336547852 123.214866638184
-2.271224975586 -203.457763671875 -158.384399414063 122.155670166016
2.222965002060 -196.273864746094 -155.533905029297 115.627944946289
109.511772155762 -194.203186035156 -159.645736694336 116.610023498535
-82.283638000488 -183.855484008789 -155.477355957031 105.397941589355
115.358200073242 -182.344879150391 -161.138381958008 104.611450195313
70.401939392090 -168.833007812500 -158.918807983398 96.240722656250
81.634513854980 -166.190826416016 -157.600677490234 93.537078857422
-50.221431732178 -164.001861572266 -157.525497436523 82.265480041504
67.850807189941 -161.809097290039 -159.939575195313 89.262687683105
75.359558105469 -165.402328491211 -154.671600341797 94.088485717773
118.533958435059 -157.650375366211 -158.055725097656 80.083602905273
-53.951229095459 -160.433410644531 -157.465454101563 79.405517578125
-56.312870025635 -158.618515014648 -155.809219360352 78.237503051758
93.201492309570 -147.576065063477 -160.347335815430 72.389930725098
-61.267116546631 -148.065582275391 -159.519073486328 67.693031311035
-48.935134887695 -147.195465087891 -158.497344970703 65.440078735352
53.235862731934 -134.812240600586 -156.012557983398 58.443206787109
-68.962448120117 -130.823608398438 -159.306106567383 50.905303955078
54.934638977051 -134.400375366211 -158.388839721680 58.975608825684
-75.414421081543 -137.357116699219 -160.689025878906 58.291416168213
