-101.449104309082 -70.073280334473 -291.775177001953 1.584228157997
-128.982620239258 -67.335182189941 -292.982421875000 1.066071629524
9.860092163086 -72.950660705566 -289.021911621094 0.881151676178
-111.753273010254 -64.860870361328 -290.167968750000 3.616892576218
3.172982931137 -70.723785400391 -294.040039062500 1.306496620178
-142.941589355469 -69.224655151367 -289.906005859375 1.559566974640
-152.711791992188 -70.165618896484 -297.072448730469 1.473843812943
-157.743713378906 -69.273361206055 -315.271026611328 4.421174526215
-154.953277587891 -68.884552001953 -312.956207275391 2.468924999237
47.894824981689 -72.083312988281 -25.328603744507 1.476048588753
23.365390777588 -70.056976318359 -36.203094482422 0.314523190260
30.868293762207 -70.990303039551 -37.315979003906 2.428114414215
-44.848255157471 -71.449760437012 -48.275821685791 3.125837802887
-12.638667106628 -67.813705444336 -62.990371704102 1.717996001244
94.357803344727 -71.309486389160 -69.031379699707 1.343814730644
68.732719421387 -66.022895812988 -70.272468566895 1.100833296776
-24.157455444336 -69.470741271973 -75.180099487305 1.297696113586
-98.001693725586 -72.933952331543 -87.228363037109 2.764144182205
-42.464176177979 -69.484199523926 -83.349884033203 2.192447185516
61.582160949707 -69.255722045898 -82.117309570313 1.242096543312
62.244720458984 -72.318054199219 -86.621910095215 1.643426656723
53.519664764404 -67.722152709961 -88.257652282715 1.708917737007
-58.870113372803 -68.197624206543 -91.110282897949 1.512841701508
66.858787536621 -66.291671752930 -89.967163085938 2.005770921707
43.696380615234 -72.981132507324 -98.564682006836 1.688712358475
68.502052307129 -71.550285339355 -95.332504272461 2.999473094940
-62.228458404541 -67.464363098145 -96.824935913086 3.179070234299
50.168079376221 -71.680809020996 -93.854637145996 1.661670327187
45.713241577148 -71.433639526367 -99.065841674805 1.391360878944
103.379211425781 -67.438835144043 -101.155075073242 2.356476068497
-66.465568542480 -69.106300354004 -99.668304443359 1.206861615181
110.630371093750 -69.573265075684 -100.953414916992 1.967279911041
-79.001571655273 -71.112899780273 -101.907943725586 1.214172244072
54.527225494385 -72.389404296875 -105.632110595703 2.195492267609
48.041782379150 -68.091323852539 -101.374176025391 0.848462522030
91.875045776367 -68.294281005859 -104.422821044922 2.405528306961
84.539756774902 -68.508529663086 -107.253845214844 1.464916110039
54.840599060059 -69.726135253906 -105.197814941406 0.880459129810
-76.261917114258 -69.690528869629 -111.855682373047 1.889859318733
-76.770362854004 -68.321090698242 -115.714172363281 1.675749540329
-80.337463378906 -70.252098083496 -119.119064331055 1.319216251373
-93.153228759766 -73.596817016602 -119.244117736816 2.065174102783
104.963539123535 -65.145057678223 -117.085906982422 3.037626504898
-88.348159790039 -71.291320800781 -119.786926269531 3.025127649307
-76.613349914551 -65.561935424805 -122.026733398438 2.138520240784
109.601470947266 -68.857093811035 -116.599235534668 2.164407968521
-61.512706756592 -61.922149658203 -118.810844421387 1.664269208908
113.778846740723 -73.341110229492 -131.971740722656 1.424476623535
110.117698669434 -71.398559570313 -129.963409423828 0.979226827621
107.350090026855 -71.024200439453 -126.348548889160 1.300625085831
-93.367591857910 -69.429374694824 -138.542984008789 1.794651150703
-46.943656921387 -69.152389526367 -142.511581420898 1.989769816399
-79.045150756836 -67.074859619141 -145.238815307617 3.737292528152
-69.226852416992 -69.100357055664 -149.715637207031 0.819581747055
-70.158454895020 -67.733947753906 -148.677993774414 1.898586511612
-55.067268371582 -68.508255004883 -144.344833374023 0.983024060726
-46.860485076904 -72.819465637207 -146.696319580078 2.278625011444
16.489706039429 -69.595664978027 -147.027343750000 1.922559976578
-94.040954589844 -66.022140502930 -143.649719238281 1.354993581772
-45.605232238770 -67.827903747559 -147.979095458984 1.697563409805
-52.031158447266 -63.424045562744 -148.386108398438 5.207826614380
-41.980037689209 -67.478538513184 -155.550216674805 1.079191207886
27.642530441284 -71.671859741211 -162.494125366211 1.734825372696
-49.931896209717 -69.492088317871 -151.681808471680 0.916730999947
-100.311584472656 -64.996452331543 -150.237945556641 1.762341499329
-45.206798553467 -66.429321289063 -157.515808105469 2.881122589111
25.812059402466 -71.439414978027 -148.777770996094 1.624634027481
-98.435653686523 -73.650009155273 -163.779022216797 5.935664653778
22.828506469727 -71.521697998047 -158.274566650391 1.746667742729
-107.515716552734 -66.298889160156 -170.630691528320 2.813560724258
-100.950660705566 -69.192985534668 -164.441757202148 1.855849385262
22.328905105591 -69.381195068359 -165.558486938477 0.957621514797
26.331470489502 -67.920433044434 -168.469665527344 1.214120030403
-108.184173583984 -70.961311340332 -174.428039550781 2.057527542114
-141.942474365234 -66.748031616211 -175.445205688477 1.255402803421
-19.651945114136 -69.753387451172 -190.069351196289 2.062192678452
-27.251541137695 -68.528045654297 -182.378189086914 1.539987206459
-115.162910461426 -70.046005249023 -187.796981811523 3.042803525925
-143.595336914063 -64.471183776855 -187.899459838867 1.172826290131
-103.226661682129 -66.330764770508 -182.433639526367 2.664073467255
-157.834442138672 -68.812385559082 -191.420059204102 2.613068580627
-131.060821533203 -72.810234069824 -196.096725463867 0.587337434292
-133.027297973633 -70.646034240723 -197.057373046875 1.222563505173
-19.639722824097 -67.693656921387 -190.120880126953 2.100649833679
-120.126029968262 -69.403137207031 -198.854248046875 1.777582526207
-116.784240722656 -65.673934936523 -199.845642089844 1.685761332512
-26.732036590576 -71.213409423828 -195.277694702148 0.750959575176
-154.114608764648 -66.372604370117 -198.806472778320 1.228764176369
-132.018066406250 -70.572013854980 -205.730621337891 1.862601041794
-124.705459594727 -66.768470764160 -205.402114868164 1.465140104294
18.326583862305 -71.501945495605 -202.484420776367 0.974865317345
-161.777267456055 -68.075050354004 -204.125305175781 0.571005403996
11.459033966064 -68.622581481934 -215.954071044922 1.422837138176
14.159155845642 -70.594718933105 -215.357284545898 1.647195935249
-16.771711349487 -66.014915466309 -209.748855590820 3.292337179184
-4.804226875305 -69.628570556641 -217.084884643555 1.737083077431
-169.791580200195 -66.055656433105 -211.298446655273 4.786516189575
-158.846801757813 -65.361991882324 -213.908279418945 2.007268905640
-94.471649169922 -68.786483764648 -219.333786010742 2.064425706863
-98.388313293457 -70.470092773438 -223.654220581055 0.532663285732
-160.715713500977 -69.085998535156 -226.142974853516 2.411930561066
-106.248710632324 -67.160629272461 -220.207382202148 2.873954057693
-11.836676597595 -67.892547607422 -214.930801391602 1.046751976013
-127.214263916016 -70.387619018555 -223.259185791016 1.243335723877
-141.884902954102 -69.381233215332 -225.030441284180 1.457314610481
-2.892524957657 -70.910606384277 -222.031768798828 1.454710483551
-134.060623168945 -67.235992431641 -225.745620727539 0.804484605789
-123.531715393066 -72.641120910645 -224.147094726563 0.805106163025
-114.116645812988 -70.864273071289 -225.685317993164 2.224386215210
0.600158989429 -64.960952758789 -228.873306274414 3.007969379425
-107.012519836426 -67.490074157715 -231.618469238281 2.509717226028
-160.192153930664 -63.606960296631 -223.964172363281 2.083022832870
-146.426528930664 -67.818382263184 -227.778579711914 0.907171607018
-165.177932739258 -68.029853820801 -226.181945800781 3.296860218048
-7.700016021729 -68.975433349609 -227.440673828125 2.556231021881
-8.166667938232 -69.640869140625 -233.323944091797 2.638346672058
78.676971435547 -72.086997985840 -226.098266601563 0.996810972691
0.112208999693 -71.392654418945 -230.234054565430 2.148641347885
-142.734619140625 -68.547462463379 -237.194824218750 1.062523007393
-13.993659019470 -67.923133850098 -229.946334838867 1.841595411301
74.315086364746 -70.244323730469 -228.673370361328 2.067000150681
74.920494079590 -70.364883422852 -233.723754882813 1.919028162956
-134.333282470703 -67.399795532227 -233.460220336914 0.367451906204
-157.167800903320 -71.041938781738 -229.450286865234 1.902036666870
-113.949310302734 -67.582015991211 -233.903732299805 2.049829244614
-124.455940246582 -64.770538330078 -236.642700195313 1.717303872108
-163.450134277344 -67.340629577637 -235.924560546875 1.141280889511
-159.857330322266 -68.971138000488 -236.750885009766 3.188055515289
-146.473403930664 -65.173255920410 -235.199920654297 2.305280685425
-12.505358695984 -68.495445251465 -236.105804443359 1.467718482018
-4.946613788605 -68.889625549316 -241.225372314453 2.855550765991
-160.470916748047 -67.147018432617 -241.736175537109 1.308907151222
5.712700843811 -70.418792724609 -238.918701171875 2.271359205246
3.088609933853 -70.265998840332 -237.384063720703 1.978393912315
-159.846603393555 -68.305625915527 -239.886856079102 1.646249532700
17.018714904785 -73.345634460449 -242.950851440430 2.437544107437
51.023082733154 -72.138801574707 -246.011734008789 2.304176568985
50.822196960449 -72.083694458008 -245.046951293945 1.783662796021
-15.743009567261 -70.517875671387 -247.710479736328 2.315075635910
48.453254699707 -68.741287231445 -249.830490112305 1.237429618835
-161.272460937500 -65.580986022949 -251.183105468750 3.701640605927
-158.928146362305 -68.833892822266 -248.525360107422 1.322940349579
-160.328887939453 -71.984245300293 -250.596252441406 2.666646003723
54.935073852539 -69.697715759277 -249.373138427734 2.013145208359
-92.038574218750 -67.919052124023 -253.716506958008 1.143078207970
-124.717407226563 -68.044441223145 -255.366271972656 1.835038304329
-105.729301452637 -72.855857849121 -254.593399047852 2.064673423767
26.712453842163 -73.382537841797 -258.132568359375 4.273037910461
41.465343475342 -67.944580078125 -251.849166870117 1.711064457893
-100.654708862305 -66.514175415039 -255.858139038086 1.313238739967
-93.508132934570 -65.089790344238 -252.553726196289 3.451889514923
45.549530029297 -73.540031433105 -255.154479980469 3.050883054733
42.354537963867 -68.334312438965 -257.384155273438 1.625222802162
-154.825881958008 -73.208419799805 -258.958526611328 1.544116020203
30.560161590576 -69.789985656738 -259.935424804688 1.650103926659
-142.826202392578 -71.573013305664 -265.293334960938 2.162997961044
-113.399299621582 -68.466354370117 -263.347442626953 2.960372924805
-136.960800170898 -67.721206665039 -263.511810302734 1.737066030502
31.326448440552 -69.511093139648 -263.448181152344 2.991315841675
-126.135231018066 -67.653968811035 -264.464813232422 1.516194343567
-11.199972152710 -68.359359741211 -258.870941162109 2.088009834290
21.589973449707 -72.825790405273 -271.715209960938 2.069933176041
-5.685788154602 -73.624954223633 -266.045806884766 6.330469608307
19.775049209595 -71.767646789551 -280.570678710938 1.979599952698
-153.278717041016 -70.546127319336 -283.421600341797 2.010987281799
-10.934573173523 -68.412345886230 -281.366943359375 1.628980636597
-153.140029907227 -72.144218444824 -283.480682373047 2.330917119980
-123.811042785645 -70.609169006348 -285.908111572266 1.502421975136
-160.526947021484 -74.400581359863 -287.229034423828 2.467468261719
-114.759475708008 -68.929145812988 -287.952026367188 1.273507356644
-104.470512390137 -69.374755859375 -290.407104492188 2.966113328934
-6.971808910370 -68.227111816406 -285.982513427734 0.682234227657
-108.344650268555 -70.344535827637 -290.061187744141 1.711698770523
-116.508201599121 -66.853736877441 -286.066406250000 3.177550077438
-120.283973693848 -66.104225158691 -292.486511230469 2.085164785385
-138.083114624023 -68.656806945801 -290.716003417969 1.522490382195
-126.250854492188 -66.704826354980 -292.385223388672 1.862238287926
-157.751342773438 -73.119552612305 -290.827209472656 1.953201055527
-146.871170043945 -67.057106018066 -293.697631835938 1.820926070213
-156.521377563477 -66.568115234375 -302.692871093750 3.345266819000
-154.184188842773 -67.268722534180 -311.956024169922 1.790188193321
-158.348068237305 -67.379089355469 -301.988800048828 4.658097743988
-141.786209106445 -69.897666931152 -311.482208251953 2.509087085724
-149.589828491211 -70.138778686523 -314.714599609375 2.133358955383
35.566051483154 -70.126991271973 -9.373504638672 2.042793750763
46.938190460205 -73.257141113281 -16.812841415405 2.522813320160
24.288412094116 -66.313049316406 -23.945074081421 3.638638019562
50.592956542969 -70.177253723145 -27.760879516602 1.124420881271
28.321605682373 -71.743507385254 -34.736244201660 1.106598734856
33.025985717773 -70.646591186523 -34.977142333984 2.542833805084
-57.502597808838 -64.922019958496 -47.944000244141 4.389032840729
80.096946716309 -66.013107299805 -61.524471282959 1.543588876724
81.361579895020 -70.590812683105 -67.182518005371 2.175034761429
-90.146461486816 -69.412605285645 -62.906536102295 0.507694482803
-12.392944335938 -66.532432556152 -61.917320251465 2.163644552231
-92.243598937988 -70.311714172363 -70.641181945801 2.134171724319
96.674163818359 -71.575477600098 -68.994155883789 2.978217363358
-13.479615211487 -66.070159912109 -68.427993774414 1.029035091400
67.875999450684 -71.997642517090 -79.116539001465 1.467467427254
-41.714599609375 -72.854057312012 -79.735931396484 1.265059590340
-26.973722457886 -72.381828308105 -76.235557556152 1.847644686699
56.491786956787 -66.217140197754 -86.550727844238 1.978973031044
-43.861988067627 -78.673316955566 -84.863510131836 1.174160003662
65.150703430176 -62.377010345459 -87.312103271484 1.263122797012
53.130474090576 -73.338890075684 -90.039604187012 0.973155140877
53.923873901367 -69.490966796875 -93.996231079102 2.725597620010
59.807792663574 -73.779808044434 -91.104804992676 1.965645909309
57.108688354492 -66.577796936035 -96.059196472168 2.233983993530
100.006095886230 -66.849449157715 -97.973304748535 1.514680981636
106.249031066895 -65.747451782227 -98.858840942383 1.466090798378
60.029609680176 -71.847801208496 -100.221557617188 2.302598953247
107.182327270508 -65.782371520996 -99.756896972656 2.015994310379
-76.677711486816 -68.112945556641 -99.715202331543 2.014006614685
-72.426307678223 -68.053489685059 -102.472839355469 0.734752237797
100.574424743652 -66.576721191406 -98.725013732910 1.977231025696
53.481285095215 -69.885070800781 -101.126731872559 1.219817280769
70.665237426758 -70.755439758301 -98.941612243652 1.417415738106
-72.239830017090 -68.601264953613 -107.813903808594 2.229781389236
-84.893600463867 -67.143760681152 -107.672790527344 2.114356994629
89.406517028809 -72.208717346191 -104.565544128418 3.108375072479
40.441638946533 -70.323066711426 -104.561370849609 0.965638875961
105.108940124512 -66.277503967285 -106.049385070801 1.581750988960
46.786121368408 -71.332527160645 -113.777351379395 1.141748428345
110.344215393066 -69.696777343750 -103.739624023438 0.559004902840
-78.458374023438 -67.935485839844 -111.508544921875 1.660803198814
104.786735534668 -65.492378234863 -108.780281066895 2.870714426041
-84.043113708496 -66.055786132813 -121.656997680664 2.059243917465
-58.342212677002 -70.740043640137 -128.921676635742 1.141829013824
-55.672317504883 -67.552993774414 -125.269683837891 1.854946970940
-72.262474060059 -69.743659973145 -130.362960815430 2.266823530197
-50.752143859863 -69.848083496094 -131.330749511719 1.905020117760
-83.835449218750 -69.901092529297 -133.345596313477 2.096897840500
-77.284690856934 -65.461608886719 -133.475555419922 1.512708663940
-80.388122558594 -68.447364807129 -131.392547607422 1.882564306259
-60.034469604492 -72.832733154297 -141.924240112305 2.260426521301
-71.415344238281 -68.188789367676 -141.087387084961 1.408015489578
-59.842617034912 -71.606147766113 -135.502304077148 2.809526920319
-58.405487060547 -68.791175842285 -142.255935668945 1.268479108810
16.941568374634 -65.588188171387 -144.135604858398 1.832687973976
-90.818992614746 -68.734176635742 -142.670867919922 1.562431216240
-47.517589569092 -72.157104492188 -147.065017700195 2.382732152939
-96.315422058105 -66.530616760254 -150.217498779297 2.722545862198
-100.728172302246 -66.056838989258 -149.733566284180 2.224425315857
19.282299041748 -70.763397216797 -154.076644897461 2.638051986694
14.187449455261 -70.182411193848 -158.453659057617 1.327950000763
-95.713973999023 -69.941642761230 -160.216003417969 2.627053022385
-103.366737365723 -68.402275085449 -154.707107543945 3.367492675781
-100.250404357910 -67.181442260742 -168.895812988281 2.134327411652
22.172487258911 -68.298522949219 -170.189605712891 0.794127821922
-110.407577514648 -68.007041931152 -173.283035278320 1.200981497765
22.794456481934 -69.077087402344 -166.763519287109 1.181714415550
-147.517059326172 -68.190254211426 -177.169967651367 1.812045335770
17.925758361816 -68.710838317871 -176.745880126953 1.196132302284
24.243354797363 -69.691253662109 -186.203781127930 1.240232110023
-152.240188598633 -66.786476135254 -187.274749755859 1.508597373962
21.499906539917 -69.704025268555 -176.712493896484 1.216234564781
19.227842330933 -63.608520507813 -180.759201049805 2.977552652359
-143.607025146484 -71.509002685547 -185.435379028320 2.693208217621
-151.785491943359 -65.787681579590 -189.930007934570 2.286307334900
20.000215530396 -69.017150878906 -188.662811279297 2.233706235886
18.546533584595 -70.603302001953 -190.149139404297 1.843451142311
-142.100128173828 -70.007087707520 -194.455841064453 0.624702155590
-108.963218688965 -68.717880249023 -198.326553344727 2.346026897430
23.955017089844 -69.529808044434 -198.830230712891 3.536220788956
-124.784362792969 -68.066482543945 -195.480072021484 1.453961491585
10.729961395264 -70.969802856445 -200.266372680664 0.957146942616
-130.103698730469 -63.489513397217 -195.080841064453 1.995684981346
-159.358535766602 -65.868041992188 -191.422409057617 3.994565963745
-161.438598632813 -67.428169250488 -197.518615722656 2.103007555008
-158.744476318359 -68.989517211914 -195.858810424805 1.602349519730
-20.136325836182 -68.754585266113 -205.036224365234 1.578237295151
-167.573608398438 -70.111145019531 -200.378387451172 2.695210933685
-26.410417556763 -65.735282897949 -193.157531738281 3.018868207932
-15.430744171143 -70.018730163574 -196.340362548828 0.737482964993
9.855308532715 -64.572257995605 -196.054168701172 4.566617012024
-157.768981933594 -68.038490295410 -204.676528930664 1.900013446808
-108.083419799805 -67.135841369629 -202.909362792969 2.145983457565
-17.447563171387 -65.887405395508 -202.115890502930 2.926095724106
-160.116149902344 -64.030128479004 -202.518356323242 2.823346853256
16.775146484375 -69.112380981445 -201.895980834961 1.631028890610
-168.784713745117 -66.015647888184 -205.872039794922 2.629709243774
-120.721092224121 -70.449066162109 -203.506790161133 2.051299095154
-115.370231628418 -65.706199645996 -208.009246826172 3.911833047867
-122.961570739746 -67.314041137695 -205.002349853516 1.170713424683
-14.786936759949 -67.938232421875 -204.069976806641 1.299820899963
-17.340845108032 -68.986007690430 -204.957260131836 1.838060617447
-164.289398193359 -67.305419921875 -211.602951049805 1.256401300430
-160.060317993164 -66.109916687012 -213.289611816406 2.495979547501
-164.823516845703 -68.356277465820 -220.413162231445 1.235248923302
-141.346084594727 -69.999145507813 -214.948287963867 3.717931747437
-144.757507324219 -68.215347290039 -224.712432861328 1.977985858917
-2.931586027145 -67.232467651367 -220.424362182617 2.561487913132
-9.545270919800 -72.135887145996 -217.391769409180 2.533264398575
-99.962219238281 -66.773696899414 -221.571823120117 1.399940371513
-6.750400066376 -67.430282592773 -232.630187988281 1.224025130272
-167.052200317383 -65.643409729004 -229.920120239258 3.134985446930
-106.744384765625 -66.262855529785 -233.071502685547 3.691813230515
1.450868964195 -68.856185913086 -227.089202880859 1.956144809723
2.875921010971 -67.811241149902 -230.322052001953 0.798876404762
-111.768707275391 -68.812454223633 -233.813308715820 1.972545742989
-1.432633996010 -69.495704650879 -229.235656738281 1.293020486832
-117.683021545410 -65.568511962891 -235.071273803711 2.428683757782
-7.679821014404 -66.045089721680 -233.620880126953 1.933003544807
-2.147139072418 -67.739898681641 -235.345947265625 1.395256876945
-1.523136019707 -68.418823242188 -238.126510620117 1.413208007813
71.733291625977 -66.439857482910 -236.695892333984 2.240890026093
-10.705848693848 -71.536033630371 -238.069030761719 1.228468537331
7.425654888153 -69.408065795898 -237.644271850586 2.224295854568
11.226761817932 -67.954566955566 -239.530578613281 1.163885593414
5.508645057678 -69.450653076172 -239.265090942383 1.790201544762
2.640729904175 -70.198905944824 -241.546539306641 1.765732645988
64.269508361816 -65.238716125488 -238.830062866211 1.748931050301
69.059135437012 -66.331840515137 -240.484664916992 3.469409942627
8.433659553528 -68.594535827637 -247.325683593750 3.175912618637
54.132640838623 -69.974952697754 -242.488494873047 2.358997106552
55.647411346436 -72.568397521973 -240.939468383789 2.208656787872
47.089412689209 -65.985565185547 -249.668670654297 0.650537967682
41.418571472168 -66.936996459961 -251.602020263672 1.496015906334
40.815128326416 -67.919067382813 -256.724304199219 2.031441926956
-131.791915893555 -64.439018249512 -258.666839599609 1.319023013115
-10.302095413208 -68.238494873047 -250.479766845703 1.732541918755
28.467340469360 -67.746231079102 -258.389556884766 1.289698243141
45.129688262939 -68.114326477051 -248.384872436523 1.765376448631
27.452566146851 -71.173324584961 -254.214782714844 2.774107217789
-102.843406677246 -69.772727966309 -259.461944580078 1.742467880249
31.325584411621 -69.683403015137 -256.579895019531 0.728255152702
-147.103302001953 -69.900482177734 -261.760345458984 2.411720275879
-116.342674255371 -69.539726257324 -257.583435058594 2.013370513916
-108.800453186035 -68.022979736328 -258.623931884766 2.083996057510
-3.501672983170 -70.646080017090 -259.448242187500 5.158184051514
-150.422088623047 -69.259597778320 -258.179290771484 1.300624847412
35.346115112305 -68.664405822754 -262.153564453125 2.958782196045
-109.724822998047 -66.940597534180 -257.385894775391 1.189907670021
26.214706420898 -72.054725646973 -259.536163330078 2.853146076202
-134.932525634766 -69.654907226563 -263.569366455078 0.572102010250
-116.479652404785 -67.237045288086 -264.783905029297 0.964656472206
-109.530792236328 -67.511260986328 -262.041961669922 1.688615202904
-114.997108459473 -72.152229309082 -262.210174560547 1.169917225838
-140.004104614258 -69.445007324219 -258.664611816406 3.257853031158
29.045827865601 -69.277915954590 -260.515716552734 2.434981584549
-117.358863830566 -66.854476928711 -263.765075683594 1.198699951172
-144.336227416992 -69.505851745605 -264.328277587891 1.098146557808
-5.038486957550 -66.769317626953 -271.181610107422 1.938697934151
-150.764984130859 -70.316894531250 -281.987365722656 2.093293428421
-8.319178581238 -69.344200134277 -286.680877685547 1.580473065376
-5.342731952667 -66.559776306152 -283.339324951172 1.167677283287
-134.321212768555 -67.846961975098 -288.525970458984 1.514849781990
-127.546592712402 -68.485755920410 -291.242309570313 1.386758208275
-135.675827026367 -68.046424865723 -294.795318603516 2.307994365692
-126.579223632813 -67.005249023438 -292.582977294922 1.467503666878
-154.854934692383 -68.537002563477 -295.339752197266 1.220019340515
-156.146224975586 -68.391593933105 -301.064422607422 2.500594139099
-147.867172241211 -71.167556762695 -301.825225830078 2.744142293930
-149.772521972656 -68.809623718262 -304.190734863281 3.497028827667
-145.092071533203 -68.026268005371 -299.951080322266 2.073871135712
-149.475540161133 -67.322158813477 -305.086975097656 2.711048603058
-146.222686767578 -66.030448913574 -315.681060791016 3.618954181671
19.453458786011 -71.444015502930 -27.814779281616 0.868210792542
49.369274139404 -71.503257751465 -36.138080596924 1.412388920784
25.468387603760 -74.062316894531 -38.061363220215 3.214014053345
32.497882843018 -69.698516845703 -42.870796203613 2.426303148270
-42.532543182373 -62.855430603027 -48.418312072754 3.269534111023
-76.512771606445 -65.714691162109 -51.119140625000 2.767903089523
80.440826416016 -67.576927185059 -61.747119903564 1.681916594505
74.615135192871 -68.986953735352 -62.564662933350 1.896369338036
71.622146606445 -70.023452758789 -66.525413513184 2.250560998917
-99.276893615723 -67.323806762695 -73.360855102539 4.217943191528
99.343139648438 -71.777824401855 -76.002677917480 2.126982450485
-30.463241577148 -68.888801574707 -83.093757629395 5.485479354858
63.123615264893 -66.926101684570 -76.816291809082 2.546713113785
-43.172981262207 -64.834396362305 -83.183319091797 1.688519120216
-53.938495635986 -65.534332275391 -83.175079345703 1.346328973770
50.831878662109 -69.315666198730 -90.789443969727 2.548326253891
102.355377197266 -68.046333312988 -90.666725158691 1.016996026039
64.113243103027 -66.260070800781 -94.067558288574 1.263103246689
56.799102783203 -66.877464294434 -93.228767395020 2.158654451370
48.708282470703 -65.872543334961 -101.772232055664 2.121201753616
56.653022766113 -64.945526123047 -100.714492797852 1.653577208519
103.143386840820 -66.664291381836 -98.087814331055 1.227229952812
69.810531616211 -67.693725585938 -106.594192504883 3.491288185120
50.191341400146 -67.978363037109 -106.082809448242 2.338406801224
76.624290466309 -72.782760620117 -107.240486145020 4.031425476074
95.670928955078 -65.174644470215 -108.125144958496 1.891330003738
-75.233207702637 -65.669799804688 -102.181022644043 1.085303544998
-86.804603576660 -68.056495666504 -110.818923950195 0.500587165356
-82.207542419434 -68.269279479980 -113.382743835449 2.011932373047
-60.150684356689 -66.685256958008 -119.206932067871 2.410312175751
-57.173873901367 -70.948387145996 -126.540061950684 0.708586692810
-94.618659973145 -67.012107849121 -122.382469177246 1.685087680817
-75.103538513184 -68.822624206543 -120.033935546875 3.199994564056
-76.713264465332 -70.828018188477 -132.918685913086 1.927109837532
-60.855911254883 -65.358375549316 -128.878509521484 0.274333417416
-88.555511474609 -64.096755981445 -131.026611328125 1.519031286240
-89.769279479980 -66.805213928223 -130.707550048828 1.233698248863
-48.163120269775 -71.129142761230 -135.841796875000 0.642770111561
-51.457763671875 -68.271492004395 -137.178390502930 1.533927440643
-77.268539428711 -69.092887878418 -139.069702148438 1.403847575188
-53.948822021484 -69.297309875488 -142.068588256836 2.224136352539
-74.381355285645 -70.370819091797 -144.401840209961 2.050287008286
21.167854309082 -65.869651794434 -139.140716552734 1.519545316696
-57.441570281982 -71.370628356934 -145.341583251953 0.769276440144
-54.982509613037 -64.881576538086 -146.131042480469 3.006720066071
9.217736244202 -70.953636169434 -155.527038574219 2.006707191467
16.771659851074 -66.425506591797 -151.470077514648 0.902205169201
-142.259948730469 -67.687309265137 -174.886596679688 0.817030251026
-110.269515991211 -66.679595947266 -178.784225463867 1.365001559258
-109.571914672852 -64.470085144043 -190.389053344727 0.941544950008
-152.465713500977 -68.961730957031 -192.200622558594 1.855272531509
-112.949790954590 -66.796989440918 -186.397048950195 1.139098405838
-151.954086303711 -63.723564147949 -196.995269775391 2.309490680695
-114.019599914551 -66.208389282227 -199.220840454102 2.105067968369
-150.172393798828 -65.042701721191 -201.120681762695 1.922901630402
-150.430709838867 -67.452369689941 -207.028564453125 1.284017324448
-152.811981201172 -70.922683715820 -208.695541381836 1.548052191734
-147.680267333984 -67.205924987793 -224.656692504883 2.945223093033
-150.160873413086 -70.090515136719 -226.033813476563 3.244657993317
-104.894866943359 -65.588699340820 -226.704208374023 2.708973407745
-101.744445800781 -67.431343078613 -223.107070922852 1.725999951363
-123.125465393066 -63.478893280029 -231.214965820313 2.659144401550
-107.909484863281 -67.018203735352 -226.802108764648 1.091525197029
-156.311248779297 -68.462501525879 -231.397476196289 1.710095286369
-2.763853073120 -67.630966186523 -226.459609985352 2.096805334091
-133.694717407227 -69.190086364746 -231.496231079102 1.361738204956
-153.243423461914 -68.630523681641 -235.919540405273 1.151874423027
-136.787384033203 -69.765571594238 -233.975357055664 2.508038759232
-11.069149017334 -67.262733459473 -236.514831542969 2.601410388947
9.038377761841 -68.383041381836 -243.452804565430 0.491442233324
63.073646545410 -64.484962463379 -241.028762817383 2.127638101578
18.435707092285 -71.089202880859 -248.969039916992 2.403461694717
56.186553955078 -67.860481262207 -243.946517944336 1.578435420990
41.426158905029 -69.835807800293 -249.953979492188 1.534861445427
59.045372009277 -66.059440612793 -251.870697021484 4.082499027252
-152.283050537109 -67.436889648438 -251.043975830078 2.504422903061
-149.280426025391 -70.958580017090 -255.142639160156 2.730574607849
42.991832733154 -67.083106994629 -257.105773925781 0.586768865585
29.596019744873 -67.862121582031 -256.054595947266 1.664806008339
47.925109863281 -66.083450317383 -253.014968872070 1.749931812286
-144.606277465820 -70.223365783691 -260.281066894531 2.999697208405
-136.202438354492 -66.005851745605 -256.044677734375 2.664552688599
-124.732467651367 -65.389053344727 -258.630523681641 1.353048324585
-133.831802368164 -67.765342712402 -256.773742675781 1.420005798340
-140.664077758789 -68.169075012207 -258.663757324219 3.184735059738
-123.496559143066 -66.853706359863 -260.171020507813 2.324549436569
-142.582305908203 -65.923652648926 -261.034057617188 1.045868992805
-126.103538513184 -69.208908081055 -260.193176269531 2.377583026886
-122.242111206055 -67.704452514648 -265.090942382813 3.245979547501
-127.406600952148 -68.087593078613 -265.522644042969 2.069365024567
-120.254165649414 -64.628768920898 -264.751953125000 2.391678571701
-5.078658103943 -68.473403930664 -266.431884765625 1.695294976234
28.156120300293 -65.765945434570 -262.460784912109 1.773437023163
-146.062591552734 -63.989604949951 -267.665557861328 2.417004585266
26.381477355957 -68.509468078613 -269.454010009766 3.038422584534
-4.698244094849 -63.944412231445 -274.820037841797 4.471397876740
17.217193603516 -73.417686462402 -283.912811279297 1.119973421097
-141.467330932617 -68.055725097656 -289.912109375000 1.376557350159
-125.305435180664 -68.726577758789 -287.991271972656 1.282924413681
-132.086456298828 -63.991489410400 -291.052764892578 3.054280757904
-158.355209350586 -63.597892761230 -292.731018066406 3.356907606125
-125.899833679199 -63.290309906006 -290.031402587891 2.070393085480
-117.955360412598 -65.606445312500 -289.920562744141 1.466650009155
-125.465339660645 -69.306068420410 -296.381866455078 2.804208755493
-150.752273559570 -70.044868469238 -294.367858886719 1.060052394867
28.104038238525 -71.487800598145 -12.743501663208 0.470314264297
31.321403503418 -72.115249633789 -17.697885513306 1.219605088234
37.836402893066 -68.767265319824 -20.173898696899 2.105654954910
47.957317352295 -63.053417205811 -23.861101150513 3.019924640656
27.238946914673 -73.151664733887 -28.227069854736 2.101491212845
20.269323348999 -71.429504394531 -34.799335479736 1.734086394310
-34.451923370361 -67.819236755371 -46.794822692871 3.036952733994
-82.486679077148 -68.521263122559 -53.671737670898 1.263049125671
-16.534395217896 -67.179473876953 -59.022201538086 1.499381184578
72.646492004395 -66.028015136719 -65.024948120117 1.031578183174
101.630691528320 -67.014938354492 -68.823852539063 1.593327164650
64.621002197266 -66.129356384277 -83.202171325684 1.651718139648
61.246006011963 -63.069801330566 -83.382873535156 2.465115308762
100.166893005371 -67.674125671387 -84.565048217773 1.314014077187
-64.183456420898 -64.589256286621 -91.079643249512 2.393814802170
-65.537384033203 -66.865081787109 -91.748168945313 2.020799875259
49.538860321045 -65.427253723145 -93.635620117188 0.845709860325
-67.312995910645 -68.316276550293 -96.491928100586 2.611928939819
-71.648605346680 -66.617095947266 -101.366867065430 1.424363851547
-96.793914794922 -65.662338256836 -100.432350158691 1.515963554382
-75.861648559570 -63.699798583984 -100.686027526855 1.467124104500
46.787921905518 -64.354125976563 -101.929512023926 2.462204933167
-67.612937927246 -68.798027038574 -103.948951721191 3.754728317261
49.395919799805 -65.311798095703 -103.336769104004 1.888630867004
96.098503112793 -67.158706665039 -104.876556396484 2.234240531921
90.713188171387 -67.185447692871 -111.417251586914 3.811434745789
-72.995193481445 -66.419700622559 -115.018295288086 1.809312105179
-84.634643554688 -67.574592590332 -113.038673400879 1.018551945686
-61.993358612061 -66.643608093262 -119.685073852539 2.084644556046
-96.308723449707 -63.320812225342 -119.773010253906 2.859212398529
-76.796745300293 -68.448394775391 -127.826988220215 1.107151865959
-93.529846191406 -60.608882904053 -125.973304748535 2.422051668167
-63.451488494873 -65.033561706543 -118.485015869141 1.495801329613
-60.325721740723 -61.285507202148 -120.999885559082 2.684279203415
-88.789649963379 -67.073173522949 -130.170333862305 1.448197007179
-63.388053894043 -69.769165039063 -127.963211059570 3.178941249847
-84.232246398926 -65.657112121582 -133.098617553711 1.623544335365
-79.640014648438 -67.357986450195 -134.468612670898 1.397653937340
-62.208927154541 -70.071220397949 -135.051879882813 0.631609857082
-60.956329345703 -63.107654571533 -135.167556762695 1.966229081154
-54.774955749512 -62.132984161377 -136.026565551758 1.957857847214
-96.405929565430 -64.140029907227 -132.985198974609 4.566569328308
-97.071578979492 -64.034255981445 -144.776657104492 2.513883590698
-88.599105834961 -66.848388671875 -135.575515747070 2.478616237640
20.548498153687 -69.176864624023 -148.841201782227 2.974943399429
-50.010883331299 -67.309715270996 -142.362152099609 1.911947250366
17.946733474731 -66.718246459961 -150.603240966797 1.570271253586
-98.185684204102 -67.126678466797 -165.165863037109 3.118784666061
-102.914344787598 -70.510299682617 -172.052215576172 1.648186206818
-102.455482482910 -63.473915100098 -171.983596801758 1.474406242371
-107.843803405762 -61.968029022217 -172.030990600586 2.493168830872
-107.483085632324 -67.158378601074 -180.247070312500 2.991644620895
-110.554199218750 -66.148239135742 -179.025329589844 1.521318554878
-142.083892822266 -64.882209777832 -187.832244873047 1.851302266121
-111.874320983887 -65.268402099609 -187.186355590820 1.000375986099
-133.623245239258 -63.641544342041 -200.437484741211 1.172614812851
-149.215454101563 -68.276245117188 -199.184753417969 1.834250569344
-126.376426696777 -66.661369323730 -198.789672851563 2.818872451782
-156.770507812500 -68.013732910156 -197.321670532227 2.802600145340
-147.148864746094 -69.429687500000 -202.809600830078 2.651402711868
-125.091796875000 -62.043930053711 -199.589996337891 0.799372553825
-134.453704833984 -65.371017456055 -202.234878540039 1.762319087982
-141.416671752930 -71.024009704590 -207.250595092773 3.516873598099
-131.957595825195 -68.707832336426 -224.291305541992 1.116631746292
-110.421951293945 -68.112014770508 -230.309234619141 1.757342457771
-143.914642333984 -67.405296325684 -229.170410156250 2.392719030380
-118.563552856445 -65.045951843262 -231.875411987305 1.408502936363
-115.591743469238 -62.721778869629 -231.686676025391 1.336201906204
-122.611999511719 -67.381065368652 -233.930587768555 1.915977001190
-130.550262451172 -66.480308532715 -235.234390258789 3.298587083817
-115.531883239746 -63.831790924072 -237.295028686523 4.465028285980
4.599720001221 -66.179458618164 -236.229721069336 0.755578279495
-151.860382080078 -68.124847412109 -238.578247070313 2.905219554901
6.643999099731 -68.013801574707 -235.479782104492 1.080788373947
5.670297145844 -63.853950500488 -242.608932495117 2.628465175629
2.043966054916 -68.778244018555 -241.756271362305 0.599296033382
14.186545372009 -63.843875885010 -241.175262451172 1.468559741974
-144.324325561523 -64.987251281738 -236.082260131836 2.584898948669
-4.861766815186 -68.125701904297 -247.603439331055 4.602658748627
19.608860015869 -66.664344787598 -241.680297851563 2.268673181534
49.822467803955 -65.455657958984 -250.022155761719 1.782717823982
50.872600555420 -65.612358093262 -250.644027709961 1.594186663628
-146.659484863281 -68.188201904297 -253.321090698242 1.232175946236
-5.686047077179 -67.758682250977 -252.012023925781 2.202875852585
22.997743606567 -67.668876647949 -256.250396728516 1.133234858513
-132.246795654297 -61.774429321289 -259.319671630859 2.908221483231
-124.006706237793 -65.009422302246 -259.475891113281 1.501944422722
-124.689262390137 -67.293502807617 -258.934448242188 1.436662316322
26.626029968262 -66.752471923828 -259.276763916016 1.617241978645
-133.876815795898 -64.448684692383 -266.475738525391 4.214343070984
30.778486251831 -65.060989379883 -261.036132812500 1.064723014832
32.700920104980 -67.181739807129 -263.873535156250 2.645759105682
-152.948364257813 -68.547111511230 -268.001373291016 1.390038013458
-146.639282226563 -71.709800720215 -287.904083251953 3.207217693329
-149.513565063477 -63.521621704102 -288.971405029297 2.150902986526
-143.902359008789 -64.411926269531 -295.217681884766 2.134899139404
12.121279716492 -70.076774597168 -292.721496582031 2.044552803040
-154.434204101563 -64.515068054199 -300.953216552734 3.090962648392
45.506465911865 -71.561309814453 -26.596069335938 1.208046913147
35.133831024170 -72.899024963379 -40.702846527100 1.923181772232
-61.637752532959 -64.082069396973 -46.784553527832 3.974588394165
-72.528869628906 -64.090270996094 -47.358825683594 2.221761465073
-27.361082077026 -64.272384643555 -51.317974090576 2.072087287903
-22.451072692871 -69.376434326172 -55.190132141113 1.441881179810
-11.731180191040 -63.011577606201 -67.413414001465 2.266195058823
-26.719823837280 -63.009830474854 -70.541213989258 2.570040941238
64.565597534180 -66.385734558105 -74.336517333984 1.533518671989
-97.203163146973 -61.059776306152 -79.625724792480 2.312239646912
-46.768398284912 -66.480400085449 -87.014266967773 3.279962062836
54.297382354736 -67.661750793457 -86.459129333496 0.618937253952
58.319705963135 -66.583374023438 -87.061035156250 2.760627746582
61.920707702637 -67.102294921875 -89.361137390137 1.650208234787
105.936309814453 -65.835540771484 -91.268936157227 0.563522934914
51.898376464844 -63.928512573242 -91.443878173828 1.420678377151
98.618614196777 -62.391349792480 -100.799873352051 3.420044660568
-82.324043273926 -67.802780151367 -104.123626708984 0.662016272545
-94.460922241211 -66.002883911133 -102.733116149902 3.246134519577
74.956817626953 -63.316768646240 -112.559913635254 2.927628993988
-77.869781494141 -65.377662658691 -104.645103454590 2.499224662781
-78.065040588379 -69.844200134277 -115.621391296387 2.093614339828
-84.322288513184 -70.204498291016 -119.870758056641 2.094440698624
-55.639129638672 -67.158981323242 -127.449996948242 1.091353893280
-77.782455444336 -66.275512695313 -129.723449707031 1.656974673271
-62.841548919678 -63.142974853516 -130.460403442383 1.555036544800
-84.198837280273 -67.511848449707 -135.905914306641 3.420453548431
-76.211517333984 -64.788581848145 -133.956329345703 1.041513800621
-80.071823120117 -63.022289276123 -126.325248718262 1.094221949577
-89.005004882813 -64.283195495605 -131.281250000000 1.483720779419
-65.912757873535 -63.336330413818 -135.287704467773 3.341689109802
-90.846076965332 -65.595970153809 -133.763366699219 1.955132842064
-50.317859649658 -67.767677307129 -134.341613769531 0.947228193283
-55.965999603271 -70.075080871582 -139.974426269531 1.902172684669
27.540538787842 -66.228103637695 -140.284851074219 2.502812862396
-57.170570373535 -60.796176910400 -137.904861450195 1.438590288162
15.038947105408 -69.877799987793 -144.818969726563 3.171810626984
16.228082656860 -65.243919372559 -148.882705688477 1.898090839386
17.571287155151 -62.926063537598 -154.187255859375 2.055426597595
-98.198219299316 -64.427993774414 -146.204223632813 1.964504361153
-91.554183959961 -66.062980651855 -151.052688598633 1.571938753128
-96.434181213379 -62.558193206787 -152.249557495117 0.605457723141
-105.020935058594 -66.045265197754 -162.292282104492 1.284894227982
-97.789566040039 -64.653854370117 -160.213211059570 2.122629404068
-152.126953125000 -65.721717834473 -176.632812500000 2.013318061829
-153.963211059570 -65.817504882813 -177.008987426758 2.710217714310
-110.556892395020 -63.831493377686 -182.732528686523 2.885257244110
-142.050048828125 -63.624374389648 -178.717102050781 1.421663641930
-110.139205932617 -62.724048614502 -182.337463378906 1.765397429466
-149.878356933594 -59.879993438721 -188.268356323242 3.059969186783
-111.660957336426 -62.817501068115 -193.302154541016 2.301224470139
-110.461662292480 -65.951873779297 -184.904495239258 2.273369312286
-144.139236450195 -65.273063659668 -200.035690307617 1.309439659119
-130.398452758789 -66.864913940430 -197.813049316406 3.169002532959
-107.329582214355 -65.843955993652 -198.769012451172 1.729197740555
-116.103149414063 -61.022247314453 -199.992126464844 2.281725406647
-113.033218383789 -66.274169921875 -201.429428100586 2.290358781815
-116.162719726563 -61.891708374023 -203.717300415039 2.718962907791
-134.365051269531 -63.204891204834 -198.638122558594 2.142253398895
-138.493041992188 -65.311897277832 -203.924179077148 3.409406900406
-131.099777221680 -64.173034667969 -208.129882812500 3.485148429871
-127.613731384277 -61.039661407471 -202.363952636719 2.833456993103
-124.549552917480 -64.320869445801 -205.954711914063 1.379111647606
-113.872406005859 -64.598236083984 -205.737014770508 2.815106391907
-148.148056030273 -64.753814697266 -215.084960937500 2.941621065140
-152.123382568359 -65.265518188477 -221.200668334961 3.459898948669
-153.129623413086 -64.221984863281 -223.699447631836 1.328883647919
-140.458099365234 -69.886978149414 -226.368804931641 1.633573412895
-132.125015258789 -61.920658111572 -228.268051147461 2.580137729645
-122.458206176758 -67.253799438477 -221.525848388672 4.172848701477
-140.912429809570 -67.166191101074 -230.090103149414 2.314721107483
-151.273620605469 -67.370552062988 -227.330017089844 2.907821416855
-134.164932250977 -66.395698547363 -227.441497802734 2.081458568573
-133.577270507813 -62.747337341309 -229.559051513672 0.693633794785
-147.757827758789 -65.735015869141 -230.562438964844 0.660353720188
-134.932891845703 -60.284736633301 -230.919464111328 3.430605649948
-127.750190734863 -64.065170288086 -231.746093750000 2.093597412109
-10.639352798462 -68.107620239258 -237.749694824219 2.232171773911
4.866808891296 -64.685638427734 -241.393615722656 2.375985622406
13.635831832886 -61.814865112305 -243.734588623047 1.886919736862
9.422186851501 -68.270660400391 -244.448028564453 1.213544368744
-8.466339111328 -68.046760559082 -240.804794311523 0.710402727127
-12.399884223938 -66.239959716797 -247.589797973633 1.334812521935
37.968471527100 -64.509834289551 -251.024597167969 1.273006320000
47.807914733887 -65.658630371094 -253.578216552734 2.330928087234
-146.050338745117 -63.984012603760 -255.245010375977 0.884116768837
41.949985504150 -64.291160583496 -255.649719238281 0.971103250980
38.333377838135 -66.833702087402 -254.145065307617 1.034962058067
-158.588134765625 -68.512603759766 -258.451141357422 2.406504869461
-150.953414916992 -64.795394897461 -258.436553955078 1.270034313202
-150.886367797852 -68.409629821777 -260.439575195313 0.971594631672
2.538028001785 -66.876655578613 -264.314086914063 3.330207586288
-151.053390502930 -65.829994201660 -267.759002685547 1.581054568291
-0.498176008463 -66.170822143555 -275.047943115234 2.761785745621
-146.528823852539 -67.637878417969 -275.820709228516 2.781790733337
-147.963928222656 -65.577949523926 -282.640502929688 1.909289002419
-151.220443725586 -65.260345458984 -286.098388671875 1.073628425598
-149.978897094727 -59.402999877930 -284.619049072266 3.793089389801
-145.356460571289 -63.873939514160 -290.403747558594 1.801292538643
-155.467254638672 -64.511169433594 -286.326843261719 1.370804905891
-151.308990478516 -65.236061096191 -287.202606201172 1.640359282494
-151.794082641602 -63.024333953857 -288.589965820313 1.213656663895
-147.689941406250 -64.700889587402 -288.476715087891 0.649303436279
-144.130401611328 -64.791961669922 -288.238616943359 1.865660905838
11.330184936523 -67.186340332031 -285.876190185547 3.321479320526
-147.026214599609 -64.808891296387 -294.313537597656 1.352161645889
-157.207153320313 -61.975288391113 -292.547241210938 3.407316207886
-155.393325805664 -60.900981903076 -289.682983398438 2.700697183609
-150.775253295898 -63.293777465820 -294.326690673828 2.050277471542
-148.961181640625 -59.837146759033 -290.283447265625 3.624596118927
-146.779800415039 -66.536460876465 -292.946350097656 1.027684926987
3.962373018265 -67.336738586426 -293.216491699219 1.803061008453
-144.293395996094 -63.167301177979 -295.404907226563 2.250551462173
-147.993652343750 -62.178668975830 -294.412048339844 1.077079653740
28.671173095703 -59.918148040771 -17.303304672241 2.009845018387
41.906723022461 -70.350021362305 -21.137104034424 1.226321578026
42.345336914063 -63.059097290039 -22.227764129639 1.139096617699
17.512666702271 -70.694274902344 -32.216297149658 2.559565544128
26.372982025146 -57.903587341309 -35.841552734375 2.273796081543
37.249187469482 -67.496498107910 -36.604194641113 2.689697504044
-56.894115447998 -63.419345855713 -45.198375701904 2.528229713440
-51.111892700195 -64.731536865234 -42.912586212158 2.690175294876
89.639465332031 -65.925025939941 -64.896751403809 1.960250496864
-96.027900695801 -63.065006256104 -66.244285583496 0.948379635811
96.014640808105 -73.111289978027 -63.416797637939 6.075859069824
67.706481933594 -66.717109680176 -70.509948730469 1.961169600487
100.291152954102 -67.703536987305 -78.298316955566 2.933024168015
63.358001708984 -69.330192565918 -76.799072265625 3.317371129990
-42.273586273193 -65.832901000977 -78.549324035645 1.513525962830
59.704792022705 -62.543090820313 -82.431831359863 2.836779594421
-53.879829406738 -62.064781188965 -79.285072326660 1.414096474648
58.657974243164 -64.859191894531 -84.743125915527 0.639373183250
62.040245056152 -62.960983276367 -85.921104431152 0.909402310848
-98.566818237305 -64.654472351074 -84.403068542480 1.097754955292
51.287807464600 -64.151840209961 -86.900840759277 3.691050052643
51.696975708008 -69.422218322754 -93.639976501465 1.525139689445
64.607154846191 -66.683723449707 -92.703193664551 1.994441270828
52.072776794434 -64.166595458984 -96.953460693359 1.995504617691
-81.262985229492 -63.225189208984 -107.434127807617 2.437841892242
82.691024780273 -69.145866394043 -106.448715209961 1.852169156075
-81.142890930176 -67.505294799805 -118.225181579590 2.484159469604
-77.082267761230 -62.898601531982 -107.360786437988 1.959348320961
-79.970428466797 -65.805564880371 -123.258941650391 1.438075780869
-86.164108276367 -63.956951141357 -115.708244323730 2.070660591125
-94.005706787109 -62.758735656738 -120.563926696777 2.631024599075
-80.754508972168 -65.603195190430 -123.649444580078 1.908824801445
-52.976062774658 -62.737823486328 -126.469917297363 1.719180464745
-78.332145690918 -62.904811859131 -135.359466552734 2.260782241821
-57.014751434326 -60.217258453369 -131.305160522461 1.869832158089
-88.423645019531 -62.436725616455 -137.652633666992 2.410086154938
29.321229934692 -64.414421081543 -138.495086669922 0.913148820400
19.397359848022 -65.338424682617 -141.377105712891 1.239527463913
-93.343765258789 -57.173534393311 -142.977935791016 6.240711212158
20.649660110474 -66.493240356445 -148.982559204102 1.082021355629
-90.324378967285 -66.658836364746 -147.117111206055 1.861649870872
-94.305244445801 -60.647201538086 -148.338958740234 2.647105216980
18.709976196289 -65.365455627441 -158.995864868164 5.251782894135
-96.235404968262 -63.416393280029 -147.638687133789 1.104133009911
