-142.359222412109 -75.375373840332 -260.372589111328 0.741058290005
-143.465682983398 -75.859222412109 -265.777740478516 3.221304178238
-167.121154785156 -76.677040100098 -262.311065673828 2.318865060806
21.061817169189 -77.947288513184 -277.572265625000 4.082286357880
-56.400974273682 -73.646873474121 -283.318359375000 2.874021768570
-65.591133117676 -74.602699279785 -281.687988281250 4.510653018951
-40.469139099121 -76.994361877441 -281.649749755859 5.212249279022
-26.370849609375 -76.088684082031 -284.155364990234 1.539798855782
-94.622436523438 -77.872131347656 -287.391906738281 3.660630941391
-29.207324981689 -73.276161193848 -283.454040527344 1.690683960915
-2.453080892563 -74.887145996094 -283.697692871094 3.070546150208
-165.710144042969 -76.907127380371 -288.013397216797 3.613267660141
-14.194487571716 -77.057594299316 -283.465759277344 1.949432015419
8.032913208008 -75.914726257324 -285.373046875000 2.227131128311
15.816733360291 -78.920104980469 -280.944335937500 3.655010700226
-55.281452178955 -77.797676086426 -285.494903564453 2.969042062759
-31.549009323120 -75.692565917969 -289.204193115234 2.245896100998
15.854413986206 -72.840209960938 -290.485321044922 1.581702470779
-69.261741638184 -74.373229980469 -290.944335937500 1.468554854393
-38.640522003174 -72.830375671387 -286.961883544922 1.638552308083
-16.236259460449 -73.081520080566 -287.635681152344 2.160158872604
16.735845565796 -76.870582580566 -288.374633789063 2.199780464172
-9.870013237000 -76.665199279785 -291.770172119141 2.206037282944
5.599788188934 -73.671264648438 -291.279571533203 2.265877962112
15.933600425720 -76.614479064941 -287.955627441406 1.896566390991
-133.235977172852 -75.549057006836 -292.813079833984 2.474429845810
-143.232955932617 -79.012054443359 -297.644989013672 4.418247699738
-149.221267700195 -77.332557678223 -311.771514892578 2.005146980286
43.189327239990 -70.309654235840 -10.931788444519 3.656227588654
30.285167694092 -70.877357482910 -9.118815422058 3.511324882507
39.461936950684 -71.073280334473 -12.648796081543 2.441606521606
22.135152816772 -68.077133178711 -16.114891052246 3.493803262711
45.140136718750 -68.944328308105 -19.598972320557 2.816951513290
25.744367599487 -69.422943115234 -21.324405670166 2.243787527084
24.002490997314 -71.548126220703 -24.834850311279 1.563491702080
25.110265731812 -72.202491760254 -35.601440429688 1.225499749184
39.829059600830 -73.153152465820 -28.004476547241 4.624308586121
26.624208450317 -74.781158447266 -33.603870391846 2.436428308487
43.343128204346 -69.872642517090 -34.890659332275 1.896608591080
32.167858123779 -71.825263977051 -36.692996978760 2.319313049316
39.074798583984 -72.516761779785 -33.151393890381 1.735114812851
31.240398406982 -70.469612121582 -37.249343872070 2.258134126663
43.906707763672 -71.143554687500 -38.377117156982 0.518083572388
34.006626129150 -70.779655456543 -36.267539978027 1.039004921913
-40.651294708252 -70.563354492188 -46.040168762207 3.409828186035
-29.809576034546 -67.287826538086 -48.407581329346 0.428525626659
-89.047012329102 -71.399719238281 -52.860893249512 5.870877265930
-88.634254455566 -73.859344482422 -63.594337463379 3.075055122375
78.359321594238 -73.368331909180 -63.521484375000 4.949550151825
84.761230468750 -70.675407409668 -69.326927185059 1.418926000595
-19.227293014526 -70.277000427246 -71.162635803223 1.735985517502
-87.797195434570 -73.140289306641 -69.757339477539 2.855578660965
-24.722682952881 -71.625747680664 -74.360198974609 1.244315862656
-49.148132324219 -73.715927124023 -82.700904846191 2.886197090149
66.386100769043 -67.571640014648 -83.199134826660 0.982546567917
53.252952575684 -70.495834350586 -90.241485595703 1.578031539917
100.022338867188 -69.089591979980 -88.103805541992 1.847429037094
70.043937683105 -72.789237976074 -93.429794311523 1.971211194992
-67.664627075195 -74.331024169922 -88.892127990723 5.137237548828
-61.640010833740 -71.097755432129 -95.732589721680 3.336097240448
45.406829833984 -72.053436279297 -94.431427001953 2.215112209320
77.991386413574 -69.793869018555 -96.669197082520 4.939991474152
55.204406738281 -78.497222900391 -101.866683959961 2.551969528198
101.846061706543 -70.469436645508 -93.222091674805 2.083712577820
-94.555847167969 -75.013092041016 -105.269966125488 2.321589946747
40.514030456543 -72.041862487793 -107.704742431641 1.760885834694
107.697769165039 -71.700500488281 -105.241996765137 1.612141728401
49.153133392334 -71.545341491699 -108.220748901367 1.094650745392
102.146934509277 -71.889152526855 -106.277221679688 2.355931997299
-84.777023315430 -73.409637451172 -113.262374877930 2.689452409744
36.528892517090 -74.977691650391 -108.881393432617 1.516489267349
107.294227600098 -69.833503723145 -113.315963745117 1.436881303787
105.359230041504 -68.384056091309 -112.341720581055 1.642793178558
106.202484130859 -71.279258728027 -111.611228942871 1.988670229912
111.177589416504 -69.870513916016 -111.051208496094 2.223223447800
40.584522247314 -73.436225891113 -107.164505004883 0.902604103088
32.704704284668 -69.558959960938 -114.395011901855 3.126916170120
41.589523315430 -71.410102844238 -111.133232116699 2.030893325806
107.519424438477 -72.249725341797 -118.247512817383 2.017281055450
40.813236236572 -70.287567138672 -120.249557495117 1.126924276352
109.824569702148 -70.195846557617 -128.630187988281 1.513382911682
111.685432434082 -69.741081237793 -127.510841369629 1.111661672592
34.244663238525 -69.782272338867 -117.681816101074 2.977495431900
-77.278968811035 -73.246086120605 -123.234870910645 4.824403285980
114.604202270508 -68.530403137207 -130.693237304688 0.746791124344
-53.694389343262 -73.329956054688 -135.101272583008 1.756505846977
36.259761810303 -72.812980651855 -131.738388061523 0.704109609127
-72.580207824707 -73.788749694824 -133.177001953125 2.802463293076
27.665140151978 -74.240150451660 -128.713470458984 2.167652130127
-78.862060546875 -74.129287719727 -140.591339111328 3.894427299500
-44.561553955078 -76.066131591797 -139.437835693359 2.379285812378
-73.275154113770 -74.188438415527 -135.917083740234 2.809500932693
110.893066406250 -70.202445983887 -133.502166748047 1.824441313744
117.888862609863 -69.205162048340 -138.011581420898 3.275328397751
118.880859375000 -74.046875000000 -142.741622924805 2.776892900467
-76.627304077148 -72.671493530273 -141.418914794922 2.339974880219
8.686312675476 -68.800750732422 -148.022537231445 2.783837080002
-51.292396545410 -73.942756652832 -146.934814453125 3.254717111588
-50.040313720703 -74.283950805664 -152.832168579102 2.599702358246
107.703613281250 -71.667175292969 -158.123611450195 2.695679187775
-40.694816589355 -74.959487915039 -146.714782714844 2.598023414612
14.728391647339 -70.503250122070 -154.844451904297 2.366846799850
23.117261886597 -74.055862426758 -154.650039672852 1.241048574448
115.517684936523 -70.610618591309 -161.045700073242 2.882707834244
30.597408294678 -71.911285400391 -162.755493164063 1.898722767830
-0.078419998288 -74.133270263672 -160.695907592773 1.440375804901
32.629226684570 -73.149864196777 -157.791900634766 0.519854307175
-67.047157287598 -72.017463684082 -155.354873657227 1.769945502281
-65.020874023438 -73.266761779785 -156.767150878906 1.054017305374
-68.092086791992 -72.389999389648 -163.313446044922 1.627219080925
115.460556030273 -67.909553527832 -157.877151489258 3.201660394669
-43.781673431396 -73.536827087402 -160.476440429688 2.463292360306
18.554927825928 -72.766242980957 -162.595535278320 1.953571915627
-63.141883850098 -72.670753479004 -167.256256103516 1.933352947235
-62.261260986328 -71.970138549805 -169.014373779297 1.475303411484
-40.523742675781 -74.141983032227 -157.708251953125 2.054428339005
-32.710960388184 -75.372344970703 -165.998977661133 1.586300253868
115.852279663086 -73.375831604004 -167.661071777344 2.625575304031
-36.218662261963 -68.932830810547 -177.257568359375 1.974654436111
14.593748092651 -73.719703674316 -170.226577758789 2.356175661087
111.660186767578 -74.128860473633 -180.685333251953 2.003290176392
-146.732192993164 -76.481803894043 -174.119338989258 3.724196434021
-145.066055297852 -74.514297485352 -171.631027221680 4.368356227875
-147.789611816406 -73.090934753418 -178.040985107422 2.580941438675
-141.508636474609 -76.111152648926 -180.785598754883 3.743715524673
-30.953334808350 -72.123771667480 -182.888549804688 2.667312860489
-22.178743362427 -73.403335571289 -183.036804199219 1.195973753929
24.176401138306 -69.261322021484 -188.139129638672 0.783447384834
-140.513275146484 -73.971824645996 -184.756393432617 3.388534307480
-146.327972412109 -75.169311523438 -186.611404418945 0.329480975866
-20.406040191650 -70.777709960938 -183.790802001953 2.024025917053
12.021479606628 -73.143608093262 -179.638885498047 3.476900577545
-148.368530273438 -74.876152038574 -192.327178955078 1.254178643227
-30.622598648071 -74.105407714844 -185.323364257813 1.917684078217
101.068672180176 -71.768363952637 -184.843933105469 2.618524789810
107.212127685547 -70.702545166016 -186.283508300781 1.819966077805
25.091726303101 -68.487754821777 -190.500122070313 2.821792602539
-12.549011230469 -73.408058166504 -185.741958618164 6.130897045135
-26.732559204102 -75.305870056152 -190.678665161133 1.520162224770
-154.302505493164 -76.043899536133 -197.235992431641 1.273282170296
-131.602844238281 -75.619461059570 -194.818664550781 2.047563552856
-124.220634460449 -71.996635437012 -193.000900268555 3.229416847229
-123.702316284180 -73.000823974609 -195.571014404297 2.381761312485
-21.534196853638 -69.327041625977 -193.514801025391 0.582256555557
13.681026458740 -74.833091735840 -189.515884399414 2.472130775452
93.728439331055 -75.424888610840 -197.720916748047 3.065527677536
-149.105133056641 -71.316627502441 -193.558975219727 1.756972908974
-144.075271606445 -72.444435119629 -196.822189331055 2.055746078491
-149.872573852539 -74.338584899902 -198.245834350586 2.887054443359
-153.947006225586 -72.717102050781 -195.606491088867 1.535792589188
-23.746177673340 -72.927970886230 -196.970428466797 0.979022502899
-9.738281250000 -71.747055053711 -192.665832519531 5.734985828400
-145.376312255859 -71.074584960938 -200.250701904297 2.239739894867
-17.432950973511 -72.569801330566 -198.497695922852 2.636021614075
-160.388473510742 -74.302856445313 -198.819046020508 3.678589344025
-133.325653076172 -74.452583312988 -197.402069091797 0.969654023647
16.817398071289 -74.734825134277 -204.121994018555 2.097706556320
-160.281677246094 -71.875640869141 -202.301437377930 1.957890868187
-145.028533935547 -76.245285034180 -204.543548583984 1.522852182388
9.260449409485 -71.161026000977 -200.019012451172 2.196374177933
-153.104904174805 -72.419105529785 -200.810379028320 1.228597640991
-23.549362182617 -72.822166442871 -199.208740234375 1.570253372192
98.411231994629 -72.505813598633 -195.940185546875 1.320701599121
-157.341537475586 -75.941497802734 -210.626174926758 4.246457576752
-163.377426147461 -78.032752990723 -205.835098266602 6.856139183044
-75.815132141113 -72.061714172363 -206.027786254883 3.926001787186
90.358367919922 -71.398078918457 -205.741760253906 3.429660320282
-2.704888105392 -72.100593566895 -215.693679809570 0.915039896965
-153.440170288086 -73.831596374512 -211.044433593750 3.065134286880
-86.499664306641 -74.266738891602 -211.233840942383 1.330207467079
-8.189435005188 -75.812416076660 -208.587844848633 2.249505996704
16.711174011230 -72.844436645508 -217.084960937500 1.420630931854
-143.773727416992 -75.579650878906 -218.153869628906 2.762160539627
-2.401942014694 -77.098144531250 -218.142807006836 0.441995531321
-18.243356704712 -74.419868469238 -215.611022949219 2.568609714508
-13.533372879028 -70.353332519531 -217.849334716797 1.646261692047
91.379150390625 -72.158126831055 -215.852233886719 2.496770381927
-19.644796371460 -72.198234558105 -214.236785888672 2.154130935669
-30.630153656006 -73.027305603027 -214.610046386719 2.192297458649
-106.478332519531 -70.337570190430 -222.728652954102 1.350105524063
-15.006022453308 -71.875640869141 -220.633773803711 1.542551875114
93.525222778320 -70.169784545898 -215.763626098633 3.444712638855
78.644813537598 -73.100234985352 -217.316757202148 3.748539686203
8.343349456787 -74.323471069336 -216.578613281250 1.370410203934
-10.049342155457 -71.330055236816 -222.805435180664 1.048435449600
79.782806396484 -72.884269714355 -218.886703491211 3.058691978455
-121.181503295898 -77.799240112305 -223.155639648438 5.815011024475
-18.910581588745 -71.635238647461 -220.660827636719 1.554928302765
-96.007804870605 -73.717208862305 -221.509353637695 1.888109445572
-101.358772277832 -74.500968933105 -222.081741333008 1.561308503151
-130.376083374023 -76.722152709961 -226.738891601563 2.251179218292
82.471313476563 -72.398979187012 -220.507690429688 1.656913280487
-122.018447875977 -75.252868652344 -225.315444946289 2.645683288574
5.898949146271 -72.672042846680 -226.095916748047 0.525456309319
82.370124816895 -70.955299377441 -221.337158203125 0.899448037148
-14.524481773376 -74.532455444336 -227.973602294922 1.291898012161
-12.365529060364 -74.183326721191 -224.850921630859 0.837945163250
-0.616514980793 -78.235916137695 -227.223175048828 0.906136155128
11.482327461243 -74.994056701660 -224.698776245117 2.170664310455
90.072486877441 -73.470283508301 -223.322067260742 3.046329498291
11.137263298035 -71.789245605469 -228.742324829102 1.489209651947
6.733445167542 -72.974258422852 -226.787460327148 1.288578629494
-7.812945842743 -73.997863769531 -228.667709350586 2.028346300125
-5.550734996796 -74.245407104492 -227.537277221680 2.712641954422
19.932743072510 -71.956802368164 -230.033035278320 2.437055110931
-11.283772468567 -71.121253967285 -230.713699340820 1.009243130684
72.282348632813 -73.146919250488 -236.750305175781 1.084782600403
-7.908748149872 -72.077026367188 -236.282287597656 1.751957178116
20.247245788574 -74.183341979980 -233.018173217773 2.637398481369
-161.649780273438 -73.997756958008 -238.693679809570 2.165135622025
-4.374206066132 -71.406616210938 -234.533157348633 1.399424672127
-6.841681003571 -74.312866210938 -237.636352539063 1.976820230484
-166.373672485352 -75.997550964355 -249.041168212891 1.662555694580
-9.601808547974 -72.071479797363 -241.893280029297 1.233438491821
16.802425384521 -70.805274963379 -242.855102539063 2.457053661346
-146.333724975586 -77.101676940918 -249.944534301758 1.814140915871
-72.012748718262 -73.766960144043 -248.196289062500 1.422562360764
-60.362949371338 -75.034431457520 -244.733825683594 0.248859226704
53.566093444824 -70.788459777832 -243.960784912109 2.552999496460
-73.432182312012 -73.936676025391 -244.609573364258 2.562471628189
18.154420852661 -73.990188598633 -246.831115722656 1.687617778778
-71.815109252930 -74.737434387207 -249.077819824219 1.153303623199
-14.134949684143 -72.069206237793 -243.447708129883 2.537064790726
-144.199356079102 -77.845588684082 -250.845291137695 2.079658269882
47.830127716064 -69.806465148926 -247.192291259766 1.130107760429
-78.740753173828 -76.613014221191 -253.503829956055 0.730046272278
-101.526992797852 -71.909820556641 -252.970550537109 2.208641767502
-98.066841125488 -76.253875732422 -252.469635009766 4.030421257019
-118.665328979492 -73.046073913574 -251.037887573242 4.798286914825
-104.602386474609 -72.429176330566 -255.098098754883 1.564993262291
-104.575531005859 -74.509712219238 -256.056457519531 1.920076370239
22.821954727173 -70.963890075684 -255.868774414063 2.266378402710
-128.108123779297 -72.863845825195 -263.151275634766 2.199281930923
-12.530406951904 -74.809585571289 -273.041046142578 2.983295202255
-146.401855468750 -73.170814514160 -281.476043701172 1.148583769798
-167.400497436523 -77.414222717285 -283.755645751953 3.153273105621
-123.673416137695 -76.245765686035 -282.135681152344 2.531427860260
-112.960250854492 -72.221656799316 -284.862915039063 1.739424705505
-74.389205932617 -70.644271850586 -282.347656250000 3.409723043442
-56.277606964111 -75.123268127441 -284.387878417969 1.514879345894
-40.704772949219 -73.268386840820 -283.710998535156 1.789639711380
-14.099616050720 -76.973129272461 -287.274017333984 2.393890619278
-12.638451576233 -71.704574584961 -289.259948730469 1.307844996452
-37.184707641602 -76.115333557129 -287.783233642578 1.431894540787
-33.220508575439 -74.026100158691 -286.380615234375 0.977596521378
-17.874860763550 -71.087341308594 -286.320709228516 3.321681499481
-70.665321350098 -73.729568481445 -290.801605224609 2.124974727631
-54.408069610596 -73.818527221680 -288.783691406250 1.977313160896
-16.546312332153 -70.678260803223 -289.059753417969 0.953099012375
-12.589308738708 -75.501731872559 -287.204406738281 2.187096595764
-2.591485977173 -73.086318969727 -289.850799560547 1.180039525032
3.558489084244 -70.594207763672 -289.672393798828 2.382234096527
-91.031730651855 -75.035102844238 -290.838348388672 1.779282450676
-138.629699707031 -77.158149719238 -293.092620849609 2.841701269150
-115.188926696777 -76.164802551270 -290.625762939453 3.041706323624
-152.467498779297 -74.564758300781 -293.111541748047 0.868698298931
-150.845718383789 -76.410057067871 -297.674285888672 0.641491711140
-145.638580322266 -74.126594543457 -298.196746826172 1.246626615524
44.580390930176 -67.618080139160 -18.267618179321 2.477924585342
20.075214385986 -72.807662963867 -20.587537765503 2.617418289185
49.625450134277 -67.079895019531 -22.069097518921 1.656843066216
47.290576934814 -70.739723205566 -32.057754516602 1.367091059685
87.921607971191 -69.540084838867 -66.950561523438 1.817915916443
95.924636840820 -71.265258789063 -70.620323181152 2.064083099365
101.558517456055 -69.209259033203 -74.819183349609 1.414647817612
98.678672790527 -70.225906372070 -80.177070617676 3.290936708450
57.104793548584 -71.240882873535 -86.341110229492 1.805251479149
46.023986816406 -75.495834350586 -88.138130187988 5.859478950500
63.697795867920 -69.160270690918 -87.704277038574 1.524963021278
-64.838584899902 -69.444068908691 -90.876487731934 2.338838338852
71.185379028320 -69.554794311523 -84.706878662109 3.837255477905
101.192955017090 -63.780349731445 -95.694915771484 1.801131963730
74.983589172363 -70.918815612793 -97.968620300293 2.400256395340
94.729400634766 -68.919723510742 -99.331390380859 2.961758613586
-84.100982666016 -73.094322204590 -101.284156799316 3.777961730957
45.551784515381 -69.540885925293 -95.188194274902 1.450941801071
-86.031173706055 -73.527481079102 -100.108619689941 5.625257968903
51.654823303223 -71.928283691406 -107.364036560059 1.759205818176
38.277050018311 -75.676170349121 -100.670852661133 5.201845645905
102.576675415039 -68.943229675293 -100.015419006348 1.415443301201
37.635215759277 -70.461105346680 -103.078086853027 3.122949123383
43.105640411377 -71.783966064453 -115.635635375977 0.637054443359
43.213455200195 -70.478118896484 -110.148422241211 0.675880968571
110.535285949707 -68.570793151855 -109.095352172852 2.780772209167
-80.764801025391 -76.202743530273 -119.330055236816 4.726436138153
112.774627685547 -73.025924682617 -120.659736633301 1.698336839676
40.482994079590 -67.446441650391 -121.913040161133 2.912082195282
41.014694213867 -70.068847656250 -117.363151550293 1.842630147934
35.483722686768 -71.248374938965 -118.034614562988 1.685566782951
-55.179275512695 -76.116065979004 -127.220771789551 5.013556957245
30.652534484863 -70.072044372559 -120.666015625000 2.516073465347
-76.892951965332 -70.812538146973 -135.666168212891 1.463636159897
-54.803153991699 -75.297996520996 -130.278472900391 3.004341840744
-79.027839660645 -70.431900024414 -132.750671386719 0.963275134563
36.038021087646 -69.134735107422 -127.936897277832 1.876213312149
-59.114894866943 -73.238983154297 -131.335311889648 2.046621561050
35.623390197754 -70.266250610352 -130.564437866211 1.658132314682
-71.496208190918 -70.617500305176 -137.458160400391 1.811319828033
-58.774162292480 -69.936439514160 -138.523284912109 0.883978366852
26.208332061768 -71.902969360352 -139.875534057617 1.352265357971
111.439674377441 -72.638008117676 -139.859451293945 2.196401834488
115.700263977051 -66.188720703125 -133.931915283203 2.396871328354
31.217987060547 -71.130203247070 -138.733062744141 1.099427700043
-47.690441131592 -73.391609191895 -137.890014648438 1.732550382614
107.304145812988 -68.213798522949 -149.055633544922 5.949219226837
-75.077194213867 -72.318244934082 -140.923461914063 1.848971247673
-58.144832611084 -72.277015686035 -140.064102172852 2.388683319092
32.047859191895 -67.357467651367 -144.715118408203 2.133767366409
-77.041534423828 -73.780036926270 -144.019546508789 1.330463171005
-70.138465881348 -72.393074035645 -148.088348388672 0.965107381344
115.451438903809 -73.620292663574 -146.311996459961 2.047138929367
-64.150978088379 -71.807312011719 -152.917098999023 2.255334854126
-38.884853363037 -69.501678466797 -149.920623779297 2.980479478836
26.153972625732 -69.691123962402 -143.276092529297 1.791398882866
-72.723152160645 -72.859413146973 -143.887985229492 1.923115730286
12.868101119995 -70.957595825195 -147.135314941406 1.083422660828
32.345386505127 -70.645370483398 -154.199447631836 1.503063678741
31.436267852783 -68.945564270020 -147.517379760742 0.415828436613
15.769746780396 -75.570243835449 -151.456237792969 3.666717529297
-49.407127380371 -73.632362365723 -150.958648681641 3.024199962616
25.259803771973 -72.538398742676 -150.451309204102 2.349312067032
-45.748535156250 -71.276473999023 -147.892379760742 1.128906607628
5.201343059540 -71.720680236816 -151.475814819336 3.755489826202
20.904468536377 -70.498466491699 -147.306900024414 2.603451728821
-68.431480407715 -71.851814270020 -155.254119873047 1.492609262466
-46.232707977295 -69.420402526855 -151.851913452148 1.202930212021
-67.739448547363 -71.944679260254 -151.603652954102 1.679075598717
18.585494995117 -70.236083984375 -155.841613769531 3.468273639679
24.645265579224 -70.399589538574 -147.422164916992 1.932245492935
3.004729032516 -71.639984130859 -161.963317871094 0.647469282150
21.766084671021 -71.090171813965 -150.917114257813 1.641234755516
31.223581314087 -70.977783203125 -164.458053588867 1.455289363861
-46.845352172852 -73.525535583496 -160.928680419922 1.983350276947
-36.271556854248 -78.067085266113 -160.826583862305 1.098088145256
-40.402183532715 -72.882148742676 -158.509826660156 1.099392294884
28.264295578003 -71.522438049316 -155.991287231445 2.625604152679
-43.854526519775 -70.618995666504 -164.509872436523 2.126036405563
-39.359516143799 -70.743217468262 -164.077529907227 3.264461278915
21.776248931885 -70.083992004395 -163.117950439453 1.658431172371
-39.390979766846 -72.764877319336 -172.872787475586 1.647392511368
28.318065643311 -67.941566467285 -167.442810058594 1.900672674179
112.063354492188 -67.132789611816 -161.801559448242 3.542014122009
-33.087757110596 -72.037063598633 -169.654983520508 3.315664768219
103.168495178223 -68.076057434082 -170.181045532227 4.916965961456
-34.128654479980 -71.805000305176 -175.059997558594 1.618875145912
-36.911331176758 -75.089836120605 -179.039154052734 2.763977527618
21.639673233032 -74.150001525879 -174.326965332031 3.182094573975
106.289543151855 -70.702362060547 -178.897171020508 1.723842263222
-31.049427032471 -70.670768737793 -180.540847778320 2.007089376450
-34.747932434082 -71.649703979492 -175.150756835938 1.793078184128
-22.678272247314 -75.461151123047 -184.370117187500 2.828056335449
-148.541717529297 -74.422958374023 -187.143966674805 1.096554040909
13.397815704346 -71.335159301758 -180.751266479492 2.063898563385
105.456977844238 -69.075775146484 -188.023895263672 1.296718001366
-158.459732055664 -73.638168334961 -191.357330322266 4.235091686249
-22.535442352295 -69.195106506348 -187.131011962891 0.694783151150
-115.089317321777 -75.067497253418 -195.394638061523 3.271332740784
-130.265136718750 -75.033287048340 -193.710586547852 3.145901203156
-107.342185974121 -73.887184143066 -197.819473266602 4.958660602570
-113.126411437988 -72.678794860840 -198.291580200195 1.211683750153
-11.799486160278 -72.820434570313 -193.873199462891 3.654867172241
20.605381011963 -70.432952880859 -193.474426269531 1.034800052643
-15.314825057983 -68.554779052734 -199.458435058594 2.363781213760
-126.155616760254 -73.712005615234 -203.686538696289 1.942118287086
-20.344161987305 -68.631729125977 -200.610687255859 1.352342605591
-128.819519042969 -72.591705322266 -201.080474853516 2.717653751373
-14.871842384338 -72.215400695801 -197.796508789063 0.704942286015
-145.538391113281 -72.784324645996 -201.059463500977 1.832016587257
92.340988159180 -67.004646301270 -203.476257324219 4.855790138245
-164.039016723633 -69.500244140625 -199.863647460938 1.395631194115
-2.088521957397 -73.677124023438 -215.311676025391 0.901167929173
12.087229728699 -72.924118041992 -207.274917602539 2.727080583572
11.000997543335 -73.948226928711 -214.401275634766 3.085142374039
83.299400329590 -70.813636779785 -213.726699829102 3.823091745377
9.162002563477 -72.823600769043 -210.468475341797 1.514352440834
13.253613471985 -70.929069519043 -212.162902832031 0.579531311989
-15.137874603271 -75.392585754395 -213.416778564453 1.836073875427
-89.812400817871 -73.590667724609 -212.400451660156 1.193695306778
-97.333198547363 -73.444496154785 -214.578933715820 2.515648841858
0.667730987072 -70.980842590332 -216.611862182617 3.466483116150
-165.741333007813 -76.147506713867 -220.309555053711 3.464877367020
15.794739723206 -69.809082031250 -217.029159545898 1.628363370895
-143.942504882813 -73.371437072754 -219.504776000977 1.772296428680
13.684376716614 -72.187202453613 -222.346389770508 1.007534384727
-133.904479980469 -75.243804931641 -223.041885375977 1.845875263214
-115.175010681152 -74.624687194824 -225.271530151367 1.402242183685
17.451894760132 -71.029075622559 -218.271865844727 1.951222658157
79.097702026367 -70.956291198730 -218.409423828125 2.506293535233
7.457824230194 -71.932342529297 -220.906600952148 0.962040126324
-109.129699707031 -72.922599792480 -228.975891113281 1.332633137703
73.114410400391 -71.976974487305 -224.872787475586 2.966640233994
84.776428222656 -71.991294860840 -226.491363525391 1.287502288818
-124.425239562988 -73.655151367188 -233.233123779297 1.041472196579
-116.276878356934 -73.727958679199 -228.551483154297 1.406299114227
-9.338155746460 -69.095252990723 -225.378143310547 2.480457782745
72.760208129883 -71.818191528320 -228.471282958984 1.351399540901
65.433006286621 -71.826957702637 -230.320617675781 3.745907306671
74.032203674316 -70.590583801270 -226.579803466797 1.839926242828
-134.526962280273 -70.737083435059 -232.328094482422 0.634013295174
70.958137512207 -72.240524291992 -229.446456909180 2.126372575760
66.928321838379 -69.092773437500 -232.474441528320 2.729658126831
-165.394592285156 -72.998168945313 -228.921051025391 1.983989834785
2.342472076416 -78.479393005371 -238.366668701172 0.533712625504
20.189203262329 -73.151596069336 -236.866455078125 1.786958336830
-5.244071960449 -69.746681213379 -238.236907958984 1.616950273514
16.500205993652 -67.141418457031 -236.753707885742 2.520702362061
67.042587280273 -72.215728759766 -235.264221191406 0.851622045040
9.722276687622 -70.325393676758 -240.857818603516 0.512396395206
-10.203351020813 -66.477584838867 -238.419631958008 1.579304814339
0.213633000851 -69.074073791504 -235.002731323242 1.292788386345
65.781173706055 -71.963645935059 -239.580429077148 0.473816484213
3.888900995255 -72.690383911133 -240.051559448242 2.199668169022
-6.156401157379 -73.058403015137 -240.677886962891 0.883228361607
15.135534286499 -74.373504638672 -240.303573608398 1.553603768349
-166.640396118164 -76.081108093262 -239.499114990234 2.494119167328
56.874881744385 -71.811508178711 -244.457183837891 1.314634680748
50.735519409180 -66.141014099121 -248.135437011719 1.949243545532
59.029182434082 -72.137954711914 -239.996520996094 1.924491047859
-11.341054916382 -70.743186950684 -245.505462646484 1.722217440605
58.020797729492 -71.279228210449 -242.888229370117 1.458269476891
-73.044815063477 -72.790748596191 -247.768508911133 1.090890526772
51.630092620850 -71.968971252441 -245.886657714844 2.089335203171
-87.886840820313 -73.292823791504 -250.468917846680 2.998400688171
-122.314926147461 -75.058891296387 -254.808853149414 2.898323535919
-131.538894653320 -74.029823303223 -251.133758544922 3.505042791367
47.000480651855 -73.200843811035 -249.109481811523 2.117460012436
-131.667999267578 -76.557518005371 -251.356674194336 5.164017200470
-108.353355407715 -72.015037536621 -253.182968139648 4.079915046692
-115.228103637695 -71.659988403320 -255.587203979492 2.064297914505
-82.878540039063 -73.823715209961 -252.616882324219 2.154271364212
-110.134666442871 -72.129753112793 -257.241180419922 1.199906468391
-123.132385253906 -77.215927124023 -260.542633056641 3.247179985046
-145.618667602539 -71.882339477539 -265.900085449219 0.430029273033
-14.413342475891 -71.243492126465 -263.226165771484 1.457722902298
-170.399887084961 -76.628715515137 -262.839263916016 4.384289741516
-13.653602600098 -72.057769775391 -271.373687744141 1.133452177048
-158.128906250000 -71.328842163086 -265.640502929688 1.956764698029
-151.754287719727 -74.689796447754 -271.724060058594 2.271319150925
-168.976058959961 -74.666847229004 -275.909851074219 2.025465250015
-13.277330398560 -72.693305969238 -276.925689697266 2.695174217224
-129.190246582031 -76.514472961426 -281.314819335938 3.112337589264
-157.063583374023 -74.342086791992 -284.544158935547 2.337818622589
-143.021789550781 -73.439514160156 -279.218688964844 3.222311735153
-133.894348144531 -77.026840209961 -278.677307128906 6.379797935486
-7.317334175110 -66.941642761230 -282.072479248047 0.352140545845
-124.862289428711 -77.566116333008 -281.544372558594 3.511249780655
-140.096984863281 -72.364334106445 -283.855102539063 2.193276882172
-114.730430603027 -76.868331909180 -283.800598144531 4.165542125702
-78.053565979004 -71.670555114746 -285.973358154297 2.828928709030
-59.738025665283 -73.917732238770 -284.872528076172 2.894340515137
-6.034070968628 -73.507469177246 -285.375823974609 1.948007702827
-52.991664886475 -71.999603271484 -283.509063720703 3.192147970200
-56.283687591553 -70.952682495117 -286.446655273438 0.965897977352
-69.463523864746 -71.700302124023 -288.202362060547 2.123404026031
-87.089805603027 -72.763122558594 -291.745330810547 1.697299480438
-94.113784790039 -71.511260986328 -286.997406005859 2.505187273026
-159.379302978516 -73.758590698242 -289.797210693359 2.572824478149
-160.102874755859 -75.581108093262 -292.031921386719 2.511213302612
-123.614578247070 -76.911254882813 -292.001281738281 2.045349359512
-143.679122924805 -74.637336730957 -293.224884033203 1.918348193169
-152.019454956055 -76.872367858887 -301.994140625000 2.265680313110
-149.406585693359 -76.976684570313 -310.390167236328 2.681460857391
47.642860412598 -67.871208190918 -11.911269187927 4.667019367218
16.579023361206 -71.510513305664 -27.179519653320 3.667915105820
41.725669860840 -66.217956542969 -31.979341506958 1.795930266380
-15.473688125610 -73.684791564941 -63.909168243408 2.114757299423
81.729347229004 -67.380279541016 -62.231666564941 1.097882270813
88.574844360352 -65.158569335938 -63.057643890381 1.365298032761
77.906959533691 -72.244773864746 -62.552711486816 4.753910541534
72.726638793945 -70.508346557617 -66.349639892578 2.824102878571
91.234474182129 -71.391784667969 -71.958724975586 2.676584720612
-96.187652587891 -68.704742431641 -68.249717712402 3.459418773651
67.828247070313 -70.011367797852 -72.549858093262 2.658917665482
-36.520267486572 -71.984878540039 -75.030647277832 1.759558796883
98.959609985352 -68.885742187500 -82.874168395996 1.201812744141
61.494495391846 -66.969818115234 -87.601951599121 2.558253526688
107.248023986816 -73.225555419922 -90.569915771484 6.439630031586
101.681488037109 -72.386581420898 -95.368453979492 2.523408412933
72.398376464844 -69.245323181152 -97.776329040527 1.550159811974
-80.106109619141 -70.557075500488 -99.408721923828 1.636833310127
54.445457458496 -69.597579956055 -101.453369140625 0.935979783535
107.167045593262 -66.290176391602 -103.012733459473 1.567979693413
47.195392608643 -70.454643249512 -109.645408630371 1.317121624947
79.973701477051 -68.163978576660 -102.517456054688 2.276980638504
41.719226837158 -69.469886779785 -104.729942321777 1.846895694733
104.313285827637 -68.474266052246 -100.210830688477 1.878817677498
47.633884429932 -69.173057556152 -105.041725158691 1.794761776924
107.409484863281 -73.498664855957 -106.824310302734 1.655174732208
110.276893615723 -71.599945068359 -108.247848510742 2.354321241379
-79.353294372559 -69.768157958984 -112.050445556641 1.145145773888
-82.866722106934 -70.046981811523 -117.259635925293 1.660020112991
44.088943481445 -72.748626708984 -117.286300659180 0.290998220444
113.942832946777 -70.262527465820 -118.210037231445 0.762438714504
113.802658081055 -68.420257568359 -120.513366699219 1.132551908493
-87.127906799316 -70.971519470215 -124.882591247559 1.105509042740
106.133033752441 -70.622726440430 -122.718421936035 1.201233386993
-59.135467529297 -75.585624694824 -129.524093627930 3.785279750824
-86.038558959961 -72.140800476074 -125.183006286621 1.888434529305
-72.415336608887 -71.778854370117 -124.970024108887 4.249604225159
-59.132980346680 -67.681945800781 -124.557395935059 1.184233188629
31.761775970459 -69.665336608887 -127.489990234375 2.242488622665
42.513961791992 -68.313751220703 -131.979980468750 2.990897655487
-72.974349975586 -71.322158813477 -134.435440063477 1.764341711998
28.848443984985 -68.152900695801 -128.286224365234 3.991394281387
111.882461547852 -68.786392211914 -139.834503173828 2.149423837662
-39.943000793457 -71.246963500977 -145.937423706055 3.056334495544
30.631769180298 -70.911788940430 -146.151458740234 2.237317562103
114.094520568848 -67.182861328125 -144.621032714844 1.687464118004
35.767936706543 -70.524391174316 -140.023498535156 1.764112830162
110.550186157227 -67.589530944824 -137.746246337891 2.801389455795
-52.088436126709 -71.622467041016 -147.101852416992 3.120248794556
-71.061180114746 -69.192008972168 -148.803298950195 1.138372421265
-54.849250793457 -71.916671752930 -150.272369384766 1.853896498680
-41.708377838135 -74.666839599609 -162.591339111328 2.618352651596
4.996776103973 -71.786407470703 -153.278793334961 2.603349924088
110.096778869629 -69.049316406250 -150.422821044922 3.036619663239
109.259712219238 -68.766227722168 -156.537719726563 1.452867269516
10.318510055542 -69.830734252930 -154.845108032227 2.085997819901
3.609350919724 -70.600212097168 -158.734786987305 1.758496880531
19.489475250244 -69.540435791016 -152.606903076172 2.873031377792
25.908607482910 -68.869621276855 -152.986877441406 1.385290503502
109.048179626465 -68.493103027344 -162.540817260742 2.375546693802
109.947349548340 -71.941368103027 -164.598754882813 2.157531023026
24.264841079712 -67.711830139160 -171.730392456055 1.247096300125
25.336603164673 -72.235160827637 -161.120147705078 2.139229774475
112.498443603516 -66.936294555664 -158.895111083984 2.904680252075
-28.738796234131 -70.002105712891 -174.772369384766 0.503072261810
110.546958923340 -69.108802795410 -164.656723022461 1.489409208298
17.879003524780 -70.833663940430 -164.945983886719 1.302497625351
21.964525222778 -70.163711547852 -165.055114746094 1.038486361504
108.903434753418 -69.123542785645 -169.759063720703 1.238537669182
27.084327697754 -69.366935729980 -167.687469482422 0.301896840334
112.700912475586 -68.270050048828 -180.596862792969 3.823776006699
-37.893199920654 -70.620826721191 -175.335342407227 2.157776594162
25.469684600830 -69.841026306152 -168.417785644531 1.335168361664
107.910499572754 -68.866760253906 -180.767120361328 2.289606332779
23.522830963135 -71.276519775391 -175.874862670898 3.225572109222
-151.425094604492 -71.617584228516 -184.674514770508 1.514790177345
-27.800643920898 -68.225845336914 -186.926055908203 2.276064634323
24.996807098389 -68.264747619629 -182.225448608398 2.324034452438
-113.254493713379 -73.863487243652 -189.853439331055 4.342695713043
-110.413223266602 -70.036987304688 -189.321456909180 0.846465766430
24.244211196899 -70.858528137207 -185.840744018555 2.367704629898
12.081561088562 -68.638565063477 -182.415603637695 3.334024190903
-26.463523864746 -68.575187683105 -187.804016113281 1.047725081444
-29.116586685181 -74.894363403320 -186.758026123047 0.916068553925
-27.549152374268 -71.435699462891 -184.753753662109 1.627087354660
15.188750267029 -68.429634094238 -177.356430053711 1.854194760323
-150.347457885742 -72.977973937988 -193.259277343750 1.083103299141
-144.865188598633 -72.567573547363 -191.005950927734 2.956384420395
-143.823944091797 -75.778594970703 -196.453308105469 1.790356516838
-22.458103179932 -70.097709655762 -188.941284179688 2.078769445419
14.127148628235 -68.368713378906 -196.951370239258 1.706079721451
99.318931579590 -68.339752197266 -190.312866210938 4.477379322052
-113.224136352539 -71.334281921387 -196.357025146484 1.417525053024
21.824544906616 -73.591102600098 -195.666458129883 1.676592826843
-14.839552879333 -69.880210876465 -193.075500488281 3.050498008728
-17.216711044312 -70.343566894531 -196.257217407227 0.411289542913
101.452819824219 -68.012451171875 -196.501083374023 3.350230693817
8.474354743958 -72.424903869629 -196.670425415039 1.341457843781
-21.493560791016 -69.327011108398 -194.052185058594 0.911013484001
-120.757682800293 -75.472282409668 -201.109039306641 2.905021190643
-133.633590698242 -72.903701782227 -201.401824951172 1.012985467911
-113.599830627441 -68.122245788574 -202.983932495117 1.518884062767
-141.584411621094 -75.618499755859 -201.513122558594 1.217794537544
18.010278701782 -70.042167663574 -195.119918823242 1.238734602928
94.351844787598 -70.494804382324 -198.848052978516 3.303318500519
-165.459304809570 -68.815742492676 -199.764266967773 2.013066530228
100.513595581055 -68.825653076172 -199.164764404297 2.744001865387
-21.032117843628 -74.622276306152 -203.594406127930 1.995067715645
95.132507324219 -67.294929504395 -207.579147338867 2.652295827866
88.657341003418 -70.811561584473 -208.565216064453 2.933333635330
12.706711769104 -72.196296691895 -203.373672485352 2.434393882751
20.335552215576 -69.885200500488 -209.382781982422 3.066760540009
13.347320556641 -67.750457763672 -205.291656494141 2.217640161514
-10.234439849854 -71.325622558594 -219.937835693359 1.425813913345
-93.780281066895 -74.136291503906 -216.524749755859 2.366399288177
-9.828126907349 -72.937072753906 -209.806365966797 1.045089483261
89.650726318359 -69.657257080078 -213.377609252930 1.307132840157
-92.902351379395 -74.320518493652 -215.596633911133 2.067248344421
-100.549751281738 -70.127593994141 -219.205047607422 1.431344985962
-93.819557189941 -72.866455078125 -217.437042236328 1.766739130020
88.873931884766 -71.068542480469 -219.040710449219 1.176995754242
-134.638671875000 -73.309494018555 -223.298736572266 2.306450843811
-131.731796264648 -76.700164794922 -224.818969726563 2.170698165894
-116.013359069824 -72.505813598633 -222.878784179688 2.700432300568
-112.517776489258 -69.959114074707 -221.250289916992 3.583885192871
-132.712097167969 -71.479774475098 -225.354263305664 0.645360887051
-110.944946289063 -79.090072631836 -225.488357543945 6.120139598846
-111.551490783691 -72.435752868652 -226.097106933594 1.810373902321
-6.179653167725 -74.149368286133 -222.156005859375 3.048198938370
-15.277364730835 -73.322952270508 -220.736846923828 0.892800271511
-0.338690012693 -69.014419555664 -227.983032226563 0.820961356163
-9.555397987366 -68.276954650879 -224.587524414063 2.923621177673
16.083421707153 -71.470191955566 -230.959838867188 1.556933403015
-18.221076965332 -69.563560485840 -226.753692626953 1.478615880013
-166.233352661133 -71.794143676758 -220.593826293945 2.098293542862
-3.425216913223 -71.009567260742 -231.011367797852 1.368481278419
81.434043884277 -66.985466003418 -228.367614746094 3.173333644867
11.678297996521 -72.560668945313 -231.114974975586 2.263893842697
-5.216168880463 -70.365013122559 -232.339279174805 1.815293312073
-156.192535400391 -71.132057189941 -234.777175903320 2.877074956894
-141.632171630859 -71.654365539551 -228.607177734375 2.137211084366
63.266059875488 -68.823524475098 -233.144699096680 3.539123773575
-4.954440116882 -71.989578247070 -231.665573120117 2.086841344833
10.012095451355 -72.831077575684 -228.193161010742 2.372400760651
70.131172180176 -72.078132629395 -227.469100952148 2.657927274704
77.651565551758 -70.249725341797 -231.477172851563 1.886914014816
71.778327941895 -71.112945556641 -238.565155029297 0.917933642864
-0.832597017288 -73.785079956055 -233.209197998047 1.878383278847
58.724094390869 -68.533966064453 -235.234542846680 3.751375198364
-18.258609771729 -73.832443237305 -237.321884155273 0.816395819187
-14.589051246643 -69.000038146973 -238.002716064453 2.099189758301
8.940789222717 -70.814628601074 -236.846343994141 1.270793318748
65.538467407227 -73.197883605957 -235.104812622070 1.236641168594
66.136596679688 -68.628837585449 -237.902069091797 1.245660185814
50.367076873779 -70.575233459473 -243.425598144531 0.710375845432
61.912563323975 -73.223472595215 -239.959136962891 1.390430331230
-14.691882133484 -75.725730895996 -247.218246459961 4.301660537720
-82.850097656250 -69.843353271484 -252.095199584961 0.671566843987
-76.099693298340 -70.300987243652 -250.820953369141 1.526850223541
45.062435150146 -73.203903198242 -245.084732055664 5.324382781982
-148.333175659180 -74.451904296875 -248.845596313477 3.508559703827
36.805583953857 -70.646224975586 -253.590667724609 0.947261333466
-91.206871032715 -75.936737060547 -249.806671142578 2.887940406799
-155.513290405273 -69.826225280762 -252.943557739258 1.458174467087
-139.636276245117 -67.196640014648 -251.510437011719 4.683717727661
45.949649810791 -70.327186584473 -250.836990356445 1.694037914276
-124.238159179688 -69.252113342285 -255.977600097656 2.155933618546
-116.078857421875 -73.136253356934 -253.387039184570 2.770924806595
-91.626869201660 -68.641571044922 -255.042694091797 0.942281126976
-12.979673385620 -68.193115234375 -247.993927001953 0.868475198746
32.671600341797 -70.409004211426 -254.585525512695 0.945521950722
25.719085693359 -68.311637878418 -256.891601562500 1.612494230270
-158.212219238281 -69.211883544922 -258.569885253906 2.343749523163
-113.878479003906 -75.496345520020 -260.679473876953 2.253301143646
-13.107485771179 -71.088676452637 -259.530426025391 3.032552480698
-131.956039428711 -72.954193115234 -263.488983154297 1.531746625900
-13.301986694336 -70.239074707031 -267.895965576172 1.551735043526
-164.038589477539 -72.911964416504 -270.770812988281 3.116465091705
-6.413969039917 -72.352508544922 -277.019012451172 2.895779132843
-159.960113525391 -74.018646240234 -286.023071289063 2.586079359055
-162.962356567383 -75.484138488770 -276.113128662109 3.339641332626
-141.710403442383 -73.630577087402 -283.351654052734 2.639133930206
-169.254959106445 -75.740547180176 -282.908386230469 2.217423677444
14.960328102112 -73.334739685059 -285.417938232422 0.915425240993
-102.262603759766 -73.847229003906 -284.512969970703 2.264069795609
-86.373168945313 -68.587112426758 -283.938629150391 3.514921188354
-166.942413330078 -71.044120788574 -282.856048583984 2.339601993561
-91.100143432617 -76.466064453125 -281.899871826172 5.388418197632
-152.817962646484 -74.051094055176 -286.668853759766 1.884374022484
-74.561782836914 -73.397338867188 -291.469573974609 3.211664199829
-69.770370483398 -71.718719482422 -286.561828613281 2.148290872574
-81.634513854980 -73.584968566895 -289.198455810547 2.224555253983
-2.878432035446 -68.863594055176 -286.504425048828 3.338475942612
-87.157531738281 -72.601020812988 -286.555511474609 0.690189063549
-98.104118347168 -74.200225830078 -288.883453369141 2.253326177597
-115.781242370605 -73.416664123535 -290.703948974609 2.154563426971
-115.748023986816 -70.460807800293 -290.864685058594 1.347159028053
-133.312530517578 -72.734031677246 -290.326629638672 2.404310226440
-141.903121948242 -73.772499084473 -298.954772949219 4.012135028839
-143.264923095703 -75.101692199707 -309.896545410156 1.764384508133
23.639408111572 -66.711631774902 -12.533745765686 5.299648284912
32.104106903076 -67.801246643066 -13.739627838135 1.589566826820
29.186840057373 -70.491821289063 -15.584177017212 0.925543665886
43.940624237061 -66.387428283691 -17.862575531006 2.565765142441
24.771436691284 -68.577949523926 -29.015268325806 1.647264122963
-74.983963012695 -68.398803710938 -44.872982025146 3.018292903900
89.656417846680 -63.702827453613 -62.575168609619 1.913328409195
-17.604915618896 -67.614509582520 -65.094284057617 3.768750190735
102.684104919434 -66.658004760742 -69.862190246582 2.527899265289
95.230026245117 -71.595550537109 -72.571624755859 2.096171140671
68.633949279785 -69.635559082031 -75.597465515137 1.499414443970
70.425979614258 -71.480873107910 -79.695877075195 1.485656619072
-44.503952026367 -73.120597839355 -80.067420959473 3.328435659409
61.330474853516 -71.673606872559 -79.517494201660 4.641606807709
-94.270141601563 -71.027809143066 -86.201522827148 1.644989609718
-49.116966247559 -67.773010253906 -82.942634582520 2.009470939636
-55.650588989258 -76.701110839844 -85.213798522949 5.520919322968
101.259780883789 -73.267288208008 -94.470726013184 3.250951051712
59.419685363770 -71.584625244141 -89.385375976563 0.839983880520
66.024269104004 -67.690055847168 -88.133926391602 0.791510045528
-95.614585876465 -65.450935363770 -94.850784301758 1.613490104675
108.039619445801 -69.212425231934 -89.975570678711 4.491807937622
44.269062042236 -67.486572265625 -96.171401977539 0.761507391930
101.595664978027 -67.666336059570 -95.044692993164 1.256457567215
106.944000244141 -65.862129211426 -102.909706115723 2.021903514862
101.499206542969 -68.305290222168 -101.463829040527 1.494432330132
74.102478027344 -70.542633056641 -97.753417968750 1.486736655235
87.561790466309 -70.234436035156 -103.520805358887 1.159732580185
50.261432647705 -68.558143615723 -108.376853942871 1.359192967415
110.819908142090 -65.704093933105 -100.490737915039 3.329861879349
46.469203948975 -71.325370788574 -102.600013732910 2.057319879532
40.740173339844 -66.996238708496 -98.806869506836 3.835083246231
113.006698608398 -68.241111755371 -107.214859008789 2.495395660400
-78.328323364258 -67.807739257813 -107.459831237793 1.096988558769
46.350414276123 -68.009391784668 -110.066398620605 1.381464481354
35.059181213379 -70.905319213867 -112.284309387207 1.568603157997
105.678657531738 -65.694000244141 -107.010200500488 2.696705341339
39.623226165771 -66.113082885742 -108.747184753418 3.291407108307
-87.803810119629 -70.136367797852 -110.685897827148 2.198133945465
-95.332153320313 -67.777168273926 -112.675148010254 4.225961208344
104.392669677734 -71.146141052246 -116.003990173340 2.471907615662
-94.459182739258 -71.951316833496 -116.455986022949 2.596829891205
39.306774139404 -70.948440551758 -118.466079711914 1.320432186127
37.267017364502 -68.656967163086 -117.988342285156 1.736129522324
-83.097045898438 -70.137687683105 -121.988471984863 2.337940931320
32.750331878662 -67.348068237305 -131.940643310547 2.913890600204
111.240440368652 -69.345809936523 -128.071548461914 1.825265049934
-52.246116638184 -69.877220153809 -133.670974731445 2.209448814392
-87.890258789063 -69.434043884277 -129.435775756836 1.403681635857
38.355022430420 -72.195724487305 -128.830612182617 1.734409451485
-88.761260986328 -66.435386657715 -133.701812744141 2.479305982590
-88.458267211914 -72.675476074219 -137.377624511719 3.814352035522
-49.246109008789 -71.273521423340 -134.389556884766 0.900498807430
-70.461662292480 -68.569869995117 -137.230377197266 1.757289767265
-50.328289031982 -69.136482238770 -131.071182250977 1.919382333755
115.784240722656 -65.400962829590 -134.418106079102 3.210139513016
-72.803787231445 -71.783203125000 -134.492263793945 2.218134880066
36.896804809570 -69.311843872070 -128.501953125000 1.415617704391
