30.314119338989 -76.296005249023 -122.931243896484 2.407087802887
109.502052307129 -74.968582153320 -119.493873596191 1.298333764076
39.782382965088 -76.900474548340 -129.641494750977 1.875784277916
33.200222015381 -72.137489318848 -131.095443725586 1.233111619949
-45.032272338867 -74.471954345703 -142.605850219727 0.715346336365
-70.624504089355 -76.929481506348 -143.936035156250 2.064275264740
-53.267028808594 -73.876495361328 -146.483306884766 2.181750535965
-72.581703186035 -77.714256286621 -145.602096557617 1.968777537346
-39.383968353271 -74.211441040039 -146.991790771484 2.986934661865
107.709426879883 -74.672294616699 -153.273406982422 3.165703058243
-71.326377868652 -76.606048583984 -155.386901855469 2.566251277924
24.199546813965 -78.059547424316 -147.118041992188 1.612304806709
30.935283660889 -77.100181579590 -150.514984130859 1.752152562141
113.147552490234 -77.335411071777 -160.390670776367 1.613867402077
9.831286430359 -76.930259704590 -158.736694335938 1.755582690239
32.899971008301 -73.455963134766 -154.844207763672 1.134966731071
-63.429649353027 -76.337303161621 -158.741104125977 2.490021944046
-41.280841827393 -76.627937316895 -171.036849975586 2.298221111298
20.840509414673 -74.447906494141 -162.712234497070 0.950009524822
-64.190582275391 -74.110641479492 -159.208450317383 0.609515368938
-68.831779479980 -75.399795532227 -164.976928710938 2.838217973709
111.906494140625 -76.553024291992 -165.365020751953 2.123257875443
-7.386566162109 -75.908149719238 -166.055755615234 1.105317950249
-63.503154754639 -74.456542968750 -173.397994995117 1.752745747566
-31.642074584961 -76.408874511719 -167.987045288086 0.716236531734
-54.387821197510 -74.066741943359 -172.180831909180 2.228154182434
29.870510101318 -74.827301025391 -171.990631103516 1.876834869385
111.260223388672 -73.461967468262 -172.095062255859 1.897799015045
102.958923339844 -74.445999145508 -182.773559570313 1.165412425995
106.298393249512 -75.214210510254 -188.552215576172 2.508554220200
107.402900695801 -73.443885803223 -176.243637084961 2.028232097626
-51.788196563721 -74.426834106445 -189.795227050781 1.385636091232
-48.869297027588 -72.639877319336 -182.416900634766 3.206622362137
27.115953445435 -75.559387207031 -182.754531860352 1.742680311203
-48.360664367676 -73.844627380371 -186.507461547852 2.301492929459
-20.002107620239 -75.754768371582 -183.703521728516 2.243379831314
-50.453884124756 -77.118431091309 -191.026626586914 0.842735588551
-150.720901489258 -74.777633666992 -192.584533691406 1.501630663872
101.785552978516 -76.528114318848 -192.134414672852 0.504979670048
-44.249225616455 -72.995819091797 -193.429870605469 2.470592975616
-13.942070960999 -76.725097656250 -197.840591430664 2.448668718338
-139.620269775391 -75.627708435059 -194.164749145508 2.913442611694
-42.746982574463 -73.212821960449 -197.184509277344 3.352375507355
102.534515380859 -74.619338989258 -196.322982788086 0.662765204906
107.412635803223 -73.768676757813 -184.902404785156 1.875790357590
-43.994556427002 -75.131752014160 -195.881759643555 1.875388026237
-22.702320098877 -80.319877624512 -197.411560058594 2.500020265579
-147.508743286133 -79.377906799316 -199.499923706055 2.348563194275
-24.592966079712 -75.730072021484 -196.309143066406 0.987327635288
-156.998336791992 -76.285346984863 -197.598144531250 2.558861494064
-152.314559936523 -80.884765625000 -203.685119628906 1.837388515472
-142.779388427734 -77.349555969238 -201.488113403320 2.258231639862
-37.990112304688 -75.831123352051 -199.293548583984 2.294758796692
101.648200988770 -75.828475952148 -200.916244506836 1.741696476936
-40.561874389648 -73.509323120117 -199.184585571289 1.335544943810
-142.835983276367 -78.787780761719 -204.579513549805 0.850451469421
-37.399242401123 -72.256294250488 -205.226257324219 2.087298393250
-20.292703628540 -79.231689453125 -209.337936401367 3.742034196854
97.482208251953 -76.889289855957 -204.451126098633 2.267545700073
91.762580871582 -76.170280456543 -212.515853881836 0.756000816822
-33.973388671875 -73.956214904785 -216.600540161133 3.279117107391
-87.033317565918 -76.366996765137 -210.528060913086 1.498806238174
-75.247177124023 -75.949737548828 -211.236007690430 0.536342144012
-18.222440719604 -75.482017517090 -213.182723999023 1.807870149612
-149.415740966797 -76.385208129883 -205.522094726563 1.686856865883
90.653045654297 -75.256088256836 -212.717361450195 1.908331990242
89.384452819824 -73.537803649902 -217.476394653320 0.939988374710
90.651451110840 -75.284072875977 -219.338943481445 1.101676702499
-101.838897705078 -75.419708251953 -219.811492919922 2.380729436874
-152.606567382813 -77.916809082031 -221.666229248047 3.313096046448
-19.564023971558 -74.216743469238 -222.074569702148 1.798777818680
80.370048522949 -73.054214477539 -225.309478759766 2.135044336319
-149.187606811523 -78.841217041016 -223.634963989258 2.137636899948
-27.594354629517 -76.461891174316 -218.424697875977 1.218361496925
-133.048202514648 -74.123497009277 -230.942581176758 1.321720480919
-11.384302139282 -77.673194885254 -229.409713745117 1.702038407326
17.914672851563 -74.727539062500 -225.419738769531 1.040061473846
20.120452880859 -76.244567871094 -232.086059570313 2.227353811264
-154.375366210938 -78.646797180176 -233.915847778320 2.462135791779
-125.456642150879 -72.473899841309 -232.404907226563 1.901876688004
-7.774055004120 -74.729972839355 -234.642303466797 1.240274310112
0.504068970680 -74.726112365723 -236.633789062500 1.438396692276
69.634025573730 -75.039062500000 -232.202697753906 1.718743205070
71.089508056641 -72.751983642578 -237.266754150391 2.101602315903
0.053706999868 -74.062377929688 -239.680633544922 1.319811344147
16.825407028198 -72.090171813965 -239.101318359375 1.110341191292
-29.765089035034 -69.824073791504 -240.082153320313 5.044043540955
-33.260185241699 -80.898849487305 -240.928588867188 1.006056785583
-46.450489044189 -74.854202270508 -238.200408935547 1.729154586792
-38.843658447266 -73.531112670898 -240.435180664063 2.528120756149
-17.030460357666 -76.600471496582 -242.171173095703 0.683225452900
-52.014411926270 -73.823745727539 -243.355010986328 2.528413534164
2.291117906570 -75.637069702148 -244.501586914063 0.904217004776
-67.766540527344 -76.064224243164 -243.698593139648 3.137614965439
21.129329681396 -76.108741760254 -246.479202270508 1.608643293381
-143.709854125977 -77.680397033691 -244.745574951172 3.552328348160
-72.239601135254 -77.691261291504 -251.205459594727 1.771389126778
15.751303672791 -76.861434936523 -248.550598144531 1.017195463181
-160.934036254883 -74.505477905273 -249.156295776367 0.758850932121
15.504995346069 -78.529006958008 -252.154708862305 1.227136611938
-79.565093994141 -71.727638244629 -250.335739135742 1.588412523270
-74.773048400879 -76.028457641602 -250.393127441406 1.478813648224
20.058502197266 -76.753379821777 -254.409698486328 1.490252852440
-88.782852172852 -74.772781372070 -251.805404663086 1.621298909187
-125.298164367676 -73.014778137207 -254.791442871094 0.751422047615
-133.141677856445 -77.717971801758 -259.184082031250 2.388859987259
-134.665267944336 -77.743888854980 -254.424911499023 3.062545537949
-146.703613281250 -76.141662597656 -260.598358154297 1.247577071190
-143.955108642578 -73.237022399902 -254.800140380859 1.698685407639
-134.450332641602 -73.963188171387 -261.427307128906 0.895206689835
-161.290969848633 -73.036621093750 -260.507507324219 2.396513938904
-126.637588500977 -74.631538391113 -265.848236083984 2.801909923553
-134.957183837891 -72.106513977051 -262.284271240234 1.067089319229
-163.322570800781 -73.078697204590 -267.124359130859 3.214660167694
-156.344955444336 -73.220443725586 -263.866943359375 2.116897344589
-148.951919555664 -73.949432373047 -265.234771728516 2.725412607193
-147.650756835938 -75.839645385742 -265.337005615234 1.740959167480
17.114282608032 -77.827445983887 -277.909881591797 1.627227902412
-165.737335205078 -75.302864074707 -266.812500000000 2.083719968796
-151.510620117188 -76.220436096191 -273.158630371094 1.807347059250
-5.336390972137 -82.168815612793 -272.438629150391 1.951639175415
-156.888290405273 -73.530845642090 -272.286163330078 3.491759300232
12.608915328979 -78.948570251465 -281.306121826172 1.409669756889
-151.884674072266 -75.087753295898 -281.554870605469 1.206113100052
-164.112716674805 -76.282653808594 -287.471771240234 2.094443321228
-154.488876342773 -77.175010681152 -279.978881835938 4.432411193848
-164.718368530273 -73.941207885742 -287.477813720703 2.489563941956
1.767838001251 -77.815238952637 -286.824523925781 3.057014226913
7.742002964020 -79.544227600098 -282.386138916016 2.694454908371
-101.615379333496 -73.968902587891 -290.447387695313 0.481440216303
-153.548065185547 -79.429435729980 -287.376129150391 2.216831207275
-147.909378051758 -73.688400268555 -285.625183105469 1.937604308128
-106.929580688477 -74.444046020508 -290.292175292969 1.558406591415
-151.827056884766 -77.430046081543 -291.558044433594 2.837187290192
-148.075653076172 -78.111267089844 -289.042266845703 2.556820869446
-71.738296508789 -77.639846801758 -292.047424316406 4.747682094574
-165.398025512695 -77.065994262695 -289.190368652344 3.341998815536
-122.740150451660 -72.785026550293 -291.072906494141 1.431890130043
-42.780807495117 -78.632049560547 -287.368896484375 1.513448476791
-153.001083374023 -75.173179626465 -288.192382812500 2.706165075302
-132.774551391602 -71.424873352051 -293.150726318359 1.602722764015
-18.227098464966 -73.482986450195 -293.263031005859 2.545934200287
-127.633209228516 -72.896629333496 -293.080017089844 1.981694936752
6.232999801636 -76.248039245605 -293.739288330078 0.739119231701
15.756757736206 -73.510604858398 -291.931884765625 1.830435872078
-133.199188232422 -72.865768432617 -291.443786621094 2.658346414566
-145.279083251953 -76.665603637695 -296.850250244141 2.610209226608
-155.764633178711 -77.380187988281 -313.558685302734 3.863117218018
-71.818969726563 -69.977958679199 -52.024265289307 1.546290993690
-21.959295272827 -69.348968505859 -63.417026519775 5.091608524323
-19.954612731934 -75.832031250000 -64.606880187988 1.783448100090
72.907768249512 -72.151374816895 -76.380836486816 2.767904520035
91.311294555664 -73.711685180664 -75.056877136230 1.871755838394
-36.711227416992 -73.647354125977 -78.561851501465 1.681468129158
75.583328247070 -73.466392517090 -78.844467163086 2.102836132050
89.804420471191 -77.230346679688 -81.534210205078 1.810977816582
68.248115539551 -73.955192565918 -82.859512329102 2.708602428436
72.983551025391 -73.305099487305 -88.126525878906 2.299392461777
-49.481407165527 -75.384254455566 -85.921356201172 2.198191165924
-91.526901245117 -76.109886169434 -88.091896057129 3.431092977524
59.024887084961 -75.911598205566 -93.216911315918 1.635422825813
50.408618927002 -75.499183654785 -98.402755737305 1.303573250771
94.064422607422 -71.730354309082 -98.529678344727 2.663084268570
-91.908195495605 -70.290275573730 -101.492156982422 4.489684581757
82.223838806152 -71.073303222656 -98.567909240723 2.371569395065
73.391548156738 -74.436523437500 -99.410156250000 2.513694763184
91.989242553711 -75.646888732910 -97.637489318848 2.185910224915
83.506187438965 -73.691673278809 -97.366348266602 1.768943071365
83.308845520020 -76.612541198730 -97.904396057129 1.327581644058
-85.053649902344 -75.754280090332 -102.142333984375 5.075150489807
42.784275054932 -72.793670654297 -106.247032165527 1.900579094887
105.779037475586 -74.928840637207 -110.115821838379 1.700995326042
108.399971008301 -74.547874450684 -110.126808166504 1.748948812485
48.453762054443 -76.418220520020 -118.215934753418 2.772540092468
111.483322143555 -76.248008728027 -120.435020446777 1.060027837753
116.984558105469 -76.734962463379 -134.283172607422 1.276388168335
-51.114246368408 -72.266220092773 -130.971694946289 1.881715774536
27.679664611816 -73.779106140137 -134.032104492188 2.741497516632
40.940570831299 -76.565315246582 -133.065917968750 2.179709672928
25.431612014771 -71.759376525879 -142.299087524414 2.533330917358
113.309692382813 -76.668685913086 -137.775177001953 2.508504390717
112.104400634766 -74.906127929688 -131.211791992188 1.818324685097
-73.282279968262 -74.190979003906 -148.018188476563 2.158159732819
-43.630119323730 -73.575813293457 -142.576309204102 1.226944208145
-70.902519226074 -72.480819702148 -151.102035522461 1.989932298660
20.034435272217 -72.927566528320 -149.262634277344 2.742418766022
112.869544982910 -72.308731079102 -148.895187377930 2.253233671188
-53.308540344238 -75.327430725098 -150.670288085938 1.526872873306
-70.932456970215 -72.932762145996 -150.805908203125 1.807914018631
-38.588512420654 -77.191726684570 -152.160232543945 1.922331333160
32.691795349121 -69.744842529297 -152.811828613281 2.410941600800
110.356681823730 -71.556472778320 -150.689239501953 1.743435978889
115.720809936523 -73.305427551270 -160.060104370117 2.131469488144
-67.919967651367 -71.296562194824 -154.870132446289 1.385501027107
-72.323951721191 -75.710166931152 -160.934265136719 3.044901609421
22.083438873291 -77.385322570801 -162.892684936523 1.020942568779
-59.759723663330 -72.211410522461 -166.637619018555 2.026655912399
-32.464557647705 -72.891754150391 -162.207382202148 1.453590154648
8.212201118469 -75.309448242188 -163.069778442383 2.417649745941
109.099784851074 -72.409721374512 -161.209991455078 1.528259754181
8.193596839905 -76.872085571289 -166.579040527344 3.738626480103
-32.493679046631 -74.497436523438 -165.386444091797 1.767565846443
-1.589720010757 -70.477920532227 -165.448593139648 2.120237827301
107.958091735840 -71.505439758301 -167.623336791992 1.270575523376
-41.056884765625 -71.777725219727 -165.343582153320 1.920869946480
29.552310943604 -71.647712707520 -171.833786010742 1.403009772301
113.366928100586 -76.995437622070 -171.931945800781 1.797046184540
-56.889373779297 -71.429840087891 -175.997558593750 2.371656894684
-27.841835021973 -76.509353637695 -174.354629516602 0.430539667606
103.347061157227 -74.297027587891 -173.670196533203 3.095670938492
29.472780227661 -72.455085754395 -169.328628540039 1.796137332916
107.978050231934 -75.910110473633 -174.704101562500 2.039063453674
-36.547626495361 -71.246009826660 -177.927108764648 1.426144480705
108.754310607910 -76.593322753906 -180.218261718750 0.907972991467
-61.528205871582 -71.912513732910 -177.417846679688 3.095898866653
-25.151788711548 -77.751190185547 -178.556091308594 1.792284727097
-146.048919677734 -69.721176147461 -183.561172485352 3.015771389008
-53.788646697998 -73.307739257813 -180.509384155273 1.546207070351
-146.741775512695 -74.450416564941 -186.217636108398 1.030753135681
-33.695426940918 -72.237060546875 -184.788955688477 0.838039219379
27.265504837036 -77.648223876953 -181.381912231445 1.522641897202
106.868843078613 -74.771682739258 -182.842422485352 0.652373552322
-33.648864746094 -74.343200683594 -183.633880615234 1.555954456329
11.392694473267 -74.784446716309 -190.465057373047 1.380776286125
17.736108779907 -73.857521057129 -203.225158691406 1.970811128616
-147.773483276367 -74.683036804199 -189.691772460938 1.939046502113
105.484275817871 -76.195480346680 -195.098159790039 2.686030626297
-20.922697067261 -71.959289550781 -192.927963256836 2.426111936569
101.753524780273 -75.054153442383 -187.814193725586 2.355808734894
13.289793014526 -71.938125610352 -189.143188476563 1.311749815941
-136.471298217773 -73.822578430176 -203.646667480469 2.690962791443
-138.383193969727 -73.822456359863 -199.831130981445 1.639564752579
100.715728759766 -76.652664184570 -200.890625000000 2.099697113037
-11.466752052307 -77.726036071777 -200.118179321289 2.978367567062
-15.910957336426 -75.076980590820 -202.687347412109 1.908005356789
11.012333869934 -76.118377685547 -207.036468505859 1.330402731895
-149.577087402344 -72.555076599121 -205.871887207031 1.783948183060
-145.795578002930 -75.422691345215 -208.017211914063 2.644549608231
100.539665222168 -70.285606384277 -204.206726074219 1.401690483093
-81.731254577637 -73.739418029785 -208.011611938477 2.696756839752
-35.597919464111 -74.750381469727 -201.408264160156 2.413111686707
19.291135787964 -76.731445312500 -212.999893188477 2.225913047791
-24.727933883667 -74.675811767578 -210.858703613281 0.866139471531
-76.074752807617 -72.596954345703 -207.702468872070 2.186074018478
91.478660583496 -74.300926208496 -209.271499633789 1.607183218002
-79.948799133301 -71.896087646484 -212.217437744141 1.562228441238
-146.871337890625 -74.510375976563 -218.578521728516 1.183725714684
-79.491607666016 -72.957557678223 -213.086181640625 1.557773351669
-12.773060798645 -69.778602600098 -209.622726440430 1.442863941193
-20.171175003052 -71.875694274902 -218.650497436523 1.814962387085
18.981424331665 -74.130714416504 -212.963653564453 1.753304481506
-4.993707180023 -75.586242675781 -219.219268798828 0.848686754704
-87.779113769531 -77.252510070801 -218.674041748047 1.325868010521
93.107475280762 -73.509559631348 -213.191390991211 1.784488439560
-97.908500671387 -73.242179870605 -215.524887084961 1.465993642807
-151.740219116211 -73.428207397461 -224.043380737305 2.392920732498
-24.683975219727 -73.259529113770 -223.404891967773 1.744021773338
18.252147674561 -74.701652526855 -215.702896118164 1.842195987701
-101.538627624512 -74.273635864258 -219.867889404297 1.603188395500
7.891380786896 -71.290306091309 -218.556854248047 2.776120185852
-25.182664871216 -74.260871887207 -215.347229003906 2.124692440033
83.372726440430 -72.712730407715 -223.788040161133 1.509070873260
-144.827377319336 -73.414764404297 -219.109054565430 1.283885121346
10.834997177124 -72.957046508789 -225.471237182617 2.477423667908
-8.978515625000 -77.113250732422 -225.403335571289 1.972300291061
17.998849868774 -68.602058410645 -222.198699951172 1.228812217712
84.127609252930 -75.066146850586 -221.860198974609 1.179993391037
-13.089452743530 -76.393783569336 -228.235107421875 2.062932491302
-130.054397583008 -75.237007141113 -226.460479736328 2.716354608536
-13.342049598694 -74.385192871094 -224.179641723633 1.647240161896
17.262716293335 -74.647834777832 -230.795455932617 1.392328739166
-126.215751647949 -76.122123718262 -227.132354736328 1.404914259911
-151.103836059570 -71.082504272461 -229.527969360352 2.302881479263
-141.896408081055 -73.120292663574 -228.841720581055 1.373053193092
-130.396423339844 -72.321083068848 -227.824279785156 2.787274360657
-12.646316528320 -72.230735778809 -224.950698852539 1.022236108780
72.354545593262 -73.906204223633 -227.775451660156 1.841952204704
-142.784652709961 -70.763038635254 -236.237075805664 0.560718476772
71.293693542480 -75.292716979980 -228.344421386719 2.678302764893
-19.950395584106 -77.293548583984 -229.348724365234 0.853045940399
-141.769729614258 -77.255142211914 -229.247940063477 1.796276688576
77.828392028809 -78.860481262207 -228.410232543945 2.768887758255
10.212009429932 -77.908462524414 -233.128540039063 1.635740756989
-141.109405517578 -78.129989624023 -235.183868408203 3.068922758102
-149.564392089844 -73.144500732422 -233.837249755859 2.780783176422
17.349554061890 -71.077079772949 -231.153244018555 0.800325632095
-2.191318035126 -76.496513366699 -237.368377685547 0.711406767368
-27.186580657959 -73.634254455566 -236.938751220703 1.691045761108
-1.136448025703 -70.365333557129 -237.321578979492 1.502385735512
-160.289733886719 -76.049942016602 -237.670425415039 3.407516479492
8.459798812866 -73.140998840332 -243.224243164063 0.745297491550
-164.224639892578 -74.546005249023 -238.728134155273 2.275788307190
-12.298395156860 -75.290046691895 -237.387329101563 2.402602910995
62.037342071533 -74.990638732910 -238.786392211914 2.494403600693
-12.584877014160 -73.270210266113 -237.832595825195 1.808729052544
-24.383985519409 -73.408264160156 -244.106369018555 2.159196615219
-24.508232116699 -73.655105590820 -241.505767822266 0.987176001072
-12.347425460815 -76.303894042969 -240.567901611328 2.708847284317
-145.839279174805 -74.314857482910 -230.951614379883 1.792969107628
8.589669227600 -73.506286621094 -242.008804321289 1.090175032616
64.755744934082 -73.753890991211 -243.267349243164 1.810098290443
15.212495803833 -72.122528076172 -244.809036254883 2.053934335709
-165.484085083008 -72.419189453125 -241.572692871094 2.037319183350
-49.993110656738 -73.071281433105 -240.580657958984 1.987849116325
4.466813087463 -80.774162292480 -247.774658203125 1.884049296379
17.507339477539 -74.214897155762 -243.903076171875 2.480205774307
-53.699684143066 -73.378509521484 -246.993011474609 1.953349947929
-2.318289041519 -70.356353759766 -248.003158569336 3.889054775238
21.448423385620 -78.864318847656 -247.569061279297 1.052481174469
-168.629470825195 -72.204971313477 -248.779647827148 2.725684642792
-67.060470581055 -77.174728393555 -247.952056884766 0.463628292084
-51.062137603760 -72.944129943848 -247.200500488281 1.843467712402
-80.593246459961 -73.094863891602 -251.182266235352 2.084939002991
-160.508514404297 -74.783340454102 -246.951339721680 2.431126832962
-150.247482299805 -68.244087219238 -249.567901611328 2.329538345337
-59.592185974121 -75.749771118164 -249.464035034180 0.715796589851
-68.249656677246 -73.839935302734 -249.786407470703 1.788626909256
-153.109664916992 -72.048728942871 -252.712280273438 1.157132387161
-151.513793945313 -74.617523193359 -252.294647216797 1.488436818123
-75.341201782227 -70.960227966309 -254.283386230469 2.395093202591
-92.919486999512 -71.574943542480 -255.151214599609 2.922730684280
-163.882446289063 -69.408355712891 -252.302352905273 1.354775786400
-156.305023193359 -74.082557678223 -259.750579833984 1.857328295708
-134.287185668945 -75.316314697266 -258.243469238281 0.833145797253
-82.626655578613 -73.906967163086 -251.246383666992 2.244034528732
-161.659240722656 -71.131004333496 -253.001403808594 2.146024227142
-141.333587646484 -72.152206420898 -256.904663085938 2.220828533173
-84.813262939453 -73.058944702148 -251.170211791992 0.898948371410
-96.177894592285 -71.779151916504 -260.295562744141 1.526226639748
-144.552581787109 -74.683441162109 -256.001556396484 2.327213764191
-92.976249694824 -73.583122253418 -256.044433593750 1.908737778664
-152.083099365234 -72.284263610840 -256.073394775391 2.329609870911
-101.809570312500 -73.400672912598 -255.542449951172 1.355325222015
-168.164306640625 -73.129844665527 -258.933837890625 3.066829919815
-160.963500976563 -75.189895629883 -263.471740722656 0.957177639008
-125.904716491699 -76.574645996094 -256.569641113281 1.689050436020
-151.169265747070 -73.947021484375 -259.489196777344 1.394922971725
-111.327697753906 -71.232627868652 -261.945068359375 1.389675378799
-13.817425727844 -72.859794616699 -261.708435058594 1.806122541428
-141.066223144531 -73.550498962402 -261.064392089844 1.547928094864
-125.330451965332 -73.201347351074 -260.142089843750 1.826099038124
-153.660766601563 -72.284034729004 -262.752807617188 2.584397315979
24.111167907715 -74.977088928223 -270.535461425781 2.818931102753
-148.105117797852 -76.084739685059 -278.702423095703 1.127611160278
-167.851211547852 -74.180847167969 -280.224975585938 2.624843835831
-7.621418952942 -74.297828674316 -279.244110107422 1.469709634781
-145.296142578125 -73.848838806152 -280.579620361328 1.680047154427
-8.959173202515 -72.803192138672 -283.001892089844 1.534383177757
13.413736343384 -74.641471862793 -285.857635498047 1.288735866547
-136.063507080078 -72.536872863770 -286.048858642578 1.590252280235
-67.703742980957 -75.805740356445 -286.862609863281 1.424094557762
-32.731357574463 -76.389617919922 -287.901885986328 1.050852775574
-112.306533813477 -73.862106323242 -284.433288574219 3.167445659637
-94.713279724121 -77.589836120605 -290.195220947266 2.981167316437
-89.018966674805 -74.342544555664 -291.387786865234 2.138886213303
-49.208648681641 -75.475631713867 -291.782409667969 3.507489681244
-115.359542846680 -77.932723999023 -288.589355468750 2.532081127167
-113.111625671387 -75.182533264160 -290.292022705078 1.736034154892
-32.475135803223 -71.893493652344 -289.090179443359 2.051100492477
-114.721908569336 -74.477714538574 -293.051055908203 1.200451016426
-126.476684570313 -70.039260864258 -290.312713623047 2.629486322403
-143.796295166016 -75.888656616211 -293.658081054688 2.347075462341
7.756927013397 -74.112510681152 -291.315643310547 1.241419315338
17.241434097290 -76.060462951660 -293.075347900391 1.485032677650
-159.300491333008 -73.901649475098 -292.961242675781 1.602828741074
-157.693664550781 -77.483688354492 -300.765167236328 3.496228218079
-146.338531494141 -75.406143188477 -310.580322265625 1.748475313187
-151.330123901367 -72.940429687500 -310.964294433594 2.127198219299
-151.916366577148 -75.616561889648 -313.656219482422 2.667182207108
29.233444213867 -75.115928649902 -14.641259193420 3.128475427628
31.177082061768 -70.466896057129 -18.034603118896 0.662962675095
21.827154159546 -72.507453918457 -24.039913177490 0.425389528275
29.361480712891 -70.381706237793 -39.035285949707 0.770854949951
-57.688110351563 -71.325614929199 -49.656509399414 1.989420652390
-64.784614562988 -71.818611145020 -50.099620819092 2.299087762833
-38.428253173828 -75.096336364746 -50.152400970459 3.296947717667
-83.990074157715 -68.612365722656 -62.923526763916 4.901906967163
81.663642883301 -75.777397155762 -73.858825683594 1.183469414711
-14.997458457947 -70.835968017578 -70.911331176758 2.025152206421
89.554344177246 -73.812728881836 -66.049400329590 2.993421792984
99.805328369141 -72.786361694336 -76.640205383301 1.430885672569
-92.132629394531 -70.606468200684 -76.327949523926 2.470355749130
68.098777770996 -72.906517028809 -80.142028808594 2.452579259872
-40.597038269043 -76.396080017090 -85.482833862305 1.372356176376
101.372528076172 -72.155128479004 -81.758811950684 1.597652912140
-55.159458160400 -71.399162292480 -88.563018798828 1.851637244225
51.499599456787 -73.427070617676 -90.309921264648 1.220654726028
71.402725219727 -78.189704895020 -90.432983398438 2.970936536789
55.965343475342 -72.318748474121 -96.054039001465 0.992045164108
53.292072296143 -74.834197998047 -98.304992675781 1.942925691605
74.880485534668 -76.229934692383 -95.362243652344 1.459563374519
46.966823577881 -72.968536376953 -104.984764099121 3.495679140091
100.893653869629 -73.953926086426 -100.454490661621 2.349424362183
106.378730773926 -77.228385925293 -106.074554443359 2.350216388702
80.470794677734 -70.628448486328 -103.167587280273 0.645909249783
92.291198730469 -74.530166625977 -103.145263671875 2.732037067413
101.336227416992 -73.508949279785 -94.818672180176 3.197242021561
109.989021301270 -73.932579040527 -103.372756958008 2.434610843658
40.057010650635 -73.196746826172 -105.901008605957 0.731956541538
113.032989501953 -70.952323913574 -118.310043334961 1.648532032967
114.280281066895 -74.802307128906 -118.512756347656 1.898267745972
31.831045150757 -71.907089233398 -123.322257995605 1.817567348480
45.242385864258 -74.537078857422 -118.620590209961 2.055354118347
115.790855407715 -74.050689697266 -129.830352783203 1.432026624680
36.752788543701 -72.929519653320 -126.423042297363 3.317430734634
115.579971313477 -77.102821350098 -127.340728759766 3.186831951141
109.273284912109 -74.518775939941 -122.078231811523 2.333774566650
26.963720321655 -74.200981140137 -135.334747314453 1.330776095390
-47.410205841064 -73.567489624023 -134.001785278320 2.050619363785
-51.571128845215 -71.587554931641 -135.038543701172 1.276142001152
111.902290344238 -73.047912597656 -134.622024536133 1.001005172729
-68.655807495117 -76.770477294922 -140.395523071289 3.915906667709
-72.254905700684 -73.837142944336 -140.295059204102 1.391929984093
-58.371887207031 -73.757148742676 -141.114883422852 0.842341363430
32.508903503418 -73.515739440918 -143.380554199219 2.026404380798
116.777641296387 -75.503082275391 -145.510833740234 3.574128150940
-68.806602478027 -70.170562744141 -147.077957153320 1.015227556229
-47.392738342285 -72.986663818359 -142.497131347656 3.020919561386
34.013576507568 -74.177894592285 -150.978195190430 2.069260120392
-67.512672424316 -74.374900817871 -147.761123657227 1.022052526474
114.603401184082 -72.774009704590 -140.937591552734 0.864234566689
112.505302429199 -72.071563720703 -157.182189941406 0.778059303761
116.952827453613 -74.945884704590 -152.557540893555 2.217433452606
-37.757625579834 -75.816802978516 -152.928161621094 1.864806890488
-64.070167541504 -73.439857482910 -164.253128051758 1.979527831078
-68.531341552734 -70.275825500488 -157.130310058594 1.915584325790
30.785148620605 -74.570816040039 -146.124389648438 3.083593130112
-1.425382018089 -75.459854125977 -161.874420166016 1.803099513054
109.827041625977 -73.457450866699 -161.229812622070 1.146247863770
112.474075317383 -72.144119262695 -152.639511108398 1.219242095947
112.924850463867 -76.046043395996 -157.969894409180 1.269617319107
-63.061508178711 -70.702064514160 -160.011093139648 1.662013530731
-44.657276153564 -75.340530395508 -165.094558715820 1.444186925888
-1.629485964775 -72.787788391113 -164.857330322266 1.483900904655
-28.533231735229 -73.745124816895 -174.747451782227 2.608877420425
106.679168701172 -73.032890319824 -166.845016479492 0.959786772728
-33.681991577148 -76.354988098145 -159.884826660156 0.910228490829
110.125289916992 -72.395629882813 -167.973327636719 1.991401314735
-41.057434082031 -74.016670227051 -173.485015869141 1.594351887703
109.362121582031 -71.770027160645 -168.248229980469 1.792408585548
-150.750579833984 -74.161659240723 -180.072479248047 1.691798806190
-26.194635391235 -69.865707397461 -176.633499145508 1.061449885368
-19.560489654541 -73.669258117676 -183.161987304688 1.258651614189
25.612354278564 -76.662902832031 -176.834564208984 1.065497279167
15.803627014160 -73.339965820313 -182.911651611328 1.797838687897
28.383432388306 -74.098411560059 -182.770294189453 1.334336042404
105.010734558105 -77.688545227051 -183.287948608398 1.060714006424
-151.070861816406 -70.399467468262 -184.938079833984 1.916368126869
-18.981664657593 -75.798011779785 -184.640670776367 0.973164260387
102.931495666504 -74.758499145508 -178.179992675781 3.656388282776
103.942932128906 -70.886543273926 -189.298416137695 1.765631794930
108.929000854492 -75.014541625977 -177.376281738281 0.877587974072
99.820075988770 -75.637268066406 -193.320327758789 1.907523274422
-150.573928833008 -73.739807128906 -196.550674438477 3.259876489639
100.792884826660 -74.823852539063 -205.081405639648 1.339040160179
-27.478761672974 -71.498352050781 -196.990509033203 1.641447067261
98.289161682129 -73.712333679199 -195.377624511719 2.221249818802
-120.647918701172 -76.410690307617 -200.065765380859 3.757046699524
-29.039712905884 -77.952873229980 -189.907928466797 1.500830650330
-141.185287475586 -69.294212341309 -198.340179443359 1.538244724274
96.084922790527 -74.077316284180 -198.207168579102 2.041455984116
9.381710052490 -74.449432373047 -198.810653686523 2.048652648926
24.603736877441 -72.457603454590 -192.298461914063 0.829101085663
-147.365646362305 -73.620880126953 -202.935821533203 2.161525011063
-138.212188720703 -72.485618591309 -202.071075439453 1.915580272675
-9.307069778442 -73.300148010254 -206.488189697266 1.048494219780
-123.656333923340 -73.095214843750 -203.748046875000 1.184650182724
-143.176864624023 -75.555427551270 -199.715408325195 2.062463283539
4.679230213165 -73.954734802246 -199.332321166992 4.558307170868
-23.516159057617 -75.741180419922 -200.871566772461 2.021942615509
21.402626037598 -76.516494750977 -202.004577636719 0.794439494610
7.368515968323 -75.044578552246 -211.553070068359 1.485416650772
86.180686950684 -71.575355529785 -208.176910400391 3.540938615799
-17.658657073975 -71.175125122070 -211.725555419922 2.073986768723
92.068229675293 -71.849288940430 -208.565521240234 1.112358808517
97.793159484863 -75.814712524414 -206.576492309570 2.133135080338
-148.226959228516 -74.239738464355 -214.564987182617 1.611424446106
96.233917236328 -75.686599731445 -211.145767211914 0.893716573715
5.729337215424 -72.827461242676 -207.047012329102 2.098806858063
4.317006111145 -75.852287292480 -214.136718750000 2.958232879639
-32.244464874268 -73.209762573242 -206.787353515625 2.271247625351
-88.695617675781 -72.840255737305 -213.042358398438 2.007208585739
-25.505178451538 -75.021202087402 -210.628250122070 0.854338228703
85.871025085449 -73.262786865234 -216.495590209961 1.419205784798
90.030792236328 -73.106063842773 -216.600067138672 1.328467488289
-31.114152908325 -72.838851928711 -212.037902832031 1.829549551010
-83.658920288086 -70.529846191406 -218.323120117188 3.714658975601
-0.317429006100 -75.729614257813 -218.433959960938 2.651242494583
82.777938842773 -70.529624938965 -212.773193359375 4.679558753967
-151.201995849609 -76.908912658691 -221.913223266602 2.080649137497
-165.088684082031 -71.568046569824 -214.428024291992 2.933861970901
-161.255950927734 -75.597282409668 -222.351043701172 3.298526287079
-20.661918640137 -74.590873718262 -226.636199951172 2.183182716370
-153.172698974609 -76.052627563477 -222.826583862305 2.674224853516
-4.995008945465 -74.883537292480 -224.206039428711 3.065469741821
7.293728828430 -74.776000976563 -218.101272583008 2.208007335663
-166.424331665039 -73.022041320801 -225.680908203125 1.249487280846
-158.071105957031 -73.543998718262 -227.502975463867 1.310301065445
80.021415710449 -77.120040893555 -230.968063354492 1.424838542938
1.012315034866 -72.636878967285 -226.382919311523 0.473242133856
-156.798095703125 -68.613754272461 -226.317016601563 2.144869327545
-141.764648437500 -74.795364379883 -224.456649780273 1.735876083374
-18.451896667480 -72.742630004883 -223.699478149414 1.393134832382
0.338676989079 -77.882720947266 -222.155776977539 2.569489240646
80.817710876465 -71.605072021484 -225.188171386719 1.317689776421
-160.522796630859 -71.547256469727 -228.034576416016 2.095060348511
-143.245803833008 -70.988365173340 -230.992095947266 1.933060646057
-124.361854553223 -71.732559204102 -230.983840942383 1.861375808716
79.548828125000 -75.373931884766 -226.212905883789 1.769729971886
-114.883583068848 -73.234748840332 -229.215072631836 1.244808077812
-145.659332275391 -73.156837463379 -229.412994384766 1.379117965698
-149.757766723633 -71.902748107910 -231.569290161133 2.447284936905
-148.270034790039 -73.952842712402 -231.467147827148 0.818931698799
-155.080902099609 -73.702720642090 -229.251556396484 2.409292697906
-164.333358764648 -73.599830627441 -229.198654174805 1.631259441376
-132.942214965820 -73.446235656738 -235.443862915039 1.291021108627
-132.518051147461 -74.413970947266 -233.233612060547 1.042101979256
-152.432647705078 -76.825340270996 -233.023483276367 1.661302924156
-144.610000610352 -69.816574096680 -236.999130249023 1.282710671425
-150.849395751953 -73.703468322754 -235.470809936523 1.726498484612
75.719039916992 -75.955734252930 -231.967071533203 1.380739688873
68.166549682617 -69.236618041992 -235.585189819336 0.864922285080
-156.230285644531 -71.810295104980 -235.564331054688 2.493486404419
72.558227539063 -69.647560119629 -232.862976074219 1.922912716866
-18.962368011475 -72.311599731445 -236.456726074219 1.733284473419
12.235357284546 -75.003112792969 -236.792892456055 2.009966611862
7.749638080597 -74.559448242188 -235.739761352539 3.064124822617
-153.695999145508 -73.373977661133 -242.832046508789 3.721135377884
15.425562858582 -73.260681152344 -240.813186645508 2.050743341446
61.794136047363 -72.751060485840 -237.580261230469 1.778802156448
14.249434471130 -71.389923095703 -237.675643920898 1.428106904030
6.198826789856 -74.247673034668 -241.303070068359 2.071139812469
-5.667418956757 -71.703559875488 -240.137374877930 1.381431102753
-20.301282882690 -72.305923461914 -242.666000366211 1.011151909828
-0.879945993423 -73.686286926270 -241.729293823242 1.525942444801
4.671807765961 -76.427009582520 -244.721664428711 1.067491173744
58.268775939941 -74.923973083496 -241.176315307617 0.646588325500
-54.606937408447 -76.923538208008 -244.649780273438 1.287966489792
20.454090118408 -72.809577941895 -247.064178466797 1.293637394905
-58.725692749023 -74.524681091309 -241.731857299805 3.264877796173
-9.025801658630 -73.927833557129 -247.685104370117 0.606550395489
-65.241615295410 -70.291946411133 -250.265655517578 1.673926234245
-85.209350585938 -71.998306274414 -253.166351318359 1.929252862930
-81.783348083496 -74.494987487793 -252.133270263672 1.864929795265
-8.997877120972 -73.150543212891 -254.598632812500 2.236086130142
-123.044303894043 -73.304702758789 -259.181030273438 2.372565031052
-13.271364212036 -74.643386840820 -252.795257568359 2.679216623306
-116.164718627930 -73.514617919922 -255.820770263672 1.054693818092
-115.667137145996 -72.210441589355 -258.761871337891 1.807110905647
-102.731529235840 -73.355354309082 -256.620422363281 2.058221101761
-143.056381225586 -72.508590698242 -262.039550781250 1.962758421898
-144.193649291992 -72.947395324707 -267.442169189453 2.186181783676
-167.843078613281 -73.436256408691 -263.873687744141 2.129209041595
20.231784820557 -77.387908935547 -279.985778808594 3.547683954239
-57.184009552002 -71.920227050781 -285.361480712891 1.968558311462
-66.379951477051 -72.749687194824 -283.694915771484 1.995873570442
-41.295909881592 -75.510078430176 -283.781982421875 3.200739145279
-27.197010040283 -74.798164367676 -286.346069335938 0.839744627476
-95.481071472168 -75.562171936035 -289.285614013672 1.454457163811
-29.988700866699 -71.948066711426 -285.617248535156 1.977621793747
-3.262367010117 -73.950340270996 -285.989440917969 0.627966046333
-166.548980712891 -73.550346374512 -289.582946777344 2.130691289902
-15.033286094666 -75.949378967285 -285.716217041016 1.034583091736
7.199895858765 -75.122825622559 -287.717193603516 0.908527731895
14.958140373230 -78.265670776367 -283.339324951172 3.199887990952
-56.135253906250 -76.075378417969 -287.564788818359 2.055163383484
-32.391002655029 -74.299217224121 -291.369445800781 1.875252723694
15.043140411377 -72.136322021484 -292.848297119141 1.913228273392
-70.087577819824 -72.417129516602 -292.933380126953 0.801990926266
-39.429706573486 -71.345191955566 -289.080352783203 1.466572999954
-17.034742355347 -71.921638488770 -289.855987548828 0.603743672371
15.874512672424 -76.190368652344 -290.762817382813 1.497291088104
-10.740174293518 -75.576354980469 -294.037780761719 2.779031515121
4.773995876312 -72.812507629395 -293.600891113281 1.156786322594
15.077975273132 -75.924751281738 -290.338867187500 1.038173913956
-134.079818725586 -72.643669128418 -294.521148681641 1.098608016968
-144.147857666016 -75.933776855469 -299.326263427734 2.512831926346
-150.173080444336 -74.091438293457 -313.416748046875 0.999376952648
43.644962310791 -71.494155883789 -13.410810470581 1.915661454201
30.741966247559 -71.881980895996 -11.542948722839 2.255436897278
39.899208068848 -72.193840026855 -15.115059852600 2.576502084732
22.603233337402 -68.925247192383 -18.487571716309 2.434194564819
45.577392578125 -70.111541748047 -22.079370498657 2.090530872345
26.169256210327 -70.296173095703 -23.720230102539 1.496108651161
24.380853652954 -72.376853942871 -27.233938217163 1.556686282158
25.431390762329 -72.990135192871 -38.008682250977 2.219591617584
40.167984008789 -74.197181701660 -30.482948303223 3.504242658615
26.916048049927 -75.601341247559 -36.031497955322 4.135428428650
43.699504852295 -70.932037353516 -37.367507934570 1.173960685730
32.488887786865 -72.710769653320 -39.129901885986 1.432332992554
39.400470733643 -73.522415161133 -35.623016357422 2.366263866425
31.579017639160 -71.338706970215 -39.674953460693 1.088243603706
44.228954315186 -72.192527770996 -40.863086700439 2.753494739532
34.344692230225 -71.694541931152 -38.707218170166 1.675207853317
-40.344371795654 -70.330238342285 -48.143413543701 2.350840330124
-29.466203689575 -67.201690673828 -50.542224884033 1.625159978867
-88.776779174805 -70.419723510742 -54.751174926758 4.229003429413
-88.447578430176 -72.828025817871 -65.499137878418 2.114755153656
78.533912658691 -74.789100646973 -66.173164367676 4.402242660522
84.949066162109 -72.159614562988 -71.993057250977 1.092093825340
-19.029476165771 -70.224830627441 -73.359931945801 2.214844465256
-87.627227783203 -72.088569641113 -71.661972045898 2.923416137695
-24.558155059814 -71.475730895996 -76.539840698242 0.746556043625
-49.048255920410 -73.162712097168 -84.781707763672 1.132216453552
66.560546875000 -68.712684631348 -85.766166687012 1.787296891212
53.354888916016 -71.406265258789 -92.764770507813 1.766718506813
100.148887634277 -70.698181152344 -90.829650878906 1.502687215805
70.096115112305 -73.928939819336 -96.040405273438 1.186277031898
-67.598922729492 -73.472961425781 -90.892913818359 3.612197875977
-61.557636260986 -70.292160034180 -97.743270874023 4.732843875885
45.468307495117 -72.826202392578 -96.927574157715 0.971387863159
78.072387695313 -71.033378601074 -99.299667358398 2.997506141663
55.137187957764 -79.373489379883 -104.440475463867 3.317218780518
101.929527282715 -72.077407836914 -95.963249206543 2.052056550980
-94.569236755371 -73.673057556152 -107.153259277344 2.191541194916
40.517711639404 -72.672195434570 -110.178558349609 0.877497136593
107.709434509277 -73.330307006836 -108.015594482422 1.569418430328
49.160827636719 -72.299827575684 -110.730720520020 1.162830352783
102.151916503906 -73.431938171387 -109.026870727539 1.299710512161
-84.803237915039 -72.170852661133 -115.180946350098 3.526112318039
36.484683990479 -75.542907714844 -111.352714538574 1.779498338699
107.297790527344 -71.414672851563 -116.077751159668 0.732504427433
105.388626098633 -69.942169189453 -115.087226867676 1.531008601189
106.192428588867 -72.853286743164 -114.375755310059 1.055571913719
111.190132141113 -71.520736694336 -113.830673217773 1.324694395065
40.570075988770 -74.070304870605 -109.645973205566 1.243717074394
32.716308593750 -70.039375305176 -116.820571899414 3.763915061951
41.587249755859 -72.038070678711 -113.608474731445 1.262198925018
107.465675354004 -73.807678222656 -121.022888183594 1.666035413742
40.787353515625 -70.855796813965 -122.715202331543 1.115659475327
109.754959106445 -71.732673645020 -131.404876708984 0.422937065363
111.627227783203 -71.311233520508 -130.291519165039 1.180724143982
34.238307952881 -70.267791748047 -120.115386962891 2.435681104660
-77.347640991211 -72.064369201660 -125.185997009277 2.588440895081
114.549423217773 -70.126632690430 -133.480575561523 1.867040157318
-53.819400787354 -72.431358337402 -137.158401489258 1.238188266754
36.146610260010 -73.252952575684 -134.196594238281 2.371650695801
-72.701263427734 -72.623062133789 -135.151824951172 3.207056999207
27.545351028442 -74.569854736328 -131.140670776367 1.568730473518
-79.020080566406 -72.831909179688 -142.539581298828 2.397400856018
-44.747001647949 -75.278213500977 -141.550231933594 0.735422849655
-73.414085388184 -72.997932434082 -137.890823364258 1.358483076096
110.801742553711 -71.729042053223 -136.281555175781 0.888937056065
117.791496276855 -70.810607910156 -140.817031860352 2.915498018265
118.691322326660 -75.641136169434 -145.576858520508 4.121048927307
-76.767799377441 -71.402702331543 -143.369506835938 1.203531861305
8.563581466675 -68.749794006348 -150.335525512695 2.183458089828
-51.478889465332 -73.016418457031 -149.005661010742 1.524956941605
-50.257984161377 -73.344581604004 -154.910293579102 1.825845837593
107.482543945313 -73.015830993652 -160.895812988281 1.874012589455
-40.896537780762 -74.189773559570 -148.838546752930 1.687251210213
14.549828529358 -70.504508972168 -157.193344116211 1.227330923080
22.886331558228 -74.180885314941 -157.055252075195 2.546702861786
115.298339843750 -72.058578491211 -163.847351074219 0.765134096146
30.361385345459 -72.103271484375 -165.182815551758 2.577008485794
-0.334426999092 -73.885589599609 -162.997268676758 0.274116605520
32.396640777588 -73.397933959961 -160.234970092773 1.239623904228
-67.240623474121 -70.815277099609 -157.344696044922 1.090742111206
-65.239181518555 -72.086662292480 -158.772598266602 1.591753840446
-68.326004028320 -71.130096435547 -165.300338745117 1.684412240982
115.294914245605 -69.373847961426 -160.664428710938 2.979333877563
-44.022804260254 -72.648773193359 -162.578536987305 0.874469637871
18.308456420898 -72.782180786133 -164.973297119141 0.945583283901
-63.397903442383 -71.462524414063 -169.266754150391 2.270452022552
-62.514835357666 -70.765571594238 -171.025115966797 3.170197248459
-40.761947631836 -73.316413879395 -159.828216552734 1.615641951561
-33.004741668701 -74.617233276367 -168.160278320313 2.663151025772
115.563064575195 -74.793182373047 -170.478576660156 2.303427457809
-36.466991424561 -68.067123413086 -179.369018554688 3.886154651642
14.300065994263 -73.636787414551 -172.591400146484 3.143369674683
111.302947998047 -75.415306091309 -183.487686157227 0.972314536572
-147.064697265625 -74.009414672852 -175.774551391602 1.401047706604
-145.358840942383 -72.079841613770 -173.283432006836 2.286550760269
-148.089431762695 -70.582580566406 -179.673538208008 3.555493354797
-141.865707397461 -73.680046081543 -182.462142944336 2.125182151794
-31.274038314819 -71.305030822754 -185.040267944336 2.187416076660
-22.519948959351 -72.712471008301 -185.234619140625 1.348695993423
23.868150711060 -69.224372863770 -190.523117065430 2.177196979523
-140.856506347656 -71.534477233887 -186.426071166992 1.957380414009
-146.696319580078 -72.636581420898 -188.261230468750 1.101282954216
-20.712169647217 -70.109176635742 -185.982772827148 1.734413146973
11.695059776306 -72.972946166992 -181.988906860352 3.157223463058
-148.757537841797 -72.283096313477 -193.966186523438 1.931077837944
-30.983219146729 -73.278327941895 -187.486923217773 1.742389082909
100.729049682617 -72.877479553223 -187.586242675781 3.071397781372
106.881111145020 -71.894332885742 -189.047760009766 1.465445280075
24.784330368042 -68.451774597168 -192.884094238281 2.222415447235
-12.903347969055 -72.844177246094 -187.982955932617 5.502522468567
-27.134906768799 -74.507270812988 -192.865859985352 1.703432440758
-154.729629516602 -73.337486267090 -198.854385375977 1.553539037704
-132.015731811523 -73.259208679199 -196.536758422852 1.384248256683
-124.573104858398 -69.754875183105 -194.733123779297 0.790939092636
-124.080947875977 -70.752876281738 -197.310775756836 1.616771578789
-21.861749649048 -68.590415954590 -195.693847656250 1.771308779716
13.286007881165 -74.634048461914 -191.881988525391 2.111805438995
93.279129028320 -76.357315063477 -200.449188232422 3.153495550156
-149.447128295898 -68.706649780273 -195.175933837891 2.076997756958
-144.448852539063 -69.890808105469 -198.467575073242 2.036028385162
-150.279602050781 -71.692039489746 -199.875106811523 2.433998823166
-154.318054199219 -70.024978637695 -197.209030151367 1.685344815254
-24.141658782959 -72.140045166016 -199.158386230469 1.526555061340
-10.099060058594 -71.187820434570 -194.910552978516 4.040118694305
-145.744720458984 -68.483787536621 -201.882965087891 3.201064348221
-17.830644607544 -71.866485595703 -200.712066650391 2.179046392441
-160.796249389648 -71.498886108398 -200.400924682617 3.091996908188
-133.732574462891 -72.053436279297 -199.106231689453 1.205574750900
16.359039306641 -74.504158020020 -206.501327514648 2.107263088226
-160.669143676758 -69.055007934570 -203.870971679688 1.090970158577
-145.491943359375 -73.636131286621 -206.204437255859 1.819600462914
8.873624801636 -70.841674804688 -202.345733642578 2.477750301361
-153.494628906250 -69.711708068848 -202.415008544922 1.061793565750
-23.953182220459 -72.025238037109 -201.396972656250 2.134897470474
98.012145996094 -73.516822814941 -198.674179077148 0.672907352448
-157.825851440430 -73.119262695313 -212.230056762695 0.972506880760
-163.870651245117 -75.147132873535 -207.422988891602 3.821243047714
-76.231704711914 -70.461296081543 -207.977279663086 3.218094110489
89.933288574219 -72.238868713379 -208.433563232422 1.960186600685
-3.173252105713 -71.522102355957 -217.971282958984 1.293978691101
