32.932445526123 -73.135299682617 -151.419982910156 2.353022098541
-68.577262878418 -74.252334594727 -147.884017944336 0.879958570004
113.535774230957 -70.890235900879 -141.644012451172 1.903256654739
111.381767272949 -70.350585937500 -157.887512207031 1.517509579659
115.870079040527 -73.142372131348 -153.251724243164 1.265474319458
-38.825866699219 -75.461700439453 -153.131164550781 1.958315014839
-65.193862915039 -73.430534362793 -164.394271850586 2.090109348297
-69.662796020508 -70.245674133301 -157.285614013672 2.852604150772
29.722627639771 -73.515571594238 -146.552841186523 3.360146999359
-2.525944948196 -74.844215393066 -162.193710327148 1.151598811150
108.704299926758 -71.797050476074 -161.914413452148 1.450115084648
111.365043640137 -70.383399963379 -153.344299316406 1.647089958191
111.836128234863 -74.327766418457 -158.641601562500 2.188743114471
-64.197990417480 -70.646163940430 -160.179611206055 1.773123025894
-45.766666412354 -75.157119750977 -165.279647827148 0.986656844616
-2.764148950577 -72.200561523438 -165.199325561523 2.457190990448
-29.687721252441 -73.496284484863 -174.996520996094 2.864498615265
105.535522460938 -71.451400756836 -167.523284912109 2.477084398270
-34.766555786133 -76.023063659668 -160.095535278320 0.713512301445
108.972061157227 -70.791954040527 -168.667907714844 1.069800376892
-42.204929351807 -73.873680114746 -173.692611694336 1.025818824768
108.202239990234 -70.175949096680 -168.945907592773 0.761155962944
-151.911468505859 -75.101394653320 -179.935699462891 3.085278987885
-27.391323089600 -69.611968994141 -176.923889160156 1.442436456680
-20.741729736328 -73.410758972168 -183.439407348633 1.563387274742
24.476230621338 -75.926422119141 -177.227157592773 1.788340568542
14.618353843689 -72.748939514160 -183.302505493164 1.685866355896
27.205087661743 -73.388565063477 -183.193801879883 0.796493291855
103.860740661621 -76.267158508301 -183.919387817383 1.647747039795
-152.281784057617 -71.385375976563 -184.833145141602 1.086972594261
-20.147489547729 -75.546958923340 -184.901153564453 1.718530297279
101.769699096680 -73.311767578125 -178.830886840820 3.995851993561
102.710975646973 -69.528648376465 -189.986007690430 2.398588418961
107.771759033203 -73.504684448242 -178.043701171875 0.924304723740
98.620590209961 -74.352943420410 -193.953140258789 1.092560052872
-151.788925170898 -74.823127746582 -196.417434692383 2.729445219040
99.549942016602 -73.634140014648 -205.723876953125 2.265831947327
-28.722036361694 -71.435852050781 -197.261657714844 2.699514627457
97.065452575684 -72.460594177246 -196.022445678711 1.000442624092
-121.850028991699 -77.245208740234 -200.002456665039 3.654347896576
-30.200891494751 -77.842010498047 -190.117813110352 2.137128591537
-142.447830200195 -70.305961608887 -198.275253295898 1.953042030334
94.856132507324 -72.871070861816 -198.841781616211 1.343446016312
8.158760070801 -74.058403015137 -199.170989990234 2.712301492691
23.381208419800 -71.867156982422 -192.724166870117 1.566465735435
-148.601333618164 -74.730506896973 -202.813385009766 2.816613674164
-139.456329345703 -73.502204895020 -201.987258911133 1.820951700211
-10.563245773315 -73.151443481445 -206.799880981445 1.777409076691
-124.900558471680 -73.990562438965 -203.704284667969 1.521989941597
-144.384826660156 -76.597389221191 -199.589218139648 2.007080554962
3.450285911560 -73.612266540527 -199.682281494141 5.449687004089
-24.731687545776 -75.675514221191 -201.117660522461 1.190588116646
20.188741683960 -76.041145324707 -202.384185791016 1.286326885223
6.112463951111 -74.784591674805 -211.901336669922 1.787423372269
84.898597717285 -70.549690246582 -208.802108764648 4.249763965607
-18.950275421143 -71.150764465332 -212.029586791992 1.434919357300
90.787239074707 -70.772026062012 -209.206695556641 1.105246067047
96.555091857910 -74.666114807129 -207.200820922852 2.013125896454
-149.492187500000 -75.459831237793 -214.433914184570 1.169820666313
94.980819702148 -74.592842102051 -211.766143798828 1.611910462379
4.466304779053 -72.543258666992 -207.409835815430 2.735091686249
3.060806989670 -75.643501281738 -214.468246459961 3.629489660263
-33.501289367676 -73.277969360352 -207.028137207031 1.689188838005
-89.972206115723 -73.490943908691 -213.109695434570 0.965337634087
-26.757045745850 -75.060150146484 -210.874023437500 1.173237204552
84.579444885254 -72.313171386719 -217.104644775391 2.489474058151
88.737220764160 -72.118530273438 -217.223495483398 1.054507732391
-32.390483856201 -72.942794799805 -212.285263061523 1.473845958710
-84.973472595215 -71.180206298828 -218.426254272461 2.681226730347
-1.587630033493 -75.601997375488 -218.751892089844 2.098087549210
81.472229003906 -69.576332092285 -213.396743774414 4.381227493286
-152.464431762695 -78.221328735352 -221.749099731445 3.263549327850
-166.377716064453 -72.944664001465 -214.267730712891 3.016504287720
-162.531539916992 -77.007583618164 -222.166992187500 4.737989902496
-21.966764450073 -74.725669860840 -226.900207519531 2.175939083099
-154.445846557617 -77.391571044922 -222.663772583008 3.201354742050
-6.290475845337 -74.850555419922 -224.516540527344 2.102694749832
6.015236854553 -74.574432373047 -218.451400756836 2.371322631836
-167.733932495117 -74.510177612305 -225.503173828125 2.375805854797
-159.381759643555 -74.970115661621 -227.346679687500 2.158397436142
78.722213745117 -76.352287292480 -231.524322509766 0.668944716454
-0.311114013195 -72.567138671875 -226.731826782227 1.315377950668
-158.151382446289 -70.017929077148 -226.208053588867 2.726392745972
-143.055099487305 -76.042205810547 -224.340469360352 1.033097028732
-19.765228271484 -72.831062316895 -223.986755371094 2.129371166229
-0.922711014748 -77.781593322754 -222.456695556641 2.148625373840
79.484390258789 -70.779396057129 -225.795623779297 0.916542530060
-161.853652954102 -73.001121520996 -227.888153076172 0.719167053699
-144.591720581055 -72.306953430176 -230.904449462891 2.742316722870
-125.701698303223 -72.874603271484 -230.948654174805 2.813576221466
78.247764587402 -74.568840026855 -226.783248901367 1.392041921616
-116.204429626465 -74.272544860840 -229.196395874023 1.222952485085
-146.980010986328 -74.483871459961 -229.298812866211 1.298992872238
-151.096572875977 -73.287170410156 -231.453216552734 2.343692064285
-149.589385986328 -75.322303771973 -231.337722778320 1.350377321243
-156.395523071289 -75.116294860840 -229.103149414063 3.538399696350
-165.648330688477 -75.099380493164 -229.022216796875 3.073133230209
-134.279159545898 -74.707595825195 -235.366622924805 1.984445810318
-133.839218139648 -75.651809692383 -233.149307250977 2.130705356598
-153.729629516602 -78.247161865234 -232.855758666992 1.347140312195
-145.985122680664 -71.200935363770 -236.917236328125 3.204443454742
-152.183135986328 -75.132324218750 -235.335342407227 1.358503341675
74.406097412109 -75.237068176270 -232.520080566406 1.620589971542
66.780014038086 -68.620941162109 -236.173446655273 1.627838969231
-157.581787109375 -73.290397644043 -235.428665161133 1.912970900536
71.183609008789 -68.966835021973 -233.461456298828 1.886665701866
-20.318532943726 -72.517250061035 -236.745635986328 2.168845891953
10.901874542236 -74.920074462891 -237.155639648438 1.011919617653
6.415421009064 -74.509071350098 -236.092437744141 2.415816545486
-155.055099487305 -74.894317626953 -242.690261840820 4.170255184174
14.063368797302 -73.183410644531 -241.201034545898 1.904329180717
60.434764862061 -72.212196350098 -238.117645263672 1.811373353004
12.879318237305 -71.296142578125 -238.076385498047 1.182032227516
4.844836235046 -74.260826110840 -241.653396606445 1.448025822639
-7.041123867035 -71.817497253418 -240.473007202148 0.358532458544
-21.676332473755 -72.578796386719 -242.950500488281 1.822872400284
-2.240150928497 -73.769371032715 -242.062408447266 1.425278186798
3.327903985977 -76.484375000000 -245.047927856445 1.776950597763
56.918987274170 -74.449554443359 -241.683441162109 1.123977303505
-55.943103790283 -77.533973693848 -244.786422729492 1.018711566925
19.068405151367 -72.740455627441 -247.471435546875 0.478569120169
-60.075256347656 -75.148078918457 -241.876831054688 2.691558837891
-10.401473999023 -74.139472961426 -247.990386962891 1.217126250267
-66.656478881836 -71.051757812500 -250.427062988281 1.533969521523
-86.616096496582 -72.970062255859 -253.250244140625 1.434128284454
-83.163726806641 -75.425437927246 -252.205993652344 1.806735515594
-10.401871681213 -73.422904968262 -254.910522460938 2.083779573441
-124.455284118652 -74.682777404785 -259.134948730469 2.100018739700
-14.655677795410 -74.939651489258 -253.080764770508 2.412584781647
-117.563835144043 -74.798805236816 -255.794494628906 0.870690584183
-117.087448120117 -73.516006469727 -258.748443603516 1.668863296509
-104.135223388672 -74.521118164063 -256.637481689453 1.865753889084
-144.482543945313 -74.098869323730 -261.937805175781 2.053586006165
-145.632095336914 -74.595863342285 -267.332733154297 1.486713647842
-169.264938354492 -75.274162292480 -263.686248779297 2.847328662872
18.788822174072 -77.610588073730 -280.350708007813 2.884792327881
-58.690811157227 -72.913894653320 -285.532257080078 2.105816841125
-67.873466491699 -73.814506530762 -283.829742431641 2.448304653168
-42.765041351318 -76.341117858887 -283.970947265625 2.632748365402
-28.681297302246 -75.520149230957 -286.585235595703 1.167638659477
-96.963844299316 -76.947868347168 -289.304534912109 2.406114578247
-31.497337341309 -72.689941406250 -285.872772216797 1.438019871712
-4.754669189453 -74.445671081543 -286.310882568359 1.018029093742
-168.048065185547 -75.602699279785 -289.397430419922 3.998619556427
-16.505458831787 -76.552101135254 -285.983337402344 2.528213024139
5.712816238403 -75.535560607910 -288.060943603516 1.150907039642
13.513450622559 -78.567092895508 -283.679931640625 2.077651262283
-57.609882354736 -77.078323364258 -287.702239990234 1.005577564240
-33.895000457764 -75.114028930664 -291.596557617188 2.747096538544
13.512086868286 -72.521247863770 -293.242584228516 1.184758901596
-71.612136840820 -73.598014831543 -293.059112548828 2.296174764633
-40.954071044922 -72.205825805664 -289.311492919922 0.461190521717
-18.557149887085 -72.579864501953 -290.152038574219 1.583729147911
14.387746810913 -76.548812866211 -291.124176025391 0.882589161396
-12.241372108459 -76.212326049805 -294.321228027344 2.490656852722
3.247484922409 -73.299934387207 -293.957092285156 1.186973333359
13.590048789978 -76.286918640137 -290.700073242188 1.603735446930
-135.604003906250 -74.436302185059 -294.444824218750 1.715281486511
-145.655349731445 -77.862533569336 -299.189392089844 1.738909959793
-151.740417480469 -76.200790405273 -313.276611328125 2.537396669388
42.956848144531 -69.149581909180 -13.912232398987 1.895603299141
30.063791275024 -69.641448974609 -12.000719070435 0.692958235741
39.212642669678 -69.899215698242 -15.598557472229 2.411260128021
21.876619338989 -66.822174072266 -18.945573806763 2.246854543686
44.849853515625 -67.825416564941 -22.598600387573 3.010227441788
25.439390182495 -68.205787658691 -24.177110671997 2.650019168854
23.659875869751 -70.333969116211 -27.666801452637 1.396490931511
24.683319091797 -71.032333374023 -38.438972473145 0.281691193581
39.453407287598 -72.035301208496 -30.949024200439 2.902154922485
26.198385238647 -73.612030029297 -36.443584442139 2.835601568222
42.933219909668 -68.798103332520 -37.872997283936 2.213901758194
31.734445571899 -70.696945190430 -39.584659576416 1.386064171791
38.663967132568 -71.413055419922 -36.092395782471 1.781047821045
30.810106277466 -69.338294982910 -40.138893127441 0.472438782454
43.463813781738 -70.084342956543 -41.359012603760 2.299418926239
33.581924438477 -69.659736633301 -39.176719665527 0.776089072227
-41.145023345947 -69.076400756836 -48.391059875488 1.589069724083
-30.303991317749 -65.867630004883 -50.851242065430 2.442295312881
-89.594360351563 -69.676528930664 -54.846378326416 4.305405616760
-89.275321960449 -72.176269531250 -65.573753356934 2.565140485764
77.714424133301 -72.583282470703 -66.752395629883 2.600988864899
84.086921691895 -69.945365905762 -72.615180969238 3.467285871506
-19.908880233765 -68.994094848633 -73.674026489258 2.124563455582
-88.480682373047 -71.483512878418 -71.745376586914 2.517659187317
-25.435249328613 -70.324554443359 -76.825531005859 2.221019029617
-49.933441162109 -72.312797546387 -84.975685119629 0.377050310373
65.625083923340 -66.791862487793 -86.360496520996 1.493751168251
52.424003601074 -69.670249938965 -93.293869018555 1.919984936714
99.214996337891 -68.508056640625 -91.511299133301 2.881571531296
69.178092956543 -72.065193176270 -96.599525451660 2.080080509186
-68.498901367188 -72.850158691406 -91.025924682617 4.373270034790
-62.508552551270 -69.673545837402 -97.922805786133 3.623547554016
44.538436889648 -71.200424194336 -97.419372558594 1.653053760529
77.116928100586 -69.124092102051 -99.909004211426 3.318571805954
54.245326995850 -77.723060607910 -104.904663085938 2.584887027740
100.992851257324 -69.915771484375 -96.638122558594 2.272864580154
-95.515518188477 -73.445465087891 -107.199516296387 1.921672224998
39.546314239502 -71.209449768066 -110.655662536621 1.591188192368
106.747535705566 -71.220779418945 -108.697013854980 1.601365208626
48.183845520020 -70.761230468750 -111.238082885742 2.454599142075
101.188163757324 -71.383224487305 -109.689987182617 1.957408785820
-85.788497924805 -71.922889709473 -115.270568847656 3.239519357681
35.536804199219 -74.127944946289 -111.791954040527 1.836667060852
106.293434143066 -69.380187988281 -116.774360656738 2.409661054611
104.373580932617 -67.916915893555 -115.790847778320 2.627420425415
105.206779479980 -70.814018249512 -115.056343078613 1.994274735451
110.193420410156 -69.430084228516 -114.538612365723 1.740518569946
39.613399505615 -72.602256774902 -110.110984802246 0.956809461117
31.700412750244 -68.708244323730 -117.296134948730 4.672737598419
40.599422454834 -70.595603942871 -114.094345092773 0.952317595482
106.468681335449 -71.815002441406 -121.698783874512 1.675163745880
39.760780334473 -69.501144409180 -123.208557128906 1.779381871223
108.706825256348 -69.810272216797 -132.105697631836 1.161689996719
110.578437805176 -69.361572265625 -131.001937866211 0.915632843971
33.214450836182 -68.951454162598 -120.593559265137 1.342921853065
-78.364692687988 -71.834930419922 -125.299423217773 2.508916854858
113.479690551758 -68.177864074707 -134.210403442383 1.677268028259
-54.870590209961 -72.087600708008 -137.341629028320 1.808458566666
35.107780456543 -72.042625427246 -134.653900146484 1.551127672195
-73.743637084961 -72.437995910645 -135.274444580078 3.021810770035
26.528573989868 -73.412841796875 -131.559661865234 2.927803754807
-80.082679748535 -72.770950317383 -142.640289306641 3.277669429779
-45.785324096680 -74.888175964355 -141.736602783203 1.141556859016
-74.461250305176 -72.843627929688 -138.007797241211 1.338537454605
109.738685607910 -69.839836120605 -136.985473632813 1.840602755547
116.705696105957 -68.896148681641 -141.550674438477 3.487731456757
117.636245727539 -73.759811401367 -146.270660400391 2.275935888290
-77.846420288086 -71.328132629395 -143.489761352539 1.428033947945
7.434785842896 -67.939720153809 -150.745468139648 3.370172739029
-52.560764312744 -72.755149841309 -149.190536499023 1.142657160759
-51.354808807373 -73.123908996582 -155.095855712891 2.393536806107
106.356796264648 -71.374420166016 -161.576980590820 2.604160547256
-41.967422485352 -73.828079223633 -149.046203613281 1.207388639450
13.416315078735 -69.698799133301 -157.606292724609 1.087920904160
21.787277221680 -73.295783996582 -157.461959838867 1.554673552513
114.154266357422 -70.370239257813 -164.561233520508 1.875923633575
29.217771530151 -71.220130920410 -165.630798339844 2.516614437103
-1.453207969666 -73.269783020020 -163.333755493164 1.087979674339
31.280115127563 -72.452072143555 -160.678146362305 1.732892751694
-68.367729187012 -70.774909973145 -157.499298095703 1.878437757492
-66.358818054199 -72.040077209473 -158.922210693359 2.177518367767
-69.474327087402 -71.169944763184 -165.448440551758 2.494661331177
114.135375976563 -67.657722473145 -161.402008056641 3.242440462112
-45.149784088135 -72.437492370605 -162.789367675781 1.421537160873
17.172422409058 -72.009727478027 -165.377655029297 1.078191518784
-64.555412292480 -71.491264343262 -169.427154541016 2.147879362106
-63.684268951416 -70.801620483398 -171.194320678711 2.860753536224
-41.874462127686 -73.050376892090 -160.043487548828 2.670489788055
-34.130798339844 -74.352050781250 -168.388000488281 2.649466037750
114.424415588379 -73.160583496094 -171.168975830078 1.965057730675
-37.688358306885 -67.933593750000 -179.642974853516 4.282948493958
13.149051666260 -72.968841552734 -172.975387573242 4.395841121674
110.130744934082 -73.937088012695 -184.158737182617 0.898595392704
-148.214096069336 -74.876853942871 -175.650817871094 1.675192236900
-146.518829345703 -72.909553527832 -173.182083129883 2.685252428055
-149.282760620117 -71.494232177734 -179.576538085938 2.560422658920
-143.038803100586 -74.557876586914 -182.357254028320 1.448978304863
-32.482578277588 -71.172698974609 -185.301757812500 1.045491576195
-23.716316223145 -72.499954223633 -185.511108398438 0.832467198372
22.620769500732 -68.625419616699 -190.974975585938 2.817446470261
-142.061813354492 -72.437980651855 -186.343017578125 1.081184267998
-147.896606445313 -73.610725402832 -188.150161743164 0.539249300957
-21.935291290283 -69.886589050293 -186.287734985352 1.492073178291
10.509355545044 -72.412193298340 -182.370178222656 4.143341541290
-149.978393554688 -73.326797485352 -193.851531982422 1.500336647034
-32.180728912354 -73.164672851563 -187.731887817383 2.292197465897
99.521118164063 -71.534362792969 -188.246368408203 3.278244733810
105.659217834473 -70.506706237793 -189.735687255859 0.950608134270
23.522481918335 -67.865135192871 -193.345504760742 2.411469697952
-14.107309341431 -72.566040039063 -188.288223266602 4.871537685394
-28.337459564209 -74.404968261719 -193.111831665039 1.783821702003
-155.955184936523 -74.479957580566 -198.711593627930 2.267677307129
-133.236068725586 -74.169082641602 -196.465744018555 1.635015130043
-125.821144104004 -70.579620361328 -194.716232299805 1.786919474602
-125.327507019043 -71.595657348633 -197.286544799805 2.872698545456
-23.128593444824 -68.464256286621 -196.008132934570 0.984554946423
12.085683822632 -74.145477294922 -192.253219604492 1.207152247429
92.065010070801 -75.196846008301 -201.054916381836 3.273687362671
-150.705139160156 -69.767745971680 -195.090484619141 1.028611302376
-145.706024169922 -70.934120178223 -198.387207031250 1.086532235146
-151.523895263672 -72.802070617676 -199.760635375977 1.705282688141
-155.569671630859 -71.149375915527 -197.096694946289 1.873469352722
-25.385681152344 -72.065422058105 -199.434219360352 1.780054092407
-11.339756011963 -70.944664001465 -195.238830566406 2.774550914764
-147.025405883789 -69.569412231445 -201.810760498047 2.024658203125
-19.082262039185 -71.746620178223 -201.009963989258 2.673734426498
-162.043457031250 -72.711807250977 -200.255264282227 1.690516114235
-134.971954345703 -73.002098083496 -199.040328979492 1.405634164810
15.112861633301 -74.115715026855 -206.882659912109 3.189555883408
-161.949813842773 -70.297523498535 -203.747009277344 1.434692263603
-146.737533569336 -74.757057189941 -206.087570190430 1.971644163132
7.606142997742 -70.486839294434 -202.736022949219 2.556970834732
-154.765060424805 -70.874320983887 -202.307769775391 2.624727964401
-25.205102920532 -71.968589782715 -201.674316406250 2.312196254730
96.776588439941 -72.296730041504 -199.319732666016 2.297703504562
-159.094009399414 -74.408538818359 -212.078933715820 2.559273958206
-165.104888916016 -76.450355529785 -207.235366821289 4.579142093658
-77.515769958496 -70.951118469238 -208.104690551758 3.044997692108
88.656448364258 -71.180351257324 -209.064651489258 2.335493803024
-4.481326103210 -71.417434692383 -218.317260742188 2.333666324615
-155.184646606445 -72.321144104004 -212.533920288086 2.683604001999
-88.250717163086 -73.117034912109 -213.222732543945 1.591317772865
-9.932194709778 -75.074562072754 -211.157363891602 2.547047138214
14.919502258301 -72.270622253418 -219.851135253906 1.583619952202
-145.581314086914 -74.146293640137 -219.709197998047 1.943555712700
-4.223515987396 -76.425170898438 -220.750701904297 0.838919281960
-20.030935287476 -73.652786254883 -218.110031127930 1.413322687149
-15.316177368164 -69.619583129883 -220.398056030273 1.591521024704
89.597267150879 -71.981613159180 -219.179702758789 0.890101075172
-21.410114288330 -71.418800354004 -216.733291625977 1.724348664284
-32.402248382568 -72.190086364746 -217.021362304688 2.112125396729
-108.293754577637 -69.121109008789 -224.581680297852 2.266723632813
-16.817804336548 -71.143783569336 -223.165939331055 1.201791524887
91.754554748535 -70.004539489746 -219.114273071289 0.854253888130
76.847427368164 -72.860374450684 -220.545516967773 3.726817369461
6.547910213470 -73.702827453613 -219.276901245117 2.505578517914
-11.874705314636 -70.632537841797 -225.376556396484 2.042096853256
77.974754333496 -72.656089782715 -222.124694824219 2.123524665833
-123.039451599121 -76.505043029785 -224.871932983398 3.002487182617
-20.721115112305 -70.882469177246 -223.164611816406 2.908305883408
-97.832611083984 -72.552696228027 -223.428695678711 1.304964661598
-103.191841125488 -73.309669494629 -223.958221435547 1.571633219719
-132.254760742188 -75.391181945801 -228.390106201172 1.895538568497
80.653587341309 -72.191001892090 -223.767486572266 2.290743589401
-123.878936767578 -73.961860656738 -227.034515380859 1.570878624916
4.041045188904 -72.071922302246 -228.781494140625 2.232629299164
80.553901672363 -70.749740600586 -224.601333618164 1.617728710175
-16.405572891235 -73.829071044922 -230.499618530273 1.714902758598
-14.221413612366 -73.480529785156 -227.394439697266 0.625438451767
-2.512382984161 -77.604614257813 -229.840057373047 1.674711108208
9.622241973877 -74.418991088867 -227.417877197266 2.672161340714
88.227592468262 -73.313117980957 -226.634811401367 3.638908147812
9.264009475708 -71.226676940918 -231.470169067383 1.878200531006
4.868700027466 -72.381065368652 -229.478179931641 1.428022146225
-9.696666717529 -73.333053588867 -231.245834350586 1.367315888405
-7.427393913269 -73.588760375977 -230.131484985352 2.171648263931
18.048538208008 -71.446105957031 -232.826049804688 1.443235635757
-13.167300224304 -70.445060729980 -233.276077270508 2.074367046356
70.339172363281 -72.941535949707 -239.930603027344 1.820470571518
-9.839314460754 -71.438652038574 -238.866302490234 2.115377902985
18.328714370728 -73.684844970703 -235.805480957031 1.370480775833
-163.602264404297 -72.540885925293 -240.120193481445 2.615233182907
-6.288208961487 -70.781082153320 -237.146087646484 2.015356540680
-8.794418334961 -73.684974670410 -240.220321655273 1.259737610817
-168.414291381836 -74.551803588867 -250.424819946289 2.171732902527
-11.574372291565 -71.443832397461 -244.464462280273 1.184779405594
14.828313827515 -70.323081970215 -245.628372192383 2.274209976196
-148.387878417969 -75.766891479492 -251.474166870117 2.522523164749
-74.039054870605 -72.825851440430 -250.294128417969 1.614259481430
-62.370552062988 -74.143714904785 -246.914428710938 1.759915828705
51.582233428955 -70.507934570313 -247.009201049805 2.002056121826
-75.432426452637 -72.975242614746 -246.696304321289 0.977010309696
16.133375167847 -73.529266357422 -249.602981567383 3.413322448730
-73.853233337402 -73.800483703613 -251.173629760742 1.476562142372
-16.118972778320 -71.422676086426 -245.984909057617 3.675870180130
-146.264343261719 -76.525459289551 -252.388229370117 0.908462405205
45.827518463135 -69.506530761719 -250.201202392578 1.612111806870
-80.821830749512 -75.654418945313 -255.540954589844 1.540467023849
-103.577941894531 -70.826866149902 -254.853973388672 0.768244087696
-100.137428283691 -75.187667846680 -254.363433837891 2.225025177002
-120.707138061523 -71.864074707031 -252.789062500000 3.741595268250
-106.671951293945 -71.337188720703 -256.956573486328 1.727578163147
-106.663421630859 -73.421211242676 -257.907653808594 1.395534634590
20.749101638794 -70.560073852539 -258.686065673828 3.915642499924
-130.239440917969 -71.673873901367 -264.832000732422 0.960562705994
-14.751199722290 -74.276237487793 -275.579437255859 2.875860452652
-148.671539306641 -71.947212219238 -283.018157958984 2.241872549057
-169.709106445313 -76.085639953613 -285.125366210938 1.796309828758
-125.965461730957 -75.146690368652 -283.836853027344 1.280501008034
-115.251670837402 -71.189933776855 -286.658569335938 0.654156148434
-76.654937744141 -69.811164855957 -284.437683105469 2.580511331558
-58.583377838135 -74.394706726074 -286.597381591797 2.957126617432
-42.996189117432 -72.621238708496 -286.043701171875 2.373706579208
-16.438711166382 -76.481605529785 -289.792480468750 1.745503187180
-14.964308738708 -71.228042602539 -291.808074951172 1.140341877937
-39.522064208984 -75.501449584961 -290.131958007813 1.461799502373
-35.536327362061 -73.428627014160 -288.766510009766 2.134362459183
-20.175140380859 -70.572265625000 -288.831970214844 3.044531822205
-73.011146545410 -72.946311950684 -292.908203125000 2.796022653580
-56.739913940430 -73.115585327148 -291.011718750000 0.652598202229
-18.865011215210 -70.180023193359 -291.582336425781 2.836264848709
-14.920069694519 -75.018119812012 -289.739410400391 2.506488561630
-4.929594039917 -72.665893554688 -292.469177246094 3.227402448654
1.234799981117 -70.206275939941 -292.345703125000 0.742982268333
-93.383964538574 -74.142395019531 -292.787841796875 1.336115837097
-141.008209228516 -76.017333984375 -294.678253173828 3.325177192688
-117.544593811035 -75.141372680664 -292.390441894531 1.474290013313
-154.831680297852 -73.349624633789 -294.602905273438 0.802247822285
-153.254089355469 -75.219741821289 -299.171020507813 2.106622695923
-148.038864135742 -72.966178894043 -299.740600585938 1.914869070053
44.307220458984 -66.491477966309 -21.267845153809 2.829630613327
19.757888793945 -71.557342529297 -23.385740280151 2.144092798233
49.326427459717 -65.993881225586 -25.108873367310 3.974386692047
46.897117614746 -69.676376342773 -35.066631317139 0.432981193066
87.271064758301 -68.818672180176 -70.266609191895 3.443884611130
95.236991882324 -70.599830627441 -73.989967346191 2.419384717941
100.850135803223 -68.589027404785 -78.238197326660 2.091407060623
97.924766540527 -69.609100341797 -83.570716857910 2.176048994064
56.300956726074 -70.422210693359 -89.419784545898 1.941201329231
45.184360504150 -74.623825073242 -91.118606567383 4.202488899231
62.894592285156 -68.381927490234 -90.839691162109 0.212624117732
-65.661712646484 -67.985519409180 -93.048835754395 2.082213401794
70.402236938477 -68.806121826172 -87.897018432617 3.317203521729
100.357017517090 -63.232051849365 -99.129898071289 1.069609045982
74.093482971191 -70.237426757813 -101.181846618652 1.346076607704
93.838943481445 -68.349403381348 -102.699493408203 1.512457847595
-85.020927429199 -71.568878173828 -103.298950195313 3.966539621353
44.691154479980 -68.691383361816 -98.186187744141 1.959815502167
-86.944526672363 -71.987487792969 -102.107460021973 5.619099140167
50.689804077148 -71.154602050781 -110.398750305176 1.754261851311
37.342754364014 -74.806785583496 -103.592285156250 3.773242235184
101.680633544922 -68.417541503906 -103.442146301270 2.245807647705
36.710796356201 -69.596885681152 -106.013275146484 2.961101293564
42.079692840576 -70.993537902832 -118.606605529785 1.951825857162
42.235664367676 -69.668899536133 -113.125053405762 1.204915285110
109.572776794434 -68.120018005371 -112.582664489746 2.322273969650
-81.836914062500 -74.758972167969 -121.358078002930 4.312144279480
111.701416015625 -72.627983093262 -124.147483825684 1.450918674469
39.433277130127 -66.664176940918 -124.879669189453 4.343730449677
39.985054016113 -69.273315429688 -120.324539184570 1.588423848152
34.442966461182 -70.425437927246 -120.950378417969 2.185782194138
-56.311203002930 -74.837814331055 -129.440307617188 2.525605201721
29.598531723022 -69.232444763184 -123.549736022949 2.255560874939
-78.058937072754 -69.447448730469 -137.741882324219 1.483784675598
-55.953659057617 -74.032592773438 -132.503646850586 1.821966409683
-80.169830322266 -69.045028686523 -134.811874389648 2.332672119141
34.934253692627 -68.349822998047 -130.864028930664 1.216277718544
-60.262126922607 -71.954170227051 -133.535552978516 2.358153104782
34.493869781494 -69.488372802734 -133.484329223633 1.871696472168
-72.674827575684 -69.287780761719 -139.574905395508 1.540147542953
-59.957664489746 -68.678932189941 -140.737625122070 1.194079518318
25.000591278076 -71.107330322266 -142.718780517578 2.503894805908
110.224540710449 -72.300765991211 -143.337936401367 1.897895097733
114.563941955566 -65.853576660156 -137.465545654297 3.066659688950
30.022743225098 -70.357490539551 -141.616622924805 0.939642786980
-48.888149261475 -72.191413879395 -140.174972534180 1.248098731041
106.043861389160 -67.886909484863 -152.518661499023 4.105594635010
-76.290771484375 -70.981475830078 -143.007202148438 1.410937547684
-59.352451324463 -71.028289794922 -142.274734497070 1.418244242668
30.827892303467 -66.610443115234 -147.618164062500 2.299882173538
-78.286079406738 -72.443618774414 -146.083251953125 2.531710386276
-71.406402587891 -71.108200073242 -150.208526611328 1.020446896553
114.182464599609 -73.327415466309 -149.816757202148 0.755109786987
-65.452255249023 -70.571723937988 -155.084030151367 1.984843492508
-40.152374267578 -68.391448974609 -152.284988403320 3.036765336990
24.932558059692 -68.907257080078 -146.126739501953 3.211966991425
-73.961959838867 -71.545776367188 -145.987304687500 1.398775100708
11.611510276794 -70.115875244141 -149.881881713867 1.055680155754
31.036647796631 -69.933403015137 -157.092636108398 1.101964712143
30.186800003052 -68.205116271973 -150.410079956055 2.132797479630
14.455926895142 -74.759315490723 -154.207870483398 3.032565832138
-50.704105377197 -72.469123840332 -153.229461669922 1.568033814430
23.969352722168 -71.775024414063 -153.284835815430 0.515021562576
-47.010047912598 -70.122123718262 -150.199096679688 1.815643906593
3.908425092697 -70.853050231934 -154.162109375000 3.082874536514
19.648710250854 -69.700592041016 -150.115234375000 2.187585592270
-69.750358581543 -70.601455688477 -157.388778686523 2.999384403229
-47.513977050781 -68.277481079102 -154.161499023438 2.947815656662
-69.031463623047 -70.685142517090 -153.743270874023 0.515515565872
17.267204284668 -69.455909729004 -158.633239746094 2.654581785202
23.389015197754 -69.622245788574 -150.258834838867 1.422246932983
1.633648037910 -70.797615051270 -164.633102416992 1.913572788239
20.480035781860 -70.309684753418 -153.729660034180 2.244732618332
29.836141586304 -70.296035766602 -167.341308593750 2.639973402023
-48.216667175293 -72.411323547363 -163.218704223633 1.006424546242
-37.666858673096 -77.009292602539 -163.179504394531 2.030008316040
-41.752178192139 -71.794059753418 -160.850448608398 1.749039173126
26.937589645386 -70.794837951660 -158.850738525391 1.950899243355
-45.237281799316 -69.533592224121 -166.832550048828 3.800065517426
-40.739879608154 -69.680458068848 -166.433410644531 2.214482545853
20.404045104980 -69.346710205078 -165.933746337891 2.532531976700
-40.848152160645 -71.732994079590 -175.220916748047 2.585227489471
26.924604415894 -67.254806518555 -170.315078735352 2.510504722595
110.713027954102 -66.876579284668 -165.303634643555 1.757104039192
-34.517154693604 -71.027725219727 -172.052993774414 1.595723271370
101.750625610352 -67.801605224609 -173.612899780273 5.658482074738
-35.597320556641 -70.809181213379 -177.450866699219 1.006800770760
-38.427314758301 -74.093040466309 -181.397308349609 2.901683330536
20.161611557007 -73.451522827148 -177.126831054688 2.288938522339
104.792091369629 -70.475448608398 -182.342697143555 1.665600419044
-32.553272247314 -69.710906982422 -182.958618164063 1.157320022583
-36.216423034668 -70.650878906250 -177.537521362305 0.926544129848
-24.236841201782 -74.559761047363 -186.833282470703 0.871377706528
-150.110260009766 -72.854362487793 -188.668807983398 1.510544538498
11.886966705322 -70.615119934082 -183.499282836914 2.882068395615
103.899795532227 -68.876678466797 -191.468688964844 3.349855661392
-160.055252075195 -72.031135559082 -192.810607910156 3.143183708191
-24.081193923950 -68.304367065430 -189.617538452148 1.189170837402
-116.724609375000 -73.707992553711 -197.167236328125 1.723860263824
-131.886978149414 -73.586196899414 -195.369812011719 1.482706785202
-108.989685058594 -72.577957153320 -199.654205322266 2.800886869431
-114.770736694336 -71.340141296387 -200.087310791016 2.316009283066
-13.415678977966 -72.011207580566 -196.426895141602 1.367392778397
19.003599166870 -69.796669006348 -196.279174804688 0.423612207174
-16.949943542480 -67.746467590332 -202.000869750977 2.646426200867
-127.845405578613 -72.322319030762 -205.380889892578 3.230760812759
-21.988126754761 -67.800437927246 -203.115173339844 2.413206815720
-130.483642578125 -71.178504943848 -202.758987426758 1.429537534714
-16.514102935791 -71.403526306152 -200.329238891602 1.419535756111
-147.202697753906 -71.281105041504 -202.612167358398 1.439921736717
90.679496765137 -66.789665222168 -206.829772949219 4.596112728119
-165.675994873047 -67.893348693848 -201.289688110352 1.561325311661
-3.870558023453 -72.995895385742 -217.934249877930 1.340129733086
10.368927955627 -72.290748596191 -210.006546020508 1.334309697151
9.223793029785 -73.334190368652 -217.120864868164 1.762109279633
81.540992736816 -70.586174011230 -216.998580932617 0.653059899807
7.420401096344 -72.185791015625 -213.178451538086 1.436423778534
11.509265899658 -70.319297790527 -214.910232543945 1.392708539963
-16.914327621460 -74.634429931641 -215.935623168945 1.782676696777
-91.568450927734 -72.427276611328 -214.366912841797 0.700965225697
-99.104492187500 -72.248352050781 -216.489578247070 1.092854380608
-1.109743952751 -70.319091796875 -219.264648437500 0.783697128296
-167.567214965820 -74.603591918945 -221.698379516602 3.751130580902
14.019770622253 -69.230201721191 -219.799331665039 0.702655613422
-145.748397827148 -71.941993713379 -221.066696166992 1.507869720459
11.856874465942 -71.615715026855 -225.092086791992 2.731416463852
-135.747375488281 -73.880821228027 -224.672103881836 2.971739768982
-117.032096862793 -73.370346069336 -227.044067382813 1.585982441902
15.661002159119 -70.463478088379 -221.050033569336 2.079506397247
77.303573608398 -70.722778320313 -221.649185180664 3.534386634827
5.642747879028 -71.322280883789 -223.606658935547 2.704246520996
-111.005722045898 -71.713912963867 -230.799621582031 1.588682651520
71.266578674316 -71.734100341797 -228.063903808594 1.589354276657
82.915885925293 -71.816871643066 -229.769653320313 1.517439484596
-126.336486816406 -72.379211425781 -234.939620971680 1.582413196564
-118.153724670410 -72.479309082031 -230.318862915039 1.584810256958
-11.170889854431 -68.410705566406 -227.962509155273 0.951654016972
70.886245727539 -71.586135864258 -231.660202026367 1.604148268700
63.545429229736 -71.562026977539 -233.454605102539 3.450101375580
72.178947448730 -70.358718872070 -229.782699584961 2.308925151825
-136.415359497070 -69.403671264648 -233.969467163086 2.223220825195
69.074668884277 -72.002220153809 -232.620346069336 1.417919754982
65.039154052734 -68.843551635742 -235.629318237305 1.790215969086
-167.268249511719 -71.486633300781 -230.323440551758 1.221186637878
0.361568987370 -77.903404235840 -241.004440307617 2.152956962585
18.247322082520 -72.666412353516 -239.656890869141 1.036755084991
-7.176941871643 -69.129600524902 -240.849136352539 2.065068244934
14.591496467590 -66.636116027832 -239.538024902344 3.685026407242
65.115768432617 -71.976928710938 -238.408691406250 1.144629001617
7.766016006470 -69.798072814941 -243.579895019531 1.752103924751
-12.119886398315 -65.834541320801 -241.006423950195 1.595858216286
-1.691599965096 -68.474929809570 -237.658325195313 1.414124369621
63.823375701904 -71.733322143555 -242.716217041016 1.293287396431
1.926275968552 -72.128784179688 -242.721542358398 1.557934999466
-8.125273704529 -72.444976806641 -243.271347045898 1.676523566246
13.161537170410 -73.873252868652 -243.051712036133 1.703905582428
-168.609863281250 -74.600189208984 -240.880783081055 2.337708950043
54.881679534912 -71.550514221191 -247.526687622070 1.620421290398
48.745330810547 -65.860115051270 -251.179153442383 1.921697020531
57.067611694336 -71.872779846191 -243.081130981445 1.578831195831
-13.333537101746 -70.118980407715 -248.068237304688 1.483982801437
56.042171478271 -71.018867492676 -245.968276977539 0.699604511261
-75.062644958496 -71.842597961426 -249.862121582031 1.716006040573
49.625541687012 -71.684814453125 -248.916305541992 0.739787101746
-89.926994323730 -72.274360656738 -252.449569702148 0.874391913414
-124.395652770996 -73.870544433594 -256.525390625000 0.813189625740
-133.586151123047 -72.778892517090 -252.785064697266 1.319933772087
44.965354919434 -72.903160095215 -252.099975585938 1.533528208733
-133.730453491211 -75.306625366211 -252.997970581055 3.049084424973
-110.406173706055 -70.896110534668 -255.014923095703 2.364034891129
-117.296775817871 -70.512588500977 -257.368896484375 2.310985088348
-84.937866210938 -72.839782714844 -254.633041381836 0.895109891891
-112.218467712402 -71.015586853027 -259.059265136719 0.509193778038
-125.267631530762 -76.043403625488 -262.245147705078 2.193395853043
-147.764617919922 -70.607917785645 -267.453186035156 3.235100030899
-16.541328430176 -70.665390014648 -265.763549804688 2.334081649780
-172.547241210938 -75.210067749023 -264.190063476563 6.133155822754
-15.847109794617 -71.512542724609 -273.913574218750 2.352830886841
-160.269439697266 -69.986221313477 -267.101989746094 1.847813725471
-153.958709716797 -73.402893066406 -273.221038818359 1.815734267235
-171.211044311523 -73.302108764648 -277.277862548828 3.421519994736
-15.515911102295 -72.169708251953 -279.465942382813 4.611315250397
-131.477340698242 -75.382812500000 -282.973815917969 1.279697179794
-159.362106323242 -73.071952819824 -286.002197265625 2.157447338104
-145.276107788086 -72.226104736328 -280.785217285156 0.901372313499
-136.164199829102 -75.860542297363 -280.299346923828 6.229615211487
-9.563995361328 -66.468421936035 -284.677734375000 3.674046278000
-127.156921386719 -76.458526611328 -283.231964111328 2.146026372910
-142.380462646484 -71.183067321777 -285.447204589844 0.987085163593
-117.038673400879 -75.823234558105 -285.566436767578 1.555316567421
-80.351829528809 -70.830528259277 -288.032165527344 0.918327450752
-62.040832519531 -73.172294616699 -287.060424804688 1.701042890549
-8.340714454651 -73.052696228027 -287.967102050781 2.972611904144
-55.274257659912 -71.285675048828 -285.754364013672 2.202224731445
-58.582580566406 -70.231445312500 -288.670928955078 0.732332468033
-71.779037475586 -70.914360046387 -290.325286865234 1.082419633865
-89.436851501465 -71.894874572754 -293.732421875000 1.821761250496
-96.418212890625 -70.588470458984 -288.936553955078 1.393302202225
-161.714019775391 -72.494583129883 -291.239837646484 2.072155237198
-162.464080810547 -74.321067810059 -293.462524414063 2.030154705048
-125.984214782715 -75.847358703613 -293.700195312500 2.025815010071
-146.044921875000 -73.469879150391 -294.781738281250 1.790616750717
-154.462661743164 -75.691001892090 -303.480285644531 1.657146334648
-151.913467407227 -75.839050292969 -311.895202636719 2.889184474945
47.415893554688 -66.738601684570 -14.933726310730 2.426223516464
16.219329833984 -70.264717102051 -29.955968856812 3.984021425247
41.357231140137 -65.124504089355 -34.962738037109 1.625260710716
-16.119251251221 -72.396369934082 -66.436714172363 1.533046364784
81.126029968262 -66.608917236328 -65.509254455566 3.415131807327
87.976936340332 -64.426994323730 -66.394378662109 3.203583955765
77.275360107422 -71.453887939453 -65.784294128418 2.750936985016
72.076065063477 -69.703056335449 -69.548530578613 0.600876390934
90.536308288574 -70.705856323242 -75.292778015137 3.826465129852
-96.835731506348 -66.997604370117 -70.190879821777 3.001672983170
67.134017944336 -69.201652526855 -75.713653564453 1.492659687996
-37.239292144775 -70.622596740723 -77.406379699707 1.812743067741
98.192634582520 -68.280006408691 -86.274620056152 3.106962442398
60.703876495361 -66.179306030273 -90.728706359863 3.042078018188
106.399726867676 -72.691520690918 -94.016616821289 3.231822967529
100.801918029785 -71.839576721191 -98.776329040527 1.099555253983
71.518783569336 -68.549377441406 -100.976203918457 1.487940669060
-80.998565673828 -69.046546936035 -101.462547302246 2.180248022079
53.537147521973 -68.818061828613 -104.517501831055 1.755136847496
106.262519836426 -65.799827575684 -106.483192443848 2.371062994003
46.221332550049 -69.665061950684 -112.651939392090 1.565419673920
79.064002990723 -67.525566101074 -105.777725219727 2.507132768631
40.787548065186 -68.633499145508 -107.699180603027 2.213471651077
103.418212890625 -67.958618164063 -103.652221679688 1.302791595459
46.701210021973 -68.369590759277 -108.056274414063 1.838164806366
106.437767028809 -73.022941589355 -110.270683288574 0.865476369858
109.304542541504 -71.144721984863 -111.722419738770 0.719861805439
-80.336410522461 -68.306381225586 -114.112289428711 1.789771080017
-83.890258789063 -68.584709167480 -119.294006347656 2.045480966568
43.045406341553 -71.969299316406 -120.261116027832 2.181881427765
112.902740478516 -69.862266540527 -121.716491699219 1.773410797119
112.755149841309 -68.027420043945 -124.025276184082 2.366473913193
-88.213409423828 -69.513252258301 -126.881507873535 1.250998139381
105.057518005371 -70.196388244629 -126.164978027344 3.608543634415
-60.281669616699 -74.294242858887 -131.715850830078 3.357207059860
-87.132621765137 -70.689430236816 -127.185882568359 1.915986657143
-73.506439208984 -70.400024414063 -127.076156616211 1.898051261902
-60.199611663818 -66.373184204102 -126.777587890625 2.204137563705
30.658704757690 -68.855834960938 -130.383239746094 2.741100311279
41.383983612061 -67.577987670898 -134.958374023438 3.980730533600
-74.133995056152 -69.973793029785 -136.538711547852 1.834532380104
27.747615814209 -67.330566406250 -131.163040161133 4.217220306396
110.688110351563 -68.451515197754 -143.330062866211 1.787442922592
-41.189933776855 -70.116928100586 -148.287765502930 2.224329233170
29.382059097290 -70.162147521973 -149.031143188477 1.931081056595
112.872741699219 -66.876838684082 -148.138732910156 2.395004034042
34.566062927246 -69.780723571777 -142.943237304688 1.616079330444
109.377967834473 -67.240135192871 -141.236190795898 3.930928707123
-53.345607757568 -70.431213378906 -149.359909057617 1.754854083061
-72.317306518555 -67.904762268066 -150.928009033203 1.801991343498
-56.131668090820 -70.721771240234 -152.508605957031 3.461494684219
-43.098491668701 -73.586112976074 -164.915664672852 2.261005401611
3.689986944199 -70.924049377441 -155.963272094727 2.083739757538
108.821647644043 -68.742256164551 -153.903732299805 1.666056036949
107.940261840820 -68.476287841797 -160.013168334961 4.370179176331
9.010212898254 -69.002578735352 -157.576354980469 1.076220035553
2.268033981323 -69.749702453613 -161.412933349609 2.289031028748
18.199138641357 -68.753707885742 -155.407882690430 2.761931180954
24.618740081787 -68.118774414063 -155.838302612305 2.014502763748
107.685157775879 -68.223258972168 -166.015441894531 2.799508094788
108.550392150879 -71.683563232422 -168.067718505859 1.242478370667
22.840610504150 -67.018432617188 -174.572998046875 1.950033545494
23.967723846436 -71.509918212891 -163.954971313477 2.403055191040
111.170959472656 -66.672157287598 -162.401245117188 3.960982084274
-30.195880889893 -69.034294128418 -177.210021972656 0.758786916733
109.164703369141 -68.854484558105 -168.140289306641 2.172659397125
16.489234924316 -70.081863403320 -167.729873657227 2.402988672256
20.577352523804 -69.434280395508 -167.871978759766 1.578385472298
107.482879638672 -68.878417968750 -173.230102539063 1.781003832817
25.681453704834 -68.674369812012 -170.545394897461 1.732205867767
111.203460693359 -68.083686828613 -184.099014282227 3.319835186005
-39.357437133789 -69.605758666992 -177.702239990234 3.569029331207
24.058860778809 -69.142356872559 -171.261917114258 1.789901256561
106.408775329590 -68.655220031738 -184.231277465820 2.235232114792
22.048456192017 -70.593704223633 -178.699035644531 0.751861929893
-152.959976196289 -70.024803161621 -186.187896728516 2.565906286240
-29.339448928833 -67.306083679199 -189.376663208008 1.559980154037
23.490844726563 -67.612373352051 -185.071197509766 2.511230707169
-114.841842651367 -72.494285583496 -191.644271850586 3.711531162262
-111.976219177246 -68.681274414063 -191.147247314453 2.218100309372
22.697271347046 -70.214828491211 -188.671463012695 0.370287537575
10.572713851929 -67.917373657227 -185.163360595703 5.143624782562
-28.010841369629 -67.665710449219 -190.263351440430 0.537128388882
-30.689767837524 -73.966789245605 -189.174957275391 1.183290243149
-29.088850021362 -70.509544372559 -187.194839477539 2.069984436035
13.718849182129 -67.707283020020 -180.128356933594 3.318950176239
-151.954071044922 -71.421310424805 -194.775573730469 1.939630746841
-146.452926635742 -71.032440185547 -192.564804077148 1.806040763855
-145.469787597656 -74.268249511719 -198.008300781250 1.802380323410
-24.022270202637 -69.213775634766 -191.425109863281 1.730869889259
12.510600090027 -67.709915161133 -199.714889526367 1.063823580742
97.748771667480 -68.115745544434 -193.714294433594 4.012986183167
-114.846748352051 -69.988288879395 -198.156906127930 1.050317406654
20.189361572266 -72.969062805176 -198.468963623047 1.765569090843
-16.433895111084 -69.051864624023 -195.616989135742 0.924560785294
-18.837305068970 -69.513671875000 -198.779144287109 2.201937437057
99.837890625000 -67.821800231934 -199.919433593750 3.691968679428
6.838440895081 -71.734626770020 -199.377151489258 2.450968027115
-23.091989517212 -68.466346740723 -196.545822143555 1.456502914429
-122.437782287598 -74.102478027344 -202.837585449219 1.598356962204
-135.301605224609 -71.465728759766 -203.043182373047 2.231364011765
-115.254959106445 -66.797729492188 -204.792266845703 0.705790281296
-143.267440795898 -74.138099670410 -203.085266113281 2.566989183426
16.398349761963 -69.397758483887 -197.906600952148 0.808913528919
92.706321716309 -70.274208068848 -202.204315185547 1.706656336784
-167.091812133789 -67.200866699219 -201.182113647461 1.139001011848
98.874366760254 -68.639358520508 -202.573089599609 3.208387136459
-22.730504989624 -73.797714233398 -206.072235107422 3.431066274643
93.438560485840 -67.109466552734 -210.952392578125 1.837383508682
86.937454223633 -70.594673156738 -211.877395629883 2.094199895859
11.021550178528 -71.552490234375 -206.112670898438 1.558241605759
18.617353439331 -69.303718566895 -212.186920166016 1.625770568848
11.671538352966 -67.116966247559 -208.051269531250 0.939653098583
-12.038255691528 -70.616973876953 -222.507690429688 2.374544143677
-95.570022583008 -72.966125488281 -218.459442138672 2.116985797882
-11.564570426941 -72.194770812988 -212.373855590820 2.449827909470
87.900863647461 -69.462745666504 -216.701171875000 1.879077076912
-94.686149597168 -73.151786804199 -217.537277221680 1.465121388435
-102.337860107422 -68.930572509766 -221.103302001953 1.247782468796
-95.609352111816 -71.699333190918 -219.375946044922 2.802505493164
87.074058532715 -70.889846801758 -222.353210449219 1.526884436607
-136.473098754883 -71.943511962891 -224.930374145508 2.385114908218
-133.595886230469 -75.355117797852 -226.460189819336 0.827517926693
-117.841110229492 -71.238548278809 -224.652694702148 0.759519040585
-114.319824218750 -68.704948425293 -223.059509277344 2.852788686752
