-64.065681457520 -79.285995483398 -285.739562988281 4.292788982391
-78.442092895508 -79.668540954590 -286.277770996094 3.698820114136
-1.016324996948 -77.527748107910 -284.150604248047 2.789127349854
6.975533008575 -77.593322753906 -290.059020996094 1.021796107292
-136.404464721680 -76.967605590820 -287.849060058594 1.181062936783
-77.710250854492 -75.355255126953 -287.087036132813 1.502253532410
-145.479995727539 -77.463691711426 -288.067687988281 3.224748611450
-92.530792236328 -82.531318664551 -286.607727050781 7.330855369568
-76.793624877930 -76.899589538574 -287.031738281250 1.194123744965
-83.240013122559 -75.402549743652 -293.613830566406 2.703081130981
-59.949695587158 -76.834251403809 -291.074523925781 0.912899315357
-27.058086395264 -72.702743530273 -293.539550781250 2.433844089508
-4.713881969452 -76.297012329102 -290.768707275391 2.102084875107
-150.312927246094 -73.479156494141 -297.423797607422 1.279807090759
-148.184722900391 -76.774505615234 -300.506713867188 1.640777945518
-142.901107788086 -77.818527221680 -303.611175537109 2.317105054855
-154.747344970703 -78.051856994629 -305.915496826172 1.152966380119
-56.087150573730 -72.116233825684 -55.409084320068 2.797999620438
-46.289085388184 -73.161941528320 -52.746623992920 1.470437407494
-38.414989471436 -74.656692504883 -54.147571563721 0.841470599174
-75.795341491699 -76.125297546387 -60.750247955322 0.906192481518
-28.159637451172 -73.065460205078 -63.368122100830 2.918990373611
-32.060478210449 -73.924476623535 -79.184432983398 2.224640369415
75.879112243652 -75.895523071289 -80.978538513184 1.326165795326
76.225379943848 -74.089591979980 -79.655761718750 1.266813993454
74.506233215332 -72.204971313477 -83.010650634766 3.223572969437
99.486351013184 -70.850547790527 -89.194984436035 1.417937755585
71.356468200684 -75.174423217773 -88.565452575684 1.962604403496
51.227779388428 -75.278297424316 -89.830337524414 2.515408039093
51.174137115479 -77.880271911621 -99.801651000977 1.620624780655
-65.912902832031 -73.997779846191 -100.918922424316 3.195633888245
-72.259719848633 -69.646385192871 -101.915878295898 1.564471602440
45.980880737305 -74.869972229004 -102.547958374023 1.348799467087
-81.162879943848 -79.420974731445 -109.227500915527 3.280652761459
-92.194160461426 -73.540893554688 -111.192543029785 1.062325596809
52.069503784180 -73.541824340820 -106.605392456055 1.968962311745
108.498435974121 -72.340454101563 -112.463821411133 0.976292490959
33.882884979248 -75.888099670410 -122.568672180176 2.630370855331
45.032482147217 -75.013610839844 -118.049789428711 1.399336934090
42.184284210205 -73.703323364258 -123.495727539063 0.504452109337
30.971336364746 -75.403343200684 -122.870101928711 2.539294481277
110.134193420410 -73.318099975586 -119.236442565918 0.515379726887
40.462558746338 -75.964141845703 -129.551651000977 1.697997331619
33.840419769287 -71.272171020508 -131.054153442383 1.472091317177
-44.336299896240 -74.408805847168 -142.751510620117 0.913785636425
-69.901046752930 -77.112564086914 -144.131698608398 2.395945072174
-52.565906524658 -73.915420532227 -146.654144287109 2.413746118546
-71.846458435059 -77.926452636719 -145.797576904297 2.180017471313
-38.679039001465 -74.124801635742 -147.124420166016 3.141125679016
108.428497314453 -73.261375427246 -153.021743774414 2.980466842651
-70.575515747070 -76.871231079102 -155.586227416992 1.991313815117
24.937538146973 -77.383148193359 -147.060440063477 0.896658539772
31.673082351685 -76.383720397949 -150.446212768555 1.641754388809
113.909927368164 -75.920791625977 -160.107086181641 1.492883563042
10.590291023254 -76.464004516602 -158.723526000977 1.949817895889
33.615390777588 -72.750068664551 -154.794372558594 0.915152907372
-62.672744750977 -76.551315307617 -158.921661376953 2.943020820618
-40.489658355713 -76.717422485352 -171.157791137695 1.744270086288
21.586545944214 -73.905822753906 -162.686859130859 1.342084646225
-63.453037261963 -74.334945678711 -159.405715942383 0.601268768311
-68.066772460938 -75.705169677734 -165.177536010742 2.430310249329
112.674865722656 -75.182807922363 -165.089706420898 2.808711528778
-6.616827011108 -75.650115966797 -166.093765258789 1.092846632004
-62.724803924561 -74.768074035645 -173.590835571289 0.964657545090
-30.861454010010 -76.388755798340 -168.084533691406 0.535086572170
-53.616733551025 -74.285636901855 -172.352676391602 2.113305330276
30.644252777100 -74.262588500977 -171.939132690430 1.387213587761
112.017829895020 -72.142356872559 -171.841735839844 1.566833019257
103.754356384277 -73.273864746094 -182.534942626953 0.952409386635
107.116119384766 -74.049156188965 -188.299713134766 2.847004413605
108.171516418457 -72.187469482422 -176.000305175781 2.896687746048
-50.967174530029 -74.737800598145 -189.957504272461 1.790500283241
-48.084537506104 -72.875167846680 -182.583633422852 3.138530492783
27.925155639648 -75.091224670410 -182.705047607422 1.952913403511
-47.553916931152 -74.102111816406 -186.664794921875 2.849870681763
-19.186403274536 -75.730331420898 -183.774795532227 1.822510600090
-49.604713439941 -77.424957275391 -191.167572021484 1.628808379173
-149.884658813477 -76.025527954102 -193.000717163086 1.158664226532
102.625160217285 -75.428512573242 -191.884811401367 1.112519502640
-43.432174682617 -73.260864257813 -193.581985473633 2.656584978104
-13.080159187317 -76.737617492676 -197.889389038086 2.850931167603
-138.772460937500 -76.782913208008 -194.546508789063 3.041801691055
-41.918029785156 -73.488685607910 -197.331192016602 2.592824220657
103.367507934570 -73.540550231934 -196.083969116211 1.643731355667
108.207229614258 -72.569282531738 -184.656677246094 1.149601340294
-43.151218414307 -75.410476684570 -196.019012451172 1.916458725929
-21.807826995850 -80.410667419434 -197.459243774414 3.008886337280
-146.611679077148 -80.641319274902 -199.877151489258 1.586191415787
-23.743846893311 -75.831443786621 -196.392150878906 1.433397650719
-156.134536743164 -77.624511718750 -198.020492553711 2.101293325424
-151.392211914063 -82.220314025879 -204.064712524414 2.234036207199
-141.896072387695 -78.582313537598 -201.866470336914 0.863116383553
-37.131519317627 -76.076560974121 -199.410537719727 2.367485046387
102.504623413086 -74.788139343262 -200.671401977539 1.988199949265
-39.724967956543 -73.778076171875 -199.323608398438 0.986269831657
-141.931137084961 -80.041366577148 -204.948425292969 2.109302997589
-36.558071136475 -72.535636901855 -205.365219116211 2.280177593231
-19.376775741577 -79.378875732422 -209.386291503906 3.128118276596
98.358024597168 -75.910896301270 -204.209976196289 1.774793028831
92.653396606445 -75.298248291016 -212.294082641602 0.860301136971
-33.086456298828 -74.278686523438 -216.719085693359 2.489362239838
-86.137695312500 -77.141883850098 -210.768280029297 1.187797665596
-74.354095458984 -76.619895935059 -211.448425292969 1.199715495110
-17.331159591675 -75.635604858398 -213.250442504883 1.670086622238
-148.530349731445 -77.706260681152 -205.923934936523 1.965964317322
91.535972595215 -74.395751953125 -212.504501342773 1.583889365196
90.264137268066 -72.720756530762 -217.278076171875 1.409578084946
91.552200317383 -74.467445373535 -219.125732421875 2.187607288361
-100.926757812500 -76.393379211426 -220.096115112305 2.702428340912
-151.664016723633 -79.373916625977 -222.065780639648 3.157563686371
-18.660825729370 -74.441543579102 -222.153930664063 1.174133419991
81.266441345215 -72.372581481934 -225.137527465820 2.035355329514
-148.231430053711 -80.279510498047 -224.019485473633 2.834072589874
-26.679658889771 -76.737014770508 -218.510086059570 1.927326560020
-132.117111206055 -75.460472106934 -231.316345214844 2.025233983994
-10.429994583130 -77.870223999023 -229.444793701172 1.023026585579
18.829748153687 -74.626396179199 -225.398513793945 1.180735707283
21.067165374756 -76.166847229004 -232.048904418945 2.988761186600
-153.393478393555 -80.201110839844 -234.314834594727 2.828647851944
-124.537307739258 -73.750144958496 -232.769897460938 1.411337375641
-6.833312034607 -74.928199768066 -234.687393188477 0.789180994034
1.449676036835 -74.860626220703 -236.657409667969 1.512778759003
70.567588806152 -74.502471923828 -232.045242309570 1.680817842484
72.015243530273 -72.235443115234 -237.120544433594 1.882174253464
1.001265048981 -74.221221923828 -239.709732055664 1.606155157089
17.752376556396 -72.089599609375 -239.100051879883 1.078802466393
-28.854368209839 -70.262695312500 -240.216583251953 4.193731307983
-32.244422912598 -81.374786376953 -240.998703002930 1.914723157883
-45.497371673584 -75.434997558594 -238.344787597656 2.262420654297
-37.897224426270 -74.056106567383 -240.568557739258 2.040392637253
-16.051986694336 -76.934204101563 -242.227661132813 1.224122405052
-51.056919097900 -74.490280151367 -243.520492553711 2.830508947372
3.265950918198 -75.806846618652 -244.514343261719 1.724785804749
-66.786643981934 -76.879135131836 -243.890060424805 3.464639186859
22.112909317017 -76.116630554199 -246.439971923828 1.401899933815
-142.708694458008 -79.207214355469 -245.123077392578 3.798931598663
-71.224510192871 -78.597129821777 -251.397537231445 1.597476720810
16.747600555420 -76.932876586914 -248.520263671875 0.191893965006
-159.949813842773 -76.221527099609 -249.599319458008 1.321992874146
16.526317596436 -78.626411437988 -252.113876342773 0.526754319668
-78.607238769531 -72.696166992188 -250.586318969727 2.123416423798
-73.775405883789 -76.952598571777 -250.602813720703 1.424365997314
21.069137573242 -76.823501586914 -254.368789672852 2.139335870743
-87.792457580566 -75.836402893066 -252.059661865234 0.517137706280
-124.314453125000 -74.437240600586 -255.151870727539 1.171948552132
-132.102371215820 -79.241943359375 -259.533599853516 2.304305076599
-133.638259887695 -79.250595092773 -254.778305053711 3.472364425659
-145.674530029297 -77.800987243652 -260.993377685547 1.763161063194
-142.968444824219 -74.832748413086 -255.207443237305 1.010735869408
-133.439804077148 -75.514350891113 -261.804992675781 1.476037383080
-160.290222167969 -74.830986022949 -260.960906982422 2.023885011673
-125.609504699707 -76.139289855957 -266.201141357422 3.260208606720
-133.961563110352 -73.668159484863 -262.675567626953 1.914475321770
-162.303802490234 -74.935577392578 -267.582580566406 2.848644971848
-155.333831787109 -74.991035461426 -264.306213378906 2.109750986099
-147.930755615234 -75.660362243652 -265.650054931641 1.999169707298
-146.611862182617 -77.539047241211 -265.736358642578 0.362469613552
18.197336196899 -78.079902648926 -277.868865966797 2.654460906982
-164.698669433594 -77.179969787598 -267.262237548828 1.048681497574
-150.447280883789 -78.007263183594 -273.565277099609 1.686767339706
-4.226580142975 -82.593338012695 -272.427185058594 1.964440345764
-155.851943969727 -75.362014770508 -272.724578857422 4.119414329529
13.711573600769 -79.265197753906 -281.269287109375 2.302818059921
-150.809539794922 -76.933532714844 -281.969757080078 2.079957485199
-163.010253906250 -78.280929565430 -287.910278320313 3.454745292664
-153.398468017578 -79.034439086914 -280.386749267578 3.273700475693
-163.637557983398 -75.945304870605 -287.933441162109 2.324198484421
2.875129938126 -78.269012451172 -286.823120117188 2.855604648590
8.853270530701 -79.913139343262 -282.357940673828 3.057923078537
-100.529350280762 -75.406700134277 -290.739257812500 2.110704421997
-152.417175292969 -81.328788757324 -287.766448974609 1.396658897400
-146.836593627930 -75.524223327637 -286.038970947266 0.768422603607
-105.839317321777 -75.930130004883 -290.594665527344 3.064632415771
-150.703689575195 -79.341148376465 -291.957061767578 3.151419639587
-146.952819824219 -79.970893859863 -289.427093505859 0.716050803661
-70.615379333496 -78.810577392578 -292.237518310547 4.987607955933
-164.283676147461 -79.087493896484 -289.626983642578 4.065832614899
-121.662460327148 -74.423164367676 -291.427307128906 1.440094113350
-41.662445068359 -79.502983093262 -287.477508544922 2.574110746384
-151.907501220703 -77.073120117188 -288.609436035156 2.590564489365
-131.703491210938 -73.169975280762 -293.540100097656 2.594727993011
-17.141954421997 -74.165168762207 -293.341979980469 2.570051431656
-126.548934936523 -74.593437194824 -293.446319580078 1.419035315514
7.343901157379 -76.706085205078 -293.736541748047 1.094420313835
16.837057113647 -73.868476867676 -291.922637939453 1.285507798195
-132.119293212891 -74.603462219238 -291.824737548828 3.564819335938
-144.149063110352 -78.550888061523 -297.237213134766 3.611657142639
-154.583190917969 -79.473030090332 -313.967651367188 2.842053890228
-71.403640747070 -69.566070556641 -52.271373748779 2.104243993759
-21.521886825562 -68.549377441406 -63.538833618164 5.820642948151
-19.454061508179 -75.021255493164 -64.680526733398 1.324824929237
73.401153564453 -70.556343078613 -76.237968444824 3.515199422836
91.814773559570 -71.936943054199 -74.856025695801 2.443626165390
-36.193138122559 -73.084388732910 -78.693031311035 1.859738230705
76.095306396484 -71.862693786621 -78.685890197754 3.609582424164
90.357757568359 -75.512107849121 -81.313789367676 2.320905208588
68.775611877441 -72.446060180664 -82.716598510742 1.262135505676
73.518775939941 -71.786796569824 -87.975517272949 3.065692186356
-48.927112579346 -74.988296508789 -86.073928833008 2.395921945572
-90.958183288574 -76.118583679199 -88.348541259766 3.297271490097
59.598411560059 -74.556320190430 -93.084678649902 0.605333387852
50.992469787598 -74.258148193359 -98.295448303223 0.950380623341
94.611663818359 -70.085075378418 -98.334220886230 3.365141630173
-91.357849121094 -70.391319274902 -101.787994384766 4.447882652283
82.765640258789 -69.538253784180 -98.407485961914 2.821923732758
73.967163085938 -72.988815307617 -99.250312805176 1.430675268173
92.570518493652 -74.014732360840 -97.421493530273 1.623569130898
84.069015502930 -72.136619567871 -97.185279846191 2.451232910156
83.900169372559 -75.062683105469 -97.704483032227 1.156017661095
-84.451263427734 -75.795616149902 -102.384208679199 4.520215511322
43.364208221436 -71.675361633301 -106.177192687988 1.337046265602
106.386108398438 -73.251045227051 -109.868537902832 1.013430833817
109.003425598145 -72.845832824707 -109.875251770020 1.686359167099
49.098770141602 -75.326019287109 -118.107109069824 3.309921264648
112.129722595215 -74.585250854492 -120.163963317871 1.014706254005
117.671951293945 -75.112480163574 -133.994277954102 1.032144665718
-50.469287872314 -72.182907104492 -131.148010253906 2.001768112183
28.343120574951 -72.984313964844 -133.994171142578 2.302184343338
41.626674652100 -75.640846252441 -132.975204467773 2.079903602600
26.098381042480 -71.040145874023 -142.280151367188 1.630737543106
114.005897521973 -75.103370666504 -137.496154785156 1.883919239044
112.766929626465 -73.308807373047 -130.947738647461 0.521964848042
-72.573249816895 -74.425849914551 -148.238754272461 1.509591698647
-42.942592620850 -73.499504089355 -142.724273681641 1.424945950508
-70.201271057129 -72.714050292969 -151.327697753906 2.079047441483
20.730749130249 -72.304321289063 -149.249771118164 2.238598108292
113.554862976074 -70.821166992188 -148.645904541016 2.355781078339
-52.582866668701 -75.394279479980 -150.831512451172 1.998410344124
-70.227806091309 -73.164291381836 -151.028656005859 1.813596844673
-37.842288970947 -77.131614685059 -152.270935058594 1.510674834251
33.367439270020 -69.027709960938 -152.787170410156 3.274902820587
111.039901733398 -70.104125976563 -150.451400756836 1.951075792313
116.444847106934 -71.864997863770 -159.796554565430 2.917714118958
-67.219841003418 -71.527046203613 -155.095809936523 1.349457263947
-71.566635131836 -76.021270751953 -161.141952514648 2.454429864883
22.857116699219 -76.832710266113 -162.844650268555 1.160677552223
-59.020282745361 -72.443717956543 -166.835784912109 2.040428400040
-31.731822967529 -72.841361999512 -162.330444335938 1.675910949707
8.967752456665 -74.886917114258 -163.071426391602 2.742152452469
109.818870544434 -71.038414001465 -160.969497680664 1.734943747520
8.972937583923 -76.472793579102 -166.570297241211 4.166080951691
-31.737628936768 -74.468193054199 -165.498870849609 2.489299774170
-0.872182011604 -70.162414550781 -165.507568359375 2.090395212173
108.685859680176 -70.187110900879 -167.391632080078 1.653786182404
-40.325759887695 -71.827873229980 -165.496200561523 1.658529043198
30.296186447144 -71.085121154785 -171.804168701172 1.912171363831
114.156753540039 -75.654960632324 -171.649749755859 1.346271514893
-56.132484436035 -71.697319030762 -176.193237304688 2.002162694931
-27.043569564819 -76.495964050293 -174.441452026367 0.928072035313
104.116950988770 -73.061233520508 -173.431793212891 1.997416853905
30.217498779297 -71.876647949219 -169.293930053711 2.047753334045
108.765419006348 -74.638031005859 -174.442993164063 1.633491396904
-35.788261413574 -71.337364196777 -178.071258544922 1.589476823807
109.562591552734 -75.350379943848 -179.950469970703 0.939776062965
-60.762863159180 -72.232398986816 -177.622314453125 2.534957647324
-24.330997467041 -77.740470886230 -178.627624511719 1.431115865707
-145.283691406250 -70.866477966309 -183.998977661133 3.290553331375
-53.002529144287 -73.576072692871 -180.684494018555 1.245698928833
-145.925643920898 -75.619377136230 -186.625854492188 0.729678452015
-32.908813476563 -72.347145080566 -184.918975830078 0.957481563091
28.090417861938 -77.169479370117 -181.318237304688 1.971104145050
107.667297363281 -73.563682556152 -182.591506958008 1.101464152336
-32.845794677734 -74.445098876953 -183.749862670898 1.359280824661
12.215890884399 -74.513206481934 -190.461242675781 1.742176651955
18.584264755249 -73.611640930176 -203.210723876953 1.398559927940
-146.945938110352 -75.884483337402 -190.101043701172 2.992806911469
106.328491210938 -75.081108093262 -194.841094970703 2.117757558823
-20.117658615112 -72.004508972168 -193.026519775391 2.626402616501
102.568016052246 -73.926429748535 -187.574554443359 1.791323542595
14.083018302917 -71.640724182129 -189.153350830078 2.083100557327
-135.615234375000 -75.011230468750 -204.031982421875 2.050589561462
-137.537155151367 -75.003684997559 -200.221496582031 2.104205131531
101.579765319824 -75.620765686035 -200.642761230469 1.432688117027
-10.589637756348 -77.730545043945 -200.153869628906 3.288461685181
-15.051372528076 -75.139869689941 -202.752029418945 1.113685250282
11.891860961914 -75.959930419922 -207.024383544922 1.941282391548
-148.726257324219 -73.880180358887 -206.299514770508 0.841382145882
-144.912643432617 -76.726654052734 -208.415985107422 3.028645753860
101.353492736816 -69.277641296387 -204.001388549805 1.918410420418
-80.866905212402 -74.448646545410 -208.255538940430 2.196618080139
-34.743846893311 -74.987632751465 -201.526153564453 1.874111771584
20.191778182983 -76.535446166992 -212.962142944336 2.862767219543
-23.849987030029 -74.874511718750 -210.948684692383 1.584296941757
-75.222076416016 -73.251693725586 -207.939331054688 1.987076759338
92.343551635742 -73.410247802734 -209.062927246094 0.906966686249
-79.090461730957 -72.616638183594 -212.468856811523 1.790080666542
-145.968811035156 -75.894081115723 -218.985855102539 2.072563648224
-78.621147155762 -73.679527282715 -213.329376220703 1.516273140907
-11.944329261780 -69.858467102051 -209.714187622070 1.693511605263
-19.298723220825 -72.083679199219 -218.747009277344 2.014427900314
19.857881546021 -73.937515258789 -212.943939208984 2.639968633652
-4.086061954498 -75.656829833984 -219.251876831055 1.031626224518
-86.853652954102 -78.088020324707 -218.910110473633 1.621263027191
93.975357055664 -72.629669189453 -212.983734130859 0.559821605682
-97.028083801270 -74.151214599609 -215.813842773438 2.168864011765
-150.832992553711 -74.893249511719 -224.470352172852 2.284195423126
-23.785882949829 -73.540702819824 -223.503814697266 1.681519269943
19.141195297241 -74.533264160156 -215.681213378906 2.294908523560
-100.636970520020 -75.244972229004 -220.159301757813 1.593910932541
8.756862640381 -71.237167358398 -218.584548950195 2.963375568390
-24.296640396118 -74.493438720703 -215.441024780273 1.978719472885
84.261779785156 -71.993202209473 -223.610626220703 1.672991871834
-143.933685302734 -74.783058166504 -219.518325805664 2.517842054367
11.734127044678 -72.922088623047 -225.480087280273 2.479598283768
-8.040133476257 -77.261543273926 -225.435989379883 1.616509556770
18.848611831665 -68.479278564453 -222.217926025391 1.866352915764
85.033325195313 -74.326736450195 -221.665283203125 1.659374475479
-12.150037765503 -76.598976135254 -228.283111572266 1.849461793900
-129.125015258789 -76.516532897949 -226.819229125977 3.369110107422
-12.431992530823 -74.566101074219 -224.241699218750 1.525284171104
18.191339492798 -74.588226318359 -230.776321411133 1.231391906738
-125.276550292969 -77.370391845703 -227.475280761719 2.164789199829
-150.203842163086 -72.577980041504 -229.968704223633 1.743327260017
-140.979782104492 -74.525627136230 -229.245117187500 1.096686124802
-129.490432739258 -73.612976074219 -228.203201293945 2.664450883865
-11.754214286804 -72.410408020020 -225.025207519531 0.710596144199
73.265739440918 -73.315216064453 -227.618560791016 1.366451382637
-141.870208740234 -72.225570678711 -236.658203125000 1.618386983871
72.219299316406 -74.715240478516 -228.181091308594 2.080842256546
-18.999372482300 -77.569732666016 -229.408523559570 0.767266511917
-140.813705444336 -78.661712646484 -229.623611450195 0.810918927193
78.786933898926 -78.222534179688 -228.206329345703 1.837815999985
11.177363395691 -77.929504394531 -233.106018066406 1.972322702408
-140.129562377930 -79.569541931152 -235.551879882813 4.010682106018
-148.633926391602 -74.653984069824 -234.260223388672 1.760909914970
18.246030807495 -71.019256591797 -231.157516479492 1.040970206261
-1.227231979370 -76.660781860352 -237.387237548828 0.089976273477
-26.249004364014 -74.027946472168 -237.041336059570 1.961699604988
-0.229352995753 -70.519897460938 -237.378326416016 0.779165863991
-159.321685791016 -77.684112548828 -238.101852416992 4.062767028809
9.407828330994 -73.245231628418 -243.237579345703 0.707121849060
-163.267547607422 -76.223785400391 -239.179687500000 3.031731128693
-11.344972610474 -75.548362731934 -237.440353393555 2.990200042725
62.988269805908 -74.568031311035 -238.648773193359 1.951704144478
-11.648978233337 -73.534255981445 -237.899749755859 1.252918004990
-23.429624557495 -73.823249816895 -244.203018188477 2.372948884964
-23.558473587036 -74.054061889648 -241.601165771484 1.171658754349
-11.376169204712 -76.583587646484 -240.614257812500 3.492870569229
-144.905807495117 -75.770645141602 -231.357269287109 2.071715116501
9.537854194641 -73.601272583008 -242.019409179688 0.993697285652
65.706962585449 -73.335685729980 -243.130767822266 1.765698909760
16.154977798462 -72.174591064453 -244.811584472656 1.606529951096
-164.539108276367 -74.127578735352 -242.041519165039 1.997435569763
-49.050041198730 -73.700782775879 -240.745971679688 1.511621832848
5.497832775116 -80.944999694824 -247.747680664063 2.278378486633
18.466703414917 -74.239540100098 -243.885848999023 2.416065216064
-52.736587524414 -74.084732055664 -247.165740966797 2.440374851227
-1.382892966270 -70.592376708984 -248.062744140625 3.727963924408
22.460414886475 -78.876258850098 -247.510726928711 1.394983291626
-167.667205810547 -73.990127563477 -249.257858276367 1.650919198990
-66.059036254883 -78.011077880859 -248.134231567383 1.526578664780
-50.102638244629 -73.627258300781 -247.369247436523 0.775163948536
-79.620429992676 -74.078437805176 -251.426437377930 1.753708720207
-159.527572631836 -76.480873107910 -247.391479492188 2.739340543747
-149.320678710938 -69.864028930664 -250.024703979492 2.917763710022
-58.600288391113 -76.526847839355 -249.636245727539 1.571534752846
-67.274208068848 -74.699645996094 -249.993682861328 2.290264844894
-152.139129638672 -73.715751647949 -253.151214599609 0.943209886551
-150.520645141602 -76.266815185547 -252.712448120117 2.199899911880
-74.380180358887 -71.915641784668 -254.527999877930 1.695032715797
-91.949653625488 -72.699249267578 -255.437286376953 2.632209300995
-162.936965942383 -71.172866821289 -252.786712646484 0.978898882866
-155.296829223633 -75.825561523438 -260.184173583984 2.258583545685
-133.272567749023 -76.844863891602 -258.611846923828 1.677822470665
-81.646049499512 -74.909790039063 -251.490432739258 1.189949870110
-160.696060180664 -72.879379272461 -253.468566894531 2.001591920853
-140.351516723633 -73.737548828125 -257.312316894531 2.100027799606
-83.840614318848 -74.081626892090 -251.425552368164 2.136422395706
-95.192375183105 -72.967651367188 -260.588592529297 2.597872495651
-143.549301147461 -76.292549133301 -256.400787353516 2.808800935745
-91.985443115234 -74.713714599609 -256.317321777344 2.161804437637
-151.101516723633 -73.963920593262 -256.508026123047 1.855974912643
-100.821372985840 -74.609985351563 -255.839462280273 1.528859972954
-167.166564941406 -74.977630615234 -259.404479980469 2.612481832504
-159.934967041016 -77.000640869141 -263.909973144531 2.964938163757
-124.883270263672 -78.014244079590 -256.908020019531 2.039475440979
-150.163269042969 -75.640625000000 -259.910369873047 1.345664143562
-110.342170715332 -72.572700500488 -262.280944824219 1.618262410164
-12.821949958801 -73.292861938477 -261.780883789063 2.764800548553
-140.060180664063 -75.160720825195 -261.461975097656 1.919795513153
-124.330818176270 -74.659408569336 -260.501220703125 1.333321094513
-152.661392211914 -74.022415161133 -263.191375732422 1.491425871849
25.147924423218 -75.116111755371 -270.495391845703 3.595166921616
-147.028488159180 -77.876541137695 -279.100982666016 2.430966138840
-166.787277221680 -76.166152954102 -280.687316894531 4.021739006042
-6.566394805908 -74.788986206055 -279.290557861328 1.316452264786
-144.235366821289 -75.627090454102 -280.985717773438 2.660171031952
-7.907972812653 -73.331665039063 -283.061614990234 1.689116835594
14.488514900208 -74.980949401855 -285.847137451172 1.473597526550
-135.000823974609 -74.265579223633 -286.439544677734 0.636328577995
-66.611763000488 -76.904914855957 -287.054504394531 1.333815693855
-31.632825851440 -77.170906066895 -287.999298095703 0.619370877743
-111.236953735352 -75.359489440918 -284.753723144531 3.472128391266
-93.594680786133 -78.961654663086 -290.445220947266 4.542557716370
-87.927558898926 -75.669570922852 -291.644500732422 3.721755266190
-48.107532501221 -76.435569763184 -291.928466796875 3.099966526031
-114.241073608398 -79.485618591309 -288.890625000000 3.972728490829
-112.014228820801 -76.725967407227 -290.605621337891 3.416584968567
-31.415132522583 -72.680534362793 -289.216674804688 1.368112683296
-113.623649597168 -76.054351806641 -293.373443603516 3.137975454330
-125.426284790039 -71.707252502441 -290.695007324219 1.819521903992
-142.682006835938 -77.739151000977 -294.046417236328 2.737341403961
8.841539382935 -74.540557861328 -291.323150634766 1.940931439400
18.348327636719 -76.411933898926 -293.045349121094 2.517630100250
-158.205749511719 -75.891624450684 -293.402923583984 2.665652990341
-156.545104980469 -79.510009765625 -301.178771972656 3.514471530914
-145.183715820313 -77.391937255859 -310.978027343750 1.295677900314
-150.196914672852 -74.975265502930 -311.391265869141 2.283323049545
-150.751190185547 -77.674430847168 -314.066894531250 2.246638536453
29.592571258545 -73.518798828125 -14.593466758728 2.373425006866
31.502033233643 -68.874412536621 -18.012481689453 1.173021078110
22.187376022339 -71.041275024414 -24.028348922729 0.886786639690
29.741424560547 -68.944664001465 -39.017902374268 1.544289350510
-57.267227172852 -70.766815185547 -49.858142852783 1.473238229752
-64.357658386230 -71.328598022461 -50.316360473633 1.970907092094
-37.972000122070 -74.361747741699 -50.279144287109 2.833728313446
-83.557937622070 -68.385498046875 -63.210941314697 5.187048912048
82.183532714844 -74.084190368652 -73.669311523438 1.827310562134
-14.526715278625 -70.021095275879 -71.005058288574 2.527853250504
90.034950256348 -71.994857788086 -65.852653503418 2.889435529709
100.304046630859 -70.943260192871 -76.423431396484 1.044306397438
-91.646080017090 -70.543518066406 -76.622909545898 2.653213977814
68.609352111816 -71.380905151367 -80.006523132324 1.482492208481
-40.034942626953 -75.914680480957 -85.605697631836 1.762648820877
101.878898620605 -70.331298828125 -81.542030334473 0.386807113886
-54.634826660156 -71.073616027832 -88.756629943848 1.901864409447
52.042736053467 -72.122634887695 -90.213714599609 1.051549911499
71.989402770996 -76.700981140137 -90.253662109375 1.438108444214
56.513236999512 -71.010826110840 -95.953460693359 1.696756124496
53.869369506836 -73.565788269043 -98.194618225098 1.813496828079
75.461914062500 -74.741569519043 -95.186767578125 1.298788309097
47.544837951660 -71.803054809570 -104.902969360352 2.314623355865
101.466293334961 -72.257797241211 -100.226562500000 2.113387823105
106.996376037598 -75.518203735352 -105.810585021973 1.719243526459
81.020751953125 -69.140052795410 -103.014526367188 1.197995901108
92.876716613770 -72.931625366211 -102.935737609863 2.253206491470
101.889778137207 -71.771553039551 -94.592689514160 2.561306238174
110.568778991699 -72.171257019043 -103.121330261230 1.857177376747
40.639888763428 -72.101448059082 -105.835578918457 1.770132899284
113.624610900879 -69.261505126953 -118.070091247559 1.300345659256
114.908058166504 -73.100990295410 -118.244064331055 1.549708247185
32.448558807373 -71.003204345703 -123.286239624023 2.033996820450
45.871181488037 -73.477485656738 -118.532531738281 1.486726045609
116.441612243652 -72.410079956055 -129.562438964844 1.539716362953
37.387771606445 -72.000335693359 -126.367424011230 3.330868721008
116.252426147461 -75.447540283203 -127.053215026855 3.559299945831
109.908126831055 -72.887496948242 -121.824302673340 1.499643087387
27.634572982788 -73.421409606934 -135.295852661133 2.012728214264
-46.745323181152 -73.469696044922 -134.159805297852 2.723984003067
-50.921653747559 -71.535362243652 -135.220428466797 0.928245604038
112.556648254395 -71.475090026855 -134.370712280273 2.268817424774
-67.943298339844 -76.911926269531 -140.587203979492 3.973018169403
-71.569686889648 -74.011528015137 -140.515502929688 1.830711722374
-57.685874938965 -73.808059692383 -141.299865722656 1.315772294998
33.194488525391 -72.737823486328 -143.331634521484 1.526422500610
117.483398437500 -73.956687927246 -145.230361938477 2.231339216232
-68.137535095215 -70.357933044434 -147.313583374023 1.578002572060
-46.710708618164 -72.944801330566 -142.658737182617 2.601878881454
34.725379943848 -73.436096191406 -150.920791625977 2.082166671753
-66.802886962891 -74.554496765137 -147.965545654297 1.370333790779
115.271842956543 -71.217803955078 -140.680938720703 1.219911694527
113.210418701172 -70.642074584961 -156.935211181641 1.226892590523
117.672103881836 -73.444396972656 -152.280120849609 1.834264874458
-37.022148132324 -75.754135131836 -153.045806884766 1.905276060104
-63.325462341309 -73.696372985840 -164.454391479492 2.477711677551
-67.834648132324 -70.526962280273 -157.364273071289 1.366382837296
31.487869262695 -73.826934814453 -146.072860717773 2.316837310791
-0.671163022518 -75.118911743164 -161.900070190430 1.621826887131
110.555854797363 -72.079452514648 -160.980484008789 1.005270957947
113.167816162109 -70.684944152832 -152.392242431641 1.120913028717
113.668861389160 -74.617607116699 -157.695495605469 2.071389913559
-62.353473663330 -70.921401977539 -160.227981567383 2.035086393356
-43.893627166748 -75.422233581543 -165.232925415039 1.365925431252
-0.892108976841 -72.468597412109 -164.901123046875 0.684948086739
-27.759510040283 -73.740921020508 -174.854354858398 2.537420749664
107.419090270996 -71.721191406250 -166.606536865234 2.269152402878
-32.923263549805 -76.300346374512 -159.988174438477 1.274522781372
110.862136840820 -71.059432983398 -167.730102539063 2.021126985550
-40.283962249756 -74.120407104492 -173.622604370117 1.411468625069
110.093933105469 -70.442764282227 -168.011108398438 2.001673936844
-149.953231811523 -75.327316284180 -180.493148803711 1.682817578316
-25.451971054077 -69.852493286133 -176.760009765625 1.597390890121
-18.765569686890 -73.637275695801 -183.245941162109 1.517272472382
26.416151046753 -76.169570922852 -176.781814575195 1.835838675499
16.593200683594 -72.978019714355 -182.906173706055 2.232242584229
29.179079055786 -73.618682861328 -182.727203369141 1.812932729721
105.837486267090 -76.500549316406 -183.022521972656 0.595570802689
-150.295471191406 -71.600448608398 -185.384384155273 1.085651516914
-18.163120269775 -75.770286560059 -184.708999633789 1.021028876305
103.717643737793 -73.556289672852 -177.939483642578 2.998672008514
104.722640991211 -69.748558044434 -189.080657958984 1.039399981499
109.715110778809 -73.751327514648 -177.118560791016 1.160604357719
100.654670715332 -74.563796997070 -193.081695556641 0.862599194050
-149.736801147461 -75.012580871582 -196.973266601563 2.609525203705
101.651084899902 -73.819007873535 -204.845336914063 1.458999037743
-26.666915893555 -71.631278991699 -197.109008789063 1.495007514954
99.111434936523 -72.666778564453 -195.155639648438 1.975524187088
-119.778091430664 -77.428634643555 -200.393051147461 4.903501510620
-28.186763763428 -78.053138732910 -189.987899780273 1.738661527634
-140.385040283203 -70.491912841797 -198.767837524414 1.448184490204
96.918190002441 -73.070869445801 -197.988418579102 1.776147484779
10.224028587341 -74.251945495605 -198.814056396484 1.249877929688
25.409622192383 -72.075950622559 -192.275787353516 0.815130352974
-146.512832641602 -74.906005859375 -203.350723266602 2.960112094879
-137.372619628906 -73.680130004883 -202.469802856445 2.178065061569
-8.454175949097 -73.326919555664 -206.547424316406 0.985780596733
-122.807327270508 -74.165603637695 -204.104980468750 2.556306123734
-142.314849853516 -76.780288696289 -200.106735229492 1.978720426559
5.518565177917 -73.804389953613 -199.351165771484 3.847165346146
-22.654884338379 -75.862663269043 -200.951599121094 1.911584377289
22.272016525269 -76.228347778320 -201.963058471680 1.661451935768
8.250238418579 -74.949836730957 -211.557418823242 0.793974995613
87.017662048340 -70.726821899414 -208.000137329102 3.583289861679
-16.811180114746 -71.314140319824 -211.820388793945 1.253501296043
92.908508300781 -70.948631286621 -208.371658325195 1.185376167297
98.664642333984 -74.847518920898 -206.341583251953 1.958282351494
-147.337509155273 -75.609558105469 -214.977737426758 1.228129625320
97.116401672363 -74.764045715332 -210.915634155273 1.996077775955
6.578638076782 -72.718345642090 -207.070419311523 2.018774271011
5.213206768036 -75.802871704102 -214.143569946289 2.484022855759
-31.390558242798 -73.451477050781 -206.906616210938 2.075547456741
-87.825935363770 -73.647392272949 -213.310165405273 1.104147672653
-24.624607086182 -75.225570678711 -210.717956542969 1.108884692192
86.745719909668 -72.471900939941 -216.308227539063 0.916950047016
90.904113769531 -72.277259826660 -216.402969360352 2.255857944489
-30.249807357788 -73.104743957520 -212.156555175781 2.023586988449
-82.796882629395 -71.325218200684 -218.593048095703 3.453979015350
0.589246988297 -75.751594543457 -218.453506469727 3.110668182373
83.617576599121 -69.743080139160 -212.612045288086 4.065096378326
-150.268188476563 -78.354675292969 -222.315811157227 1.990603923798
-164.223587036133 -73.093688964844 -214.902145385742 1.198076605797
-160.332687377930 -77.139366149902 -222.788360595703 4.754409790039
-19.743103027344 -74.855934143066 -226.715805053711 2.549239635468
-152.244323730469 -77.522773742676 -223.239913940430 1.871515512466
-4.080650806427 -74.987091064453 -224.243179321289 2.889867782593
8.190332412720 -74.725173950195 -218.107437133789 1.983915567398
-165.515869140625 -74.634246826172 -226.148574829102 2.360603570938
-157.153350830078 -75.090637207031 -227.945510864258 3.080325365067
80.970512390137 -76.478721618652 -230.769943237305 2.151569128036
1.911349058151 -72.699165344238 -226.419311523438 1.157227516174
-155.929229736328 -70.141067504883 -226.788925170898 1.785334467888
-140.844131469727 -76.170425415039 -224.848724365234 1.573827147484
-17.558101654053 -72.967918395996 -223.785675048828 1.300219416618
1.275146007538 -77.923027038574 -222.159286499023 2.643966197968
81.700332641602 -70.918579101563 -225.024673461914 1.683662414551
-159.622024536133 -73.120300292969 -228.496673583984 1.698438405991
-142.343154907227 -72.420555114746 -231.413055419922 1.680844068527
-123.453208923340 -72.989311218262 -231.350936889648 0.554000496864
80.469154357910 -74.705741882324 -226.027709960938 2.736030340195
-113.966148376465 -74.391723632813 -229.547714233398 1.331838488579
-144.740661621094 -74.600868225098 -229.825881958008 1.479804873466
-148.844818115234 -73.399139404297 -232.001037597656 1.207564711571
-147.338424682617 -75.434623718262 -231.881469726563 2.213000774384
-154.157165527344 -75.233123779297 -229.685241699219 2.814232826233
-163.410293579102 -75.215797424316 -229.656982421875 2.245532035828
-132.005477905273 -74.811973571777 -235.821731567383 2.350535631180
-131.578216552734 -75.761123657227 -233.604034423828 2.615530490875
-151.470108032227 -78.355850219727 -233.429519653320 1.454221248627
-143.702224731445 -71.301139831543 -237.431228637695 2.010363340378
-149.909362792969 -75.235626220703 -235.893371582031 1.404669642448
76.660194396973 -75.361030578613 -231.787796020508 1.665863037109
69.055374145508 -68.736351013184 -235.469894409180 1.120051980019
-155.307296752930 -73.393157958984 -236.013366699219 3.601922988892
73.443435668945 -69.088523864746 -232.733642578125 2.046952724457
-18.038707733154 -72.625831604004 -236.546783447266 0.923929691315
13.183411598206 -75.029739379883 -236.784271240234 2.826838731766
8.690994262695 -74.620803833008 -235.745727539063 2.993360757828
-152.739364624023 -74.981163024902 -243.263977050781 2.801757097244
16.367984771729 -73.284324645996 -240.807739257813 1.518332362175
62.721118927002 -72.322891235352 -237.458129882813 2.039633512497
15.166252136230 -71.403900146484 -237.685714721680 1.590592026711
7.152122020721 -74.360153198242 -241.314987182617 1.805517554283
-4.740245819092 -71.918685913086 -240.196914672852 1.356254458427
-19.361145019531 -72.673561096191 -242.759399414063 0.987853407860
0.069603003561 -73.867340087891 -241.763259887695 2.144316196442
5.654436111450 -76.576080322266 -244.723007202148 0.800783634186
59.225593566895 -74.552124023438 -241.048843383789 0.708698272705
-53.617160797119 -77.622489929199 -244.801422119141 0.610299706459
21.408678054810 -72.827812194824 -247.048538208008 2.031586647034
-57.765697479248 -75.242767333984 -241.910140991211 3.591173887253
-8.057842254639 -74.223800659180 -247.738433837891 1.382094383240
-64.297904968262 -71.127120971680 -250.488632202148 1.026049733162
-84.241218566895 -73.037902832031 -253.429687500000 1.891650915146
-80.794975280762 -75.495796203613 -252.371231079102 1.658837795258
-8.018786430359 -73.491920471191 -254.656845092773 2.919260501862
-122.046363830566 -74.735183715820 -259.533599853516 2.957231998444
-12.283023834229 -75.012443542480 -252.854705810547 2.433885574341
-115.174064636230 -74.859039306641 -256.154205322266 1.778459191322
-114.680793762207 -73.569732666016 -259.102569580078 1.001178503036
-101.740852355957 -74.580345153809 -256.920104980469 2.197219371796
-142.057312011719 -74.143791198730 -262.449188232422 0.375468045473
-143.176132202148 -74.628776550293 -267.851684570313 3.876097202301
-166.829406738281 -75.313636779785 -264.341339111328 0.741573631763
21.316125869751 -77.625152587891 -279.939544677734 4.553514957428
-56.132507324219 -72.912071228027 -285.551910400391 2.336667537689
-65.324760437012 -73.815864562988 -283.903747558594 2.442458391190
-40.216060638428 -76.343757629395 -283.907531738281 3.449918508530
-26.117610931396 -75.517898559570 -286.439727783203 1.091863512993
-94.383644104004 -76.935249328613 -289.551025390625 2.482446908951
-28.937517166138 -72.689102172852 -285.737030029297 0.914289176464
-2.192873954773 -74.445556640625 -286.026702880859 1.105280518532
-165.466125488281 -75.585350036621 -290.045837402344 1.983843922615
-13.945448875427 -76.551956176758 -285.770751953125 0.918407678604
8.284354209900 -75.532234191895 -287.719543457031 1.915291547775
16.059755325317 -78.573951721191 -283.300872802734 4.258913516998
-55.039447784424 -77.071762084961 -287.724945068359 1.162385463715
-31.302663803101 -75.100357055664 -291.479736328125 2.686887502670
16.113166809082 -72.506958007813 -292.849975585938 2.619343996048
-69.010787963867 -73.578712463379 -293.153747558594 1.231236934662
-38.374488830566 -72.196769714355 -289.228515625000 1.508404135704
-15.973159790039 -72.570373535156 -289.942291259766 0.911394238472
16.976541519165 -76.539260864258 -290.735534667969 1.788596034050
-9.633922576904 -76.194007873535 -294.083465576172 3.212880134583
5.852759838104 -73.283416748047 -293.624664306641 2.163020849228
16.176452636719 -76.278259277344 -290.315429687500 1.718002438545
-132.993774414063 -74.409858703613 -294.905761718750 2.832793951035
-143.018112182617 -77.824935913086 -299.715057373047 3.927045106888
-149.022750854492 -76.131637573242 -313.833038330078 2.271041154861
43.966594696045 -69.755340576172 -13.349698066711 2.267183303833
31.062835693359 -70.250610351563 -11.512744903564 1.157895088196
40.232017517090 -70.500999450684 -15.058975219727 1.530659317970
22.915494918823 -67.415451049805 -18.497861862183 2.343228101730
45.909114837646 -68.412071228027 -22.022190093994 3.203334331512
26.507936477661 -68.787712097168 -23.712068557739 2.144553661346
24.748218536377 -70.908050537109 -27.216541290283 1.454970836639
25.832967758179 -71.582641601563 -37.984230041504 1.305035948753
40.560104370117 -72.603118896484 -30.412511825562 2.302024364471
27.336511611938 -74.166847229004 -35.985954284668 2.738507032394
44.079463958740 -69.350830078125 -37.309371948242 2.178292274475
32.890522003174 -71.245162963867 -39.088989257813 0.390642225742
39.800006866455 -71.969444274902 -35.558906555176 1.530712127686
31.969425201416 -69.885231018066 -39.645469665527 1.522828459740
44.629840850830 -70.629386901855 -40.795143127441 1.873753547668
34.735702514648 -70.208984375000 -38.668235778809 1.527317404747
-39.937530517578 -69.600494384766 -48.306739807129 2.718666553497
-29.082496643066 -66.386978149414 -50.698024749756 2.275048494339
-88.349342346191 -70.183250427246 -55.039222717285 3.798503875732
-87.969337463379 -72.659263610840 -65.770111083984 1.715010762215
79.024406433105 -73.074302673340 -65.998504638672 2.912313699722
85.430328369141 -70.423828125000 -71.819038391113 2.485707998276
-18.557716369629 -69.463592529297 -73.468093872070 2.792673826218
-87.139526367188 -71.952903747559 -71.935562133789 2.853674650192
-24.066114425659 -70.786727905273 -76.653961181641 1.308906197548
-48.517589569092 -72.755363464355 -84.947906494141 1.214797377586
67.047248840332 -67.238739013672 -85.662277221680 2.244931221008
53.885719299316 -70.100929260254 -92.677078247070 2.564447164536
100.665863037109 -68.945663452148 -90.625457763672 1.564427137375
70.658241271973 -72.489624023438 -95.892547607422 1.897892594337
-67.048316955566 -73.278152465820 -91.104957580566 3.198759794235
-61.018619537354 -70.086669921875 -97.960556030273 5.141208171844
46.023700714111 -71.621475219727 -96.850807189941 1.280297279358
78.615951538086 -69.541702270508 -99.150238037109 3.388306617737
55.772735595703 -78.128143310547 -104.295104980469 2.767557144165
102.472824096680 -70.342140197754 -95.745178222656 2.109303712845
-93.972412109375 -73.835945129395 -107.433441162109 2.341112613678
41.107051849365 -71.600883483887 -110.115303039551 1.496003627777
108.296035766602 -71.620834350586 -107.773948669434 1.114046812057
49.747779846191 -71.151931762695 -110.647521972656 1.520234465599
102.742393493652 -71.780723571777 -108.798927307129 0.493504375219
-84.199493408203 -72.296134948730 -115.445571899414 3.536330461502
37.103927612305 -74.516601562500 -111.280868530273 1.333688616753
107.888038635254 -69.762336730957 -115.849655151367 1.989300847054
105.962692260742 -68.301124572754 -114.873855590820 1.656128048897
106.791549682617 -71.199897766113 -114.141036987305 0.692560434341
111.775230407715 -69.817428588867 -113.591850280762 2.092025995255
41.170959472656 -72.994895935059 -109.573333740234 1.082484841347
33.299224853516 -69.084487915039 -116.794799804688 3.673600673676
42.179759979248 -70.979499816895 -113.546562194824 1.056583642960
108.091209411621 -72.186264038086 -120.778388977051 2.005233049393
41.393100738525 -69.864822387695 -122.662956237793 0.316832751036
110.388694763184 -70.158645629883 -131.167922973633 1.496475934982
112.254013061523 -69.712509155273 -130.052536010742 1.894939064980
34.832008361816 -69.320503234863 -120.084075927734 1.798417925835
-76.718681335449 -72.186454772949 -125.431762695313 2.612895727158
115.173561096191 -68.521888732910 -133.241775512695 1.487242698669
-53.156379699707 -72.413970947266 -137.340484619141 1.147278904915
36.805233001709 -72.380676269531 -134.140213012695 1.910264015198
-72.040916442871 -72.767738342285 -135.381607055664 3.456575870514
28.208473205566 -73.757186889648 -131.097930908203 1.319648027420
-78.337913513184 -73.083984375000 -142.784164428711 1.788924098015
-44.046367645264 -75.205390930176 -141.689834594727 0.928314685822
-72.742965698242 -73.167274475098 -138.119903564453 1.038769245148
111.448333740234 -70.177482604980 -136.041793823242 0.895155966282
118.441276550293 -69.224136352539 -140.565124511719 4.444440364838
119.398452758789 -74.077400207520 -145.290496826172 3.181623458862
-76.096778869629 -71.639434814453 -143.617691040039 1.288792848587
9.224553108215 -68.240402221680 -150.380020141602 2.179060459137
-50.779136657715 -73.055442810059 -149.177490234375 1.970500469208
-49.539581298828 -73.411209106445 -155.076644897461 1.220330953598
108.206489562988 -71.657424926758 -160.655502319336 2.227408409119
-40.186840057373 -74.129364013672 -148.975189208984 2.138519763947
15.244974136353 -69.984672546387 -157.210540771484 1.238777279854
23.614795684814 -73.582496643066 -157.026489257813 2.980140924454
116.020889282227 -70.647140502930 -163.593048095703 0.944573879242
31.091804504395 -71.489250183105 -165.148254394531 2.276893138885
0.408131003380 -73.542030334473 -163.030487060547 1.040735483170
33.125843048096 -72.732284545898 -160.186676025391 1.762325763702
-66.538421630859 -71.055816650391 -157.571746826172 1.032801032066
-64.521499633789 -72.317955017090 -158.985992431641 0.945222079754
-67.599739074707 -71.433189392090 -165.527908325195 1.282264351845
115.984138488770 -67.941619873047 -160.427993774414 3.974933624268
-43.290802001953 -72.708160400391 -162.733154296875 1.080201864243
19.045167922974 -72.278640747070 -164.965469360352 0.986851572990
-62.658260345459 -71.746017456055 -169.479248046875 1.937505364418
-61.777030944824 -71.052513122559 -171.239898681641 3.199306726456
-40.031200408936 -73.327331542969 -159.970016479492 1.202975034714
-32.240200042725 -74.611022949219 -168.273162841797 2.358945608139
116.328521728516 -73.422866821289 -170.205322265625 3.195468425751
-35.733268737793 -68.167449951172 -179.533981323242 3.725553750992
15.065088272095 -73.220680236816 -172.588104248047 2.610872268677
112.108871459961 -74.170349121094 -183.221008300781 1.264467954636
-146.280334472656 -75.112495422363 -176.186782836914 2.591753959656
-144.599044799805 -73.150772094727 -173.704086303711 1.857382416725
-147.326431274414 -71.721122741699 -180.111038208008 2.853845357895
-141.066894531250 -74.779006958008 -182.862915039063 3.258587837219
-30.495504379272 -71.394355773926 -185.170166015625 2.146822690964
-21.728260040283 -72.721710205078 -185.332519531250 1.754759311676
24.639398574829 -68.838035583496 -190.523803710938 2.503489017487
-140.067108154297 -72.650360107422 -186.838348388672 2.158472299576
