83.650802612305 -77.490966796875 -96.266349792480 1.928192377090
78.680046081543 -79.791175842285 -92.355812072754 1.614121675491
87.717948913574 -77.384788513184 -90.987731933594 2.119977474213
-59.827392578125 -78.810104370117 -97.439491271973 3.409749984741
51.480079650879 -75.753540039063 -98.164344787598 1.445045828819
46.750011444092 -76.907150268555 -107.059669494629 2.216351747513
41.434150695801 -77.832572937012 -104.626899719238 2.361387729645
37.969303131104 -77.419052124023 -104.958755493164 2.200148344040
-90.634834289551 -74.799018859863 -107.133338928223 2.110528230667
36.753021240234 -76.172035217285 -117.781669616699 2.134033203125
-83.866958618164 -77.969383239746 -108.524208068848 2.637625217438
42.331352233887 -78.586669921875 -125.910606384277 1.809260845184
34.355007171631 -78.017471313477 -121.887664794922 1.104962229729
34.798900604248 -71.978385925293 -122.100341796875 1.401850819588
44.667945861816 -76.047416687012 -118.952751159668 0.856229126453
41.475811004639 -79.127624511719 -128.098327636719 2.821713447571
-51.366199493408 -72.601188659668 -135.383956909180 0.342833310366
37.842010498047 -79.879211425781 -135.227111816406 2.112808465958
36.794944763184 -76.683700561523 -143.637283325195 1.327728033066
-53.308990478516 -74.918190002441 -142.067047119141 2.365443944931
-45.351348876953 -77.248359680176 -140.484771728516 1.865480184555
35.737277984619 -76.612190246582 -143.440490722656 1.489149093628
111.730026245117 -73.679122924805 -142.086029052734 1.430670619011
113.787452697754 -74.389579772949 -145.258270263672 1.789778470993
27.418947219849 -78.129615783691 -143.088333129883 0.364942044020
-40.130966186523 -78.974609375000 -149.331802368164 1.586113691330
115.584030151367 -81.039314270020 -154.199554443359 4.514536380768
-37.945758819580 -75.711830139160 -153.112869262695 1.776107668877
-67.173431396484 -76.940986633301 -160.466445922852 2.085868597031
111.445564270020 -79.657684326172 -159.106079101563 2.713937282562
23.496038436890 -77.494155883789 -165.152404785156 1.733139872551
1.352709054947 -78.030990600586 -163.146636962891 1.511201977730
112.687408447266 -76.927474975586 -155.227096557617 0.969621479511
-63.432163238525 -76.737915039063 -165.275039672852 1.211395144463
-37.194316864014 -77.378250122070 -163.394546508789 2.078236341476
112.975212097168 -77.013084411621 -165.502944946289 1.962030410767
29.239877700806 -73.721107482910 -158.939437866211 3.277841091156
-61.809963226318 -72.577339172363 -165.311004638672 1.679786562920
112.830924987793 -77.180252075195 -167.154785156250 0.916612505913
-64.393264770508 -78.718528747559 -168.611877441406 1.735550880432
-49.408447265625 -79.163536071777 -180.535186767578 0.479764848948
107.022140502930 -75.894165039063 -172.287063598633 1.187511324883
-59.010215759277 -75.618278503418 -170.960083007813 1.462078452110
112.650367736816 -76.138114929199 -177.160385131836 0.606245517731
-59.935474395752 -76.711936950684 -175.220703125000 2.190466880798
-14.241703033447 -75.271469116211 -177.633300781250 2.276962518692
-10.430809974670 -80.671401977539 -181.159301757813 3.881768941879
108.611289978027 -78.056518554688 -169.751525878906 1.164095044136
21.919456481934 -77.658386230469 -172.106567382813 0.702299416065
30.460834503174 -74.029441833496 -170.353454589844 1.508884310722
-56.391643524170 -76.237800598145 -177.109680175781 1.445873379707
19.003528594971 -75.683074951172 -182.338409423828 1.335845470428
-56.910392761230 -77.141624450684 -175.617202758789 0.361303031445
-51.096126556396 -75.852569580078 -190.739105224609 0.766344249249
13.256819725037 -75.260116577148 -184.327117919922 1.389642119408
-56.318237304688 -74.106559753418 -180.179321289063 2.175439834595
107.562561035156 -75.174087524414 -187.744476318359 3.088030815125
25.471551895142 -78.533287048340 -181.822509765625 1.653983473778
-33.008827209473 -75.220588684082 -188.502532958984 1.604104518890
-41.985679626465 -78.286117553711 -190.986862182617 1.384238362312
11.895983695984 -77.904785156250 -193.095184326172 3.207016944885
-18.291557312012 -77.982482910156 -189.652984619141 1.823569893837
-48.061893463135 -78.125061035156 -194.656555175781 1.565168142319
103.417884826660 -79.346069335938 -184.393264770508 2.994236230850
13.065135955811 -78.998687744141 -190.902374267578 2.230494737625
-132.924880981445 -80.845146179199 -198.605331420898 1.192731499672
-45.108398437500 -78.818428039551 -194.521316528320 0.815473556519
96.386657714844 -76.271720886230 -199.619689941406 1.866507411003
-148.089187622070 -82.641868591309 -201.628326416016 1.323062181473
18.998786926270 -77.124572753906 -198.018951416016 1.806552052498
-42.053222656250 -74.821662902832 -205.562988281250 3.315453052521
-30.415958404541 -79.092910766602 -205.846298217773 0.848973453045
-36.510181427002 -77.505310058594 -203.184692382813 0.979314088821
-43.967227935791 -80.709526062012 -197.475479125977 1.497331261635
100.867256164551 -76.784477233887 -204.110748291016 1.500175595284
-19.817659378052 -79.346786499023 -201.500015258789 0.673364818096
-149.593582153320 -77.376884460449 -202.270645141602 1.610623240471
16.653860092163 -78.348678588867 -203.762985229492 1.264992475510
-76.083488464355 -80.818374633789 -206.813385009766 1.678036689758
-145.923812866211 -75.940734863281 -211.733184814453 0.922831058502
95.606224060059 -77.729812622070 -212.700073242188 2.709928035736
-32.199638366699 -75.901512145996 -207.237060546875 1.028568029404
-28.282291412354 -77.246215820313 -212.617584228516 1.806209683418
9.543644905090 -77.688323974609 -210.833770751953 1.583554029465
-70.834144592285 -79.935745239258 -209.635574340820 1.660921692848
-27.486671447754 -81.953407287598 -207.819641113281 3.228940963745
-6.156910896301 -77.733253479004 -216.148254394531 1.220544338226
-71.543395996094 -78.581771850586 -214.097732543945 1.485414743423
-13.715047836304 -77.274711608887 -217.582870483398 1.123432517052
8.522627830505 -71.532737731934 -212.684387207031 2.564408063889
15.053353309631 -78.984687805176 -220.782516479492 1.632463693619
-149.402847290039 -78.455215454102 -216.584869384766 1.058440923691
-7.735535144806 -76.822738647461 -214.694351196289 1.877940535545
-98.244438171387 -73.864700317383 -220.063583374023 1.723587274551
-21.246814727783 -76.435363769531 -219.902633666992 1.724367618561
90.629333496094 -80.410018920898 -212.638656616211 3.641664028168
8.417680740356 -75.870231628418 -225.985778808594 0.774672985077
19.765951156616 -76.266082763672 -216.884597778320 2.527471542358
81.388732910156 -77.501785278320 -217.659362792969 3.038545131683
1.727362990379 -79.256454467773 -228.809066772461 1.130058407784
86.341613769531 -77.063697814941 -217.766479492188 0.773981153965
-18.709287643433 -74.497436523438 -223.583374023438 1.208683967590
16.402526855469 -75.250984191895 -219.437652587891 1.793483614922
-146.715682983398 -78.739669799805 -220.266021728516 2.933667182922
-22.581430435181 -78.306495666504 -225.549392700195 2.412919759750
2.306751012802 -75.997146606445 -229.521545410156 1.600562453270
-155.178680419922 -81.377655029297 -226.022155761719 2.869544267654
-136.405151367188 -78.738403320313 -227.710586547852 1.926788687706
5.659449100494 -76.773727416992 -224.812530517578 2.508252382278
-3.376534938812 -74.967491149902 -228.291152954102 2.636496543884
-136.118255615234 -74.900421142578 -229.699172973633 2.266808748245
-146.020538330078 -78.013824462891 -238.806518554688 2.339996099472
-147.440429687500 -77.586166381836 -235.504745483398 2.014773368835
-31.756610870361 -77.873840332031 -237.615615844727 2.055157899857
-143.448928833008 -79.119514465332 -242.304199218750 2.951905012131
18.071937561035 -77.648948669434 -241.891616821289 2.108450174332
5.779473781586 -76.807022094727 -244.199905395508 1.011221408844
-149.951004028320 -73.737609863281 -236.746673583984 1.977951169014
-148.812286376953 -77.318801879883 -243.543151855469 0.763399362564
-45.895107269287 -78.429527282715 -244.130661010742 1.889354228973
-30.981361389160 -77.888954162598 -245.817001342773 3.480494976044
5.132336139679 -77.790519714355 -244.399032592773 0.837506353855
-36.866985321045 -78.374328613281 -245.424789428711 2.144728422165
22.847787857056 -77.364585876465 -247.198959350586 0.655267179012
-5.071506977081 -79.297729492188 -251.335830688477 1.627122163773
-146.282943725586 -77.988655090332 -252.368759155273 1.373309254646
-8.397163391113 -80.920516967773 -252.398757934570 2.321069717407
-147.351837158203 -76.083198547363 -248.575012207031 2.083023071289
-65.885368347168 -78.523979187012 -249.751541137695 1.609134793282
-147.658264160156 -84.185905456543 -259.024230957031 0.632824599743
-126.402198791504 -77.004211425781 -258.211212158203 1.215424060822
-150.960983276367 -75.936393737793 -258.241577148438 2.093920707703
-11.191905021667 -74.915229797363 -266.752288818359 3.348782300949
-145.589447021484 -81.750579833984 -269.138519287109 2.835911750793
-149.289855957031 -77.814414978027 -267.415008544922 2.968342781067
-10.667083740234 -78.066543579102 -270.611785888672 0.675912439823
-145.045806884766 -77.823066711426 -270.134826660156 1.497469902039
-4.932012081146 -76.529281616211 -277.904724121094 2.142988920212
-45.629459381104 -76.694107055664 -285.151397705078 3.101540088654
-134.135284423828 -75.747894287109 -288.071594238281 2.135805130005
-134.192764282227 -76.530784606934 -285.582397460938 1.602947831154
-124.136489868164 -75.017593383789 -283.432067871094 1.035770535469
-52.127273559570 -76.377853393555 -286.446197509766 1.387628078461
-113.001014709473 -75.416229248047 -285.363555908203 2.490097761154
16.419860839844 -76.572257995605 -291.574707031250 1.473285913467
-57.878475189209 -75.707138061523 -288.657836914063 1.030437946320
-140.932846069336 -76.760437011719 -291.736145019531 1.137020468712
-62.463352203369 -76.011329650879 -290.258148193359 2.190091848373
-143.572479248047 -81.101501464844 -292.185852050781 1.667191505432
-116.599609375000 -75.467628479004 -290.319427490234 1.931153774261
-46.152011871338 -78.453376770020 -290.411315917969 3.061066865921
-33.865108489990 -77.161109924316 -291.316345214844 1.234207987785
-135.883956909180 -74.540870666504 -293.785766601563 1.048307776451
-12.431108474731 -73.719894409180 -285.879821777344 0.167445376515
3.597029924393 -76.728492736816 -289.055816650391 0.662731409073
6.927546024323 -75.925590515137 -291.217285156250 2.035839080811
15.539262771606 -77.644004821777 -294.980987548828 1.795910477638
-149.366027832031 -79.940948486328 -296.793273925781 2.729467630386
-145.862182617188 -75.663024902344 -295.334503173828 1.541375875473
-66.500854492188 -75.959152221680 -61.217403411865 1.716607213020
89.460105895996 -76.949821472168 -73.955734252930 2.186478376389
79.931594848633 -76.961509704590 -77.316078186035 2.009010076523
-26.088212966919 -78.336708068848 -76.725158691406 2.028449773788
85.268112182617 -74.892944335938 -75.937126159668 1.013361454010
-35.750629425049 -78.225097656250 -80.049041748047 1.605278134346
85.942619323730 -74.189414978027 -81.128005981445 1.711747527122
96.023437500000 -73.907058715820 -81.272285461426 1.568996071815
-63.698223114014 -70.791748046875 -94.716880798340 1.291607379913
75.024200439453 -76.525787353516 -94.374397277832 1.274694800377
81.408111572266 -74.888221740723 -97.817253112793 1.481380581856
95.898132324219 -77.970642089844 -95.238540649414 3.058617591858
56.394126892090 -77.364799499512 -97.884399414063 2.144526958466
-69.447715759277 -76.266197204590 -101.321052551270 1.932059884071
-73.316375732422 -72.617713928223 -101.245849609375 0.639434993267
51.045204162598 -77.835189819336 -104.682121276855 1.430168628693
-87.979507446289 -78.119438171387 -103.352020263672 3.093488454819
47.311706542969 -74.590049743652 -117.916191101074 2.123445510864
111.673767089844 -75.389007568359 -119.696968078613 1.060904383659
113.643653869629 -77.484687805176 -131.559890747070 1.586635828018
24.185977935791 -74.899513244629 -137.918518066406 2.203471660614
111.338394165039 -77.048698425293 -127.251045227051 1.047604322433
28.910161972046 -74.901458740234 -134.144882202148 1.207628130913
114.266288757324 -72.272178649902 -131.512557983398 1.161498308182
38.741367340088 -75.045776367188 -134.887390136719 3.267154455185
-53.266124725342 -76.805343627930 -141.829330444336 1.703582882881
36.633213043213 -78.002311706543 -144.139068603516 1.895920157433
110.183753967285 -74.404960632324 -136.688003540039 1.772704839706
-46.870616912842 -75.424438476563 -144.197158813477 1.455195307732
33.063838958740 -75.655853271484 -149.561553955078 1.340123295784
-55.447174072266 -72.721733093262 -140.412902832031 1.172640681267
-55.716865539551 -76.751045227051 -145.832061767578 1.610855817795
-50.723869323730 -78.552818298340 -149.856582641602 2.059111833572
-63.671211242676 -78.546585083008 -155.945587158203 1.384536743164
114.155731201172 -78.646995544434 -148.375122070313 2.831419706345
-49.159130096436 -80.572769165039 -155.325485229492 2.367934226990
23.434179306030 -79.478683471680 -155.961120605469 2.275095939636
109.584281921387 -76.625625610352 -160.639114379883 2.357721328735
-65.057342529297 -76.066886901855 -155.445587158203 0.849826335907
-44.255744934082 -77.378845214844 -156.720214843750 1.781172394753
9.618788719177 -74.181800842285 -154.885299682617 0.855346262455
-66.910491943359 -76.366111755371 -156.871307373047 1.573482036591
-61.937526702881 -78.062553405762 -159.722946166992 2.553604602814
0.612407028675 -76.449607849121 -162.412582397461 1.284670591354
-41.987689971924 -74.291374206543 -167.583007812500 2.181666374207
30.682733535767 -74.449920654297 -166.385833740234 2.825718164444
-61.805076599121 -74.060173034668 -167.118911743164 1.369728446007
-55.655456542969 -77.729492187500 -167.323074340820 1.877851366997
17.789922714233 -78.255966186523 -160.658279418945 3.623854637146
-29.779449462891 -75.865226745605 -168.937255859375 1.386764168739
-28.451879501343 -78.430786132813 -166.951843261719 2.313123226166
16.738512039185 -77.216758728027 -174.841217041016 1.826590776443
-41.336120605469 -78.445381164551 -172.935119628906 2.303461551666
-10.273024559021 -77.107719421387 -172.754638671875 1.570488095284
-62.495326995850 -74.131851196289 -171.937179565430 2.561934232712
-5.645332813263 -74.204246520996 -173.023422241211 1.203107118607
-21.461004257202 -76.717605590820 -179.810729980469 1.889120936394
23.821949005127 -74.358978271484 -183.015823364258 1.882281184196
-38.039077758789 -77.167854309082 -172.247726440430 1.363500952721
20.723943710327 -73.534530639648 -177.017074584961 2.570363759995
-22.029533386230 -73.186859130859 -184.665039062500 2.031446695328
-31.358217239380 -78.135429382324 -179.567657470703 1.373234629631
-146.970809936523 -75.040512084961 -189.414947509766 1.970590710640
-18.738761901855 -79.246444702148 -184.926544189453 2.356273651123
-141.364242553711 -75.598922729492 -188.592773437500 2.803969621658
-151.328262329102 -76.404640197754 -186.862503051758 2.892118453979
-47.879669189453 -74.996223449707 -187.822525024414 2.467130899429
99.145217895508 -75.549896240234 -195.210220336914 1.990926742554
-143.969406127930 -77.440689086914 -191.253082275391 2.945424318314
-148.219024658203 -75.845832824707 -195.750595092773 2.195418357849
22.756361007690 -75.151771545410 -197.234527587891 2.210242748260
-136.532043457031 -76.304100036621 -196.564971923828 0.704640328884
16.549182891846 -73.674591064453 -198.941848754883 2.256296873093
-138.434509277344 -77.787109375000 -198.517440795898 2.347585678101
13.898755073547 -73.696784973145 -197.349334716797 2.082177162170
-133.185424804688 -74.081466674805 -197.744567871094 1.097114801407
6.943765163422 -74.290237426758 -204.412918090820 1.749634861946
-150.059448242188 -76.382476806641 -203.639373779297 0.581072628498
95.246040344238 -75.905517578125 -205.841812133789 2.253897190094
-15.236413955688 -78.189865112305 -205.928573608398 1.850906729698
-29.636550903320 -75.443443298340 -208.008605957031 1.787881493568
-10.393236160278 -73.456909179688 -205.617889404297 1.790757060051
-146.289413452148 -79.270156860352 -210.817398071289 1.353247046471
-34.674831390381 -76.283325195313 -204.435104370117 1.053623318672
-82.222480773926 -78.216514587402 -206.226287841797 4.901665210724
-26.045560836792 -77.425064086914 -209.087310791016 2.366997718811
16.983583450317 -76.399497985840 -212.100723266602 2.116056919098
-146.284210205078 -75.456901550293 -213.799377441406 2.189007043839
-89.232879638672 -77.489532470703 -216.895370483398 0.542616307735
-28.822677612305 -75.163101196289 -216.828506469727 2.049161434174
-25.877864837646 -75.643814086914 -219.702682495117 1.988828778267
-10.098625183105 -77.360748291016 -211.168289184570 0.922226727009
-26.653820037842 -75.544876098633 -209.992187500000 1.717541933060
-82.090278625488 -76.389373779297 -219.353210449219 3.881239652634
-87.624519348145 -79.829742431641 -218.676910400391 2.991936445236
-22.651617050171 -75.846954345703 -220.682388305664 1.698643326759
-1.310776948929 -81.083847045898 -223.608505249023 2.004428863525
-152.678558349609 -77.639152526855 -216.765914916992 2.620436906815
-1.674129009247 -77.624763488770 -220.347045898438 0.940682351589
87.047851562500 -78.731033325195 -226.288864135742 3.815239667892
-140.000228881836 -78.658325195313 -223.505416870117 2.297991275787
-5.615767002106 -77.002082824707 -222.443008422852 0.663968682289
-139.567550659180 -77.787246704102 -225.747100830078 1.270672559738
-146.389343261719 -83.899436950684 -225.568786621094 0.637808620930
-5.537722110748 -75.035247802734 -229.079803466797 1.833248376846
20.010896682739 -76.596313476563 -217.700759887695 2.692185640335
-139.142837524414 -75.278137207031 -229.020751953125 2.359945774078
-16.152902603149 -77.143844604492 -228.513290405273 1.921608924866
75.324768066406 -76.683364868164 -226.687011718750 2.970214366913
76.409385681152 -75.973449707031 -233.195556640625 2.603020429611
10.229487419128 -77.434501647949 -230.721908569336 2.366496324539
-30.337106704712 -77.583023071289 -236.744537353516 2.856786012650
-20.886024475098 -81.482215881348 -241.509597778320 2.400525569916
4.650764942169 -74.709777832031 -243.322982788086 1.717091798782
-46.593959808350 -73.300186157227 -242.828506469727 1.987269163132
-21.263925552368 -75.038276672363 -242.951370239258 2.212193250656
9.981561660767 -74.272544860840 -240.993316650391 2.280137062073
-62.678958892822 -76.635528564453 -245.353637695313 1.397097110748
-33.369537353516 -79.111076354980 -243.786376953125 1.275285720825
-39.736995697021 -74.769905090332 -245.248199462891 1.174162745476
-148.210815429688 -75.216506958008 -245.638381958008 2.502478837967
-45.100078582764 -78.461647033691 -247.777343750000 2.639082908630
-52.389823913574 -71.936836242676 -247.646423339844 2.973758220673
-65.568122863770 -76.344802856445 -249.501007080078 2.301769256592
-10.020313262939 -78.791961669922 -248.118377685547 3.609950542450
-79.231567382813 -77.016021728516 -253.887802124023 0.585818767548
-155.260513305664 -81.430213928223 -254.310379028320 2.544433355331
-140.501647949219 -76.286186218262 -254.477676391602 3.111110448837
-122.473991394043 -77.441284179688 -259.364166259766 3.591337680817
-155.906768798828 -73.450065612793 -260.249816894531 2.168519973755
20.542922973633 -80.489204406738 -265.341491699219 1.198313117027
-13.120494842529 -77.955810546875 -268.607849121094 1.235146522522
-152.545227050781 -78.880393981934 -272.589874267578 2.191852092743
-151.315963745117 -81.462791442871 -277.678009033203 2.007221937180
-144.604537963867 -79.545669555664 -284.787048339844 1.749459266663
-57.700920104980 -72.917098999023 -282.140380859375 3.912868261337
-38.040927886963 -73.063079833984 -285.844818115234 1.684145569801
-20.815742492676 -74.066596984863 -288.289428710938 3.364981174469
-10.055580139160 -73.809654235840 -282.136077880859 2.713654518127
-65.260108947754 -78.283393859863 -285.850311279297 3.232926368713
-79.642341613770 -78.559432983398 -286.288665771484 3.113507032394
-2.190135002136 -76.984184265137 -284.698455810547 2.357635021210
5.758625030518 -77.044052124023 -290.664764404297 0.906246781349
-137.593856811523 -75.435684204102 -287.413238525391 1.702227234840
-78.885742187500 -74.243164062500 -287.058258056641 2.050362825394
-146.673995971680 -75.865776062012 -287.571472167969 1.349670171738
-93.752983093262 -81.319702148438 -286.546661376953 6.329650878906
-77.979721069336 -75.794387817383 -287.025665283203 1.586937427521
-84.462203979492 -74.183425903320 -293.545104980469 2.663118839264
-61.165077209473 -75.804939270020 -291.189086914063 1.450296401978
-28.263463973999 -71.878730773926 -293.848388671875 3.317436695099
-5.926075935364 -75.658416748047 -291.276489257813 2.382391452789
-151.545303344727 -71.749839782715 -296.850494384766 1.755211114883
-149.462585449219 -75.027626037598 -299.982818603516 2.354759931564
-144.208831787109 -76.076179504395 -303.136047363281 1.279679775238
-156.072601318359 -76.202293395996 -305.357055664063 1.918343067169
-55.585041046143 -73.578140258789 -55.521327972412 1.571054935455
-45.775859832764 -74.720329284668 -52.940704345703 1.724186897278
-37.922775268555 -76.255554199219 -54.413944244385 2.483650684357
-75.358825683594 -77.392791748047 -60.761478424072 1.782478094101
-27.722560882568 -74.639991760254 -63.691249847412 1.543503642082
-31.742324829102 -75.306228637695 -79.487060546875 2.224660873413
76.164978027344 -78.015556335449 -82.080886840820 2.758525371552
76.533485412598 -76.226020812988 -80.741928100586 1.452242612839
74.803810119629 -74.294418334961 -84.064529418945 2.153858423233
99.748062133789 -73.050682067871 -90.414642333984 2.391900777817
71.593452453613 -77.183464050293 -89.627037048340 2.104734420776
51.456008911133 -77.132904052734 -90.747566223145 3.147838830948
51.312664031982 -79.630058288574 -100.744758605957 2.748068094254
-65.748878479004 -74.914825439453 -100.976150512695 2.575213670731
-72.071647644043 -70.508827209473 -101.881927490234 1.604839205742
46.121387481689 -76.554855346680 -103.422035217285 1.598865866661
-81.095909118652 -80.143753051758 -109.230377197266 3.666865825653
-92.098983764648 -74.166213989258 -111.054435729980 1.518262505531
52.190116882324 -75.227104187012 -107.509284973145 2.928262233734
108.582832336426 -74.360427856445 -113.762176513672 2.029237747192
33.873703002930 -77.278732299805 -123.364379882813 2.025784254074
45.061229705811 -76.529762268066 -118.917266845703 0.546175837517
42.183544158936 -75.142669677734 -124.328575134277 1.160668730736
30.963586807251 -76.770439147949 -123.639717102051 1.833468198776
110.163169860840 -75.278663635254 -120.556236267090 1.474614620209
40.402599334717 -77.327919006348 -130.395095825195 1.122392892838
33.803325653076 -72.574157714844 -131.800857543945 1.985355734825
-44.475254058838 -75.039840698242 -142.965454101563 0.781806409359
-70.067733764648 -77.549621582031 -144.189071655273 2.662803411484
-52.728836059570 -74.447967529297 -146.803222656250 2.021234273911
-72.030723571777 -78.332382202148 -145.849243164063 2.477162599564
-38.847518920898 -74.749832153320 -147.375900268555 3.350826025009
108.216506958008 -74.856781005859 -154.325912475586 3.233307361603
-70.822319030762 -77.183822631836 -155.635299682617 2.076870679855
24.743177413940 -78.454856872559 -147.805160522461 1.986794590950
31.461267471313 -77.467361450195 -151.228881835938 1.842236042023
113.628166198730 -77.480369567871 -161.477951049805 1.199091076851
10.319824218750 -77.313209533691 -159.354141235352 2.512144565582
33.398162841797 -73.802162170410 -155.552917480469 1.236763477325
-62.941520690918 -76.884506225586 -159.024200439453 2.797629594803
-40.848186492920 -77.078292846680 -171.421234130859 2.156069278717
21.305332183838 -74.790939331055 -163.369949340820 1.339339852333
-63.709518432617 -74.657783508301 -159.479522705078 0.741513669491
-68.373985290527 -75.935188293457 -165.231826782227 2.543326854706
112.362792968750 -76.681678771973 -166.443572998047 1.773754119873
-6.933321952820 -76.301635742188 -166.591094970703 0.475538611412
-63.085769653320 -74.947685241699 -173.673263549805 1.118209600449
-31.196178436279 -76.849327087402 -168.414337158203 0.247602015734
-53.965892791748 -74.542121887207 -172.495941162109 1.747218132019
30.293924331665 -75.114486694336 -172.690582275391 2.048764467239
111.679092407227 -73.566276550293 -173.158676147461 1.600208401680
103.331588745117 -74.527938842773 -183.803131103516 0.980817437172
106.646484375000 -75.266479492188 -189.599792480469 2.378334045410
107.802932739258 -73.540924072266 -177.289611816406 1.494943976402
-51.445491790771 -74.828788757324 -190.123199462891 1.420592784882
-48.497097015381 -73.063613891602 -182.751358032227 2.775383710861
27.492149353027 -75.811431884766 -183.444625854492 1.766289591789
-48.004367828369 -74.251518249512 -186.848785400391 2.409056425095
-19.629186630249 -76.108818054199 -184.180770874023 1.588034868240
-50.110797882080 -77.512641906738 -191.370971679688 1.391330599785
-150.388824462891 -75.390701293945 -192.465362548828 1.536782860756
102.120353698730 -76.576736450195 -193.166519165039 0.746764957905
-43.926307678223 -73.366935729980 -193.786437988281 2.593180656433
-13.631269454956 -77.011306762695 -198.348815917969 2.125700712204
-139.293609619141 -76.209815979004 -194.099136352539 2.788676977158
-42.440647125244 -73.566162109375 -197.548645019531 3.005407094955
102.846038818359 -74.650238037109 -197.351058959961 1.278668642044
107.774078369141 -73.832458496094 -185.949523925781 1.650130748749
-43.678024291992 -75.492874145508 -196.247665405273 1.484724044800
-22.381460189819 -80.627334594727 -197.893905639648 3.138904571533
-147.197875976563 -79.957191467285 -199.412902832031 1.803278207779
-24.277288436890 -76.046043395996 -196.765274047852 0.810116887093
-156.685592651367 -76.893234252930 -197.456237792969 2.405959606171
-152.019287109375 -81.458747863770 -203.582031250000 1.575668811798
-142.482131958008 -77.910629272461 -201.414688110352 1.631272792816
-37.687591552734 -76.165679931641 -199.689300537109 2.359803915024
101.941574096680 -75.843719482422 -201.944869995117 2.606288909912
-40.263992309570 -73.850082397461 -199.559753417969 1.403068900108
-142.549560546875 -79.337104797363 -204.511306762695 1.458824872971
-37.131622314453 -72.566795349121 -205.610809326172 2.321076154709
-20.028457641602 -79.487991333008 -209.826812744141 3.753361225128
97.761940002441 -76.900299072266 -205.464904785156 2.078074693680
92.004165649414 -76.163169860840 -213.500793457031 1.101364254951
-33.753684997559 -74.215370178223 -217.006973266602 3.121018648148
-86.779998779297 -76.768394470215 -210.703384399414 1.285495400429
-74.998153686523 -76.322006225586 -211.463134765625 0.831925213337
-17.984022140503 -75.718963623047 -213.666473388672 1.989835739136
-149.138854980469 -76.945693969727 -205.414794921875 1.371270179749
90.891693115234 -75.250701904297 -213.693756103516 0.905514776707
89.597679138184 -73.517013549805 -218.440338134766 1.261579513550
90.860092163086 -75.253288269043 -220.315307617188 1.434606671333
-101.629661560059 -75.818687438965 -219.915893554688 2.506223440170
-152.399551391602 -78.422477722168 -221.550079345703 3.426273107529
-19.368783950806 -74.422584533691 -222.547225952148 1.530300498009
80.546745300293 -73.023590087891 -226.230560302734 2.115374088287
-148.987518310547 -79.331657409668 -223.537826538086 2.669854164124
-27.377443313599 -76.699714660645 -218.869659423828 1.512748241425
-132.891998291016 -74.549758911133 -230.900329589844 1.283903479576
-11.214786529541 -77.832519531250 -229.932601928711 1.873470664024
18.095382690430 -74.836502075195 -226.064178466797 0.904734849930
20.274234771729 -76.322998046875 -232.746215820313 1.941333293915
-154.222335815430 -79.109420776367 -233.794265747070 2.372370243073
-125.310844421387 -72.877540588379 -232.390686035156 1.786749362946
-7.634897232056 -74.861145019531 -235.170150756836 1.159322381020
0.634069979191 -74.831085205078 -237.199111938477 1.345423340797
69.783973693848 -75.006034851074 -233.082641601563 1.901268720627
71.211349487305 -72.696289062500 -238.144409179688 1.414708852768
0.168401002884 -74.156677246094 -240.241302490234 1.714852094650
16.938131332397 -72.149108886719 -239.730422973633 0.555068135262
-29.661268234253 -69.983726501465 -240.491348266602 4.891441345215
-33.135524749756 -81.062988281250 -241.364532470703 0.993666589260
-46.326721191406 -75.058441162109 -238.553359985352 1.521792650223
-38.733078002930 -73.709732055664 -240.817474365234 2.093936920166
-16.921213150024 -76.723487854004 -242.664123535156 0.936481177807
-51.916275024414 -74.020690917969 -243.678680419922 2.686443805695
2.387392997742 -75.707832336426 -245.078369140625 0.884067058563
-67.664779663086 -76.295143127441 -243.959487915039 2.998568773270
21.217433929443 -76.129676818848 -247.143142700195 1.630919694901
-143.608276367188 -78.077560424805 -244.668441772461 3.643349885941
-72.168251037598 -77.903388977051 -251.452194213867 1.827004313469
15.831744194031 -76.886474609375 -249.193023681641 1.040954589844
-160.859344482422 -74.924362182617 -248.988800048828 0.552045345306
15.572781562805 -78.540748596191 -252.802368164063 1.221709132195
-79.502967834473 -71.959587097168 -250.526351928711 1.800366520882
-74.701683044434 -76.249404907227 -250.622009277344 1.668604850769
20.112039566040 -76.746276855469 -255.071136474609 1.018213748932
-88.720512390137 -75.019729614258 -251.965911865234 1.407409191132
-125.252830505371 -73.332153320313 -254.779632568359 0.648029148579
-133.105728149414 -78.036033630371 -259.154754638672 2.123545885086
-134.607635498047 -78.083633422852 -254.388854980469 3.137929677963
-146.677429199219 -76.484725952148 -260.501464843750 1.017447590828
-143.909072875977 -73.596191406250 -254.704620361328 1.559933543205
-134.432907104492 -74.275611877441 -261.377532958984 0.858956992626
-161.271087646484 -73.412765502930 -260.332519531250 2.232841491699
-126.638854980469 -74.909477233887 -265.836395263672 2.855905771255
-134.947769165039 -72.416809082031 -262.225067138672 1.378967881203
-163.332626342773 -73.434005737305 -266.940246582031 2.871424913406
-156.339981079102 -73.572601318359 -263.715026855469 2.061466932297
-148.951629638672 -74.279762268066 -265.119171142578 2.704547643661
-147.646743774414 -76.166648864746 -265.234558105469 1.480584859848
17.063528060913 -77.736755371094 -278.561676025391 1.905407905579
-165.740997314453 -75.664764404297 -266.625976562500 2.025755167007
-151.541229248047 -76.526077270508 -273.040008544922 1.656585335732
-5.352356910706 -82.149414062500 -273.005462646484 2.133394718170
-156.920852661133 -73.851913452148 -272.132843017578 3.649907588959
12.545288085938 -78.854942321777 -281.941772460938 0.917513191700
-151.955932617188 -75.362022399902 -281.430053710938 1.377661585808
-164.208023071289 -76.561622619629 -287.296020507813 2.089480400085
-154.548309326172 -77.461151123047 -279.850311279297 4.328510761261
-164.818908691406 -74.221534729004 -287.290313720703 2.647545099258
1.676766037941 -77.724754333496 -287.406555175781 2.924388885498
7.674858093262 -79.457359313965 -283.001983642578 2.358746767044
-101.730148315430 -74.096343994141 -290.545989990234 0.400164008141
-153.636077880859 -79.685050964355 -287.260375976563 2.100145339966
-148.002273559570 -73.938156127930 -285.512939453125 1.897759914398
-107.042526245117 -74.583992004395 -290.368499755859 1.454105734825
-151.938537597656 -77.665779113770 -291.442321777344 3.017006158829
-148.174240112305 -78.348236083984 -288.946197509766 2.382241487503
-71.852539062500 -77.694129943848 -292.295501708984 5.013950347900
-165.499374389648 -77.341239929199 -289.011779785156 3.647666454315
-122.860130310059 -72.957450866699 -291.071166992188 1.427969694138
-42.871971130371 -78.639350891113 -287.752136230469 1.806680083275
-153.102279663086 -75.424476623535 -288.062713623047 2.410799503326
-132.906860351563 -71.611831665039 -293.098236083984 1.569789409637
-18.356792449951 -73.412658691406 -293.737670898438 2.979355812073
-127.761993408203 -73.072319030762 -293.056518554688 2.097179412842
6.106983184814 -76.121025085449 -294.335418701172 1.255714535713
15.632738113403 -73.369194030762 -292.560699462891 2.158691167831
-133.320541381836 -73.060218811035 -291.394927978516 2.459340810776
-145.416381835938 -76.866355895996 -296.761199951172 2.379406929016
-155.976074218750 -77.540328979492 -313.424530029297 3.984039068222
-70.860252380371 -70.953536987305 -52.246749877930 1.817353129387
-21.054347991943 -70.169044494629 -63.862888336182 4.729745388031
-19.040672302246 -76.642974853516 -65.086753845215 2.484997272491
73.758872985840 -72.708969116211 -77.267257690430 2.109361171722
92.171653747559 -74.233085632324 -76.032737731934 1.225083827972
-35.865310668945 -74.442344665527 -78.957122802734 1.564751267433
76.426132202148 -74.008522033691 -79.748023986816 1.397767066956
90.643203735352 -77.730232238770 -82.516662597656 2.536187410355
69.073867797852 -74.498359680176 -83.731628417969 1.867484569550
73.783882141113 -73.817443847656 -89.017517089844 1.015861868858
-48.664882659912 -76.179618835449 -86.265296936035 1.736612677574
-90.718078613281 -76.991188049316 -88.248001098633 3.277422904968
59.808078765869 -76.435684204102 -94.054573059082 2.537135362625
51.167449951172 -76.022689819336 -99.199684143066 1.674140691757
94.813735961914 -72.155525207520 -99.509979248047 1.902941942215
-91.173171997070 -71.121070861816 -101.623916625977 4.262153148651
82.971664428711 -71.524879455566 -99.492012023926 1.489572048187
74.143150329590 -74.904640197754 -100.307151794434 2.496103763580
92.751350402832 -76.080101013184 -98.623474121094 2.052639961243
84.265281677246 -74.144966125488 -98.306358337402 1.358728051186
84.071998596191 -77.064186096191 -98.854736328125 2.323955774307
-84.309516906738 -76.567161560059 -102.326171875000 4.276270389557
43.501560211182 -73.304199218750 -106.998847961426 2.619957685471
106.482704162598 -75.283264160156 -111.161323547363 2.207174062729
109.102706909180 -74.896377563477 -111.182723999023 0.863606512547
49.124687194824 -76.870071411133 -119.007186889648 3.208755970001
112.142990112305 -76.550025939941 -121.511276245117 1.598758578300
117.582351684570 -76.971504211426 -135.385986328125 1.815638422966
-50.509223937988 -72.892410278320 -131.295440673828 2.134842872620
28.273155212402 -74.216865539551 -134.718765258789 2.170561313629
41.544479370117 -76.977020263672 -133.823410034180 2.886579036713
25.983095169067 -72.170478820801 -142.967636108398 2.382793664932
113.891525268555 -76.900062561035 -138.861022949219 1.394439339638
112.712135314941 -75.165412902832 -132.285507202148 1.038847208023
-72.750106811523 -74.801437377930 -148.248550415039 1.430562615395
-43.074977874756 -74.140678405762 -142.938812255859 0.958796858788
-70.388183593750 -73.074127197266 -151.336563110352 1.963260769844
20.556962966919 -73.324035644531 -149.911102294922 2.526346445084
113.391189575195 -72.498466491699 -149.962066650391 1.620059490204
-52.786136627197 -75.882919311523 -150.995513916016 1.955324649811
-70.415771484375 -73.527267456055 -151.042037963867 1.773648500443
-38.068912506104 -77.708473205566 -152.559326171875 1.299177765846
33.190963745117 -70.099342346191 -153.505355834961 2.476099491119
110.868537902832 -71.744964599609 -151.741806030273 0.841555178165
116.193931579590 -73.445922851563 -161.143554687500 1.433124184608
-67.425415039063 -71.868736267090 -155.113555908203 1.659737467766
-71.847068786621 -76.268898010254 -161.174591064453 2.588658809662
22.553958892822 -77.724853515625 -163.567352294922 0.913710176945
-59.316680908203 -72.720123291016 -166.921325683594 1.676906943321
-32.000228881836 -73.356262207031 -162.617507934570 1.738511681557
8.677474975586 -75.679412841797 -163.673568725586 2.734486341476
109.565773010254 -72.560653686523 -162.259963989258 1.504592657089
8.646411895752 -77.228622436523 -167.188705444336 4.537894725800
-32.040214538574 -74.949798583984 -165.802566528320 2.148036718369
-1.145871996880 -70.860786437988 -165.989318847656 1.794580817223
108.392959594727 -71.634330749512 -168.664535522461 0.941465079784
-40.609169006348 -72.249473571777 -165.710418701172 1.538333654404
29.969367980957 -71.936241149902 -172.520065307617 1.454799652100
113.794372558594 -77.095619201660 -173.018707275391 1.997602462769
-56.490612030029 -71.896209716797 -176.291107177734 1.787700653076
-27.424680709839 -76.916847229004 -174.799423217773 0.958089828491
103.760734558105 -74.413032531738 -174.701126098633 2.152408123016
29.903013229370 -72.753395080566 -170.017700195313 2.283358812332
108.390563964844 -76.011741638184 -175.762222290039 1.274793863297
-36.158294677734 -71.659362792969 -178.312133789063 1.892611861229
109.143287658691 -76.672050476074 -181.282409667969 1.760598063469
-61.134761810303 -72.383827209473 -177.692199707031 2.775593757629
-24.750986099243 -78.136520385742 -179.017791748047 1.359663605690
-145.687179565430 -70.358436584473 -183.443878173828 3.536093235016
-53.406234741211 -73.749816894531 -180.824142456055 1.353998422623
-146.381561279297 -75.078994750977 -186.115356445313 0.694377183914
-33.335090637207 -72.617675781250 -185.190597534180 0.993188142776
27.652580261230 -77.905181884766 -182.080749511719 1.298463344574
107.241874694824 -74.844589233398 -183.890975952148 1.227488994598
-33.278594970703 -74.728126525879 -184.043853759766 0.999094426632
11.732351303101 -75.042167663574 -191.080764770508 0.952802121639
18.015676498413 -74.052062988281 -203.865829467773 1.559902191162
-147.428527832031 -75.300598144531 -189.585662841797 2.153417825699
105.804840087891 -76.224441528320 -196.145690917969 2.546401739120
-20.600099563599 -72.280036926270 -193.386276245117 2.754833936691
102.104675292969 -75.119438171387 -188.840560913086 1.802802562714
13.629096031189 -72.196685791016 -189.756576538086 1.476427435875
-136.191772460938 -74.361251831055 -203.588226318359 2.247089862823
-138.086303710938 -74.380065917969 -199.764083862305 1.701231718063
101.011062622070 -76.670082092285 -201.918212890625 2.485001087189
-11.164098739624 -77.997940063477 -200.641418457031 3.170325756073
-15.625807762146 -75.349014282227 -203.180206298828 1.790874361992
11.279708862305 -76.313354492188 -207.655288696289 1.364538550377
-149.310317993164 -73.114616394043 -205.749130249023 1.600952982903
-145.532211303711 -75.965492248535 -207.922576904297 2.424098014832
100.805770874023 -70.290763854980 -205.208953857422 1.827842950821
-81.472419738770 -74.138618469238 -208.200881958008 2.443778276443
-35.307437896729 -75.071464538574 -201.810653686523 2.248139858246
19.532688140869 -76.884971618652 -213.658493041992 2.028720378876
-24.480670928955 -74.936264038086 -211.309906005859 0.892434239388
-75.817131042480 -72.984664916992 -207.912994384766 1.911896705627
91.730819702148 -74.306922912598 -210.248031616211 1.244919776917
-79.713188171387 -72.275161743164 -212.407623291016 1.818426728249
-146.657958984375 -75.015068054199 -218.475311279297 1.072714090347
-79.257583618164 -73.332267761230 -213.282516479492 1.301447272301
-12.531232833862 -70.017036437988 -210.109298706055 1.549687623978
-19.965585708618 -72.096054077148 -219.111450195313 1.628293633461
19.217357635498 -74.285095214844 -213.610839843750 2.141294240952
-4.782639026642 -75.770362854004 -219.763290405273 0.904791772366
-87.560813903809 -77.624320983887 -218.849227905273 1.449879050255
93.340049743652 -73.496871948242 -214.172180175781 1.946432471275
-97.684684753418 -73.648818969727 -215.638793945313 1.655642390251
-151.553985595703 -73.922851562500 -223.913848876953 2.551049470901
-24.496841430664 -73.471748352051 -223.850616455078 1.616627454758
18.476921081543 -74.847145080566 -216.348922729492 2.224758863449
-101.332199096680 -74.671745300293 -219.969223022461 1.554393529892
8.095737457275 -71.448112487793 -219.142761230469 2.691559553146
-24.956705093384 -74.505119323730 -215.794708251953 2.129692316055
83.555534362793 -72.681205749512 -224.721450805664 0.601962745190
-144.618865966797 -73.912841796875 -219.010894775391 1.443534374237
11.011623382568 -73.081703186035 -226.076766967773 2.302614212036
-8.792082786560 -77.282554626465 -225.935043334961 2.041653633118
18.180559158325 -68.723258972168 -222.820007324219 1.598940610886
84.324394226074 -75.040313720703 -222.806121826172 1.085870742798
-12.917428016663 -76.561447143555 -228.745376586914 2.321398735046
-129.875396728516 -75.673744201660 -226.436157226563 3.013003349304
-13.156073570251 -74.569007873535 -224.681106567383 1.265164136887
17.418844223022 -74.737632751465 -231.436538696289 1.341658353806
-126.037887573242 -76.547668457031 -227.128829956055 1.616791605949
-150.947753906250 -71.554702758789 -229.392211914063 1.846965074539
-141.732788085938 -73.574462890625 -228.755538940430 1.215784788132
-130.230102539063 -72.753379821777 -227.787170410156 2.743567943573
-12.468644142151 -72.410049438477 -225.447006225586 0.662066757679
72.522041320801 -73.884078979492 -228.663436889648 1.339837551117
-142.659851074219 -71.190841674805 -236.137680053711 0.826584815979
71.461700439453 -75.270774841309 -229.232940673828 1.920218586922
-19.781339645386 -77.472312927246 -229.831344604492 0.731745719910
-141.598739624023 -77.707427978516 -229.178237915039 1.516584277153
78.003952026367 -78.823600769043 -229.342071533203 3.265685558319
10.364885330200 -78.005088806152 -233.750167846680 1.686254262924
-140.963439941406 -78.558013916016 -235.120422363281 3.064657926559
-149.423309326172 -73.596694946289 -233.716308593750 2.482700824738
17.496110916138 -71.165344238281 -231.780960083008 1.281441807747
-2.060679912567 -76.604690551758 -237.928268432617 0.441485166550
-27.060041427612 -73.800155639648 -237.374359130859 1.281962513924
-1.019250988960 -70.471389770508 -237.862670898438 1.325138330460
-160.159454345703 -76.511444091797 -237.511993408203 3.805253267288
8.556243896484 -73.202857971191 -243.819412231445 0.834535360336
-164.102462768555 -75.012283325195 -238.546051025391 2.678496837616
-12.170398712158 -75.420829772949 -237.896774291992 2.205976247787
62.157375335693 -74.949386596680 -239.631591796875 1.728103399277
-12.463393211365 -73.399948120117 -238.332962036133 1.559396147728
-24.290534973145 -73.540382385254 -244.553680419922 2.601332187653
-24.402421951294 -73.797477722168 -241.953506469727 0.893768489361
-12.231616020203 -76.422569274902 -241.080963134766 3.139252185822
-145.682540893555 -74.769760131836 -230.852127075195 1.645843029022
8.692444801331 -73.572517395020 -242.605972290039 0.863209366798
64.852638244629 -73.689353942871 -244.120025634766 2.445508480072
15.299391746521 -72.163177490234 -245.430862426758 1.587005376816
-165.379547119141 -72.877403259277 -241.376663208008 1.660136103630
-49.884075164795 -73.274345397949 -240.910644531250 1.644708514214
4.559625148773 -80.827438354492 -248.381011962891 1.663912177086
17.602975845337 -74.253852844238 -244.543380737305 2.412848234177
-53.619037628174 -73.565277099609 -247.307281494141 2.244023799896
-2.249603986740 -70.424072265625 -248.538681030273 4.231313228607
21.537704467773 -78.880325317383 -248.245040893555 1.109365701675
-168.558074951172 -72.642578125000 -248.568420410156 2.670732021332
-66.975563049316 -77.387733459473 -248.220352172852 0.745833039284
-50.983432769775 -73.124191284180 -247.525039672852 1.719452857971
-80.531913757324 -73.325859069824 -251.373458862305 1.934914708138
-160.423187255859 -75.209732055664 -246.786880493164 2.700790882111
-150.188720703125 -68.637489318848 -249.424743652344 2.389751195908
-59.517410278320 -75.940246582031 -249.760665893555 0.817151188850
-68.180488586426 -74.048599243164 -250.036437988281 1.917072176933
-153.056686401367 -72.436454772949 -252.570724487305 0.838304162025
-151.453231811523 -75.003250122070 -252.170227050781 1.611030459404
-75.298767089844 -71.167564392090 -254.490112304688 2.555338621140
-92.879402160645 -71.818359375000 -255.280624389648 2.757192850113
-163.833343505859 -69.821830749512 -252.101821899414 1.124285936356
-156.279434204102 -74.450416564941 -259.602264404297 1.674921989441
-134.252304077148 -75.640571594238 -258.199707031250 0.656373441219
-82.563781738281 -74.142257690430 -251.431472778320 2.135358810425
-161.609512329102 -71.536796569824 -252.817565917969 2.320039033890
-141.299560546875 -72.497436523438 -256.816833496094 1.999012351036
-84.751899719238 -73.299446105957 -251.342147827148 1.132082462311
-96.160675048828 -72.010131835938 -260.410888671875 1.725043773651
-144.508789062500 -75.039329528809 -255.908874511719 2.438050746918
-92.935752868652 -73.823211669922 -256.181274414063 1.980257034302
-152.044876098633 -72.656784057617 -255.937332153320 2.347348451614
-101.767089843750 -73.662498474121 -255.638580322266 1.394881725311
-168.136978149414 -73.527435302734 -258.728118896484 3.194783687592
-160.952301025391 -75.553909301758 -263.306488037109 1.351909637451
-125.859535217285 -76.886520385742 -256.568756103516 1.963572740555
-151.142868041992 -74.304367065430 -259.363616943359 1.518431425095
-111.318992614746 -71.491249084473 -261.989593505859 1.428021907806
-13.805265426636 -72.900680541992 -262.201232910156 1.630385518074
-141.047988891602 -73.879150390625 -260.983062744141 1.513409256935
-125.309005737305 -73.498268127441 -260.130767822266 1.761916041374
-153.652847290039 -72.634460449219 -262.609497070313 2.930152654648
24.087471008301 -74.899040222168 -271.208129882813 3.319379568100
-148.161254882813 -76.361465454102 -278.598602294922 1.347210884094
-167.918243408203 -74.496025085449 -280.024322509766 2.643525600433
-7.685772895813 -74.257514953613 -279.770202636719 1.949547171593
-145.365798950195 -74.112091064453 -280.479919433594 1.780278086662
-9.043899536133 -72.751472473145 -283.516113281250 1.894691228867
13.319847106934 -74.528617858887 -286.480285644531 1.557997345924
-136.161056518555 -72.758445739746 -285.985839843750 1.434322953224
-67.798576354980 -75.870887756348 -287.122009277344 1.286880970001
-32.830055236816 -76.372360229492 -288.322052001953 0.923495233059
-112.394096374512 -74.036598205566 -284.483123779297 3.101629734039
-94.818939208984 -77.702735900879 -290.339019775391 2.909787654877
-89.137329101563 -74.438133239746 -291.544860839844 2.050227642059
-49.326793670654 -75.480438232422 -292.124298095703 3.802914619446
-115.456878662109 -78.098083496094 -288.640930175781 2.439058303833
-113.222839355469 -75.336334228516 -290.343170166016 1.845275640488
-32.589237213135 -71.871147155762 -289.494201660156 1.987497806549
-114.847198486328 -74.624549865723 -293.092132568359 1.298479676247
-126.599266052246 -70.222999572754 -290.283477783203 2.777304410934
-143.920837402344 -76.098335266113 -293.572784423828 2.250566720963
7.637145996094 -73.991394042969 -291.910522460938 1.728427171707
17.117876052856 -75.911308288574 -293.720672607422 1.553967833519
-159.426086425781 -74.148788452148 -292.798034667969 1.837565302849
-157.846755981445 -77.697242736816 -300.622894287109 3.690537214279
-146.540954589844 -75.556594848633 -310.481353759766 1.613153100014
-151.539718627930 -73.100624084473 -310.833221435547 2.295375585556
-152.132232666016 -75.767715454102 -313.532714843750 2.870329618454
30.372074127197 -76.008338928223 -15.342208862305 2.645282268524
32.289936065674 -71.341964721680 -18.726415634155 1.239690542221
22.917392730713 -73.380424499512 -24.697090148926 0.962816298008
30.378795623779 -71.180267333984 -39.718170166016 1.525674939156
-56.715820312500 -72.278579711914 -49.948272705078 1.886739253998
-63.813148498535 -72.785789489746 -50.361106872559 1.804985523224
-37.450073242188 -76.004180908203 -50.545959472656 4.145206928253
-83.083732604980 -69.573425292969 -63.085399627686 4.748552799225
82.534156799316 -76.325004577637 -74.798919677734 0.843099594116
-14.123325347900 -71.611663818359 -71.394332885742 2.946648597717
90.455848693848 -74.372634887695 -67.017845153809 3.271698713303
