5.713267803192 -75.514785766602 -284.015045166016 2.495978593826
-158.913818359375 -82.595382690430 -283.744964599609 5.579215049744
-147.504348754883 -81.835144042969 -278.036437988281 1.788550019264
-151.491653442383 -78.071296691895 -302.339202880859 1.911406517029
-40.411190032959 -94.531913757324 -75.338623046875 11.708239555359
-65.061485290527 -91.269508361816 -72.546653747559 8.586483001709
-37.820529937744 -94.080116271973 -74.026306152344 11.445413589478
-27.611673355103 -93.409744262695 -80.803604125977 12.130177497864
-68.972061157227 -91.472557067871 -71.916595458984 9.160925865173
-28.745777130127 -93.388488769531 -80.254249572754 11.564893722534
-42.979564666748 -86.698280334473 -87.887863159180 5.770654678345
-52.024620056152 -87.331878662109 -94.421691894531 5.085792541504
-60.406234741211 -95.643043518066 -95.445541381836 8.480875015259
-60.084705352783 -90.730476379395 -103.014717102051 9.022561073303
-87.927566528320 -90.538780212402 -111.297363281250 9.555096626282
44.021995544434 -84.989234924316 -126.184097290039 5.949683666229
40.019649505615 -89.066864013672 -129.508666992188 8.933191299438
-42.111865997314 -86.468162536621 -168.961410522461 7.629433631897
-40.927631378174 -84.523185729980 -164.125350952148 4.700009346008
-5.856173992157 -83.348655700684 -176.388610839844 4.342892169952
-61.852573394775 -88.275482177734 -171.538269042969 7.286169528961
-59.953937530518 -84.079788208008 -182.157150268555 6.236402511597
-57.879291534424 -84.225234985352 -176.866928100586 4.520817756653
-32.747627258301 -83.750175476074 -175.991561889648 4.472441673279
-56.279830932617 -83.180770874023 -183.614700317383 4.289473533630
-29.944189071655 -81.484611511230 -184.820922851563 2.433904170990
-147.266296386719 -84.846992492676 -183.910980224609 3.487429857254
-51.866519927979 -83.388107299805 -185.289276123047 2.522948503494
-46.075374603271 -81.230964660645 -197.549789428711 1.249945402145
-31.503168106079 -83.267723083496 -187.721496582031 2.104211330414
-34.366146087646 -84.043960571289 -192.380371093750 1.387431740761
-34.035453796387 -79.925964355469 -195.558288574219 3.047389507294
-24.093791961670 -83.508941650391 -192.545410156250 4.147866725922
-48.433650970459 -82.098594665527 -201.668914794922 0.683090567589
-145.642242431641 -80.728927612305 -192.231216430664 2.064530849457
-41.174045562744 -78.013366699219 -197.694625854492 1.729175925255
-40.929294586182 -79.841171264648 -204.324020385742 2.631567716599
-42.304019927979 -83.270973205566 -205.055694580078 5.066413402557
-46.417072296143 -79.281204223633 -203.021789550781 2.151069879532
-134.331253051758 -83.383323669434 -196.084014892578 2.277878284454
-137.382690429688 -82.694000244141 -199.861953735352 1.114031195641
-50.203250885010 -81.260932922363 -206.443176269531 3.500127553940
-61.583511352539 -84.663215637207 -207.202713012695 1.570215225220
-41.698482513428 -81.345039367676 -207.206588745117 4.563511848450
-144.496353149414 -84.619201660156 -204.416549682617 2.832720994949
-71.050773620605 -77.432235717773 -209.263092041016 0.746126830578
-37.939624786377 -82.917373657227 -212.037002563477 5.393154621124
13.447405815125 -80.491928100586 -211.399505615234 1.352976799011
-75.367195129395 -82.081695556641 -215.416412353516 2.229093790054
-31.724872589111 -77.950241088867 -217.350921630859 1.412257432938
9.865139961243 -78.007385253906 -224.186157226563 1.857812285423
-154.336914062500 -82.903739929199 -216.185577392578 4.708263397217
5.768591880798 -77.524765014648 -232.575302124023 1.077396035194
10.514751434326 -78.993049621582 -229.228210449219 1.322178363800
14.262016296387 -76.102516174316 -231.758743286133 2.142342090607
-139.686477661133 -84.798530578613 -226.014236450195 0.771765828133
-147.934173583984 -80.358360290527 -227.898834228516 1.221959829330
7.931661128998 -78.250038146973 -242.216705322266 2.207351684570
13.654158592224 -75.187995910645 -242.361602783203 1.860329270363
10.998173713684 -76.525314331055 -242.104019165039 1.592258691788
-152.564117431641 -82.897926330566 -239.897369384766 2.752503871918
-148.517883300781 -87.648674011230 -238.485519409180 2.709784746170
9.546451568604 -77.799224853516 -241.665969848633 0.732116520405
-42.922943115234 -77.574020385742 -247.401000976563 1.709616780281
14.393521308899 -75.765487670898 -253.328201293945 4.086755752563
-46.072669982910 -78.988357543945 -246.423568725586 2.006768941879
-148.917236328125 -82.572990417480 -255.341690063477 1.543554306030
13.254820823669 -76.609138488770 -258.304016113281 5.985367774963
-147.815994262695 -81.349464416504 -255.039062500000 2.362420797348
-156.943923950195 -80.788818359375 -255.389938354492 2.287552118301
11.007553100586 -74.341308593750 -261.356689453125 8.700138092041
-12.826292037964 -72.964073181152 -256.414489746094 2.301856756210
-12.905172348022 -75.192665100098 -267.143432617188 2.768211126328
-149.109390258789 -83.447517395020 -258.479522705078 1.351999163628
-159.922882080078 -74.783416748047 -259.358306884766 2.329288244247
-148.924560546875 -81.243202209473 -262.723876953125 2.504103660583
-155.295806884766 -75.561111450195 -267.024688720703 2.121490001678
-153.274063110352 -80.247375488281 -267.799530029297 3.364361047745
-12.817502975464 -76.312477111816 -273.256134033203 2.219984769821
-9.731421470642 -74.691009521484 -276.873809814453 2.765224456787
8.897992134094 -75.097785949707 -272.937622070313 6.334027767181
0.130317002535 -74.869682312012 -283.746093750000 3.025307178497
-1.561383962631 -71.651931762695 -289.297119140625 1.725989818573
-143.915115356445 -73.435546875000 -289.036254882813 3.033559799194
-150.857391357422 -76.201408386230 -291.165069580078 1.332334518433
-55.813377380371 -91.436042785645 -66.967163085938 9.908370018005
-39.297790527344 -90.361602783203 -68.233779907227 10.224908828735
-43.179504394531 -88.277038574219 -69.552978515625 6.971557617188
-41.085208892822 -89.149169921875 -68.751312255859 8.450990676880
-62.668910980225 -95.008720397949 -69.145690917969 13.248955726624
-73.019874572754 -90.330467224121 -73.857742309570 8.160989761353
-32.716098785400 -89.720542907715 -81.927085876465 7.086115360260
-37.495090484619 -91.931900024414 -89.704200744629 12.472045898438
-44.885459899902 -93.770492553711 -91.657196044922 11.342715263367
-82.061912536621 -89.118057250977 -89.352844238281 5.899184226990
-71.845039367676 -91.463752746582 -109.079124450684 10.631265640259
46.120735168457 -85.099807739258 -115.450576782227 4.388870239258
-82.520614624023 -88.462837219238 -111.291618347168 7.041309356689
44.593803405762 -85.794311523438 -127.180709838867 7.135231018066
42.654518127441 -83.504913330078 -131.838150024414 6.285649299622
36.266941070557 -84.060035705566 -127.998046875000 4.279492378235
31.986356735229 -87.186943054199 -133.401458740234 6.097170352936
33.652854919434 -83.145248413086 -141.344055175781 3.244426012039
25.194280624390 -80.562942504883 -151.564651489258 1.253337621689
-47.104690551758 -86.434532165527 -158.045333862305 7.181687355042
32.116329193115 -83.054031372070 -150.801666259766 2.413096666336
25.053335189819 -84.295562744141 -163.708740234375 4.714596748352
-42.752857208252 -85.956512451172 -156.206771850586 6.541359424591
27.527589797974 -82.667633056641 -161.865875244141 3.843958854675
-46.948040008545 -81.110382080078 -164.257064819336 2.977137088776
25.515497207642 -81.628364562988 -172.622482299805 3.331691503525
-60.647491455078 -84.258300781250 -172.605392456055 3.723982095718
-5.890301227570 -84.489685058594 -178.690216064453 5.722422122955
-34.180194854736 -82.055343627930 -177.095306396484 3.971143484116
-11.812951087952 -83.645034790039 -178.058898925781 1.213830947876
-56.947471618652 -82.781723022461 -178.126693725586 3.676813125610
22.823165893555 -82.868789672852 -178.950958251953 2.946454048157
-14.784507751465 -80.081275939941 -187.705963134766 5.204194545746
-24.526000976563 -77.683204650879 -190.484756469727 0.905924916267
-53.956775665283 -79.575149536133 -186.769256591797 1.872572064400
-30.292325973511 -82.086593627930 -190.069213867188 1.361989974976
16.746316909790 -81.415344238281 -196.505187988281 3.052881717682
-149.829330444336 -86.285293579102 -187.012100219727 4.069483757019
-29.931863784790 -81.468139648438 -193.076446533203 2.898831129074
-49.797672271729 -79.121505737305 -192.682464599609 1.570084691048
-151.494979858398 -87.258865356445 -190.800781250000 5.532992839813
-143.631072998047 -84.672531127930 -195.814102172852 2.321804046631
-25.016277313232 -80.282913208008 -201.315475463867 3.831196546555
-23.006971359253 -80.762123107910 -199.782897949219 2.430491209030
-47.170505523682 -80.019454956055 -198.954833984375 1.619711041451
-21.637916564941 -81.351142883301 -200.794006347656 1.814407587051
-50.001045227051 -80.623237609863 -202.659713745117 1.703813672066
-47.571350097656 -80.877792358398 -201.505874633789 0.471352428198
-56.381992340088 -82.151115417480 -203.878204345703 1.338371872902
-21.402914047241 -76.429153442383 -210.057296752930 1.948931097984
-148.788879394531 -82.911567687988 -212.953033447266 2.129922389984
-61.083885192871 -78.363571166992 -210.787857055664 1.453485488892
-60.071132659912 -77.810920715332 -211.002853393555 2.557091474533
-34.722007751465 -74.947875976563 -210.301269531250 2.803584575653
-15.399364471436 -76.987907409668 -210.448440551758 1.500763535500
-37.887092590332 -78.188262939453 -211.901031494141 3.000834941864
-81.791954040527 -80.271621704102 -211.793975830078 2.251030683517
-146.035400390625 -86.870498657227 -209.348419189453 3.305465221405
-34.850620269775 -80.562980651855 -212.055862426758 3.575459718704
5.365614891052 -80.579292297363 -214.824096679688 3.050301074982
-67.704483032227 -81.871955871582 -213.841262817383 2.301854133606
-68.412689208984 -79.757743835449 -216.178024291992 3.418218374252
-27.978853225708 -75.543167114258 -218.445083618164 1.754717946053
-12.384919166565 -83.345756530762 -217.214508056641 3.973895788193
-28.601543426514 -79.676666259766 -221.954162597656 3.119416475296
15.426217079163 -77.219245910645 -221.972229003906 1.059744358063
-153.194030761719 -79.085098266602 -219.196014404297 3.834348440170
-13.229632377625 -82.193832397461 -223.985000610352 5.403666973114
-158.478866577148 -83.314178466797 -225.514862060547 6.173514366150
5.018894195557 -77.831062316895 -235.655181884766 1.253465533257
9.958106994629 -73.988082885742 -232.391479492188 0.855527698994
-5.197508811951 -77.519920349121 -227.933517456055 1.339572429657
13.543848037720 -76.943130493164 -233.831756591797 2.640264749527
-140.744369506836 -84.366882324219 -232.665283203125 2.420519351959
8.230985641479 -77.255928039551 -232.136093139648 1.665257573128
-156.407760620117 -79.964317321777 -227.801330566406 3.207291364670
-148.248382568359 -81.811454772949 -232.762420654297 2.063546895981
-4.007438182831 -78.678817749023 -227.053588867188 1.172026038170
15.678131103516 -78.222389221191 -240.136093139648 1.273534297943
-34.752136230469 -74.814834594727 -242.473175048828 1.822541236877
-148.781311035156 -79.333480834961 -238.491912841797 3.057421445847
-41.270774841309 -75.967475891113 -246.625122070313 1.122396230698
-49.574348449707 -75.861289978027 -244.327041625977 2.774400949478
-37.138313293457 -75.261016845703 -244.125762939453 1.287725448608
16.239923477173 -75.966720581055 -249.068359375000 1.172682285309
-53.344848632813 -72.942672729492 -248.261566162109 2.685885667801
11.889080047607 -75.764533996582 -251.528030395508 4.478828907013
7.987132072449 -73.926239013672 -246.043289184570 2.405116796494
6.096756935120 -76.847351074219 -254.062286376953 5.928732395172
-45.022071838379 -78.782806396484 -249.872894287109 4.221921443939
19.696514129639 -76.862648010254 -253.218475341797 2.508402109146
-147.484085083008 -78.990821838379 -246.509277343750 1.904693126678
16.580099105835 -72.923522949219 -255.408630371094 5.116825580597
-3.023320913315 -79.073799133301 -255.295532226563 3.562368154526
7.088300228119 -75.294937133789 -249.720092773438 4.478152275085
-154.518905639648 -75.012107849121 -252.088973999023 2.289124965668
-151.185760498047 -82.063163757324 -257.978485107422 2.181781768799
-146.252578735352 -78.673957824707 -257.702514648438 2.718083858490
-156.768539428711 -77.815284729004 -259.446044921875 3.615763187408
11.963467597961 -70.129493713379 -270.349060058594 10.226834297180
-158.163848876953 -74.059692382813 -269.566192626953 2.102408409119
-11.103875160217 -73.773712158203 -279.358001708984 2.233001947403
-155.530731201172 -78.147697448730 -269.014739990234 3.292577981949
-149.940902709961 -74.913688659668 -278.270996093750 2.078337430954
-157.958633422852 -74.157623291016 -274.246398925781 2.353782653809
-159.546676635742 -77.885505676270 -283.374176025391 4.889724254608
-137.949676513672 -77.228454589844 -288.046325683594 0.981522798538
-157.858108520508 -76.660102844238 -287.086120605469 3.166532039642
-152.150588989258 -79.177589416504 -289.395782470703 2.154817104340
-152.419586181641 -76.183769226074 -290.181762695313 2.601240634918
-158.576828002930 -76.735473632813 -294.164947509766 3.787151336670
-151.778305053711 -72.987258911133 -291.628723144531 2.891647577286
-158.475097656250 -74.871337890625 -298.967773437500 3.654695510864
-153.193756103516 -75.638610839844 -300.917785644531 1.640565633774
-154.522598266602 -71.654098510742 -302.521240234375 2.188625335693
-51.580177307129 -85.946693420410 -63.622482299805 6.281511783600
-58.758911132813 -90.695312500000 -66.223823547363 9.633356094360
-42.688838958740 -90.699790954590 -65.243247985840 10.406320571899
-21.815048217773 -90.476554870605 -79.258644104004 12.777886390686
-48.489944458008 -91.658279418945 -93.280128479004 9.064140319824
-84.471572875977 -95.228675842285 -101.532493591309 9.717908859253
46.904502868652 -85.858909606934 -114.193016052246 5.220112323761
-73.545677185059 -91.283012390137 -105.078338623047 7.249207019806
44.957534790039 -87.037040710449 -121.359214782715 7.863497734070
42.475055694580 -84.183837890625 -128.741958618164 5.719305992126
41.848754882813 -84.408096313477 -132.105239868164 6.388012886047
38.076030731201 -83.403350830078 -142.070373535156 5.261213779449
33.124244689941 -82.292381286621 -141.819473266602 2.894482851028
35.312133789063 -87.893074035645 -143.037414550781 7.862086296082
31.735975265503 -80.160888671875 -156.826309204102 2.641896009445
-44.265331268311 -81.305824279785 -152.879135131836 1.583164215088
29.932733535767 -84.794670104980 -147.522293090820 4.595985412598
-65.973175048828 -80.851852416992 -155.834823608398 2.580107688904
-36.842090606689 -85.442863464355 -157.915069580078 4.208558559418
-61.712253570557 -84.603515625000 -166.750579833984 3.843742132187
-39.657238006592 -83.982574462891 -162.410140991211 2.556573390961
31.145771026611 -81.819213867188 -163.594787597656 2.359299421310
-35.243976593018 -87.213562011719 -164.351669311523 6.345783710480
-2.604382991791 -82.147628784180 -177.551666259766 6.574973106384
32.826892852783 -77.326843261719 -169.825881958008 3.027351379395
-9.782565116882 -81.947753906250 -175.290145874023 1.675983309746
-59.250926971436 -83.095657348633 -166.437286376953 3.529697656631
-36.560470581055 -79.653930664063 -173.340087890625 2.521368026733
-31.323238372803 -79.517593383789 -177.121459960938 2.549720287323
24.087900161743 -81.347824096680 -182.606811523438 3.144108057022
-54.465141296387 -82.577140808105 -180.016601562500 1.564392805099
-29.670223236084 -78.366020202637 -179.239700317383 0.527409851551
21.766376495361 -79.400657653809 -189.391815185547 2.618956327438
-51.710571289063 -81.749794006348 -188.507812500000 2.535733222961
-26.159704208374 -76.879074096680 -186.617584228516 2.686195373535
-54.796741485596 -79.160514831543 -186.862014770508 1.343504548073
-42.244789123535 -79.811164855957 -198.298233032227 0.905200123787
-30.507064819336 -79.099296569824 -192.982971191406 2.393419981003
-43.512851715088 -81.078819274902 -199.631118774414 1.071717977524
-24.406641006470 -79.431686401367 -195.966949462891 0.149370998144
-138.067306518555 -83.908973693848 -196.521377563477 1.825399041176
17.942716598511 -78.078285217285 -206.134552001953 0.799331545830
-134.922760009766 -80.049507141113 -198.344009399414 1.328348875046
-22.855218887329 -77.170104980469 -200.327377319336 2.544626951218
-21.425230026245 -77.151832580566 -201.154586791992 2.318393230438
-42.860290527344 -80.368522644043 -198.998107910156 1.378633499146
12.455256462097 -76.868095397949 -201.523651123047 2.133086204529
-17.386156082153 -81.011383056641 -203.048690795898 1.740303397179
-59.485443115234 -80.797073364258 -207.728912353516 2.171535015106
-36.627750396729 -79.055534362793 -208.008728027344 1.270505666733
-64.944351196289 -77.216995239258 -209.457626342773 0.713039517403
-70.804191589355 -77.564331054688 -212.626403808594 0.559097588062
14.950634002686 -76.077117919922 -215.090972900391 1.895285487175
-87.555366516113 -78.860107421875 -214.206710815430 0.921743810177
-31.164190292358 -78.078094482422 -219.482009887695 2.613193035126
-81.973052978516 -80.390441894531 -213.684234619141 1.352891445160
-149.588806152344 -83.108375549316 -214.160919189453 3.469960451126
-9.660627365112 -77.255920410156 -220.219177246094 2.399599790573
-10.942386627197 -76.210166931152 -222.640853881836 2.128989934921
10.333873748779 -77.265174865723 -222.310668945313 1.635134816170
10.139665603638 -72.319717407227 -229.479843139648 2.709488630295
-4.677196979523 -77.301658630371 -234.558853149414 2.285013198853
-141.618225097656 -78.861434936523 -221.909408569336 2.748381853104
-151.869873046875 -83.781944274902 -232.146865844727 1.661891937256
-154.157684326172 -77.929756164551 -230.645889282227 1.112573862076
1.354544043541 -77.020042419434 -240.898422241211 1.365865945816
-1.299052953720 -74.489082336426 -241.650238037109 1.750698804855
-27.096046447754 -78.808837890625 -245.757171630859 2.525507450104
-153.669372558594 -77.324249267578 -237.742813110352 3.541317701340
6.995129108429 -75.423751831055 -249.686645507813 4.430377006531
-26.855987548828 -71.957969665527 -245.571212768555 4.711420059204
15.616897583008 -74.294082641602 -243.155868530273 3.011548757553
-57.178939819336 -75.315635681152 -246.520492553711 2.960094928741
-54.313697814941 -75.758216857910 -251.466491699219 3.068104743958
-149.801132202148 -83.558387756348 -245.022811889648 2.218382120132
-66.379333496094 -76.318252563477 -250.158096313477 2.443946123123
-6.930825233459 -73.654014587402 -251.368240356445 3.338752269745
-14.324812889099 -72.659690856934 -260.325164794922 2.525744199753
-151.335342407227 -81.851371765137 -257.067565917969 1.787902712822
-137.008438110352 -76.126319885254 -256.049957275391 2.003077507019
-139.888916015625 -75.315086364746 -257.981658935547 1.157980561256
13.829567909241 -72.505325317383 -265.345642089844 7.933973789215
-150.341201782227 -77.662605285645 -270.375732421875 1.043130993843
13.165851593018 -73.480697631836 -273.573364257813 6.433178901672
-151.108779907227 -74.778610229492 -272.169189453125 2.057906150818
-2.485651016235 -74.423561096191 -282.780700683594 2.766097307205
-148.670074462891 -76.349548339844 -280.961425781250 2.607292413712
-4.154263973236 -73.127700805664 -288.531158447266 1.625605463982
-157.618255615234 -74.392829895020 -281.613983154297 4.096858024597
-148.578918457031 -73.198249816895 -282.842681884766 2.938418626785
-142.316711425781 -77.275527954102 -285.488555908203 2.155146598816
-154.633102416992 -78.789894104004 -291.494934082031 1.350731968880
-25.839424133301 -69.829589843750 -293.836853027344 3.614137887955
-158.053176879883 -74.904388427734 -290.254730224609 1.978685855865
-153.988525390625 -76.540946960449 -293.703186035156 1.913255453110
-156.996704101563 -72.544715881348 -307.200653076172 0.980888485909
-51.509609222412 -89.123123168945 -60.419506072998 9.744284629822
-34.350082397461 -92.984153747559 -66.719909667969 13.858155250549
-71.238296508789 -92.355171203613 -68.916427612305 11.408074378967
-24.842468261719 -88.000885009766 -71.902709960938 9.212837219238
-21.802024841309 -89.737960815430 -76.455139160156 11.606046676636
-81.687263488770 -90.959991455078 -82.332580566406 9.012726783752
90.233520507813 -86.315750122070 -94.332298278809 9.381746292114
-32.095489501953 -86.670043945313 -88.366088867188 8.626970291138
85.701278686523 -87.748291015625 -95.310142517090 9.541055679321
81.369468688965 -85.090820312500 -97.372642517090 8.399675369263
88.724411010742 -84.680175781250 -97.174629211426 8.131244659424
87.228424072266 -83.208290100098 -100.606483459473 7.763635635376
94.105773925781 -83.457366943359 -102.894287109375 9.738497734070
-87.960632324219 -85.924736022949 -95.832580566406 5.499578475952
56.924346923828 -84.323173522949 -113.364410400391 10.084399223328
-91.501396179199 -80.047897338867 -114.000823974609 3.875727891922
47.381813049316 -85.798683166504 -116.961517333984 6.251565933228
52.051944732666 -83.835578918457 -121.020057678223 8.312141418457
42.869514465332 -83.387939453125 -122.293609619141 4.211335659027
34.202270507813 -82.418464660645 -142.658340454102 4.016626834869
27.931688308716 -81.641921997070 -146.996871948242 2.274824857712
23.498235702515 -76.123619079590 -150.033279418945 1.617252945900
33.687770843506 -78.998298645020 -150.304534912109 1.475932359695
-46.673625946045 -84.448036193848 -157.116653442383 4.962154388428
-46.844383239746 -83.575073242188 -154.353744506836 3.595006227493
-40.581207275391 -81.583465576172 -160.057128906250 2.881238460541
25.411746978760 -79.578598022461 -158.990402221680 2.594524145126
27.622940063477 -78.737228393555 -174.164505004883 2.025995731354
-33.617465972900 -78.785514831543 -171.360961914063 1.454219937325
-34.747741699219 -78.724822998047 -162.952423095703 1.730309128761
-44.973522186279 -83.560188293457 -161.696212768555 4.361971378326
2.562453031540 -78.617744445801 -168.905120849609 2.567965030670
24.987350463867 -81.563865661621 -159.325393676758 3.241771221161
32.668254852295 -77.517555236816 -166.829238891602 3.821848630905
28.267116546631 -77.739555358887 -175.925674438477 2.810927152634
-7.973505020142 -79.597343444824 -176.503417968750 1.147586226463
-2.992958068848 -80.177413940430 -175.114913940430 3.995715618134
-57.560787200928 -80.597747802734 -170.454528808594 1.304763555527
-60.659763336182 -80.967712402344 -172.724685668945 1.956331253052
-42.137001037598 -82.092254638672 -173.546661376953 4.440417289734
-38.360477447510 -79.915031433105 -170.844284057617 2.332114219666
22.137542724609 -76.040771484375 -178.267333984375 2.872324943542
-22.085184097290 -83.195816040039 -182.343017578125 1.570837616920
-32.330863952637 -78.226448059082 -184.377838134766 1.402017116547
-61.787055969238 -83.000595092773 -181.606964111328 6.241139411926
100.242897033691 -77.051475524902 -191.514572143555 2.015497684479
20.749050140381 -81.552558898926 -179.996002197266 3.903543233871
-26.656238555908 -79.576057434082 -183.950729370117 1.059719324112
-51.110553741455 -79.899391174316 -182.478637695313 1.292503952980
-20.566188812256 -77.176284790039 -184.291610717773 1.619495153427
110.608192443848 -76.140304565430 -190.340744018555 1.479369759560
-53.744831085205 -81.855880737305 -186.564468383789 1.544869899750
13.471038818359 -79.305946350098 -193.928573608398 2.595468282700
20.308324813843 -78.449821472168 -185.306976318359 2.108829736710
-56.168331146240 -83.876647949219 -181.084457397461 3.526138544083
-24.283580780029 -78.438873291016 -186.169525146484 2.027312278748
-56.068943023682 -82.701087951660 -179.406875610352 3.012941360474
-36.287136077881 -80.279373168945 -182.680694580078 3.423238515854
-29.563314437866 -79.003913879395 -190.912796020508 1.956978082657
20.065328598022 -78.102523803711 -193.951751708984 2.182987689972
-50.067977905273 -80.433029174805 -190.870834350586 3.399658203125
102.926254272461 -74.808990478516 -199.701065063477 1.655800223351
-52.289451599121 -76.866073608398 -192.276489257813 1.743735790253
7.046444892883 -76.615051269531 -207.266815185547 1.236166238785
18.897962570190 -76.151321411133 -204.968719482422 1.159361839294
-49.542446136475 -78.919662475586 -193.945297241211 0.791149795055
-19.293556213379 -79.257209777832 -193.861907958984 1.368642568588
99.839149475098 -74.714889526367 -204.836135864258 1.120054602623
96.991760253906 -77.544235229492 -205.472732543945 2.482923030853
-49.319305419922 -78.624710083008 -190.869903564453 2.251934289932
-149.663070678711 -86.430389404297 -197.541763305664 4.297621250153
-46.905818939209 -78.579917907715 -200.188125610352 1.993123292923
-146.198410034180 -82.624923706055 -196.450958251953 1.200402498245
-137.071838378906 -78.073043823242 -197.949325561523 2.187516689301
-46.373428344727 -80.302978515625 -200.189376831055 2.073524951935
8.748065948486 -77.469482421875 -213.355056762695 1.889880537987
-17.988355636597 -75.629318237305 -208.701965332031 1.787286639214
14.262704849243 -74.977798461914 -207.245086669922 3.524532556534
89.925323486328 -76.191978454590 -220.500106811523 1.096160054207
-37.549312591553 -76.854782104492 -205.029907226563 2.055547952652
-14.272751808167 -76.240859985352 -209.862380981445 2.387470483780
-16.323177337646 -75.122940063477 -216.862396240234 2.555785417557
-37.894081115723 -77.289054870605 -209.182815551758 0.729777991772
6.403233051300 -76.299819946289 -211.274810791016 2.334456920624
-79.590522766113 -78.238487243652 -211.780334472656 1.169952869415
13.728388786316 -76.226127624512 -219.488281250000 2.439242124557
-36.977294921875 -76.976524353027 -209.588546752930 1.165518760681
-146.525711059570 -82.764877319336 -207.027542114258 2.203503608704
-145.081512451172 -76.714714050293 -209.135879516602 2.862031698227
-89.436698913574 -78.785034179688 -214.028228759766 1.581597566605
-37.143112182617 -75.543037414551 -213.311203002930 4.069534301758
-20.459299087524 -80.083160400391 -217.040359497070 1.866804957390
-33.550163269043 -77.929130554199 -212.159133911133 1.988696455956
-93.447860717773 -79.276779174805 -217.927886962891 3.226870536804
-89.576034545898 -79.319992065430 -215.750396728516 2.203655719757
5.147810935974 -78.782325744629 -226.213043212891 1.564572215080
-151.896530151367 -76.435729980469 -212.217727661133 2.961949348450
-15.717633247375 -78.919242858887 -217.491363525391 2.940709352493
6.507804870605 -80.177520751953 -224.154464721680 2.879251480103
-146.845352172852 -78.416259765625 -217.504013061523 1.473584532738
-24.118122100830 -77.655387878418 -221.475524902344 2.313128232956
-3.261225938797 -73.153251647949 -225.424468994141 3.022520303726
-8.717165946960 -76.877952575684 -224.028472900391 1.165825247765
-155.012084960938 -76.811454772949 -221.657821655273 3.541879892349
-141.679702758789 -72.366508483887 -224.550659179688 0.879807353020
-7.888026237488 -75.639160156250 -228.969512939453 2.152616977692
-151.192062377930 -83.714088439941 -226.023498535156 1.268401145935
-1.706554055214 -71.550933837891 -234.552383422852 1.368594646454
14.071968078613 -73.549819946289 -239.894256591797 0.550926625729
-4.368542194366 -76.083396911621 -236.086761474609 3.195183038712
-3.859359025955 -70.557144165039 -238.539886474609 1.332716226578
5.006041049957 -73.945808410645 -236.955001831055 2.769180059433
-154.718551635742 -78.394096374512 -235.859802246094 4.142322063446
-22.833721160889 -73.114013671875 -239.229934692383 1.558230400085
-38.049766540527 -76.525489807129 -242.345672607422 2.016593933105
0.231171995401 -72.842811584473 -238.460922241211 0.600368142128
-1.700636029243 -77.012992858887 -245.651596069336 2.065399885178
-0.554973006248 -73.489028930664 -238.855392456055 1.045768618584
-60.064476013184 -74.259475708008 -244.674697875977 0.695506274700
-152.607574462891 -74.712669372559 -245.705535888672 2.357652664185
-155.966293334961 -77.629081726074 -245.658248901367 4.207204341888
7.077425003052 -74.474212646484 -252.215591430664 6.950929164886
19.992189407349 -73.891044616699 -252.970291137695 2.086417675018
-64.472000122070 -72.755844116211 -249.657104492188 1.080289006233
-147.232528686523 -79.783798217773 -251.069869995117 1.072888731956
-157.105010986328 -79.202911376953 -252.557983398438 3.532730817795
-156.254165649414 -80.940162658691 -255.551422119141 1.678239941597
-146.853805541992 -73.590293884277 -259.724914550781 0.416698276997
-143.852127075195 -76.304031372070 -255.060394287109 2.726526498795
-13.126581192017 -73.761077880859 -260.839599609375 3.128838539124
-149.073135375977 -76.995048522949 -261.018646240234 2.364648580551
-17.801214218140 -72.903327941895 -270.342132568359 4.135399341583
-152.261718750000 -73.963050842285 -271.622558593750 2.842953681946
-152.839263916016 -73.884010314941 -280.311035156250 2.766737222672
-154.425003051758 -72.953834533691 -281.154449462891 2.523434400558
-9.127386093140 -66.386962890625 -289.026367187500 3.556589365005
-151.443923950195 -70.002090454102 -282.111755371094 1.864723563194
-33.527854919434 -71.180183410645 -289.872253417969 2.421216011047
-34.156539916992 -68.764122009277 -289.443695068359 3.350589990616
-20.991832733154 -67.990173339844 -295.376495361328 6.977940559387
-18.231468200684 -67.667190551758 -294.726104736328 5.298267841339
7.296286106110 -70.910293579102 -296.613006591797 3.879237890244
-130.738189697266 -73.635917663574 -288.733825683594 3.853898763657
-65.129524230957 -71.162315368652 -289.677032470703 1.790514111519
-46.228485107422 -68.551345825195 -292.351135253906 5.719566345215
-38.213317871094 -70.992538452148 -291.556884765625 2.040512323380
-14.875577926636 -68.102569580078 -296.317077636719 5.618649482727
-0.395263999701 -69.996681213379 -293.116271972656 1.259028077126
-148.314392089844 -73.974273681641 -294.122131347656 2.848096370697
4.030838966370 -69.217269897461 -298.809692382813 5.817723751068
-158.869216918945 -70.704254150391 -299.406066894531 2.965497970581
-158.149536132813 -75.345611572266 -299.144470214844 4.019710063934
-159.623046875000 -69.063377380371 -309.056243896484 3.484194993973
-150.827789306641 -70.824310302734 -308.075012207031 3.572130441666
-45.073875427246 -89.806892395020 -55.821384429932 12.333434104919
-49.755352020264 -92.342407226563 -59.597801208496 13.134877204895
-60.661045074463 -89.010337829590 -57.796886444092 10.612963676453
-36.496528625488 -88.067298889160 -64.512733459473 10.074659347534
-31.288740158081 -89.241027832031 -63.232345581055 11.638388633728
-15.866352081299 -87.221466064453 -73.719497680664 11.219790458679
-77.341560363770 -87.886734008789 -70.487510681152 7.381947040558
87.958190917969 -85.193496704102 -87.599693298340 6.631680965424
-85.882110595703 -88.008964538574 -78.519607543945 9.558566093445
85.666145324707 -83.803466796875 -88.132179260254 4.216539859772
90.804061889648 -81.471427917480 -93.020240783691 4.457092761993
99.435615539551 -81.579704284668 -97.714897155762 7.354402542114
-56.612079620361 -90.179496765137 -98.716255187988 7.422585487366
86.013015747070 -83.785224914551 -104.715171813965 10.991869926453
81.256042480469 -86.518661499023 -100.817565917969 11.292759895325
90.296478271484 -84.034378051758 -99.615501403809 9.059582710266
-57.336261749268 -88.218780517578 -100.195678710938 7.075414657593
53.763767242432 -82.615715026855 -105.155860900879 4.178530693054
48.685333251953 -83.119171142578 -113.918685913086 5.276663303375
43.495288848877 -84.365913391113 -111.360916137695 3.622584104538
40.012325286865 -84.003654479980 -111.515914916992 4.821837902069
-88.595558166504 -84.094818115234 -108.258354187012 3.515023946762
38.232822418213 -81.704887390137 -124.125862121582 1.430855989456
-81.833625793457 -86.983657836914 -110.187271118164 5.434731006622
43.507949829102 -83.298065185547 -132.650100708008 6.595893383026
35.699073791504 -83.250007629395 -128.274108886719 3.801553726196
36.019283294678 -77.206123352051 -127.988182067871 2.655581474304
46.087528228760 -81.304214477539 -125.601020812988 4.217522144318
42.571266174316 -83.671226501465 -134.839645385742 6.657123088837
-50.602241516113 -78.636711120605 -137.782409667969 2.852494239807
38.654842376709 -83.898918151855 -141.853820800781 5.752362251282
37.193672180176 -80.028297424316 -149.911239624023 4.085907459259
-52.781051635742 -80.423553466797 -144.554901123047 3.809955835342
-44.721096038818 -82.700019836426 -143.500320434570 6.046917915344
36.144084930420 -79.997421264648 -149.666458129883 3.021220207214
112.057205200195 -75.485343933105 -151.139602661133 1.781999707222
113.992050170898 -75.878799438477 -154.441482543945 1.546371579170
27.878210067749 -81.725395202637 -149.109161376953 2.623799324036
-39.846855163574 -83.554779052734 -152.666213989258 3.738141536713
115.535316467285 -81.707023620605 -163.983139038086 5.139644622803
-37.885204315186 -79.935897827148 -156.240127563477 1.311146974564
-67.368568420410 -81.194473266602 -162.484268188477 3.807227373123
111.168159484863 -80.008811950684 -168.582473754883 2.142910242081
23.016708374023 -79.315483093262 -170.861740112305 0.838672935963
0.991828978062 -80.516532897949 -168.015655517578 3.152423143387
112.520668029785 -77.589057922363 -164.537933349609 2.879204988480
-63.837997436523 -80.501823425293 -167.405258178711 1.212447166443
-37.536773681641 -80.710060119629 -166.648483276367 1.382738232613
112.376289367676 -76.799354553223 -174.786788940430 1.140104770660
28.945125579834 -75.953170776367 -164.586608886719 1.312759280205
-62.297748565674 -76.317756652832 -167.151412963867 0.935636162758
112.165641784668 -76.829498291016 -176.439666748047 0.848288714886
-64.901367187500 -82.214370727539 -170.857421875000 3.668932437897
-50.427143096924 -81.313743591309 -183.371154785156 1.188597202301
106.122238159180 -75.244857788086 -181.204391479492 1.138573169708
-59.681781768799 -78.806770324707 -173.148025512695 1.311299562454
111.543479919434 -74.949714660645 -186.304260253906 3.122550725937
-60.765094757080 -79.556877136230 -177.445571899414 2.210501670837
-15.249217987061 -76.892967224121 -181.571548461914 2.107609987259
-11.488999366760 -81.888702392578 -185.696853637695 5.725125312805
107.857551574707 -77.577590942383 -178.929046630859 2.101204156876
21.151559829712 -78.926673889160 -177.735092163086 1.979611992836
29.689113616943 -75.268203735352 -176.025268554688 3.289869070053
-57.313709259033 -78.845397949219 -179.428878784180 1.163404226303
17.769758224487 -76.159530639648 -187.634674072266 1.192492961884
-57.751850128174 -79.883544921875 -177.999282836914 2.594913721085
-52.606098175049 -77.190864562988 -193.178543090820 2.683554410934
11.937301635742 -75.699020385742 -189.346069335938 2.737794876099
-57.410186767578 -76.461227416992 -182.305801391602 0.350491315126
105.996391296387 -73.208930969238 -196.553054809570 2.458729505539
24.306541442871 -78.897331237793 -187.625885009766 1.436187505722
-34.455749511719 -76.344604492188 -191.629165649414 3.249654769897
-43.469810485840 -79.389778137207 -194.001235961914 1.962887525558
10.258069992065 -77.622985839844 -198.245712280273 1.650954246521
-19.750507354736 -78.668525695801 -193.605224609375 1.618831396103
-49.697380065918 -79.055480957031 -197.395141601563 2.599040031433
102.076438903809 -77.741165161133 -193.405471801758 1.302914738655
11.539166450500 -78.871810913086 -196.203369140625 2.166000127792
-134.584732055664 -83.335098266602 -198.127960205078 2.236915111542
-46.728221893311 -79.691368103027 -197.439117431641 0.557836115360
94.352256774902 -73.549354553223 -208.017089843750 1.302152037621
-149.826354980469 -85.209609985352 -200.677841186523 2.500019311905
17.130811691284 -76.270271301270 -203.367965698242 2.021668672562
-44.217708587646 -74.708114624023 -208.213668823242 5.271974563599
-32.524047851563 -78.677993774414 -209.330810546875 0.513703286648
-38.529502868652 -77.458145141602 -206.299209594727 0.868246018887
-45.677120208740 -81.299926757813 -200.587631225586 1.989995002747
98.648300170898 -73.580047607422 -212.712966918945 3.248085260391
-21.748933792114 -79.060501098633 -205.454071044922 1.650523543358
-151.455825805664 -79.944252014160 -200.806961059570 0.662270247936
14.569236755371 -77.056793212891 -209.096038818359 1.602776288986
-78.150894165039 -81.339561462402 -208.594818115234 2.828608512878
-148.216323852539 -77.631500244141 -210.252914428711 0.714533329010
93.048439025879 -73.913795471191 -221.131927490234 3.392413377762
-34.424854278564 -75.421287536621 -210.370773315430 3.120866060257
-30.713237762451 -76.218193054199 -216.000396728516 1.481351017952
7.155854225159 -75.960830688477 -215.791412353516 1.781134843826
-73.042907714844 -80.104019165039 -211.541213989258 1.715031504631
-29.627029418945 -81.295028686523 -211.657974243164 1.631474018097
-8.751250267029 -75.908607482910 -220.451278686523 3.404997348785
-73.965255737305 -78.393997192383 -215.839157104492 1.985882282257
-16.370494842529 -75.500114440918 -221.534790039063 2.507656574249
5.941423892975 -69.695312500000 -217.066925048828 2.494464874268
12.264507293701 -76.287750244141 -226.029067993164 2.913654565811
-151.848739624023 -79.804313659668 -215.156951904297 3.249335050583
-10.284075737000 -75.159881591797 -218.862319946289 1.477475047112
-100.978630065918 -73.789733886719 -220.296234130859 0.863533675671
-24.007942199707 -74.636878967285 -223.468063354492 0.710296332836
88.130165100098 -76.700569152832 -221.098434448242 2.357912540436
5.357521057129 -72.894287109375 -230.674926757813 0.788965880871
17.085073471069 -73.803298950195 -222.106979370117 2.305649995804
78.632637023926 -73.586410522461 -225.474838256836 1.474516749382
-1.380687952042 -76.178993225098 -233.504241943359 2.154647588730
83.567413330078 -73.029846191406 -225.744293212891 0.553435981274
-21.665056228638 -72.338340759277 -227.069458007813 1.631508946419
13.598343849182 -72.651748657227 -224.425979614258 1.501424551010
-149.314346313477 -79.716262817383 -218.954559326172 2.599711418152
-25.543943405151 -76.053497314453 -229.195358276367 5.604547023773
-0.893626987934 -72.858955383301 -233.958679199219 1.035562753677
-157.961227416992 -82.047470092773 -224.568069458008 5.004338264465
-139.328918457031 -78.854476928711 -226.782516479492 2.030988693237
2.668822050095 -73.955360412598 -229.472549438477 1.842464208603
-6.538409233093 -72.064727783203 -232.416137695313 1.786179184914
-139.198822021484 -74.856689453125 -228.446136474609 2.135957956314
-149.415817260742 -77.410522460938 -237.378280639648 1.777296304703
-150.702987670898 -77.295433044434 -233.997344970703 1.749601364136
-35.226505279541 -74.808471679688 -240.799789428711 1.409640192986
-146.973587036133 -78.158668518066 -241.058670043945 1.770058870316
14.364114761353 -73.105232238770 -247.051757812500 2.210609436035
1.971498012543 -72.347183227539 -248.780929565430 3.732790946960
-153.336074829102 -73.412971496582 -234.803649902344 1.763903379440
-152.417541503906 -76.380447387695 -241.921539306641 2.708580970764
-49.614204406738 -75.128532409668 -246.761611938477 0.932523310184
-34.797771453857 -74.112945556641 -248.997131347656 5.254407882690
1.335255026817 -73.324607849121 -249.036972045898 3.899698495865
-40.651374816895 -74.761642456055 -248.410186767578 3.017903089523
18.905590057373 -72.266242980957 -252.504150390625 1.627267479897
-9.121790885925 -74.468635559082 -255.658950805664 3.177601814270
-150.250534057617 -76.245033264160 -250.867111206055 2.577928781509
-12.458033561707 -76.069961547852 -256.721221923828 1.230516314507
-151.194274902344 -74.691513061523 -246.884445190430 1.926614165306
-69.818412780762 -75.195976257324 -251.557327270508 0.900930643082
-151.787918090820 -81.886863708496 -257.966339111328 2.432865142822
-130.656127929688 -74.324577331543 -257.403045654297 3.151210308075
-155.210128784180 -73.809204101563 -256.349334716797 0.569427013397
-15.968879699707 -68.937194824219 -270.384887695313 2.427890062332
-150.194046020508 -78.559577941895 -267.911102294922 3.102944850922
-153.892257690430 -74.867187500000 -265.709655761719 2.637012243271
-15.547822952271 -71.738449096680 -274.517395019531 2.550136089325
-149.767303466797 -74.550712585449 -268.589630126953 1.310503721237
-10.155613899231 -69.462005615234 -281.878295898438 1.880254149437
-51.112117767334 -69.926658630371 -287.461486816406 1.850513219833
-139.664367675781 -70.722694396973 -286.710052490234 2.281008481979
-139.601959228516 -71.714263916016 -284.296478271484 2.147156715393
-129.494354248047 -70.163024902344 -282.433105468750 4.466907024384
-57.663581848145 -69.647949218750 -288.460845947266 1.474228739738
-118.444740295410 -70.147087097168 -284.840148925781 3.183357477188
10.597571372986 -67.870429992676 -296.353973388672 3.791279554367
-63.514617919922 -68.921882629395 -290.372833251953 3.015986442566
-146.590087890625 -71.574104309082 -290.169860839844 2.930102586746
-68.156349182129 -69.192504882813 -291.806610107422 2.490335464478
-149.163757324219 -75.919746398926 -290.881500244141 0.869903624058
-122.247573852539 -69.860137939453 -289.632781982422 3.232892751694
-51.822719573975 -71.246337890625 -292.826965332031 2.000436067581
-39.611579895020 -69.606895446777 -294.114318847656 3.792220592499
-141.675064086914 -69.076545715332 -292.224945068359 1.376431703568
-18.036258697510 -66.157546997070 -289.274749755859 5.022310733795
-2.102332115173 -68.526626586914 -293.341339111328 1.027995109558
1.118255019188 -67.469390869141 -295.559204101563 3.178963422775
9.594494819641 -68.669921875000 -299.800933837891 6.275327682495
-155.167434692383 -74.504173278809 -295.135040283203 1.363051772118
-151.686706542969 -70.287338256836 -293.459197998047 2.140406131744
-62.528495788574 -88.590003967285 -63.622383117676 9.306414604187
92.747032165527 -85.001571655273 -82.692955017090 8.414278030396
83.087181091309 -84.942947387695 -85.654090881348 6.314013004303
-22.768293380737 -88.741142272949 -80.897438049316 11.467378616333
88.437034606934 -82.879135131836 -84.320419311523 5.530402660370
-32.562705993652 -88.565773010254 -83.806335449219 6.818487644196
88.878540039063 -81.724433898926 -89.455291748047 4.205653667450
98.937149047852 -81.204818725586 -89.982322692871 6.521407604218
-61.239772796631 -80.548095703125 -96.644180297852 1.074834704399
77.457191467285 -83.177177429199 -102.400543212891 8.978436470032
83.658065795898 -81.111686706543 -105.946266174316 9.938008308411
98.299674987793 -84.075195312500 -104.227996826172 11.620249748230
58.714843750000 -84.134223937988 -105.213378906250 8.590970993042
-67.158164978027 -85.572349548340 -103.453796386719 3.086991548538
-71.088516235352 -82.030990600586 -102.911041259766 2.661841630936
53.093780517578 -84.148254394531 -111.804634094238 7.465828895569
-85.720748901367 -87.662551879883 -104.884773254395 3.643864870071
48.744617462158 -79.880737304688 -124.551544189453 5.350433349609
112.977828979492 -79.082290649414 -128.994354248047 3.529445409775
114.484817504883 -80.123077392578 -141.062789916992 2.913691520691
24.805685043335 -79.017158508301 -143.555999755859 2.599284172058
112.355545043945 -80.104667663574 -136.642807006836 3.356115818024
29.684043884277 -79.232078552246 -139.990371704102 1.006296753883
115.010185241699 -74.920578002930 -140.595809936523 1.859091043472
39.476142883301 -79.092536926270 -141.139312744141 3.634460687637
-52.692504882813 -82.322608947754 -144.481094360352 5.034927845001
37.035888671875 -81.303077697754 -150.516815185547 4.512301921844
110.754035949707 -76.699333190918 -145.765167236328 1.897180438042
-46.429843902588 -80.603385925293 -146.978973388672 2.580192089081
33.197196960449 -78.587356567383 -155.570434570313 1.612133264542
-54.888713836670 -78.423286437988 -142.634185791016 1.871768116951
-55.310508728027 -81.985176086426 -148.362213134766 4.449626922607
-50.458541870117 -83.327880859375 -152.724411010742 5.297054290771
-63.649021148682 -83.097457885742 -158.262283325195 3.895916700363
114.308990478516 -79.848197937012 -157.922760009766 3.352841138840
-49.087974548340 -84.842750549316 -158.404571533203 6.556239604950
23.380186080933 -82.070655822754 -161.878494262695 3.200770139694
109.186843872070 -76.900543212891 -169.774551391602 0.877494096756
-65.059478759766 -80.700622558594 -157.496765136719 2.039979934692
-44.309085845947 -81.433181762695 -159.718597412109 3.385261297226
9.524760246277 -77.194923400879 -159.796768188477 2.205285072327
-66.965126037598 -80.919769287109 -158.866744995117 3.325799942017
-62.085689544678 -82.257125854492 -162.051498413086 2.177957534790
0.253372997046 -79.019859313965 -167.119934082031 1.851089000702
-42.560100555420 -77.388519287109 -170.360900878906 1.596522808075
30.086101531982 -76.017440795898 -172.120269775391 2.093539953232
-62.341087341309 -77.641983032227 -169.078033447266 1.875589489937
-56.137248992920 -81.142044067383 -169.843154907227 2.560407876968
17.520689010620 -80.582229614258 -166.222091674805 5.742609977722
-30.392274856567 -78.568008422852 -172.336975097656 3.399312496185
-28.933841705322 -81.261772155762 -170.633148193359 3.130921363831
15.852442741394 -78.371826171875 -180.210388183594 3.446109294891
-42.056430816650 -81.059623718262 -176.070083618164 5.085631370544
-11.044244766235 -79.045509338379 -177.031906127930 1.991533041000
-63.232501983643 -77.321624755859 -173.852966308594 1.170845627785
-6.487761974335 -76.026634216309 -177.238662719727 2.483983516693
-22.525297164917 -78.311477661133 -183.570861816406 1.264781832695
22.529403686523 -74.675155639648 -188.390792846680 1.568377971649
-38.758079528809 -79.771133422852 -175.409957885742 3.087404966354
19.672172546387 -74.430389404297 -182.223236083984 2.414465665817
-23.364782333374 -74.396713256836 -188.079040527344 0.967680215836
-32.374851226807 -79.966430664063 -183.049835205078 1.358006000519
-148.337753295898 -78.644584655762 -187.915298461914 1.459341168404
-19.973939895630 -80.337158203125 -188.989761352539 2.660012722015
-142.691925048828 -79.144577026367 -187.371124267578 2.409454345703
-152.557052612305 -80.316970825195 -185.314575195313 3.866647243500
-49.286243438721 -76.512161254883 -190.331909179688 0.706838488579
97.280220031738 -73.141105651855 -203.677215576172 2.459996461868
-145.371688842773 -80.812873840332 -190.071472167969 2.373784780502
-149.836654663086 -78.939323425293 -194.240905761719 0.995498836040
20.880140304565 -74.287033081055 -202.570526123047 1.847022652626
-138.187850952148 -79.064826965332 -195.563217163086 3.517882347107
14.579634666443 -72.810447692871 -203.893157958984 3.840834379196
-140.142608642578 -80.419807434082 -197.556671142578 3.079608678818
11.999641418457 -73.026611328125 -202.202529907227 1.199045300484
-134.936630249023 -76.675926208496 -196.683059692383 1.461141347885
4.765339851379 -73.176788330078 -209.004043579102 1.991704583168
-151.997741699219 -78.848419189453 -202.065826416016 1.125926733017
92.943450927734 -72.684234619141 -214.134017944336 1.787892937660
-17.381288528442 -77.430938720703 -209.949234008789 0.982731163502
-31.905721664429 -74.842269897461 -211.203369140625 1.473463296890
-12.619711875916 -72.633728027344 -209.431640625000 3.617284774780
-148.479919433594 -81.033767700195 -209.610702514648 1.150898933411
-36.771980285645 -76.093986511230 -207.513885498047 1.697081923485
-84.307769775391 -78.935005187988 -207.540023803711 4.886237621307
-28.326591491699 -76.644561767578 -212.591598510742 1.717515349388
14.510010719299 -74.402961730957 -217.243392944336 1.387033104897
-148.672653198242 -76.982955932617 -212.253997802734 1.009481430054
-91.774490356445 -77.466300964355 -217.815933227539 1.800657629967
-31.470087051392 -73.799263000488 -219.992797851563 3.335781812668
-28.640577316284 -73.969146728516 -223.014205932617 3.132798433304
-12.485714912415 -76.046875000000 -215.302429199219 1.679707527161
-29.007938385010 -74.708740234375 -213.307327270508 1.676310777664
-84.764022827148 -76.002388000488 -220.457611083984 3.135598659515
-90.198738098145 -79.610885620117 -219.854339599609 4.097232341766
-25.455265045166 -74.016326904297 -224.137298583984 1.528670787811
