-86.955764770508 -66.523910522461 -72.401824951172 7.303400516510
15.506278991699 -77.285820007324 -143.011993408203 8.605848312378
30.381767272949 -70.876068115234 -151.872360229492 1.713523149490
-102.727630615234 -66.362602233887 -57.750183105469 9.868950843811
88.168846130371 -76.872833251953 -206.383117675781 3.568657636642
18.310386657715 -72.928344726563 -150.825851440430 3.007688760757
21.323524475098 -66.843261718750 -149.840042114258 2.386819601059
83.229255676270 -74.645744323730 -196.241897583008 12.336969375610
25.375694274902 -73.143920898438 -144.352539062500 0.758700430393
11.135429382324 -70.144927978516 -137.005798339844 9.669209480286
-75.363273620605 -59.725730895996 -68.949859619141 9.729353904724
22.095481872559 -74.927276611328 -140.301712036133 2.718975782394
29.362312316895 -73.059020996094 -149.544952392578 2.482468128204
85.493324279785 -79.225723266602 -178.512512207031 18.639701843262
-96.015861511230 -63.395996093750 -43.473052978516 11.203022956848
22.896873474121 -71.583251953125 -124.604904174805 7.617496490479
-102.396347045898 -60.057746887207 -38.495574951172 17.862779617310
38.713493347168 -75.282684326172 -140.699081420898 1.542542815208
-107.818542480469 -60.891998291016 -38.079956054688 22.410980224609
-95.951728820801 -61.596549987793 -41.361450195313 12.203791618347
75.536720275879 -76.781486511230 -167.465667724609 30.607898712158
80.890190124512 -79.279693603516 -175.108444213867 23.963706970215
77.921821594238 -74.688842773438 -176.944961547852 25.480550765991
74.284690856934 -76.563949584961 -161.835937500000 33.334144592285
-95.912254333496 -64.279670715332 -37.267303466797 16.131141662598
-86.648483276367 -65.392944335938 -33.726654052734 14.700009346008
23.321754455566 -69.495605468750 -119.935989379883 9.281974792480
-85.370323181152 -60.257369995117 -41.134765625000 6.323174476624
53.714622497559 -72.737167358398 -143.818115234375 16.541107177734
-95.749839782715 -59.865829467773 -30.466217041016 20.261497497559
-99.071182250977 -63.191551208496 -36.819702148438 17.904901504517
-28.011894226074 -64.893836975098 -86.932540893555 9.855811119080
-87.794326782227 -61.698211669922 -20.856536865234 25.763618469238
-28.081710815430 -65.648384094238 -81.216705322266 4.751062393188
73.112403869629 -78.285034179688 -154.657485961914 35.961235046387
55.425468444824 -70.746894836426 -141.846343994141 17.963760375977
-84.707412719727 -60.947837829590 -27.567596435547 18.387977600098
-37.294944763184 -64.371322631836 -64.879730224609 8.764454841614
70.742576599121 -74.692077636719 -149.962341308594 34.506225585938
-40.272354125977 -62.779266357422 -59.855499267578 12.336737632751
-80.451622009277 -66.819458007813 -26.016387939453 20.009969711304
-43.544891357422 -68.357170104980 -63.161895751953 9.668994903564
-91.689460754395 -61.887275695801 -24.406768798828 24.174221038818
-46.081314086914 -66.250343322754 -54.225982666016 6.722440719604
-75.908462524414 -63.620758056641 -31.049499511719 13.546466827393
-79.611206054688 -59.527084350586 -27.929687500000 16.413270950317
-86.721046447754 -59.296157836914 -17.140838623047 28.657266616821
-87.684341430664 -63.526359558105 -26.018127441406 21.497674942017
-80.963363647461 -58.958168029785 -20.473510742188 23.982027053833
-83.289047241211 -66.371994018555 -20.569213867188 25.528861999512
63.647041320801 -72.308364868164 -135.718444824219 22.716135025024
-77.245353698730 -65.888763427734 -23.865234375000 21.106817245483
-63.173706054688 -65.559181213379 -12.432464599609 30.492488861084
72.123283386230 -72.699890136719 -122.628417968750 16.789102554321
40.648231506348 -74.119239807129 -106.026580810547 1.411625385284
-46.016113281250 -60.822868347168 -28.813323974609 14.909993171692
-51.684089660645 -60.063903808594 -24.915588378906 17.914833068848
-52.570625305176 -64.365074157715 -22.181243896484 21.032165527344
-40.336296081543 -61.549415588379 -27.052673339844 18.489414215088
-32.397048950195 -64.328063964844 -35.804626464844 11.688030242920
-31.069213867188 -64.294311523438 -35.757293701172 12.047595024109
68.241432189941 -79.111091613770 -105.761383056641 10.809632301331
-12.595146179199 -71.144470214844 -51.242401123047 8.206423759460
-57.884735107422 -59.234268188477 -8.178436279297 34.168720245361
-19.541656494141 -68.498268127441 -43.325958251953 9.789394378662
-38.291091918945 -68.353431701660 -21.368469238281 25.402788162231
68.007835388184 -74.462699890137 -103.516769409180 6.758643627167
-30.385116577148 -64.977928161621 -30.353393554688 17.446918487549
65.537559509277 -72.214309692383 -96.795379638672 4.108326911926
-52.654449462891 -66.638084411621 -12.046203613281 31.394046783447
-56.254425048828 -61.628585815430 -4.059204101563 38.550830841064
-52.185432434082 -57.984794616699 12.502899169922 55.203765869141
-46.308624267578 -59.594535827637 13.883728027344 57.083492279053
-55.499862670898 -76.910385131836 -340.791503906250 49.992919921875
-70.747055053711 -72.953971862793 -315.113189697266 23.987611770630
-67.131042480469 -73.729530334473 -326.441986083984 35.540683746338
-124.093627929688 -70.145111083984 -268.722686767578 4.691075325012
-90.385269165039 -75.494369506836 -271.540771484375 14.625742912292
6.773231506348 -82.439819335938 -330.715972900391 38.039825439453
-17.799430847168 -79.353141784668 -314.284088134766 22.840564727783
-90.544227600098 -72.756942749023 -259.283294677734 2.217990398407
-136.477035522461 -65.275436401367 -206.458618164063 4.017324924469
-97.370841979980 -74.557807922363 -243.711303710938 9.767468452454
-9.756355285645 -82.429481506348 -306.593811035156 16.106641769409
-17.418685913086 -81.578147888184 -296.547363281250 7.271661281586
-16.844055175781 -80.873565673828 -294.305938720703 5.247878551483
-108.715118408203 -70.199333190918 -225.339370727539 1.487558841705
-11.533935546875 -78.625900268555 -302.012878417969 10.459389686584
-19.197319030762 -76.894844055176 -283.447814941406 5.403911113739
0.556716918945 -79.819023132324 -293.528320312500 3.362055540085
-108.989517211914 -72.174430847168 -216.214416503906 6.824227333069
-12.672996520996 -80.264831542969 -280.957611083984 7.073318004608
-19.105209350586 -76.109115600586 -281.686737060547 6.795357227325
31.418556213379 -78.792228698730 -313.748748779297 26.117967605591
-108.004295349121 -71.564277648926 -212.653778076172 8.754025459290
37.439414978027 -81.501068115234 -316.419738769531 32.556968688965
-122.375137329102 -68.854248046875 -209.209884643555 4.280299663544
-7.310539245605 -77.456863403320 -282.404235839844 3.422905206680
-13.984184265137 -75.565093994141 -281.299804687500 5.768709659576
22.573066711426 -80.127792358398 -304.418182373047 13.922658920288
17.162757873535 -85.263610839844 -293.679656982422 7.562910556793
-9.720695495605 -78.806396484375 -279.206878662109 3.889626502991
-107.636138916016 -63.043411254883 -200.188964843750 3.833381414413
-109.989967346191 -71.021697998047 -196.492767333984 2.397139072418
-105.802398681641 -69.267227172852 -190.489440917969 2.295532941818
-119.569099426270 -68.458015441895 -180.012710571289 8.481350898743
40.558891296387 -83.774765014648 -304.583496093750 28.318645477295
-115.620849609375 -68.759834289551 -187.251113891602 3.662000417709
-105.593597412109 -72.269470214844 -191.761199951172 4.497049331665
38.272880554199 -82.334304809570 -303.357574462891 25.462650299072
-97.018981933594 -74.282302856445 -198.539230346680 12.633154869080
55.263587951660 -83.300430297852 -296.589538574219 39.807968139648
45.107337951660 -83.253021240234 -287.427795410156 29.156742095947
49.071754455566 -88.119453430176 -297.630432128906 35.380001068115
-109.492576599121 -73.053443908691 -164.346511840820 7.229277133942
-70.569572448730 -69.417289733887 -186.232254028320 14.793460845947
-86.956878662109 -67.050178527832 -166.310470581055 11.848616600037
-80.818870544434 -71.188301086426 -168.691192626953 13.832058906555
-85.942306518555 -72.907012939453 -172.344375610352 16.595607757568
-70.617843627930 -72.086120605469 -184.728805541992 13.162121772766
-62.421752929688 -72.090278625488 -188.474746704102 8.965315818787
-11.353271484375 -75.771881103516 -227.915893554688 1.117221951485
-102.787658691406 -67.725898742676 -155.816589355469 1.536167144775
-59.407737731934 -74.037590026855 -182.851303100586 2.963666200638
-64.529556274414 -68.957618713379 -175.339950561523 6.416673183441
-55.704322814941 -73.509414672852 -182.102447509766 1.591444969177
11.486747741699 -76.604591369629 -216.297180175781 1.984664916992
-63.707096099854 -73.812919616699 -182.743301391602 5.971759319305
-101.257736206055 -69.476028442383 -154.645477294922 2.788352251053
-56.823242187500 -74.351470947266 -179.348983764648 1.260855197906
-2.942741394043 -76.198715209961 -228.391616821289 1.311820864677
-98.136299133301 -68.791564941406 -137.112640380859 4.768129348755
-2.234008789063 -71.436203002930 -219.942993164063 1.656013369560
-97.538955688477 -63.634040832520 -129.415054321289 6.764354228973
-99.154602050781 -65.352340698242 -139.248794555664 4.409200191498
1.938606262207 -76.398925781250 -213.903030395508 4.372622966766
5.546730041504 -73.023574829102 -213.993438720703 0.630381405354
-92.066963195801 -63.442733764648 -130.327941894531 3.129231691360
-122.446960449219 -69.721260070801 -104.177627563477 24.757066726685
-16.866668701172 -74.062210083008 -168.590866088867 7.011585712433
-26.923126220703 -68.264221191406 -162.775070190430 6.570548057556
-95.590873718262 -68.216773986816 -116.010986328125 1.496623992920
-114.652221679688 -73.681327819824 -97.247146606445 18.589265823364
-90.751953125000 -74.705535888672 -121.353561401367 4.377873420715
-124.754035949707 -66.898963928223 -85.891876220703 26.159751892090
-105.222503662109 -64.378753662109 -96.504043579102 6.588406562805
-104.623489379883 -68.874031066895 -96.933807373047 7.669314861298
-13.886947631836 -74.113403320313 -160.715072631836 9.956822395325
-95.291099548340 -69.585968017578 -98.915481567383 2.249351263046
-91.051856994629 -71.504455566406 -106.794830322266 4.682094573975
-11.048881530762 -78.620620727539 -157.213134765625 10.562288284302
-115.913482666016 -65.365615844727 -78.587097167969 17.578514099121
-95.058151245117 -61.631080627441 -88.943328857422 4.644532680511
-87.980407714844 -64.985420227051 -93.719772338867 9.823961257935
18.568428039551 -77.930221557617 -183.322677612305 1.173078060150
-116.233749389648 -70.197975158691 -72.385772705078 19.729619979858
20.609397888184 -70.101280212402 -167.143035888672 1.893262386322
22.665489196777 -75.619842529297 -168.422927856445 1.954501509666
-9.424430847168 -72.971076965332 -159.342224121094 8.311439514160
9.478950500488 -73.299919128418 -155.186279296875 1.558560609818
-124.565544128418 -64.953544616699 -65.190429687500 26.849851608276
-110.429367065430 -61.534767150879 -70.181091308594 11.850133895874
-60.976165771484 -67.899795532227 -102.592514038086 7.395701885223
-59.470813751221 -68.940589904785 -97.654403686523 6.096395015717
-111.301696777344 -65.717735290527 -61.093505859375 15.530389785767
-68.263153076172 -67.200111389160 -92.842437744141 4.397482872009
11.803810119629 -73.621719360352 -152.437530517578 0.684577882290
-79.502487182617 -66.332588195801 -82.952926635742 13.897878646851
-93.503707885742 -63.575370788574 -67.253082275391 3.264356136322
23.316169738770 -73.803268432617 -152.632202148438 1.517113804817
-85.053283691406 -64.005462646484 -74.043426513672 10.732234001160
-76.391021728516 -58.244140625000 -81.497009277344 13.692200660706
-69.179367065430 -69.838806152344 -79.974945068359 11.739318847656
23.682991027832 -76.307968139648 -154.043991088867 1.367961168289
-61.612503051758 -63.223899841309 -87.660751342773 0.310595840216
-108.837379455566 -68.373306274414 -63.940551757813 13.523434638977
-95.579490661621 -69.191795349121 -61.490875244141 4.968976974487
-110.931259155273 -67.329177856445 -52.431671142578 19.007097244263
19.129768371582 -72.879646301270 -143.796188354492 4.091326236725
18.339546203613 -79.125190734863 -140.442031860352 7.633513927460
81.653678894043 -78.559394836426 -196.201354980469 14.439739227295
27.484062194824 -71.322196960449 -149.536804199219 1.434843182564
-87.062698364258 -58.274673461914 -59.837341308594 7.073786258698
12.595512390137 -73.171134948730 -144.530609130859 5.319868564606
81.395881652832 -78.038330078125 -194.980819702148 15.108986854553
88.232368469238 -76.480247497559 -191.010787963867 10.820481300354
-80.046539306641 -65.289237976074 -66.977325439453 10.523016929626
-104.726661682129 -68.014961242676 -53.773834228516 13.540192604065
-63.905014038086 -66.465789794922 -73.340667724609 9.222938537598
-65.678688049316 -69.953247070313 -68.285461425781 9.959078788757
-103.093933105469 -65.189422607422 -47.088897705078 14.552498817444
-102.628234863281 -59.889190673828 -47.908538818359 11.999289512634
-90.523017883301 -60.920814514160 -58.322021484375 3.320177078247
18.220100402832 -72.346450805664 -136.354202270508 7.841634273529
26.786430358887 -71.917091369629 -137.729660034180 1.120669245720
-96.619018554688 -67.144020080566 -41.981018066406 14.073559761047
33.173942565918 -79.474807739258 -146.163574218750 0.983588099480
33.085365295410 -73.530944824219 -150.951553344727 1.525997638702
-98.915184020996 -62.006904602051 -43.790893554688 12.628212928772
45.168617248535 -70.448684692383 -144.307449340820 9.189543724060
74.379447937012 -78.005447387695 -166.975570678711 31.980850219727
76.165229797363 -78.394187927246 -170.631149291992 29.470802307129
19.884452819824 -66.968360900879 -130.222259521484 7.966862201691
72.878868103027 -75.668045043945 -165.261032104492 33.715835571289
-89.162498474121 -60.769248962402 -32.221282958984 15.963802337646
-97.672561645508 -65.280632019043 -38.219421386719 16.701293945313
-93.471580505371 -67.177619934082 -38.742614746094 14.679530143738
78.867530822754 -69.675582885742 -161.837219238281 28.937826156616
-36.083885192871 -68.713111877441 -78.201354980469 1.207708001137
-63.979614257813 -68.267929077148 -49.474395751953 2.797564744949
-48.797607421875 -65.214012145996 -62.718872070313 12.687775611877
62.696678161621 -76.274536132813 -141.116744995117 24.040319442749
75.822578430176 -75.961006164551 -154.693237304688 33.075321197510
-39.685630798340 -69.385993957520 -66.888671875000 9.624919891357
-38.022491455078 -65.153144836426 -68.763305664063 7.725822448730
72.488899230957 -76.265838623047 -154.751678466797 36.325916290283
73.316490173340 -77.894950866699 -156.339019775391 35.384140014648
-82.830657958984 -60.002731323242 -32.974670410156 12.591177940369
67.086051940918 -77.529373168945 -146.195755004883 30.144166946411
-67.247528076172 -62.873260498047 -30.766448974609 12.402232170105
-44.951705932617 -69.064231872559 -50.193664550781 2.191192865372
-65.922172546387 -57.958816528320 -43.099853515625 2.771315574646
68.382591247559 -74.710601806641 -140.911026000977 29.183761596680
-56.415367126465 -68.985549926758 -47.192291259766 1.668230295181
30.260871887207 -74.561569213867 -118.762771606445 2.366379737854
66.083763122559 -75.379577636719 -126.221908569336 21.013292312622
43.034278869629 -72.431846618652 -117.373855590820 1.642808556557
70.466850280762 -74.054557800293 -121.556396484375 17.147420883179
-62.811775207520 -63.794273376465 -13.572845458984 29.023492813110
48.792411804199 -73.198493957520 -105.690231323242 3.257177352905
-70.254623413086 -64.393150329590 -9.101379394531 34.271308898926
-41.385513305664 -61.166259765625 -29.262145996094 16.080642700195
-67.096969604492 -59.520248413086 -12.505981445313 30.051923751831
-34.664260864258 -67.382179260254 -35.886871337891 11.760762214661
-26.617630004883 -67.106300354004 -37.603881835938 11.999629974365
52.053016662598 -70.953308105469 -98.815216064453 3.304977416992
-29.130256652832 -65.806831359863 -32.468292236328 15.831224441528
-33.529571533203 -68.138900756836 -33.403839111328 14.387976646423
-32.244903564453 -64.420104980469 -27.891265869141 19.247766494751
-49.147834777832 -63.898574829102 -21.422729492188 22.198453903198
-38.112861633301 -68.533760070801 -21.442199707031 25.432491302490
-64.555480957031 -60.394783020020 -5.769226074219 36.566436767578
-47.588241577148 -62.466873168945 -13.620330810547 29.890964508057
-57.242294311523 -62.716934204102 -0.619567871094 41.925178527832
-50.976600646973 -67.163246154785 6.660583496094 49.960258483887
-56.886146545410 -61.497207641602 1.295166015625 43.775028228760
-41.658432006836 -67.964508056641 5.268737792969 49.801456451416
-51.179046630859 -63.912521362305 7.774414062500 50.682209014893
-82.527938842773 -79.947479248047 -343.488861083984 52.742893218994
-72.617172241211 -75.425308227539 -346.826141357422 55.649055480957
-78.719757080078 -83.563949584961 -327.647003173828 37.663551330566
-51.725021362305 -77.405868530273 -338.847564697266 48.123535156250
-67.888236999512 -72.391395568848 -319.259918212891 28.336643218994
-62.789283752441 -74.205337524414 -322.779632568359 31.843704223633
-136.310485839844 -76.585083007813 -263.103393554688 2.816490173340
-8.334747314453 -81.919494628906 -332.224884033203 40.824752807617
-12.646560668945 -76.336196899414 -326.027374267578 33.986400604248
-150.816040039063 -68.614578247070 -227.564849853516 2.066141843796
-82.914413452148 -78.433319091797 -272.021697998047 15.464076995850
-145.562332153320 -67.559173583984 -223.732055664063 1.558825731277
3.971473693848 -84.233772277832 -331.603759765625 39.545055389404
-84.619873046875 -76.163482666016 -271.279846191406 15.622729301453
-13.700073242188 -76.387588500977 -313.549682617188 21.589969635010
-99.044906616211 -70.924110412598 -251.278381347656 3.121614933014
-91.358673095703 -71.686767578125 -255.403579711914 2.014422655106
-16.478797912598 -78.132057189941 -299.916870117188 8.663399696350
-100.388160705566 -61.082511901855 -240.928558349609 15.400122642517
-8.300979614258 -82.204833984375 -302.422058105469 12.575131416321
-18.286735534668 -74.446311950684 -294.200653076172 2.834943532944
-20.728523254395 -76.480407714844 -288.391479492188 1.729710578918
-12.193641662598 -82.300346374512 -298.006805419922 8.687891006470
-10.861213684082 -78.173599243164 -289.136718750000 1.572093605995
27.024406433105 -82.600555419922 -314.524505615234 25.000516891479
24.955116271973 -78.831108093262 -319.380981445313 27.528640747070
-4.223762512207 -78.693176269531 -288.845733642578 1.603767275810
25.212181091309 -86.455459594727 -321.121429443359 31.086662292480
-113.729827880859 -69.927337646484 -204.686477661133 1.644998073578
-114.398803710938 -71.357673645020 -209.838088989258 7.026153087616
28.817253112793 -85.587379455566 -312.750518798828 25.582298278809
-14.002876281738 -81.540451049805 -281.240814208984 7.609049320221
2.295677185059 -80.015937805176 -294.975830078125 4.807361125946
-113.245964050293 -74.322105407715 -201.069702148438 2.839381933212
-119.665397644043 -71.126770019531 -195.063781738281 2.628301143646
22.675682067871 -82.414321899414 -305.223693847656 15.372255325317
-18.318656921387 -77.100936889648 -274.840270996094 6.975390911102
36.065147399902 -81.499603271484 -308.622406005859 26.251821517944
-10.026618957520 -74.867912292480 -269.334716796875 3.303527832031
34.227302551270 -78.212661743164 -313.952972412109 28.095935821533
-113.257263183594 -71.413459777832 -199.732086181641 0.597577095032
35.393745422363 -81.391204833984 -310.057739257813 26.649702072144
-111.357833862305 -69.925651550293 -187.106887817383 0.790157139301
-85.217445373535 -70.722007751465 -194.852111816406 16.242662429810
-80.305160522461 -75.028015136719 -197.340621948242 12.271950721741
-93.941619873047 -68.937599182129 -182.092056274414 11.237100601196
-76.589981079102 -73.757545471191 -197.506805419922 12.010231018066
-109.751342773438 -66.254653930664 -182.472961425781 2.383364200592
-95.902557373047 -72.380477905273 -177.840469360352 9.786117553711
-106.376152038574 -74.642601013184 -178.384735107422 5.328722000122
-74.143890380859 -72.082695007324 -181.310760498047 14.087809562683
-94.043998718262 -72.530578613281 -175.839523315430 10.758073806763
-78.236679077148 -75.767570495605 -188.452148437500 20.481138229370
-80.614662170410 -66.559326171875 -183.618011474609 22.391294479370
-9.306564331055 -76.022827148438 -235.554443359375 3.077055931091
-98.969276428223 -68.950736999512 -161.931564331055 2.246250152588
-64.187950134277 -75.391624450684 -191.545440673828 11.774924278259
-103.280456542969 -71.144508361816 -153.879257202148 5.300619125366
-103.162811279297 -68.871200561523 -150.353744506836 4.369206428528
-6.205841064453 -76.781433105469 -225.935089111328 1.400275826454
-9.146308898926 -71.966743469238 -217.092926025391 3.043784141541
-96.481292724609 -68.481140136719 -148.412124633789 1.285546422005
-101.665512084961 -66.639495849609 -144.500061035156 4.592980861664
-91.730064392090 -67.468368530273 -138.624893188477 1.655811071396
6.646049499512 -81.897613525391 -206.903656005859 4.583311557770
-93.438110351563 -68.088836669922 -132.584182739258 2.569768190384
2.085098266602 -76.466445922852 -209.236389160156 5.478583812714
-125.444763183594 -67.856048583984 -102.932220458984 27.198156356812
5.929130554199 -76.661788940430 -197.142730712891 4.492131710052
12.423377990723 -76.232322692871 -195.606231689453 1.326123952866
-124.734840393066 -64.349052429199 -89.096237182617 25.644361495972
10.991859436035 -77.351776123047 -198.082275390625 0.562991499901
10.361595153809 -74.258544921875 -197.362030029297 0.651509940624
-114.553596496582 -65.042961120605 -98.218322753906 15.725158691406
-121.886215209961 -62.511955261230 -93.434768676758 22.333976745605
12.265205383301 -73.707138061523 -192.677658081055 1.248520374298
14.196098327637 -79.259628295898 -189.699371337891 2.575731277466
-114.594184875488 -61.409744262695 -96.500823974609 15.062332153320
-80.776382446289 -67.589340209961 -112.311416625977 1.733963251114
17.531990051270 -77.543655395508 -180.182601928711 2.269485950470
-99.817131042480 -62.796371459961 -101.214385986328 1.853849411011
14.217262268066 -77.207992553711 -181.026107788086 1.853081464767
-108.630165100098 -66.713760375977 -99.936996459961 10.596651077271
-119.826934814453 -63.026565551758 -83.458923339844 20.504539489746
-127.036437988281 -60.913825988770 -77.129272460938 27.883573532104
-125.097908020020 -67.147079467773 -75.864318847656 26.930410385132
-13.325653076172 -77.276641845703 -163.233581542969 7.419003963470
-126.683731079102 -66.099693298340 -71.053527832031 28.690746307373
-19.564430236816 -76.599967956543 -168.296707153320 7.925284862518
-7.437339782715 -73.020256042480 -167.426788330078 3.013711214066
14.205741882324 -80.035476684570 -182.679824829102 3.928195476532
-123.191268920898 -64.056091308594 -72.121765136719 24.751564025879
-82.815475463867 -69.649063110352 -104.542236328125 1.493237137794
-6.216064453125 -74.354293823242 -155.019500732422 8.784894943237
-117.638641357422 -58.860145568848 -72.488250732422 18.242979049683
18.757865905762 -75.484947204590 -179.038757324219 2.449716091156
-125.598373413086 -63.168701171875 -69.785552978516 27.104692459106
-93.157890319824 -64.793037414551 -97.321746826172 5.566857337952
-79.503059387207 -67.579101562500 -101.881408691406 2.156671285629
-86.659103393555 -68.891143798828 -91.775329589844 9.021729469299
-0.426315307617 -72.055664062500 -156.276718139648 4.461358547211
1.606170654297 -77.671546936035 -160.956024169922 1.740456104279
-118.067222595215 -64.160522460938 -67.031219482422 20.107036590576
-115.267471313477 -63.115631103516 -62.046081542969 18.289630889893
-114.930664062500 -68.081443786621 -55.717712402344 21.157831192017
-99.412635803223 -64.312782287598 -73.671234130859 3.436796665192
-97.585517883301 -65.902366638184 -69.967163085938 2.164755821228
10.056434631348 -77.712585449219 -150.522201538086 5.196958541870
5.429939270020 -74.632972717285 -150.124603271484 5.070319652557
-59.459552764893 -63.696945190430 -93.053314208984 4.688870906830
17.728492736816 -74.301864624023 -144.945327758789 4.911047935486
-109.054252624512 -66.404861450195 -46.866516113281 19.795202255249
-65.230194091797 -66.852546691895 -78.342010498047 8.452014923096
20.582237243652 -76.275215148926 -150.507354736328 1.831350445747
24.105674743652 -75.742279052734 -148.417739868164 1.392430782318
-65.263000488281 -68.016983032227 -79.015594482422 8.868267059326
24.277702331543 -74.846244812012 -148.101089477539 0.685499012470
-68.233871459961 -66.052536010742 -78.315795898438 9.850423812866
24.237663269043 -75.444610595703 -134.751831054688 2.669297933578
24.045143127441 -74.719650268555 -144.394104003906 1.180639982224
26.550163269043 -73.746643066406 -143.935317993164 1.350756049156
79.789299011230 -80.286254882813 -183.272048950195 22.024848937988
17.051704406738 -71.463806152344 -132.546356201172 10.133535385132
29.394538879395 -69.341346740723 -138.227874755859 2.084398508072
39.195365905762 -77.900718688965 -148.910064697266 5.229946136475
33.531257629395 -74.005668640137 -143.535003662109 2.595016479492
30.362037658691 -75.233291625977 -141.435409545898 3.558197975159
76.855888366699 -83.402893066406 -181.792358398438 26.123128890991
86.082145690918 -81.515808105469 -182.336181640625 17.358383178711
37.555412292480 -73.512420654297 -138.813705444336 1.273720741272
76.740089416504 -77.848114013672 -167.848327636719 29.470928192139
75.688713073730 -77.939964294434 -171.052474975586 29.799713134766
68.286155700684 -75.859313964844 -163.288436889648 35.821304321289
70.182151794434 -77.268142700195 -156.370208740234 36.083023071289
66.471992492676 -78.506591796875 -154.263931274414 32.252586364746
-67.400604248047 -67.535285949707 -48.286804199219 3.142984867096
29.958702087402 -71.236091613770 -122.417053222656 2.413697719574
59.690437316895 -79.002372741699 -139.445541381836 20.992555618286
74.178291320801 -74.918045043945 -160.925323486328 33.513984680176
56.375007629395 -76.660995483398 -137.619171142578 16.958940505981
-41.632774353027 -66.787399291992 -66.794708251953 10.683102607727
66.503929138184 -77.090606689453 -150.686599731445 30.841461181641
-79.466308593750 -66.706748962402 -33.170043945313 13.421714782715
-51.611022949219 -64.781097412109 -54.711212158203 8.401238441467
-43.668731689453 -72.500892639160 -58.996368408203 4.274211406708
33.727821350098 -73.489875793457 -120.377410888672 1.246030330658
-78.141052246094 -63.076309204102 -38.636199951172 6.953629970551
68.485099792480 -77.676757812500 -143.277160644531 30.320137023926
-42.260139465332 -68.783607482910 -62.217132568359 8.786618232727
61.765571594238 -79.113906860352 -135.821731567383 21.245119094849
-65.052497863770 -69.703826904297 -38.573211669922 7.456645488739
-44.678977966309 -68.075363159180 -57.731506347656 7.558496952057
-41.338829040527 -64.746627807617 -59.069213867188 10.492158889771
-50.934593200684 -68.551399230957 -50.017639160156 2.466043472290
-64.787399291992 -66.344482421875 -39.843841552734 4.885648727417
63.939933776855 -78.361007690430 -137.538375854492 23.872558593750
-45.976730346680 -65.975112915039 -50.616577148438 4.219348430634
-72.894592285156 -61.979454040527 -33.053497314453 10.988868713379
42.171348571777 -77.416442871094 -109.284332275391 1.024141550064
-66.703735351563 -65.559257507324 -13.140411376953 30.216194152832
44.392524719238 -74.426544189453 -102.073516845703 1.323070287704
52.281608581543 -72.850379943848 -101.550018310547 2.107151985168
-49.560569763184 -68.886337280273 -20.653656005859 23.807729721069
-42.592315673828 -65.348815917969 -29.023590087891 16.413743972778
-46.066276550293 -67.195922851563 -14.125976562500 30.192710876465
-37.679740905762 -62.263732910156 -17.817962646484 28.051792144775
-54.674873352051 -62.389404296875 0.443939208984 43.175567626953
-53.064254760742 -66.871513366699 -0.258209228516 42.991397857666
-54.993904113770 -70.989151000977 -3.458648681641 40.460647583008
-55.596641540527 -64.918685913086 3.512084960938 46.427486419678
-44.148803710938 -63.050598144531 -1.173126220703 42.598133087158
-48.131042480469 -60.794441223145 -2.616149902344 40.504077911377
-43.914855957031 -64.673233032227 8.915039062500 52.744129180908
-82.123886108398 -75.846008300781 -319.703735351563 28.750043869019
-54.132537841797 -79.764266967773 -334.388153076172 43.806922912598
-68.097183227539 -79.105468750000 -318.050933837891 27.516864776611
-62.107875823975 -74.809257507324 -319.262969970703 28.399267196655
-122.719818115234 -74.360191345215 -267.069580078125 4.617506504059
-143.731536865234 -73.700393676758 -241.622619628906 1.877850055695
-17.236000061035 -84.428024291992 -331.996215820313 41.199737548828
-15.229766845703 -83.621688842773 -325.500793457031 34.671680450439
-21.341003417969 -85.734451293945 -319.511779785156 29.590951919556
-147.708068847656 -71.256492614746 -212.828994750977 3.038886070251
13.475547790527 -82.893585205078 -329.268554687500 35.935569763184
-95.945541381836 -82.036895751953 -248.186126708984 10.300225257874
-17.959465026855 -84.991516113281 -308.632263183594 19.252313613892
-107.389335632324 -80.737503051758 -238.880523681641 13.170894622803
-106.993309020996 -79.325881958008 -236.380096435547 10.736532211304
-16.038337707520 -80.999588012695 -289.622467041016 3.803659915924
22.507926940918 -82.140609741211 -317.474517822266 25.585077285767
-3.981491088867 -83.052597045898 -295.601684570313 7.794503688812
-9.935920715332 -81.582443237305 -292.588531494141 4.612853050232
-13.120918273926 -79.876670837402 -283.119232177734 5.346008777618
-9.155334472656 -78.317337036133 -291.123901367188 1.771096706390
26.209465026855 -86.489013671875 -316.032104492188 27.158866882324
0.736099243164 -81.669471740723 -291.560668945313 4.356863498688
-13.279220581055 -80.285255432129 -279.257751464844 7.092992305756
12.406745910645 -77.741775512695 -295.770782470703 2.903057813644
23.109809875488 -86.238113403320 -298.214996337891 13.185225486755
-114.862960815430 -75.808181762695 -202.727645874023 4.947040081024
-112.360839843750 -71.123962402344 -189.676620483398 2.815567970276
-110.261093139648 -73.295783996582 -191.405014038086 3.353363752365
-94.507812500000 -77.688552856445 -203.104782104492 11.823377609253
-84.229286193848 -69.705024719238 -195.463729858398 15.533713340759
-115.352447509766 -68.252632141113 -181.430007934570 4.265057086945
-105.859603881836 -73.254005432129 -190.838912963867 4.716156005859
-96.034683227539 -73.577423095703 -181.664642333984 11.107275009155
-83.275451660156 -73.262329101563 -194.726730346680 15.408909797668
-111.546577453613 -72.518974304199 -174.424285888672 6.033837318420
-107.796524047852 -68.204711914063 -176.276199340820 2.584472179413
-72.166656494141 -71.834869384766 -192.761016845703 16.253303527832
-75.933624267578 -75.186782836914 -194.304687500000 14.490611076355
-92.742019653320 -76.402236938477 -177.187820434570 14.266213417053
-72.315605163574 -70.840148925781 -185.932052612305 15.505206108093
-90.211006164551 -72.215248107910 -172.255905151367 12.474881172180
-12.958175659180 -80.148284912109 -234.432342529297 6.015674591064
-71.679199218750 -70.227958679199 -181.680053710938 13.050772666931
-74.080825805664 -73.105636596680 -184.090225219727 15.381735801697
-11.852424621582 -78.074050903320 -215.353393554688 1.842844128609
-14.324577331543 -78.915725708008 -216.700210571289 3.022613763809
-126.893104553223 -68.261894226074 -107.116180419922 29.032535552979
-90.689590454102 -68.280975341797 -124.915267944336 3.160580158234
-83.920532226563 -69.600845336914 -115.241027832031 2.778548479080
-119.660064697266 -69.623176574707 -87.549316406250 22.004625320435
-86.262565612793 -72.114112854004 -117.887390136719 3.158606767654
-118.681297302246 -68.805839538574 -82.081832885742 20.924081802368
-84.862365722656 -69.123085021973 -106.501922607422 1.392265200615
-112.886428833008 -69.364753723145 -80.902740478516 15.842344284058
-115.805450439453 -64.296691894531 -80.006622314453 17.216316223145
-105.292808532715 -67.258300781250 -69.304443359375 8.887733459473
-97.378150939941 -62.352500915527 -65.277221679688 2.303135156631
-100.967575073242 -63.533134460449 -63.142974853516 5.465673446655
-66.766075134277 -70.825798034668 -93.460708618164 2.095648527145
-62.700462341309 -69.162284851074 -93.356216430664 2.305115461349
-77.553466796875 -70.210365295410 -74.578979492188 9.473909378052
-66.425559997559 -65.058807373047 -83.328170776367 5.666456222534
-98.842407226563 -63.432533264160 -55.954376220703 6.086279392242
19.213371276855 -73.372238159180 -150.168029785156 3.289940595627
-84.341293334961 -67.604080200195 -64.687377929688 6.049808025360
-90.469421386719 -62.755371093750 -55.446594238281 1.950172781944
-79.430892944336 -65.546333312988 -60.420440673828 7.659162521362
16.548606872559 -76.760879516602 -135.319198608398 9.761997222900
36.945732116699 -80.723297119141 -146.732101440430 4.355954647064
79.933555603027 -78.555068969727 -178.815093994141 23.559741973877
51.960868835449 -74.968132019043 -145.480361938477 15.304140090942
80.124702453613 -77.697250366211 -172.000686645508 25.279132843018
67.747901916504 -77.367210388184 -159.697692871094 34.437290191650
74.029716491699 -75.922195434570 -167.698318481445 31.929491043091
-81.293899536133 -66.765205383301 -39.087585449219 8.844049453735
-82.904724121094 -63.445915222168 -38.690673828125 8.314130783081
71.508384704590 -76.772476196289 -152.074417114258 35.978664398193
67.059516906738 -76.277320861816 -147.190643310547 30.252542495728
77.726295471191 -77.510665893555 -158.550949096680 30.680562973022
-77.672973632813 -61.359855651855 -41.610351562500 3.630323410034
-62.057815551758 -67.420104980469 -42.497680664063 3.079844713211
-55.855873107910 -68.445678710938 -55.389862060547 6.468574047089
-69.709915161133 -60.432739257813 -48.614135742188 5.929986000061
-67.571830749512 -66.184494018555 -36.614044189453 8.102563858032
-57.620300292969 -66.420394897461 -46.430023193359 2.267009735107
-74.482307434082 -66.862129211426 -41.555725097656 4.758716583252
-55.345909118652 -66.877792358398 -49.832336425781 3.760229110718
-56.555068969727 -64.380470275879 -48.715393066406 4.451260089874
-58.848594665527 -63.698028564453 -43.959381103516 1.748134136200
-49.044761657715 -65.033004760742 -54.088928222656 8.022157669067
43.144004821777 -75.835250854492 -117.479217529297 1.751222968102
62.894950866699 -73.134048461914 -134.676605224609 21.575790405273
-71.568847656250 -69.989784240723 -33.411926269531 12.767341613770
66.299415588379 -75.752388000488 -132.442428588867 24.043977737427
48.717552185059 -74.824729919434 -109.117019653320 1.290423035622
69.628105163574 -75.145980834961 -114.804260253906 13.106826782227
-52.067588806152 -65.878273010254 -17.342834472656 26.111036300659
-42.880897521973 -69.228073120117 -28.812164306641 17.424655914307
-51.149177551270 -69.482414245605 -17.920745849609 26.354349136353
-62.890724182129 -68.235504150391 -3.413757324219 39.856903076172
-44.421783447266 -66.650970458984 -21.847686767578 22.897867202759
-38.733673095703 -66.902870178223 -27.096588134766 19.771728515625
-43.886894226074 -65.074058532715 -23.328674316406 21.233354568481
-52.091995239258 -63.449546813965 -4.044097900391 38.835315704346
-87.464706420898 -69.400436401367 -338.494232177734 46.854183197021
-75.680465698242 -73.601478576660 -341.149230957031 49.973609924316
-71.280395507813 -77.507438659668 -337.855529785156 46.871017456055
-58.138847351074 -83.851516723633 -341.196777343750 51.285949707031
-72.294311523438 -74.610778808594 -326.316955566406 35.129394531250
-72.716232299805 -72.238945007324 -313.743103027344 22.528673171997
-110.692008972168 -75.682083129883 -270.064239501953 9.377194404602
-145.915206909180 -75.949920654297 -241.343750000000 0.775122106075
-97.984069824219 -75.435653686523 -281.773284912109 6.012821197510
-20.841484069824 -83.244125366211 -318.134002685547 27.482217788696
4.930152893066 -81.493316650391 -338.996063232422 46.261341094971
-11.870315551758 -82.065658569336 -303.671417236328 13.205455780029
-18.814125061035 -86.447677612305 -303.263702392578 15.636272430420
17.359596252441 -84.849937438965 -324.730712890625 32.157623291016
-109.663284301758 -76.483871459961 -221.494873046875 5.602610111237
-107.761352539063 -75.228744506836 -217.432754516602 6.001492500305
-16.833114624023 -80.328338623047 -283.905883789063 5.198856830597
-107.811683654785 -74.644767761230 -213.517730712891 8.898138999939
-111.488662719727 -74.047508239746 -208.072586059570 6.929717540741
-133.249176025391 -72.380874633789 -196.586273193359 1.215470790863
-113.981376647949 -72.462516784668 -201.911071777344 1.592788338661
-17.380523681641 -75.648910522461 -281.340881347656 6.246864318848
-108.403991699219 -70.956672668457 -210.543838500977 9.086085319519
-11.508644104004 -81.472915649414 -287.426086425781 4.146958827972
24.635322570801 -82.112403869629 -308.602905273438 18.918554306030
25.184989929199 -83.702934265137 -303.333618164063 15.876258850098
-101.159751892090 -74.896263122559 -193.243972778320 9.000109672546
-110.392570495605 -74.580764770508 -188.927734375000 4.724195957184
-91.603179931641 -69.756385803223 -197.900634765625 16.315303802490
-122.291641235352 -73.663986206055 -176.317825317383 13.401800155640
-94.883964538574 -68.988601684570 -181.350296020508 10.143547058105
-110.880142211914 -72.310043334961 -181.731674194336 3.241622686386
-90.545028686523 -69.480346679688 -196.971771240234 17.003469467163
-92.810310363770 -77.487709045410 -197.253784179688 16.326187133789
-108.349769592285 -72.161148071289 -177.114303588867 3.123165130615
-84.714958190918 -72.542671203613 -191.964996337891 18.511053085327
-102.166687011719 -76.476570129395 -176.419631958008 8.148261070251
-95.987319946289 -76.696655273438 -183.083877563477 13.054235458374
-85.518333435059 -74.555603027344 -186.983489990234 21.917837142944
-77.979263305664 -76.633071899414 -183.375900268555 17.913131713867
-73.878952026367 -75.530731201172 -184.858886718750 15.480535507202
-104.107757568359 -72.384696960449 -170.620666503906 3.332698583603
-107.377517700195 -72.556007385254 -157.035263061523 7.434287548065
-103.572845458984 -74.999473571777 -178.372039794922 6.788662433624
-6.804039001465 -76.822113037109 -229.156600952148 1.339335918427
-65.696449279785 -76.118194580078 -185.103393554688 8.356567382813
-9.730209350586 -80.643920898438 -222.457916259766 2.526197671890
-96.344955444336 -72.633392333984 -145.625305175781 4.201201438904
-92.781494140625 -69.369110107422 -132.631561279297 2.226940870285
-93.445442199707 -68.745742797852 -136.203491210938 2.457460641861
-101.170303344727 -69.515319824219 -137.677322387695 7.570426940918
-88.408935546875 -73.461502075195 -125.461425781250 4.003475189209
-99.068641662598 -70.386535644531 -123.558959960938 5.653677463531
-112.924697875977 -70.137557983398 -97.320846557617 15.545957565308
-89.074447631836 -72.522888183594 -118.545913696289 1.543797492981
-100.834426879883 -71.224555969238 -95.950973510742 4.851197242737
-107.105995178223 -67.952949523926 -87.476028442383 9.824131965637
-97.214797973633 -66.674621582031 -101.690185546875 1.337982535362
-118.546852111816 -63.000427246094 -80.074554443359 19.662849426270
-111.733039855957 -64.687980651855 -78.693603515625 13.394856452942
-89.865432739258 -67.962265014648 -96.176910400391 6.921515941620
-95.708137512207 -69.636558532715 -88.690292358398 1.853670358658
-110.278602600098 -59.909019470215 -86.145507812500 10.697770118713
-86.902832031250 -65.908142089844 -75.259979248047 8.602795600891
-69.917327880859 -68.107841491699 -79.278228759766 11.590259552002
-94.061683654785 -65.796600341797 -62.112731933594 2.546770334244
-71.379562377930 -69.991882324219 -78.089324951172 11.956476211548
-67.729240417480 -65.045379638672 -74.032073974609 8.138965606689
-77.127006530762 -68.494239807129 -70.304656982422 10.189939498901
-75.167327880859 -66.668319702148 -66.980926513672 11.270171165466
-65.712753295898 -70.389976501465 -76.700622558594 11.659049034119
27.502815246582 -78.996170043945 -145.359375000000 2.025151491165
-92.028366088867 -64.310462951660 -55.159667968750 2.950966119766
31.964591979980 -72.329597473145 -152.555130004883 1.161618709564
33.654792785645 -75.125701904297 -144.419036865234 2.389699697495
31.839378356934 -78.064376831055 -141.539306640625 1.234149575233
43.087486267090 -76.491104125977 -152.721939086914 8.937733650208
-89.227806091309 -63.934654235840 -52.990661621094 2.143199205399
30.053733825684 -77.379562377930 -138.190139770508 1.919810891151
46.256370544434 -74.152648925781 -149.662078857422 11.339450836182
70.389472961426 -83.612358093262 -157.070739746094 37.364143371582
73.718055725098 -75.843795776367 -165.074279785156 32.991943359375
-79.695907592773 -63.828903198242 -41.346496582031 5.024901390076
37.570411682129 -79.627723693848 -125.852554321289 1.841636776924
62.260246276855 -78.408706665039 -139.592163085938 23.215354919434
-63.052013397217 -69.238441467285 -37.334808349609 8.065203666687
-61.733268737793 -71.793403625488 -42.755493164063 5.294470787048
-59.355724334717 -75.096771240234 -53.712890625000 1.850744366646
61.859214782715 -77.285186767578 -139.327377319336 22.650354385376
-63.633487701416 -64.270614624023 -39.500335693359 5.052667617798
69.061408996582 -83.665863037109 -142.089843750000 31.233625411987
67.951515197754 -81.100570678711 -140.088714599609 28.889083862305
-77.178123474121 -64.592903137207 -24.227691650391 20.500022888184
-58.663269042969 -63.623626708984 -14.337829589844 28.342027664185
-56.697486877441 -69.851837158203 -11.523223876953 32.256019592285
-52.462936401367 -72.309036254883 -8.446044921875 36.125808715820
65.160377502441 -72.445564270020 -102.243972778320 6.517249107361
-61.753524780273 -68.580863952637 -1.466217041016 41.806030273438
-65.487686157227 -80.534797668457 -338.598175048828 48.077945709229
-60.985385894775 -77.517791748047 -326.214324951172 35.597160339355
-139.012588500977 -73.650497436523 -255.796585083008 2.867776155472
-143.122711181641 -81.940933227539 -251.537292480469 3.021984577179
-105.419174194336 -78.210205078125 -273.155273437500 13.691655158997
-98.609184265137 -79.037178039551 -280.245544433594 8.888203620911
-87.099365234375 -79.035980224609 -262.906188964844 8.775396347046
-90.753356933594 -80.832015991211 -265.241943359375 11.318850517273
-21.642402648926 -82.979255676270 -313.494079589844 23.060565948486
-146.865585327148 -73.013633728027 -211.567749023438 1.923604369164
-101.600410461426 -77.239562988281 -236.765960693359 11.660071372986
-19.426261901855 -82.786148071289 -295.668945312500 7.525272369385
-18.509925842285 -84.247100830078 -291.787231445313 6.491907119751
-7.329681396484 -83.410003662109 -293.417297363281 7.339257240295
26.374229431152 -80.490707397461 -322.044769287109 30.749010086060
-15.534019470215 -81.712463378906 -283.986175537109 5.942953109741
30.686164855957 -84.981826782227 -310.120330810547 24.442657470703
-112.965263366699 -68.485710144043 -203.782958984375 1.422553539276
-128.905288696289 -72.009704589844 -187.951385498047 7.097506999969
11.626655578613 -85.809158325195 -290.790496826172 8.096965789795
-112.921508789063 -76.695060729980 -202.344024658203 5.444543838501
-102.932556152344 -70.030860900879 -196.043411254883 5.532761096954
-109.525917053223 -73.401435852051 -188.121643066406 3.456105232239
-83.355468750000 -70.602729797363 -196.902389526367 13.710732460022
-99.251663208008 -69.394866943359 -179.161590576172 5.815300941467
-84.325828552246 -73.705307006836 -193.515396118164 16.888113021851
-95.462791442871 -73.908500671387 -173.258468627930 9.550333023071
-91.978858947754 -72.886947631836 -179.605422973633 13.698455810547
-101.695976257324 -73.105918884277 -184.877441406250 7.016001701355
-108.163734436035 -73.972625732422 -174.014083862305 5.350904941559
-86.155952453613 -79.785224914551 -189.964797973633 21.138807296753
-104.807228088379 -73.712837219238 -167.302291870117 5.334621906281
-71.389297485352 -74.215072631836 -193.682952880859 14.260316848755
-77.134567260742 -73.417465209961 -183.165939331055 17.252941131592
-12.844589233398 -81.926300048828 -240.220458984375 6.695075988770
-78.198348999023 -74.050285339355 -190.915344238281 18.512727737427
-12.294479370117 -80.526977539063 -221.092056274414 3.109034061432
-8.449478149414 -77.721649169922 -224.033843994141 1.202538490295
-13.983955383301 -83.323356628418 -219.448623657227 5.077239513397
-105.149528503418 -78.246757507324 -155.853027343750 10.901431083679
-97.221862792969 -71.270248413086 -154.218627929688 2.904493331909
-95.980979919434 -73.551567077637 -146.523559570313 5.069405555725
-99.716239929199 -73.102951049805 -143.556747436523 6.925503730774
-96.988342285156 -71.670913696289 -149.387664794922 3.082027673721
-129.623245239258 -65.501884460449 -99.546905517578 30.479078292847
-130.423019409180 -67.865760803223 -96.956634521484 31.765859603882
-88.404685974121 -75.013374328613 -126.556762695313 5.406052112579
-124.458190917969 -72.620269775391 -106.486450195313 27.681251525879
-95.470497131348 -69.542068481445 -122.995559692383 2.418625593185
-121.519477844238 -66.501075744629 -91.593734741211 22.685573577881
-83.724365234375 -74.264648437500 -113.914428710938 2.781103849411
-85.640640258789 -69.478248596191 -118.926605224609 1.249858975410
-108.901283264160 -72.266632080078 -88.692871093750 12.917963027954
-101.290199279785 -71.145469665527 -98.475265502930 5.253003597260
-85.160888671875 -71.221359252930 -108.858596801758 1.066578507423
-84.598548889160 -70.941513061523 -105.520935058594 1.613901495934
-86.243148803711 -72.094352722168 -106.832138061523 2.908850908279
-86.784500122070 -66.860694885254 -102.310028076172 4.740819931030
-102.711891174316 -75.707656860352 -90.427474975586 8.822491645813
-99.795143127441 -69.023895263672 -89.955123901367 3.244511842728
-97.462142944336 -66.517105102539 -89.905853271484 1.810714244843
-93.628623962402 -69.228988647461 -90.872161865234 2.844288825989
-92.151718139648 -66.406173706055 -86.807952880859 5.149341583252
-81.533264160156 -74.615936279297 -98.557327270508 3.307916879654
-102.619033813477 -69.239120483398 -73.057556152344 6.944187641144
-101.693458557129 -61.398986816406 -59.461944580078 6.218132972717
-102.563690185547 -68.761947631836 -60.847320556641 9.390749931335
-91.426383972168 -65.850761413574 -63.777709960938 3.223953962326
-86.111129760742 -71.188285827637 -73.195434570313 4.543371200562
-77.363647460938 -66.773941040039 -78.439727783203 13.627716064453
-86.934501647949 -66.287132263184 -59.163940429688 2.616691350937
-94.146430969238 -67.453353881836 -63.101135253906 3.654893159866
-84.289367675781 -70.568069458008 -69.402648925781 5.244998931885
-87.331756591797 -72.319221496582 -69.293853759766 2.916590929031
-91.968444824219 -64.507041931152 -59.646209716797 1.652788281441
-77.699409484863 -67.325706481934 -64.859100341797 8.705679893494
-78.218147277832 -70.039146423340 -76.298858642578 10.082033157349
23.737129211426 -74.678314208984 -141.319931030273 1.017413616180
35.184837341309 -81.434478759766 -142.242721557617 3.789138793945
42.565162658691 -82.601074218750 -143.989685058594 8.570178031921
38.022224426270 -74.766647338867 -141.886062622070 2.225510120392
22.742393493652 -75.293655395508 -133.472396850586 4.569608688354
22.042930603027 -71.450508117676 -127.007568359375 7.382405757904
66.566291809082 -80.699066162109 -153.378005981445 32.214008331299
80.031135559082 -79.926147460938 -158.319869995117 28.905084609985
-73.679824829102 -70.800415039063 -43.413085937500 5.412357807159
72.726844787598 -81.360748291016 -149.678756713867 36.956008911133
62.728858947754 -83.577690124512 -150.810089111328 28.336084365845
-83.494102478027 -63.699974060059 -31.254180908203 15.269693374634
-80.024841308594 -69.566680908203 -27.281768798828 19.689319610596
-69.117416381836 -63.122627258301 -32.843231201172 10.621036529541
45.560340881348 -79.129623413086 -121.840118408203 2.048978805542
-79.015609741211 -65.962776184082 -32.540435791016 13.557277679443
