# This PCD file was generated using the MATLAB® pcwrite function
# from Computer Vision Toolbox®.
# .PCD v.7 - Point Cloud Data file format
VERSION .7
FIELDS x y z
SIZE 4 4 4
TYPE F F F
COUNT 1 1 1
WIDTH 1457
HEIGHT 1
VIEWPOINT 0 0 0 1 0 0 0
POINTS 1457
DATA ascii
9.463582 258.884674 -73.532364
21.848162 257.401337 -72.269760
-60.152203 258.623596 -75.118286
-146.731369 263.109436 -75.138176
-156.414871 262.962341 -72.732231
-148.301346 268.412445 -78.768066
-142.315491 271.473511 -72.692863
-138.662720 267.190918 -70.222313
-10.887338 267.844788 -72.043190
-142.842087 276.028137 -77.000778
-11.251628 275.044403 -70.922318
-148.026276 286.533325 -71.224228
-146.737076 294.342102 -74.636475
-151.002579 293.018127 -75.341568
-5.469146 295.062256 -70.023125
-141.936951 294.611176 -70.236374
-34.087406 296.248810 -71.869576
-33.719749 296.731415 -70.771179
-14.274703 298.322693 -68.746948
-8.770878 298.818237 -71.930550
17.035805 301.302460 -74.669876
-124.222786 301.814972 -68.689232
-57.494629 299.933044 -73.853653
-37.269901 297.651093 -73.366470
-33.804848 300.290222 -72.827148
-8.620163 298.056244 -72.865349
1.969949 298.969238 -69.941719
-143.878906 305.242981 -73.167923
7.370411 300.150421 -71.284195
-154.344513 309.432434 -71.906693
-149.161011 312.664886 -73.084923
-154.470047 320.329071 -73.669685
-150.425308 321.664642 -70.940071
-50.537548 67.288994 -68.774506
-55.903809 65.575844 -68.976379
-62.334057 68.552429 -69.272606
-43.704212 71.133476 -70.543442
-37.030796 66.672699 -71.177841
-21.453362 75.853111 -70.753876
-80.776344 77.720795 -72.099388
84.194984 86.342789 -72.142654
-88.012276 94.332314 -68.727600
85.225929 91.492836 -70.659744
83.342613 92.509850 -68.781990
92.815613 97.527252 -67.709831
-59.520924 103.194366 -75.559021
80.801964 102.375343 -69.603027
78.332787 99.946098 -67.861008
87.771629 102.323380 -75.159874
-64.861595 106.849091 -73.440269
54.757938 110.809723 -68.615746
45.876194 116.471191 -68.241753
42.644115 115.159569 -71.835869
37.038090 121.591225 -70.533562
-88.134377 119.852852 -69.475227
35.191525 125.718903 -71.807381
-83.117317 122.530418 -71.395470
39.841328 135.786514 -72.267395
34.644932 132.672546 -70.289375
32.545902 131.560242 -69.271553
42.851608 131.000839 -71.447678
40.377083 136.773941 -71.707024
-55.916138 149.744247 -69.874924
38.104660 146.154755 -71.096786
34.951122 152.103607 -71.747383
-50.220718 151.591309 -67.654114
-49.933575 150.264282 -75.061058
32.164871 151.948059 -72.013260
111.993904 150.708420 -71.768784
115.650085 150.173370 -71.013847
25.567297 155.290756 -70.648964
-43.275082 159.586655 -73.896286
112.379829 164.020782 -68.296158
-41.114910 167.288162 -70.941986
-69.366982 168.116440 -71.471062
108.504486 171.165009 -72.903397
23.163574 170.156311 -74.781143
1.868981 171.179230 -71.655922
113.298454 167.677811 -68.830238
-64.257500 175.657867 -72.562935
-40.453896 168.983490 -69.551804
113.860733 175.514084 -71.739647
27.934669 169.119888 -70.034447
-65.822441 174.246201 -69.769646
112.597984 175.302353 -74.200470
-59.075668 182.587112 -75.201576
-52.669384 188.962723 -72.738518
107.494171 183.837585 -70.773720
-61.342392 178.946426 -72.765839
108.526718 183.698990 -70.368835
-57.447754 181.032013 -71.532974
-13.426473 188.152359 -71.946709
-13.581318 190.665695 -71.899246
110.577553 182.700012 -69.488708
20.712271 183.326172 -70.596481
29.322550 183.720154 -68.828583
-55.101696 188.349548 -68.401955
24.890318 192.078537 -70.125412
-56.622444 187.161194 -69.930344
-53.170498 194.093781 -72.524666
15.921504 189.893967 -73.708183
-59.608639 190.950455 -72.801857
109.977600 195.412933 -72.197411
23.630524 189.195755 -69.803535
-31.960648 196.009995 -70.084633
-42.977276 202.423538 -72.650261
11.527012 207.012314 -71.948128
-14.595971 200.031845 -70.181625
-49.618210 206.810638 -74.005928
104.977730 198.297440 -73.794418
15.408794 200.930573 -70.739090
-135.795212 209.140594 -71.654800
-40.807884 202.489975 -71.126961
98.735046 206.721924 -72.081375
-147.888367 210.035126 -76.913116
15.356237 201.919220 -71.024551
-39.311844 212.647430 -69.498497
-36.173939 217.607269 -72.253334
-34.530273 212.617706 -70.635124
-40.608562 205.972244 -72.244881
99.238304 212.668472 -69.830429
-17.826384 212.211945 -69.531502
-149.196243 216.037567 -70.265388
17.392065 217.949966 -69.510864
-75.526894 215.634369 -72.875053
-145.933456 219.237961 -71.240631
93.332497 216.903473 -71.269073
-32.570469 216.699921 -71.263893
-27.442642 225.739090 -71.115639
7.446671 221.821442 -72.634399
-70.311073 221.569809 -74.318893
-30.398369 222.818451 -69.855881
-2.567040 223.167938 -74.120811
-78.239891 225.910202 -75.913849
-17.109646 229.219269 -69.449547
7.429288 224.886322 -67.409271
18.482008 231.724686 -72.584045
-147.313217 226.203079 -71.366516
-9.306404 224.413986 -71.972679
-92.690536 231.120071 -68.916237
-21.019941 230.483459 -72.270142
96.125977 222.685318 -70.783791
8.920878 232.623550 -73.485863
13.385013 225.099701 -68.692146
81.656990 230.903503 -70.607887
1.444669 236.425446 -69.993988
82.703712 229.765640 -67.040352
-16.974880 229.932327 -70.523521
16.531038 229.227341 -74.578110
-143.513702 231.619171 -71.556793
-18.677742 233.206711 -71.577087
2.154035 236.647614 -69.335236
-154.508560 238.112274 -70.748070
-136.043488 238.500793 -70.106407
5.693500 233.735870 -72.363022
-5.800587 239.468079 -70.886070
-135.531998 241.494980 -71.215088
-141.714539 242.214249 -72.896393
-144.453430 247.553268 -69.742844
-34.300537 249.489502 -72.370232
-148.529037 251.857834 -71.384880
20.131199 254.313797 -68.092636
6.360196 255.912033 -70.046211
-149.943970 248.654282 -72.388626
-150.645081 251.832199 -71.614525
-45.107452 251.391617 -72.402130
-28.717716 257.050507 -69.995842
2.190192 254.012451 -73.240982
-38.610344 253.590851 -74.424927
23.617153 257.391571 -70.017067
-3.600636 256.602722 -73.419121
-150.274399 260.325684 -74.522400
-8.211349 260.824097 -72.085564
-146.981918 259.485260 -72.584427
-66.790787 260.954407 -71.147064
-150.514511 269.940521 -79.412247
-123.607002 272.670197 -70.770416
-147.851273 267.634033 -66.870293
-15.163515 274.363922 -69.034111
-143.628891 276.508545 -71.608345
-148.694489 275.769165 -69.516190
-10.918420 279.464874 -72.178406
-147.012970 283.564514 -72.686325
-3.539124 291.762939 -71.709053
-45.393116 298.161621 -73.176575
-136.432205 298.333588 -72.980270
-133.763336 293.015167 -70.594002
-126.964340 294.459564 -67.819672
-54.231445 297.511780 -72.301292
-112.964272 299.115723 -67.816200
15.752287 303.475464 -70.603386
-61.553413 299.241943 -70.094688
-144.429077 298.888580 -71.115311
-65.011436 301.235626 -70.610588
-141.514465 303.166290 -73.424217
-119.409943 297.059998 -72.510292
-48.329163 300.912262 -70.422981
-35.234512 300.530365 -70.850792
-133.003891 299.153748 -71.695839
-7.865532 299.421234 -71.244728
-0.101938 297.873993 -72.510948
6.212301 299.742828 -70.952477
15.002878 304.070587 -73.516411
-149.824112 308.861420 -70.739738
-145.670212 309.486084 -72.353119
-68.497902 71.149597 -71.571526
89.557213 82.176880 -68.320045
75.999603 84.888504 -70.916138
-26.432590 84.830574 -73.158318
85.707985 87.478287 -68.813820
-35.716755 92.130928 -71.992775
89.100426 89.253120 -70.623077
91.771606 91.275269 -71.564613
-64.554886 105.826111 -64.957085
75.095863 105.777771 -69.645264
80.584496 106.741203 -67.957840
94.196609 103.317909 -69.775497
55.152138 106.771423 -68.670471
-74.414230 109.743828 -74.249199
-73.748123 110.646515 -64.438118
49.903114 116.017876 -72.066666
-91.417465 114.670174 -73.090538
48.149849 126.922417 -69.065292
110.396164 123.440636 -68.345940
111.998634 141.943192 -65.878151
29.514332 147.608810 -67.907623
112.868973 139.107376 -68.812500
25.554510 144.160385 -72.594467
114.998810 138.731140 -67.620300
39.930794 147.064377 -73.357407
-50.519707 155.868744 -72.734085
37.568489 150.207657 -70.359802
109.109169 150.643890 -69.738869
-51.862202 154.487732 -71.081558
33.614769 159.082504 -68.379997
-56.150639 150.975159 -68.163116
-52.367748 158.290253 -69.045189
-49.331696 158.842270 -67.311028
-66.172699 166.394058 -73.352440
113.610970 159.269089 -71.426132
-46.909431 165.682465 -70.980247
22.467916 166.249847 -72.445961
108.122536 166.708038 -68.447685
-69.605713 165.506836 -71.078682
-51.170135 168.498367 -72.402695
11.148027 166.128357 -66.826126
-66.089134 166.278168 -68.210297
-59.223679 168.375214 -69.203255
-0.959092 172.069351 -69.243660
-42.336189 179.369125 -70.659294
33.990089 172.147629 -69.172905
-62.363209 176.330780 -70.095917
-57.375622 179.523239 -70.398033
18.864666 170.890366 -71.309944
-31.829510 181.118164 -68.297638
-33.106201 176.877106 -73.142693
15.247782 185.937195 -69.678947
-38.112526 185.125641 -69.932953
-13.365287 181.230042 -70.254173
-58.745129 180.011154 -70.385117
-5.042150 180.995071 -68.060318
-22.295841 191.923141 -68.860916
26.286861 190.182053 -70.270508
-39.931690 180.766830 -70.032616
16.371210 189.688812 -69.821701
-23.853622 192.583862 -66.380188
-31.868717 192.211731 -69.966133
-145.845093 196.410233 -72.176880
-23.397675 195.281631 -70.931808
-142.881622 195.703537 -69.307991
-151.914124 197.936447 -68.939774
-47.431301 198.935104 -69.752548
96.306221 206.878357 -67.258217
-145.675842 203.711594 -72.538055
-151.418854 205.053940 -72.143219
20.639843 209.031754 -71.909485
-138.315323 213.015503 -66.539131
20.814548 208.967514 -67.110573
-141.080933 207.751862 -69.364502
13.314180 204.185806 -64.668701
-136.290512 210.761536 -69.197884
8.791728 214.332550 -68.922554
-152.653381 214.920395 -69.908073
92.018051 213.172668 -70.705978
-13.659389 214.009537 -70.246941
-31.075407 217.270020 -69.740318
-9.042349 214.146713 -72.254646
-150.013062 220.270630 -70.409187
-32.148285 216.580872 -66.116676
-82.773598 221.755066 -72.871468
-24.512419 218.713684 -68.342171
20.623867 220.612915 -72.449814
-149.151947 223.198242 -71.593338
-91.776337 225.406876 -71.433525
-29.074841 221.490417 -71.210236
-24.062395 226.804474 -67.778282
-8.737869 224.299103 -69.817429
-27.013157 221.634354 -68.490875
-82.836731 227.626389 -69.332031
-86.748779 229.935928 -68.986313
-24.445812 230.346725 -72.705048
-4.782606 231.744553 -70.867195
-144.785309 230.226089 -68.387413
-3.192094 229.335312 -73.708855
80.243256 234.597809 -64.544769
-144.937790 234.902267 -70.973907
-7.512300 232.958069 -73.233116
-140.776566 232.645676 -71.593697
-144.951416 236.574921 -77.734512
-9.913364 241.020081 -67.303253
17.714958 233.855148 -70.472206
-143.038010 239.653381 -67.311859
-13.723552 237.165909 -67.473404
78.620071 235.982117 -68.515343
74.839912 239.539413 -68.134636
7.080044 243.516068 -67.455513
-23.978264 244.848267 -73.447586
-19.141376 251.467773 -70.877625
6.638026 252.933365 -71.912842
-45.022575 250.207062 -72.939117
-23.913443 256.742798 -70.045082
6.905107 251.968765 -73.077400
-64.113075 253.120026 -68.783127
-28.584940 252.973984 -69.227097
-44.074390 254.409866 -67.071297
-150.381409 253.930450 -68.613480
-47.245396 258.248108 -71.305573
-52.417404 255.540573 -68.478012
-69.544205 261.095337 -70.361938
-10.454843 261.315094 -69.602692
-82.468231 260.931671 -67.756226
-151.784454 267.855469 -74.666931
-142.579071 264.161438 -69.285133
-125.901588 268.397980 -68.293831
-154.375519 275.212860 -66.101288
22.700521 274.200897 -71.990791
-13.033767 279.376648 -69.919601
-150.553604 277.976532 -70.781624
-149.636536 285.243683 -74.186150
-144.457123 294.214905 -75.484932
-57.791683 296.116577 -67.827141
-38.533527 297.309723 -70.146393
-30.092428 297.482178 -71.468025
-12.755528 298.277283 -65.902672
-65.026566 297.224854 -68.723877
-79.173271 301.402130 -69.412148
-1.977316 297.282135 -69.902367
9.263323 297.525879 -68.448395
-137.007980 301.927734 -68.781799
-80.138435 298.515961 -67.729218
-145.297424 297.820099 -71.825035
-97.786598 295.890442 -69.192604
-80.375710 297.842285 -70.954094
-81.209503 303.116943 -68.046577
-60.246658 298.136719 -70.739693
-24.518517 300.284607 -71.657639
-3.818596 302.193237 -70.382347
-155.428101 306.479950 -72.043350
-152.586014 306.400452 -71.595688
-144.815094 310.278015 -72.787971
-155.020142 318.264801 -72.630798
-56.744701 65.976563 -69.559181
-43.664063 60.222057 -69.418564
-36.571419 62.720108 -68.365150
-73.251251 69.704422 -68.607559
-31.341106 69.273163 -71.020897
-31.860720 86.275856 -67.148598
76.144493 90.217995 -71.284439
78.559364 91.781418 -72.235100
72.547371 93.965027 -71.303688
95.748421 98.345459 -70.386368
74.165062 99.292511 -67.080330
55.704422 105.032021 -70.719467
48.222260 107.480080 -71.816635
-67.976357 108.461197 -71.707504
-69.340508 109.586159 -64.081367
43.371696 113.509872 -70.815140
-80.541603 116.864296 -72.054787
-93.686691 123.969894 -69.487831
55.057838 114.046684 -70.953468
107.354156 121.625862 -67.740799
31.811562 130.124786 -71.658447
49.715591 129.675766 -68.834335
47.193493 133.841431 -65.931114
29.043289 134.517273 -71.164482
109.117851 127.825371 -69.913994
41.598816 139.620804 -68.659714
30.490179 142.246811 -67.182220
-45.899158 155.078171 -69.208435
-72.066803 158.741699 -69.594223
-55.637680 155.919083 -66.627518
-72.350182 155.144516 -67.127052
-42.522205 152.811874 -67.218613
110.899185 161.463562 -66.729485
-71.293198 166.947876 -69.706673
26.688160 159.229553 -69.777267
33.735607 161.284500 -71.738518
117.446815 168.382431 -71.499084
9.830623 171.093155 -71.708191
31.968332 167.961212 -72.208687
-64.109123 167.475357 -67.752327
-45.018837 178.353317 -68.964516
17.069605 171.908478 -66.232208
-61.673420 175.315430 -69.551826
-68.132141 176.718552 -71.391953
108.706459 176.815948 -69.414154
-6.187057 179.223633 -70.200287
-64.540703 187.527557 -74.809959
-26.563593 181.484283 -66.673576
-53.169289 183.467224 -69.812469
28.062914 177.312653 -68.995811
109.894691 182.363235 -69.831917
105.481018 193.181534 -69.611588
106.696724 199.037109 -66.610100
108.333786 187.290497 -67.952194
-55.793373 201.031509 -70.405495
-51.981964 190.675949 -68.339264
24.707634 194.029755 -68.690498
-49.303177 198.293732 -68.453247
-20.978514 192.960892 -69.376945
-52.616280 200.224609 -68.097198
-150.368240 199.665375 -69.516014
99.685593 202.451401 -70.350998
-47.868572 203.984619 -67.757301
-18.900354 207.348801 -69.587036
-142.391388 207.563141 -71.141670
-44.101761 207.112701 -67.593178
105.470047 208.062241 -69.089348
107.588364 196.785507 -70.981567
-45.913948 208.355286 -69.040535
-26.140778 201.812454 -69.463989
-148.115952 209.848129 -75.339859
-27.648933 207.459717 -74.622017
-151.916031 214.329498 -70.430817
-153.649796 210.992523 -70.691490
-142.050201 210.891296 -73.741402
-38.627007 207.387817 -68.433868
103.066917 212.178024 -70.684662
-36.825508 206.652756 -67.261269
-142.723404 215.228790 -71.806923
-40.026749 215.371506 -69.482063
-18.527994 219.358826 -70.156868
95.992012 213.740677 -65.108498
90.722061 221.842529 -71.022507
-28.666351 226.647873 -68.831047
-84.757523 221.283035 -71.237587
-78.161469 220.522858 -69.685768
-14.720301 227.371490 -69.996307
-150.899658 221.020874 -69.328682
88.236931 222.802612 -70.437019
88.389130 228.591553 -70.584419
91.352745 231.649323 -70.844978
-101.429459 232.519241 -66.906883
-151.043594 233.061722 -73.368065
-16.952196 229.544647 -70.541336
82.300995 235.544052 -68.419434
-149.068451 237.943954 -71.267509
-26.979069 229.939148 -68.204384
-132.737152 238.699249 -73.261932
-10.737456 236.485397 -72.736656
18.812031 231.367447 -73.897957
18.098337 240.935150 -71.461296
-152.172134 243.478745 -71.257416
-124.131248 242.842148 -69.179016
-11.251822 246.636780 -66.239716
-0.466385 247.424011 -72.557495
69.766495 246.386856 -68.592270
70.593956 245.345291 -66.830032
-2.215028 247.478867 -69.064537
16.876055 250.513824 -67.721809
-29.051046 252.516968 -69.956146
-36.552563 247.534058 -70.388748
-46.793335 252.962570 -68.590012
-37.415085 246.492737 -69.518806
-16.345682 251.690781 -69.936607
-49.878185 248.596756 -65.593521
1.258519 255.147919 -68.180634
-68.426521 257.014191 -68.534599
18.559095 255.510193 -69.719002
-146.555618 256.013184 -72.193588
-74.377174 258.474335 -72.147095
12.858035 256.087250 -70.873207
-163.879303 257.880432 -70.730927
17.842228 261.488770 -72.645889
-83.277786 261.543549 -70.561119
-74.977859 257.306091 -71.235054
18.135969 265.215485 -70.333153
-89.900902 263.418243 -69.429497
-123.585419 267.591309 -71.006134
-132.375595 266.479187 -71.451538
-135.258408 267.803192 -68.558830
-149.260849 269.844574 -67.458443
-141.052200 270.413971 -69.079834
-132.665359 273.161407 -69.287750
-160.365677 270.537781 -68.585449
-124.492996 275.607819 -69.774597
-135.016724 270.246704 -69.647369
-163.836273 271.868408 -71.989449
-156.242325 274.228271 -69.996582
-151.546799 276.656281 -68.557007
-145.537140 273.427307 -68.790016
16.799215 289.452026 -69.297684
-166.293869 279.497986 -65.615112
-150.626404 285.374054 -68.797760
-6.562655 283.877258 -73.755737
-161.516983 280.695160 -65.911026
12.067895 291.292694 -70.417770
-150.771271 290.945404 -72.161644
-162.380280 297.971710 -67.959213
-154.431839 294.615906 -68.531090
-165.695404 295.368103 -65.500687
2.187128 298.596313 -69.976212
7.835879 296.151794 -70.233208
-98.789284 294.984375 -66.874786
-152.608292 295.101288 -67.397659
-151.035812 297.671112 -66.658760
-111.525787 299.336670 -70.834084
-148.729904 300.024414 -67.175804
-150.660095 299.628571 -67.911072
-68.965858 302.141388 -72.555626
-162.319031 297.414307 -72.533028
-126.343620 301.918793 -68.256760
-44.109756 301.314667 -68.298012
-158.967453 299.318024 -68.357681
-137.400925 304.735199 -68.238289
-16.678944 306.202759 -67.391129
-127.006607 301.794464 -68.304649
6.579558 303.086182 -70.136986
15.862609 300.627960 -67.804886
-135.942169 301.595795 -67.153519
-146.996750 304.397797 -73.323921
-160.629578 322.483185 -68.178558
-69.174217 63.817657 -66.275749
-24.225601 71.007942 -63.202179
-19.553907 75.484337 -69.321564
78.760910 84.829750 -64.344177
90.483772 83.801445 -69.254280
-39.590382 86.802620 -65.033096
75.039215 88.045502 -70.092979
88.399132 86.727478 -71.761147
71.600853 88.269508 -70.471207
68.821480 95.532539 -69.664246
-49.813046 98.458405 -72.552620
-93.854019 95.905022 -70.612785
59.768139 102.359497 -65.426331
51.911343 105.382813 -72.076149
99.719452 105.074974 -67.524567
-94.714485 111.140450 -66.973846
85.176735 105.869469 -70.685806
72.212303 109.775246 -67.453438
91.276291 108.879669 -69.280800
81.261566 112.836823 -65.485825
85.192459 108.360710 -71.449699
-79.327461 113.403923 -70.492035
40.946377 120.086205 -69.967857
103.108887 120.823509 -70.341896
112.122345 121.924141 -70.269142
46.691414 123.435158 -71.660385
108.104431 131.518707 -67.793213
113.336952 146.694168 -65.404228
-53.339336 144.556091 -66.768570
26.657080 143.304413 -66.254013
39.887718 145.146042 -70.359619
27.354874 153.919479 -65.758476
116.328056 149.780762 -68.005043
109.129951 141.786270 -66.091072
-72.952309 156.598129 -68.459084
-45.240700 157.806519 -69.458778
-70.077400 158.462219 -67.936813
21.067974 163.551224 -68.912979
115.711159 162.619278 -69.472061
-54.059357 160.190338 -66.849335
-70.201157 159.389816 -66.997002
-39.821659 162.775009 -70.943695
36.844837 162.181931 -68.185440
111.932388 160.267715 -71.245163
112.746704 172.173065 -71.062592
-67.746101 158.497498 -65.720566
-67.750732 172.960999 -67.477165
24.951929 172.274857 -68.529633
-61.760185 175.392151 -69.634430
-33.245361 172.311096 -71.117928
6.528917 172.289124 -68.200798
115.317642 168.207550 -68.796852
4.142359 172.767029 -69.310661
-33.929989 172.414917 -70.144783
1.657072 178.809006 -68.394470
110.359665 181.856750 -67.240036
-37.177513 177.929230 -68.453934
29.583702 183.447205 -65.531090
109.152489 182.242355 -69.855499
-56.126060 188.049332 -67.776787
-28.095413 181.897186 -69.171341
106.882057 185.871231 -69.227081
28.728796 183.356461 -66.485229
112.035324 183.639633 -72.156372
-38.352989 188.252975 -69.318275
108.505745 188.053482 -69.967247
-61.473469 187.662415 -66.404762
-26.942827 184.911789 -75.385315
-146.080551 191.773880 -67.285805
-53.282055 194.717117 -68.229218
-145.213623 197.501755 -69.911438
-30.936579 195.716751 -68.385818
22.198435 196.679871 -66.283752
106.842453 195.265518 -68.894958
-29.455976 197.168991 -71.361046
13.294533 200.364548 -70.747429
19.725199 208.368637 -68.370392
-143.952423 204.791870 -70.377808
104.566582 205.391113 -66.044266
-18.879229 203.921829 -70.356331
103.833710 201.940674 -69.934258
13.519680 196.662064 -65.521332
-131.881180 210.567871 -68.088364
-137.641434 208.822830 -66.047707
96.831924 208.725403 -64.426109
-11.956270 210.070786 -71.107208
-12.771344 212.538849 -66.930557
12.482742 216.853271 -68.994751
-147.768860 215.610596 -71.033936
-146.137573 219.922760 -67.781845
95.864319 213.519836 -68.065689
-78.196304 218.645752 -67.210121
-39.800507 212.565674 -68.150566
18.220341 217.114212 -67.668388
-25.927700 220.346237 -66.959953
-76.578201 220.609970 -69.839127
89.615578 218.325577 -69.359535
-81.957581 224.247696 -67.672699
-147.263107 228.535690 -71.111801
-79.730659 220.278412 -67.222260
-15.970321 224.606903 -67.975746
-22.099705 229.426498 -68.432381
16.453318 223.465088 -69.028366
-9.572145 225.554108 -72.558083
-85.461777 229.568024 -67.004639
90.538795 222.952209 -67.191704
-97.381081 227.049316 -70.040543
-150.852829 231.498001 -70.784355
-17.307915 234.630676 -69.858856
17.996675 225.985519 -68.895065
-103.454285 228.364319 -70.468956
5.702888 230.962494 -70.200417
-24.687717 225.941437 -68.445442
84.672997 231.390717 -67.534309
-146.717255 231.615845 -72.600571
3.887537 236.513885 -66.629822
-11.375749 232.871841 -68.712440
18.435499 232.437805 -66.804924
85.349518 230.745987 -68.565208
-12.913577 239.774445 -71.316315
-127.409874 234.674744 -70.480080
-11.738592 234.397629 -67.668655
19.489391 244.083588 -69.550018
-126.147240 236.667282 -69.416420
-148.744247 233.176865 -64.926506
-141.308762 239.637360 -67.568115
-130.363876 239.212280 -68.874046
-15.775588 238.154449 -68.358765
72.125961 240.531525 -71.045135
-141.703857 241.645325 -69.086998
75.292595 237.346497 -66.560341
-19.889645 238.427780 -69.885117
-141.589417 239.508438 -72.893700
76.697708 240.356705 -65.148468
10.096850 242.621048 -68.790245
-141.850113 244.815369 -74.862274
-148.872787 246.066574 -68.330643
13.003361 243.304260 -67.605743
-5.276319 243.812958 -66.502937
-23.199120 245.022171 -68.841179
-3.170783 250.907089 -66.080101
-160.443024 244.065277 -68.865791
9.682171 253.616089 -70.832848
-162.471222 247.163239 -64.781845
-11.626436 248.808609 -69.406937
63.021099 247.982056 -67.872711
-10.541245 251.096542 -72.293861
-26.414377 250.543350 -70.856094
-28.782284 252.235519 -68.434471
-20.396811 253.638885 -71.604088
-145.978531 245.016205 -68.676720
8.769929 250.738632 -71.100945
66.610092 253.137009 -69.608566
15.265607 253.804321 -67.530472
-160.898270 250.789383 -66.674637
-49.028179 254.683701 -67.779114
2.091377 253.724548 -74.031303
15.724837 252.432785 -68.504997
-54.057877 257.348938 -65.989555
-8.399091 257.463287 -64.996681
19.336212 258.769287 -73.202713
-163.006195 258.839539 -68.733879
-66.534470 254.085510 -71.158363
-51.315247 253.737595 -68.806374
-77.597519 260.100891 -69.713760
-158.203384 258.104889 -67.102623
-150.884232 261.183472 -67.670837
-53.366848 257.881317 -69.755287
-64.885086 260.632874 -67.330315
-153.002274 264.032837 -69.710205
-151.480865 263.662720 -68.410004
-75.808578 264.539429 -70.942207
-92.049896 261.833527 -67.063774
-167.885818 254.858154 -68.420906
-154.562881 267.066162 -68.784668
-134.518433 263.765167 -69.019676
-84.423065 262.630737 -66.127518
-163.822220 261.858093 -70.859756
-140.490631 263.929016 -63.374256
-86.435249 263.932953 -66.996544
-94.542618 266.327301 -65.734535
-147.133606 268.530029 -67.039070
-97.423592 267.093994 -65.772026
-146.006592 269.492065 -67.801895
-100.174347 269.570801 -68.609398
-164.387665 267.800568 -70.652214
-162.170303 265.643890 -68.405426
-118.919212 265.261627 -68.510780
-150.099167 268.678436 -70.953110
-113.475693 269.659454 -67.370323
-15.280195 274.978790 -66.848877
-143.892776 270.113831 -68.076195
-124.179543 273.669922 -67.647995
-154.951141 272.094574 -67.298904
22.073339 277.593201 -71.423119
-147.794922 289.398651 -70.776459
-166.362274 287.282318 -70.321587
-8.569117 289.722137 -68.287643
-149.212463 293.761139 -73.121643
-8.402349 293.796448 -69.208038
13.506492 297.017883 -69.320053
-133.187698 296.853455 -67.555931
-73.107635 295.606537 -64.479309
-33.109356 296.673187 -68.937988
-112.666916 298.916412 -66.417671
-93.330757 301.794800 -73.180260
-91.279488 300.307373 -65.038811
-48.958210 303.937714 -66.138977
-113.131638 300.629395 -68.570473
-111.795738 299.617554 -68.127716
-31.190081 301.560852 -66.007141
-112.019760 300.286194 -69.626831
-123.739044 306.450104 -68.762581
-146.402084 301.653992 -69.581482
6.523005 303.536682 -68.267220
13.764543 305.204224 -67.814857
-156.618423 304.974701 -69.429008
-153.810501 311.036133 -69.192879
-140.529831 319.768036 -68.544777
-150.578659 322.276703 -64.019531
-152.545044 319.084961 -71.191086
31.599520 28.871416 -65.965431
25.264679 24.818136 -65.407410
22.007004 34.412582 -69.105011
26.900434 50.248158 -64.694481
-55.070339 59.226891 -65.587364
-64.897362 59.245480 -66.968536
-34.383205 63.918125 -67.275352
-79.000854 69.252953 -68.408501
81.337173 83.900200 -70.533752
-17.831331 80.830467 -66.910332
88.127937 83.614006 -70.170929
96.171906 89.295319 -67.252281
-93.840874 87.977188 -65.633934
67.444595 89.387383 -64.438362
-41.878941 94.612053 -69.993874
99.116554 91.182121 -60.312901
-53.835693 100.682007 -70.785240
53.406605 96.965172 -66.881363
75.875473 101.292374 -68.417046
59.907978 108.887405 -69.387115
53.852417 108.557556 -68.847885
72.757790 103.941925 -71.514816
45.502045 109.563950 -69.075035
103.034729 106.875763 -66.071327
108.707420 115.842346 -68.747360
82.961288 111.250862 -65.826447
89.261162 109.519035 -70.918915
102.901329 110.179214 -66.996780
107.307098 111.540253 -66.642448
37.460033 115.293709 -67.726524
110.536713 129.582047 -64.439079
114.211723 131.044083 -70.614998
33.577400 131.765350 -67.088158
44.175743 131.461685 -65.330879
115.493713 139.790192 -69.315224
39.333447 137.840866 -64.953918
114.726257 139.894775 -67.133293
110.015335 131.897980 -67.413712
24.296003 148.511093 -66.244392
-46.312706 145.711502 -68.068741
-53.501511 148.105499 -66.423309
114.170296 142.214005 -68.893799
-70.026535 152.282318 -68.578743
-71.216240 148.378723 -67.034401
-55.865154 154.775009 -70.509148
35.701820 152.009552 -67.046967
112.561150 150.853455 -67.431015
-64.340446 157.748199 -64.886543
-46.210018 152.260773 -69.328941
36.626724 156.909668 -70.120644
-68.149605 159.535736 -68.155983
113.518860 154.196213 -67.679848
113.540588 165.604965 -67.877022
119.601074 158.625488 -66.934647
-37.505238 163.926041 -70.425659
-65.012398 175.769241 -67.218300
-71.078217 166.177612 -68.393066
34.018024 160.318344 -70.334854
-0.535327 171.233292 -67.807762
107.271851 169.707703 -69.754463
114.272415 163.320175 -67.332436
113.030334 165.758438 -65.220596
-63.662819 174.310074 -67.888519
-44.417633 171.417984 -69.801048
-0.127842 174.379501 -66.247353
-26.971195 185.541702 -65.868217
108.036667 175.033737 -68.061356
-36.185520 169.185196 -65.615417
109.151390 178.091522 -66.507195
-36.925392 181.999084 -69.279251
113.243340 178.231369 -66.852768
-150.461700 192.380005 -70.840630
-27.267731 187.419510 -66.194695
-19.617687 193.490952 -67.063721
23.353897 182.877243 -71.490005
16.645111 192.108490 -69.669556
27.842260 188.266556 -68.305565
108.357315 194.627548 -69.122986
-150.656876 195.280640 -70.005615
-23.156565 199.472031 -71.411461
102.439896 186.133942 -66.829628
103.002716 201.093246 -67.832062
108.305000 191.205994 -67.471275
96.195129 201.699387 -72.356628
-151.892303 198.297348 -71.643265
102.496735 211.134872 -68.352242
-30.264616 204.871597 -66.066925
97.726677 205.464050 -67.789398
-125.239120 206.270340 -68.239960
-31.450209 203.121445 -70.824211
-140.259537 207.799759 -66.753777
95.128166 210.555130 -68.256027
5.807573 206.354874 -69.986366
24.019964 203.948318 -66.354256
-145.067490 208.943314 -64.802467
-139.390442 212.458176 -67.629295
-10.149183 215.430664 -69.754486
-126.454208 211.882568 -65.892021
-144.713623 211.911926 -70.501030
9.636768 211.720032 -67.409492
-19.332441 212.851318 -72.130966
20.226587 216.958969 -69.604004
9.080832 220.647873 -68.505417
90.099113 220.150528 -70.655106
-17.380333 221.240143 -65.915413
94.254982 217.433441 -65.919983
96.365273 215.735962 -67.472992
-150.951218 223.902908 -69.546761
95.269997 221.660233 -68.967621
2.492719 220.049576 -66.424110
5.226438 221.494217 -68.392708
-34.841419 218.315933 -68.527733
-86.868980 222.189789 -69.451843
-26.822603 222.715454 -67.507301
85.037514 222.407669 -66.029083
88.602432 229.319580 -64.389732
-34.728294 223.381561 -70.951500
-85.641022 225.089767 -66.532646
-3.694987 226.896973 -70.521782
89.524475 223.882004 -63.754509
-149.214401 229.470352 -69.875092
-167.124176 223.397049 -66.994873
-159.200378 235.426712 -68.503723
-21.108002 236.428574 -68.240440
-154.388947 231.640198 -66.771004
-4.715729 237.132904 -65.975815
12.346578 229.370789 -66.944489
-163.771484 235.830246 -66.427940
-160.454910 233.268082 -68.231857
81.887535 240.700256 -68.129776
6.948007 237.322556 -65.920174
-155.525909 237.376419 -69.962082
-140.573669 234.235352 -67.669487
-20.017475 233.808533 -66.487755
6.679291 235.799469 -69.650764
77.660980 234.268936 -65.821114
-159.358322 239.627869 -69.458778
-147.121307 237.786758 -66.789162
-125.663269 238.506439 -68.793755
81.305077 235.353088 -66.420021
-114.921272 237.676682 -65.993378
-150.876190 239.424545 -67.730232
-151.240936 239.338699 -65.948914
-148.129303 240.850418 -67.314537
-155.602203 239.932327 -65.888695
-165.702133 240.292618 -69.241264
-138.930069 246.541809 -64.762566
-130.823105 239.664597 -67.549774
-157.131699 240.241470 -67.358315
-143.840286 243.294403 -64.319000
-153.576096 244.073517 -66.236382
74.947182 237.565033 -66.492676
67.374992 245.309540 -67.096764
-159.297882 243.069168 -69.180283
71.274353 244.756943 -66.248253
-15.490815 247.439270 -67.728058
10.220214 245.869431 -68.826492
2.441745 246.875122 -71.339638
-150.948914 256.154022 -64.539383
13.830552 251.837326 -70.002594
62.966694 246.948044 -70.169693
12.895006 247.477036 -64.251595
6.766101 250.265961 -68.084206
-5.872379 249.680283 -71.516541
-20.108652 251.990555 -69.174522
-2.529986 255.307281 -68.220108
2.104603 252.070114 -70.837059
56.945545 250.985016 -68.329887
-55.178341 251.677811 -67.807396
18.441545 255.043015 -66.014702
-61.318123 252.855453 -69.375992
-8.472827 258.061951 -67.049805
-61.530869 258.822235 -66.668526
-86.862495 261.597565 -67.444466
-85.046898 257.233185 -69.130730
-7.930152 261.339233 -63.727100
-124.858551 266.514740 -67.348892
-12.453125 262.192200 -71.075233
-118.888657 269.294556 -67.188843
-113.825584 265.597382 -67.456612
-102.845505 265.835297 -66.496529
-145.274445 274.839996 -67.105453
-143.609146 273.963684 -68.004898
-165.512863 275.091553 -66.031616
16.967659 288.821167 -66.875359
-51.813591 298.074554 -70.532478
-62.423275 294.665863 -66.607170
-40.969131 296.699615 -67.111229
-27.717972 294.743469 -68.458641
-95.103462 297.388977 -66.147125
-26.472090 297.900024 -68.656731
-7.131824 295.057861 -66.912514
-167.379150 302.088684 -67.857391
-11.722228 296.846344 -68.381874
6.216056 296.306702 -69.857124
15.588642 297.909393 -68.794922
-56.507488 300.222321 -67.498833
-31.333208 299.830780 -68.271736
15.671160 299.039246 -66.045120
-68.475456 299.661560 -64.738678
-33.723572 301.818298 -68.218147
-17.766348 302.233551 -67.046936
17.580200 300.059723 -68.980186
-8.839805 304.007813 -70.297546
3.771910 302.678375 -64.604828
12.234799 302.492401 -67.183388
-131.796066 304.120514 -67.874435
-141.944641 310.899323 -67.966881
-151.283859 322.666901 -71.183754
37.963535 24.519550 -65.971054
31.348761 20.297014 -64.742233
35.701603 24.168573 -63.551674
22.020754 27.744410 -68.407784
45.092743 31.036810 -65.739166
23.192598 31.766411 -65.646812
22.990448 37.103504 -68.422783
23.813086 43.750500 -63.473213
44.831970 36.265812 -64.789909
28.889185 47.755180 -65.691376
42.506065 43.107307 -64.188438
30.318560 51.199631 -68.002548
36.428204 46.107643 -67.054596
28.612103 49.860332 -66.344902
41.031857 50.574360 -64.972878
38.009060 54.582737 -65.929054
-36.537823 56.497700 -61.599876
-29.386257 63.703568 -59.980003
-86.865646 64.753174 -58.634933
-87.998878 73.871330 -66.122101
81.511368 80.927246 -67.516365
83.885063 81.002258 -65.124542
-19.549414 81.016365 -65.737144
-88.651566 80.644119 -69.193993
-25.505474 86.348244 -67.581093
-50.003155 93.638885 -65.597931
68.026970 95.766121 -61.087765
55.513680 102.476898 -63.625374
101.761169 104.319504 -65.591866
68.099274 100.512871 -65.324364
-67.508476 103.222893 -69.510597
-65.028214 106.252129 -67.299919
44.550858 107.763115 -67.741814
79.201729 113.298225 -65.787743
53.912537 117.206497 -71.159279
99.614983 108.967567 -67.890320
-96.568062 118.902809 -65.309097
39.619770 124.509628 -71.920708
104.976250 114.789948 -65.945137
47.638073 120.562263 -66.086655
102.712036 119.616264 -66.548988
-88.539696 122.826996 -68.705383
33.190044 117.447144 -67.656525
105.194885 127.510010 -66.041016
104.218155 123.431046 -64.938316
107.300629 125.648567 -64.557381
110.716240 125.344376 -68.770058
38.592556 126.115326 -65.301620
33.466064 133.113052 -68.938965
43.703476 127.098572 -63.251633
110.130051 134.470688 -67.626114
39.307369 135.435654 -67.337433
104.719849 141.326721 -66.474205
112.514580 140.972153 -62.986111
34.512806 132.747375 -65.687653
-74.880173 136.544815 -67.141098
116.010605 147.307648 -65.150963
-55.532284 146.848907 -65.614594
36.827869 143.714035 -68.212753
-72.212708 149.055435 -64.577209
31.331125 147.784637 -65.854073
-77.612495 147.376251 -62.227219
-47.926662 152.907486 -71.839859
-72.086044 149.974884 -63.732197
113.888275 147.259216 -66.259354
112.789368 151.420715 -67.933319
117.305717 155.153229 -67.122093
-71.505775 152.390717 -61.932205
10.365442 159.883804 -64.583130
-52.223511 160.156479 -66.373611
-50.663937 167.385971 -65.988365
108.055580 168.156158 -66.169113
-39.577301 161.202148 -66.615089
17.595629 166.773651 -65.826897
23.626776 165.308563 -67.399704
116.267426 173.011703 -69.870628
27.143780 173.300430 -64.016747
-1.293461 174.009811 -67.365379
33.427307 168.332367 -65.817757
-66.006393 170.770523 -63.071106
-67.174347 170.316803 -68.408585
-70.053215 177.700607 -69.304214
115.662216 169.306564 -65.322830
-39.987812 172.829926 -67.953209
24.208187 177.272858 -67.799377
-60.687355 179.397247 -64.562080
-57.502068 179.139633 -69.171028
-39.121227 168.416840 -64.563362
-31.360390 180.061905 -67.661125
114.318474 178.659561 -65.292099
-37.030701 188.618851 -65.508713
16.326008 182.160538 -66.991089
108.909248 192.159943 -66.459503
-148.712128 186.316238 -68.320724
-144.425415 184.918732 -67.478767
-150.179138 185.271530 -66.263123
-141.770935 189.199600 -65.519669
-30.159712 199.029236 -65.641548
-22.532045 193.251038 -62.785183
21.335333 201.356766 -69.626884
-139.337143 194.726837 -63.220482
-143.189957 194.897186 -68.651718
-18.080746 193.669586 -67.068390
11.384099 193.317123 -70.401146
-150.315521 198.510101 -69.379784
-28.140621 196.224518 -70.939957
104.335617 195.866150 -65.539986
107.953941 200.122116 -68.760262
21.708416 204.607895 -64.289291
-19.407505 198.603714 -70.355843
-26.327904 204.904633 -68.676949
-150.129898 209.457855 -67.589455
-130.750366 203.854996 -68.111053
-120.466118 203.528183 -65.205490
-123.800262 209.743668 -64.970078
-20.190489 206.382141 -64.125549
10.727489 205.107101 -68.575592
95.068237 211.659943 -66.157585
-147.864456 206.956787 -66.073814
-148.030609 211.440689 -65.972374
-147.215866 206.657318 -68.276932
-153.512054 210.801041 -64.765312
-25.113916 207.775589 -68.097336
-12.370879 207.634155 -69.604050
-147.109879 211.387390 -67.104744
-14.977470 207.441849 -67.063271
-162.344269 204.268188 -66.806152
-131.674042 207.121063 -68.639969
20.088943 216.557770 -63.896923
-163.411865 213.917099 -65.724899
-146.183350 216.881882 -64.725296
12.295559 209.770493 -67.754913
-151.487488 214.712204 -65.838623
-22.332844 212.714920 -68.761475
100.634109 211.090118 -67.871407
-153.248444 226.189713 -69.571373
-164.855026 219.832916 -66.876427
-79.231880 219.217911 -67.941292
89.672554 220.366364 -66.591095
-3.699577 225.787125 -65.793831
-148.403915 223.069336 -65.920654
-86.187515 223.368393 -65.008614
-5.804600 219.393051 -68.688133
14.765615 231.266159 -67.958809
-148.083878 230.595612 -65.318909
-6.057899 232.539413 -67.479622
-24.122541 231.920105 -66.122093
-13.252788 228.979248 -64.696785
89.998276 226.828217 -65.571312
-22.445976 228.911209 -64.652191
-29.527340 225.530777 -67.364342
-107.440117 233.525482 -63.236366
-14.965362 232.427185 -67.662186
90.783340 226.540710 -64.370636
84.767494 227.786392 -65.095253
7.104519 229.038330 -71.123619
-11.287131 234.053955 -66.688644
81.844376 233.111771 -68.495445
-125.562851 233.001724 -63.885483
-23.981802 230.692123 -65.509804
-101.309692 234.454391 -67.909294
-106.837639 236.179321 -63.582352
-134.956451 236.072571 -68.782776
79.998230 234.987167 -67.087692
-121.482788 232.454498 -64.086662
5.263675 239.289230 -67.115242
80.349319 234.000534 -64.394363
-16.188103 234.250305 -66.585121
-12.863991 240.223785 -67.156471
-4.959701 237.145981 -65.929680
4.882230 235.646255 -68.581146
86.148132 237.491806 -67.556923
11.307079 244.191818 -69.258095
3.427451 238.914017 -68.822479
-9.044650 236.923141 -64.830460
-6.287517 247.504288 -68.091805
14.727015 243.661545 -61.953979
-13.616551 244.882568 -63.784927
68.861023 249.647202 -65.755005
-4.549641 244.595230 -65.235664
18.832100 245.815430 -67.251373
-168.404083 250.179306 -66.995758
-1.147943 249.721527 -64.614990
-8.699180 250.245255 -64.099052
-167.945175 261.830688 -64.894638
-10.416636 255.865326 -69.449501
16.551189 250.552139 -68.952896
-146.311478 260.866150 -68.525169
-69.262985 257.773163 -66.712685
-59.187977 258.001801 -62.941685
54.442348 256.274139 -63.410358
-76.727219 256.491333 -68.493843
17.337795 260.134338 -68.047798
-73.433228 262.363770 -58.418308
-13.682049 259.033936 -68.795059
-144.306931 258.809998 -65.050827
47.644421 256.615601 -68.271439
-77.563972 263.805573 -63.857327
-99.918289 262.507446 -66.247353
-100.726486 264.525757 -65.356964
-116.193199 264.580414 -67.917274
-103.945488 265.654816 -68.581528
-106.858322 268.861633 -66.023262
23.005827 275.423126 -69.361031
-127.025223 276.238525 -64.670746
-14.549652 284.824463 -67.881516
-147.090820 292.371735 -69.280540
-167.835159 297.578491 -65.536423
-124.138458 295.692139 -68.269905
-114.927322 296.312988 -66.358864
-74.491417 296.400543 -65.976273
-57.220371 296.717834 -66.549652
-40.707264 294.465973 -67.408348
-15.777933 298.090332 -65.543312
-13.981665 296.605560 -68.394302
-38.250298 299.391327 -62.642288
-33.815765 298.060028 -66.077896
-19.095232 298.933746 -65.458534
-69.150116 299.088928 -63.350533
-54.653122 298.221649 -62.853180
-16.102568 301.646545 -65.718124
-16.130985 301.720825 -65.901283
-6.180901 299.753723 -66.933105
4.128254 297.179047 -63.915257
-87.901199 301.951752 -65.991669
-141.829498 303.285126 -65.110634
-118.115402 300.032776 -67.609085
-151.150101 310.447266 -67.020706
-155.986633 308.678955 -70.014931
-147.439438 309.912384 -70.183731
50.177620 30.432373 -64.850594
21.577188 34.214897 -64.436806
52.516514 35.443745 -64.135414
49.890888 43.049065 -66.068916
88.035973 76.735703 -67.204826
97.134392 85.535233 -66.336349
102.969063 88.703255 -63.150303
94.749359 92.501587 -66.740952
57.469425 98.878471 -63.679844
51.551136 103.108528 -67.117317
60.871086 99.189713 -65.554581
-64.170586 98.506577 -61.676186
71.507355 99.210571 -63.272724
103.417374 107.516418 -64.933647
77.040169 106.627701 -70.694618
94.910271 111.088158 -64.923332
-80.276550 112.303986 -65.721291
45.208633 111.077133 -65.390877
-82.925545 115.226677 -62.617268
52.711487 119.818665 -64.945541
37.606159 115.741440 -64.548782
107.782112 112.437325 -63.228760
35.753391 117.376839 -66.261086
39.931290 124.101044 -67.210571
42.743767 124.549507 -68.824471
105.910027 125.953026 -66.528656
-85.870689 131.367661 -63.860577
112.315704 136.514664 -62.805000
39.753391 131.177826 -63.461708
43.312588 129.886703 -62.046574
39.797108 132.486938 -61.138535
-56.280849 140.250809 -68.711319
33.263451 136.100662 -66.601952
-77.417572 145.802933 -65.800095
-53.242199 143.557266 -66.209534
-79.213676 144.421585 -63.271599
35.476070 141.241745 -64.689995
-59.382416 142.303604 -66.349472
35.520721 144.206131 -65.911247
-73.612480 152.425827 -66.388519
-60.705292 151.675690 -65.166214
29.820824 148.299606 -65.867607
109.274200 153.966934 -66.474281
117.111633 146.761108 -63.674335
32.607216 149.629532 -59.891621
-45.815849 151.292511 -62.306618
112.340630 161.085434 -66.633354
-75.451241 152.422501 -65.926384
-57.247173 152.098602 -67.187370
31.112545 160.226913 -66.723198
-76.710915 159.806473 -65.693871
-69.733292 160.308731 -64.902069
116.770714 161.280380 -66.000221
-62.240887 164.524139 -63.216946
-36.813725 164.013870 -66.750931
27.667406 157.096695 -62.788574
-76.083336 160.170578 -67.955956
12.391211 160.179810 -68.524467
33.425774 160.335663 -63.101154
32.753052 155.864639 -67.078430
14.166640 167.224060 -64.898712
-47.076191 167.205368 -66.728683
26.624853 163.535934 -62.893356
-45.400928 159.087524 -66.922577
4.261660 162.579224 -66.073029
21.874105 160.680023 -65.623131
-68.499504 166.563080 -65.677490
-43.709297 165.013138 -63.150055
-67.604820 167.638657 -62.643196
13.776776 168.641022 -64.449265
27.133928 160.464767 -64.851936
3.891851 169.038193 -66.008850
24.019949 167.237167 -67.815689
31.907324 175.005035 -66.392235
-46.747742 170.687668 -67.013504
-31.915312 169.584976 -64.910934
-39.288956 170.409470 -64.360603
29.797520 170.201157 -63.627312
-42.950897 174.932495 -63.328133
-41.867535 173.568451 -63.891640
19.240255 174.561539 -65.129425
-39.206440 184.741440 -61.783184
28.889799 180.857391 -70.436020
112.202019 176.882614 -65.923264
-32.261158 183.041550 -65.205688
107.784897 181.754593 -68.077225
-36.033707 188.091888 -66.140808
-37.432987 194.715179 -66.080849
16.955053 188.771118 -70.285095
104.576088 191.635345 -63.512638
-24.912632 195.312119 -62.132431
-30.414385 187.317764 -62.962139
-24.473192 196.347763 -65.068405
-144.072556 199.529175 -67.344330
15.601207 195.060471 -65.929054
105.455154 199.102798 -66.021484
-153.886322 208.324173 -65.520462
-25.474636 204.233704 -65.672775
-113.361946 205.276138 -66.982666
-135.787033 208.008133 -64.210762
-110.932823 209.181274 -67.275108
-108.804008 209.983643 -64.935860
-11.655762 206.691437 -65.579575
21.433481 203.889526 -63.733295
-15.396171 212.338974 -64.832176
-120.467407 215.467972 -65.375732
-24.444702 214.874832 -62.288254
-132.698792 212.605118 -64.618500
-15.190647 212.842987 -63.734886
-142.583435 216.607910 -64.748840
93.694008 219.419113 -64.881203
-164.978516 210.865494 -66.646027
-3.018583 222.341400 -70.348190
9.880730 217.506683 -67.253990
8.091805 225.882492 -64.606506
82.086830 228.201797 -67.393669
5.137225 224.116623 -64.694450
11.581180 223.435867 -64.942825
-15.737865 228.913300 -66.188072
-91.074959 228.759384 -63.936485
-95.694046 225.452499 -61.308475
-6.134328 230.534607 -66.503654
-164.259918 233.140442 -63.353436
13.768888 229.744156 -65.523468
-143.357010 236.407272 -64.618324
14.917572 238.906693 -61.990582
-134.147812 234.619843 -63.924431
-118.425850 235.536835 -64.375252
13.570283 231.811798 -61.876675
79.601326 232.826401 -63.889496
7.606111 230.455551 -67.587906
-110.216232 238.594299 -68.499321
80.008347 237.853577 -67.005127
82.917282 238.635956 -68.209236
-124.301193 241.424789 -66.800781
-112.390167 240.570679 -64.887009
-14.107854 241.033142 -63.765099
71.791031 237.077560 -62.360577
67.472641 245.029190 -64.110550
75.513092 241.688828 -67.084999
-137.329117 246.418884 -63.272198
71.267639 244.077164 -68.336098
65.839966 246.373169 -62.786045
-166.694199 237.026596 -66.111725
-1.604017 250.556503 -64.982285
18.939613 250.040268 -65.676277
-2.887453 247.630310 -65.904938
18.286755 251.454590 -62.667614
63.464844 249.265030 -68.836983
16.790823 249.702286 -64.109238
-13.104962 253.252625 -62.537697
1.964350 251.770569 -62.758781
65.055534 255.889679 -65.486351
5.037718 254.124573 -66.531586
-7.737167 253.780594 -64.610954
13.536320 254.267639 -64.701752
-165.699356 250.914444 -67.522446
58.764454 256.741638 -65.219040
51.927181 259.319733 -64.555550
54.563072 252.666336 -64.647888
-12.943318 259.108002 -67.654083
52.906338 257.234528 -66.804077
-71.668037 258.323120 -65.225365
52.977886 258.752197 -66.835014
-92.093880 263.861511 -66.729324
-126.455620 264.306488 -66.729935
-132.760117 263.287933 -65.294373
46.594601 263.363251 -66.474419
-135.929459 266.842651 -63.101898
-109.186142 267.393555 -64.967667
-113.885628 268.559967 -64.112816
-83.847031 266.503937 -66.165443
-114.093964 266.717682 -69.376991
-122.514267 270.412628 -68.517151
-144.208054 274.251678 -64.689552
-16.586346 271.391205 -66.709419
-168.837952 276.174438 -65.726440
-13.207203 280.517273 -65.470688
-159.097580 279.628693 -61.904984
-153.255310 286.419617 -63.970856
-173.007507 289.220154 -64.775719
-13.022055 287.691711 -61.308815
-137.449905 294.885223 -63.704414
-158.463913 292.427338 -67.645950
-144.909164 293.923553 -65.248833
-140.479767 294.468567 -70.708221
-8.682631 295.684601 -64.003471
-126.024353 290.878479 -68.463211
-143.034927 298.430206 -65.442223
-115.036530 295.982056 -66.716942
-76.086983 295.293732 -66.922775
-61.238869 295.102631 -64.551598
-5.562913 300.407166 -66.821899
-57.026852 301.568085 -65.985222
-54.732376 296.836884 -64.037865
-72.715752 301.864716 -65.628906
-86.200287 300.365356 -69.201569
-96.395134 298.566620 -63.607243
-161.064407 299.904022 -61.596737
-163.629913 302.461426 -64.309738
-125.101242 303.770294 -66.809921
-143.777878 305.004761 -68.501648
-158.321442 310.495422 -64.549530
-150.440643 324.245911 -65.437836
49.184269 29.248993 -64.612724
19.184792 34.311607 -69.299332
38.834061 43.941017 -64.282112
-16.077045 77.570221 -70.098892
82.989449 71.567902 -67.386703
87.362556 74.786224 -60.753464
78.672195 78.080345 -65.352715
71.253044 80.165359 -62.175201
92.954468 82.194809 -70.672600
-97.621765 77.874397 -65.631477
71.341003 81.719780 -65.431496
-34.147480 86.407303 -64.405243
98.910599 96.975426 -66.531197
60.375813 100.905289 -67.278358
103.890816 106.980240 -66.836861
104.148064 108.207649 -65.161163
67.764961 109.886955 -62.708439
-78.892113 106.828522 -66.819550
52.845306 110.626122 -65.879913
108.507683 116.073799 -65.318878
49.638008 118.788414 -67.418701
81.256607 111.844017 -64.628708
42.119873 115.231514 -66.286957
105.494370 116.573936 -65.291039
48.122181 113.671432 -63.770779
109.050819 123.339638 -66.191360
108.196365 123.877243 -64.546059
-73.478493 125.909019 -61.788609
-81.219788 129.724258 -66.124374
43.440456 130.897186 -64.957733
115.191299 126.400902 -66.908234
114.481956 135.053360 -62.761166
-84.515816 135.119019 -65.127304
108.695061 134.578735 -64.935631
-57.524712 141.876297 -66.979958
-84.764503 135.246475 -63.010895
-74.914185 138.684723 -64.706642
-57.670471 137.640594 -59.951576
32.697308 138.985245 -62.797749
42.149059 142.635742 -65.583260
-79.046188 149.093979 -64.653320
30.108259 144.088242 -66.481300
109.722382 148.261932 -62.170406
-42.362736 155.565643 -64.740356
25.661482 158.756149 -58.910519
118.251579 155.618408 -66.920708
34.762131 154.653854 -65.059662
109.972137 155.627090 -63.907139
-50.755520 156.234192 -67.229691
-70.975159 159.124039 -68.544159
-52.549755 163.756012 -66.777534
-38.654312 176.360794 -67.576447
4.749638 168.244934 -66.514015
112.694145 162.861038 -63.969124
108.992516 164.680481 -63.027058
7.328237 166.170349 -64.406548
6.670526 173.603821 -64.445534
16.429159 167.173630 -65.547699
27.778496 168.061432 -65.474487
115.305542 176.075546 -65.305984
107.167351 179.449173 -66.647514
