-39.284557342529 -70.000679016113 -160.481750488281 1.762012481689
29.801349639893 -69.202323913574 -160.320800781250 2.311439990997
-42.950496673584 -68.977897644043 -165.003753662109 2.807533979416
-41.865688323975 -69.538505554199 -163.639663696289 2.968764543533
19.242578506470 -70.720367431641 -164.672012329102 2.235924720764
-39.214057922363 -67.443023681641 -174.817337036133 3.113930225372
28.892883300781 -76.026634216309 -170.966995239258 1.604360461235
112.203506469727 -71.430267333984 -167.054336547852 2.107494592667
-32.264423370361 -70.856651306152 -173.117370605469 1.587948679924
107.785140991211 -73.595108032227 -171.920379638672 0.970272183418
-36.039478302002 -71.802299499512 -178.163879394531 1.316642403603
-37.443248748779 -71.752822875977 -184.786315917969 3.261919498444
16.952699661255 -75.897850036621 -178.872909545898 2.246155023575
104.565437316895 -69.047210693359 -181.805282592773 3.088177680969
-24.927001953125 -67.793495178223 -185.397109985352 0.466702371836
-30.422622680664 -68.617294311523 -177.397918701172 2.132886886597
-24.485502243042 -70.730484008789 -186.428985595703 1.013941049576
-144.084808349609 -73.122940063477 -189.527038574219 2.509536027908
15.590555191040 -71.551780700684 -185.167388916016 2.010246038437
105.441856384277 -71.565567016602 -189.269851684570 1.308627605438
-153.906173706055 -71.320449829102 -198.317962646484 0.838083028793
-25.491659164429 -71.346710205078 -194.313400268555 1.603403091431
-113.378410339355 -72.740440368652 -195.295074462891 3.079543828964
-135.807907104492 -69.993339538574 -198.015869140625 3.029298543930
-110.951629638672 -73.036010742188 -199.201446533203 2.021595954895
-108.825546264648 -70.695877075195 -200.008468627930 2.345973014832
-11.674521446228 -71.243949890137 -196.780548095703 3.147351264954
21.414855957031 -69.362777709961 -194.003372192383 1.251928806305
-15.419412612915 -70.507881164551 -202.426589965820 1.182555556297
-120.492202758789 -71.154273986816 -205.484375000000 1.756566405296
-24.472026824951 -67.975952148438 -204.959915161133 2.248180389404
-132.722366333008 -70.404548645020 -202.614364624023 0.594660639763
-15.215255737305 -69.411094665527 -202.932266235352 1.403369426727
-142.609573364258 -70.549690246582 -206.610336303711 1.091300606728
93.666038513184 -70.464424133301 -209.579818725586 1.877168893814
-164.999023437500 -72.459930419922 -200.850280761719 1.398709297180
-3.043349742889 -76.026130676270 -212.429672241211 1.426920771599
9.856292724609 -72.913146972656 -207.607894897461 0.752087473869
8.059274673462 -70.278930664063 -215.986175537109 2.301315784454
82.055343627930 -72.999931335449 -218.351242065430 2.568177461624
5.105961322784 -70.367202758789 -214.218200683594 2.689619541168
11.550601959229 -70.608589172363 -213.541412353516 0.694336950779
-15.770933151245 -71.887031555176 -218.998794555664 2.283614635468
-91.110008239746 -69.705871582031 -218.797485351563 0.566152751446
-95.729347229004 -67.077613830566 -215.491134643555 3.863003492355
-6.168188095093 -72.195854187012 -220.626113891602 3.197725772858
-164.298416137695 -69.197494506836 -223.130233764648 1.552280783653
13.734631538391 -71.195915222168 -219.850372314453 1.398112535477
-143.396530151367 -70.447303771973 -226.409347534180 0.715287148952
14.873863220215 -67.674636840820 -229.018554687500 2.828872919083
-134.186767578125 -69.742309570313 -224.629043579102 0.977366447449
-118.465019226074 -70.179656982422 -225.555969238281 2.049739122391
13.531219482422 -67.552177429199 -221.922912597656 2.703339576721
79.563453674316 -69.504493713379 -222.979019165039 2.902456521988
7.573317050934 -73.267112731934 -220.554763793945 0.994418978691
-110.253585815430 -74.300254821777 -228.613220214844 2.641129970551
79.970031738281 -72.626693725586 -228.002151489258 1.652689099312
82.879570007324 -73.829162597656 -228.784820556641 1.912061572075
-124.342033386230 -72.618843078613 -231.436614990234 1.423393726349
-112.432235717773 -70.692718505859 -230.593139648438 1.841961145401
-14.151312828064 -69.479309082031 -231.123077392578 1.287492036819
71.748878479004 -67.988777160645 -227.227050781250 3.606345653534
67.426803588867 -69.753799438477 -235.173370361328 1.966549277306
75.472282409668 -72.716087341309 -231.834274291992 1.424040079117
-137.376586914063 -69.109382629395 -236.426864624023 3.351676464081
71.226402282715 -73.974472045898 -234.218048095703 0.490476310253
65.791984558105 -68.432685852051 -236.518081665039 2.190310239792
-166.732727050781 -71.963439941406 -227.010940551758 2.513717889786
-1.652713894844 -70.697944641113 -240.653121948242 1.566816091537
18.891908645630 -71.371963500977 -240.149703979492 2.640973806381
-2.933324337006 -71.617752075195 -237.724807739258 0.591321825981
18.235277175903 -68.365875244141 -241.567764282227 2.929916143417
63.420608520508 -74.489852905273 -239.399963378906 0.692064642906
16.741870880127 -69.806472778320 -239.812454223633 1.271026253700
-13.157755851746 -68.267875671387 -243.344909667969 2.831962347031
1.912752270699 -68.472778320313 -241.872650146484 1.707934260368
65.003723144531 -71.146896362305 -246.030319213867 3.710725784302
4.988083839417 -72.245956420898 -244.223495483398 1.163871169090
-7.788369655609 -70.336830139160 -243.873611450195 1.421385407448
13.484869956970 -70.408355712891 -244.374801635742 2.058873176575
-165.745849609375 -73.392448425293 -240.897491455078 1.899121522903
58.711814880371 -70.886665344238 -246.878448486328 1.526043295860
51.872200012207 -70.233154296875 -249.452850341797 1.694198012352
54.512634277344 -70.313812255859 -242.801086425781 1.899568676949
-12.995231628418 -73.392211914063 -249.193328857422 2.029762506485
52.854862213135 -72.477874755859 -247.365203857422 0.742592692375
-71.721687316895 -71.017463684082 -248.372406005859 1.581486940384
52.925426483154 -72.510848999023 -248.882843017578 0.839227259159
-92.149818420410 -72.548240661621 -253.895019531250 2.087586879730
-126.511848449707 -72.581680297852 -254.316955566406 2.334321022034
-132.816986083984 -71.150619506836 -253.296142578125 1.993695259094
46.538711547852 -72.162620544434 -253.490142822266 1.388035178185
-135.990768432617 -68.966041564941 -256.851806640625 2.211784124374
-109.246093750000 -70.807495117188 -257.418029785156 1.489490389824
-113.947166442871 -69.958663940430 -258.582489013672 1.531411647797
-83.905273437500 -71.980285644531 -256.543762207031 1.315068364143
-114.149330139160 -75.220481872559 -256.732757568359 2.965863227844
-122.572906494141 -74.373649597168 -260.423248291016 2.166849374771
-144.272842407227 -70.571708679199 -264.253051757813 1.490610122681
-16.647367477417 -72.467964172363 -261.475372314453 0.365612685680
-168.903045654297 -71.634346008301 -266.157836914063 3.752023458481
-13.275500297546 -71.238693237305 -270.605407714844 1.862138867378
-159.168594360352 -67.808547973633 -269.623901367188 2.746120452881
-153.328918457031 -69.878334045410 -276.415893554688 2.991022109985
-173.082229614258 -70.705589294434 -279.202087402344 6.235548019409
-13.099062919617 -67.086585998535 -277.785736083984 3.219492912292
-137.529434204102 -69.608795166016 -284.892456054688 1.715471625328
-158.538085937500 -73.566627502441 -282.415039062500 3.367585420609
-144.986602783203 -71.158866882324 -283.923645019531 1.383997797966
-140.552444458008 -76.614860534668 -284.464111328125 2.607899904251
-8.762462615967 -69.788230895996 -285.777801513672 1.506059050560
-126.096740722656 -74.351325988770 -280.886810302734 3.450004816055
-143.115203857422 -71.356742858887 -288.431304931641 3.325490951538
-115.113983154297 -72.601821899414 -286.000183105469 1.514760136604
-76.163795471191 -72.770187377930 -285.337677001953 2.074261665344
-61.317779541016 -70.384819030762 -285.159820556641 1.600725173950
-5.643264293671 -72.610267639160 -290.498565673828 1.506671547890
-57.108749389648 -71.823448181152 -291.626129150391 1.745773196220
-54.812934875488 -69.867385864258 -286.899139404297 2.832908391953
-72.798179626465 -71.482246398926 -291.912719726563 1.774418473244
-86.278350830078 -75.065475463867 -290.399383544922 2.396620512009
-96.477241516113 -69.478225708008 -288.601531982422 2.233983993530
-161.149261474609 -67.530204772949 -289.898345947266 1.845798492432
-163.713958740234 -70.249145507813 -292.450286865234 1.276290297508
-125.183822631836 -72.715011596680 -293.781555175781 0.905696809292
-143.859680175781 -74.425956726074 -295.001098632813 1.734932065010
-158.410629272461 -70.495079040527 -300.487457275391 3.505442857742
-150.538208007813 -71.395027160645 -314.242034912109 2.204668760300
49.283405303955 -69.974487304688 -19.380401611328 0.849060297012
19.284944534302 -74.696228027344 -24.416404724121 2.267643928528
38.923053741455 -69.673912048340 -34.065929412842 1.666700720787
-16.005096435547 -75.588714599609 -67.650222778320 1.869701743126
83.062835693359 -72.775337219238 -61.718105316162 4.041258335114
87.427566528320 -66.142456054688 -64.948532104492 1.701904892921
78.739318847656 -70.754409790039 -68.230453491211 2.466032505035
71.315788269043 -67.586738586426 -70.314888000488 1.483649015427
93.023818969727 -76.066604614258 -72.347145080566 2.876910924911
-97.554191589355 -71.198173522949 -67.905883789063 4.978589534760
71.405761718750 -70.845100402832 -71.864868164063 1.071186065674
-34.086788177490 -69.924240112305 -76.483047485352 1.772922992706
98.966163635254 -71.940071105957 -87.137466430664 1.173051238060
60.429462432861 -72.728797912598 -91.040443420410 2.287786245346
103.939971923828 -72.254913330078 -97.145187377930 1.197445392609
104.194831848145 -70.580673217773 -98.375083923340 1.386651396751
67.808303833008 -68.164382934570 -100.033378601074 1.536466121674
-78.842811584473 -72.408760070801 -96.870903015137 2.198254108429
52.891139984131 -71.350868225098 -100.758155822754 1.635600805283
108.549324035645 -70.745185852051 -106.243927001953 1.428989887238
49.679817199707 -72.903961181641 -108.916160583496 1.448339104652
81.300437927246 -70.074707031250 -101.996833801270 0.995775580406
42.163005828857 -71.774337768555 -105.355789184570 2.098899364471
105.535644531250 -70.720863342285 -106.742080688477 1.501852869987
48.163993835449 -69.250373840332 -103.803207397461 1.544522047043
109.088409423828 -71.627212524414 -113.508926391602 0.796762585640
108.232055664063 -69.983459472656 -114.048240661621 1.199548959732
-73.446693420410 -67.399154663086 -115.961967468262 3.637136459351
-81.186477661133 -71.747451782227 -119.766014099121 0.680020511150
43.471851348877 -70.465560913086 -121.024162292480 0.432380259037
115.227516174316 -72.342567443848 -116.573310852051 3.009126186371
114.508483886719 -68.208137512207 -125.231025695801 2.451465129852
-84.487052917480 -70.760940551758 -125.159950256348 1.471052289009
108.723953247070 -70.387374877930 -124.749519348145 2.059364557266
-57.498744964600 -72.597640991211 -131.932754516602 2.249901771545
-84.737815856934 -68.644935607910 -125.290153503418 2.647348165512
-74.888198852539 -70.336204528809 -128.732666015625 1.831651926041
-57.648258209229 -65.563537597656 -127.706672668457 2.000229597092
32.721260070801 -68.326843261719 -129.108001708984 2.358801364899
42.173183441162 -71.108543395996 -132.760986328125 3.350338697433
-79.027229309082 -70.301162719727 -139.139221191406 1.078997373581
30.132253646851 -72.019882202148 -134.204162597656 1.044754266739
109.739517211914 -67.640121459961 -138.437225341797 2.718869686127
-42.348037719727 -70.362770080566 -145.635360717773 0.423520565033
25.668550491333 -64.473571777344 -148.879547119141 4.147750854492
118.268234252930 -72.392608642578 -145.792831420898 2.137702465057
34.777713775635 -70.608505249023 -144.774856567383 1.850555896759
109.985969543457 -69.386817932129 -145.800125122070 3.123167514801
-50.738929748535 -72.860893249512 -146.294830322266 2.496964454651
-70.959259033203 -74.198318481445 -149.169296264648 1.087270617485
-52.538627624512 -72.420829772949 -153.816070556641 1.613531112671
-38.650878906250 -73.224159240723 -166.429061889648 3.409987211227
4.757495403290 -72.109802246094 -158.343780517578 0.609056055546
112.703193664551 -69.456260681152 -153.035827636719 0.863687992096
108.999458312988 -68.520179748535 -154.854080200195 3.649225711823
7.335504531860 -69.997047424316 -156.273849487305 0.901593744755
6.672852993011 -70.046936035156 -163.706802368164 3.034512996674
16.436822891235 -71.131057739258 -157.281646728516 0.604550957680
27.785493850708 -71.048431396484 -158.177154541016 1.973461151123
115.306983947754 -70.808959960938 -166.250198364258 1.983012318611
107.167800903320 -72.162788391113 -169.616531372070 0.616675615311
23.334659576416 -67.804962158203 -169.148422241211 1.823914289474
28.336292266846 -70.253570556641 -160.579956054688 1.797381043434
114.253028869629 -70.899719238281 -162.925979614258 2.547946691513
-29.048187255859 -71.535057067871 -171.661224365234 2.148058176041
109.704093933105 -67.992797851563 -166.184722900391 2.156400442123
15.361055374146 -71.977851867676 -174.502456665039 1.236614465714
25.836988449097 -68.637069702148 -167.524566650391 1.438368678093
108.901855468750 -67.929107666016 -173.884552001953 2.307122707367
25.533819198608 -70.863815307617 -171.815399169922 1.884045839310
110.848052978516 -71.126914978027 -181.795104980469 1.714912414551
-36.046123504639 -68.911460876465 -174.412963867188 0.550677120686
25.737234115601 -66.753807067871 -174.286849975586 1.989012956619
107.100196838379 -69.482627868652 -181.506774902344 2.342066526413
22.733833312988 -71.031387329102 -181.292526245117 2.918884038925
-150.642532348633 -70.184165954590 -189.179809570313 1.816668629646
-30.848472595215 -70.278366088867 -187.375106811523 1.335833072662
24.595647811890 -70.240058898926 -186.780517578125 1.733798742294
-111.053771972656 -71.003288269043 -192.580307006836 1.593295693398
-107.936470031738 -69.556816101074 -189.260406494141 1.022451758385
21.785692214966 -68.391716003418 -191.136917114258 2.619168996811
12.910975456238 -72.061584472656 -185.187316894531 0.574276924133
-27.348005294800 -65.976196289063 -189.216796875000 2.638018608093
-29.998691558838 -67.609832763672 -186.343170166016 1.736266970634
-26.810705184937 -70.797874450684 -184.310531616211 1.562350749969
18.650886535645 -68.347198486328 -180.754959106445 1.820489048958
-152.983856201172 -69.432731628418 -195.643402099609 2.325067520142
-145.726760864258 -72.126380920410 -198.026977539063 1.669598221779
-141.413833618164 -69.163757324219 -194.315353393555 0.847754061222
-17.213537216187 -73.158920288086 -191.361984252930 1.950497031212
13.996355056763 -74.447883605957 -197.986572265625 1.345252871513
102.391914367676 -71.452430725098 -196.958618164063 2.606900215149
-113.429138183594 -68.426597595215 -195.861770629883 1.263038396835
22.210145950317 -70.858596801758 -202.538940429688 1.800847530365
-18.487106323242 -70.535423278809 -196.277969360352 0.987184286118
-19.030717849731 -70.461082458496 -198.723709106445 2.244349241257
101.801788330078 -70.742118835449 -198.833221435547 2.033447027206
10.174053192139 -70.800689697266 -200.668441772461 1.262766599655
-17.145309448242 -70.929595947266 -196.175064086914 1.250821113586
-120.901672363281 -72.466003417969 -201.970245361328 0.748277425766
-136.520034790039 -68.194442749023 -204.582031250000 3.315201759338
-114.089790344238 -71.159950256348 -202.489669799805 1.127962708473
-141.771820068359 -71.159965515137 -203.721908569336 1.466788291931
17.529581069946 -69.479057312012 -198.673110961914 1.456661581993
95.225021362305 -69.099929809570 -204.171035766602 2.923644065857
-167.296478271484 -66.035903930664 -205.864578247070 2.825964927673
97.486129760742 -71.579696655273 -205.048599243164 1.495732903481
-17.419645309448 -72.886917114258 -208.898818969727 0.475559294224
96.658622741699 -71.496841430664 -216.016098022461 4.423541069031
90.680427551270 -68.812194824219 -213.182037353516 1.270847201347
16.632835388184 -70.939338684082 -215.054229736328 1.632415056229
20.060436248779 -71.855178833008 -215.575347900391 2.997836589813
9.783562660217 -67.226455688477 -206.810180664063 1.171770334244
-12.603137969971 -73.351676940918 -218.955978393555 2.597282409668
-96.196990966797 -71.942008972168 -219.138748168945 2.729900598526
-5.089732170105 -71.983123779297 -212.386505126953 1.231611132622
90.525436401367 -68.393760681152 -212.046447753906 0.867937386036
-90.873001098633 -70.216087341309 -218.277023315430 0.539413750172
-103.439888000488 -67.819854736328 -219.276870727539 1.657602548599
-89.670066833496 -72.671386718750 -219.959793090820 1.561524510384
85.303588867188 -69.188446044922 -223.349029541016 1.928887009621
-136.269317626953 -71.360862731934 -226.855163574219 2.269878625870
-135.791137695313 -67.144134521484 -224.103912353516 2.132685422897
-118.660949707031 -68.901779174805 -224.052154541016 2.512024879456
-111.095474243164 -69.215866088867 -223.042938232422 2.246124029160
-134.779724121094 -69.994384765625 -226.403579711914 1.322282075882
-110.613487243652 -72.471359252930 -224.094085693359 1.603999972343
-111.964096069336 -71.028884887695 -225.531661987305 1.228287458420
-9.622999191284 -69.435714721680 -222.910858154297 2.438490867615
-15.939920425415 -66.925209045410 -220.040206909180 3.527288913727
-0.655778169632 -69.538757324219 -231.588821411133 1.669045329094
-10.235527038574 -66.994483947754 -228.200836181641 2.220722913742
17.326660156250 -70.771629333496 -234.669769287109 1.852370619774
-15.118928909302 -69.417633056641 -231.464538574219 1.759565711021
-168.932464599609 -72.119003295898 -223.535919189453 3.017164945602
-3.177670955658 -67.333877563477 -230.246871948242 2.356751918793
80.075569152832 -67.057876586914 -227.452209472656 1.525876283646
6.388129234314 -69.476432800293 -232.920227050781 1.346137046814
-6.794566631317 -73.369903564453 -235.697143554688 1.799394965172
-154.355880737305 -68.396545410156 -238.383270263672 3.562910079956
-140.258163452148 -66.716331481934 -233.538070678711 1.937826871872
67.229553222656 -69.102195739746 -236.238311767578 2.027045249939
-6.615465641022 -70.235313415527 -235.877899169922 1.269422173500
4.607693672180 -75.100608825684 -233.770812988281 1.596243262291
67.482093811035 -68.171928405762 -233.270111083984 1.936039209366
76.541053771973 -67.276901245117 -234.522506713867 1.174758315086
69.616348266602 -68.280570983887 -241.902999877930 2.233945131302
-3.079175949097 -70.976509094238 -236.820938110352 0.974000453949
55.178337097168 -73.917831420898 -240.509857177734 2.615466356277
-18.671283721924 -69.084053039551 -241.852035522461 2.228698968887
-18.532184600830 -71.087677001953 -239.052337646484 1.327129483223
10.285093307495 -69.077789306641 -240.475524902344 0.607692182064
65.351654052734 -70.969749450684 -236.140304565430 1.211744189262
59.142230987549 -68.444358825684 -240.143814086914 1.662344336510
52.110702514648 -72.724540710449 -249.372924804688 1.555228829384
60.778572082520 -70.854339599609 -243.272979736328 1.318429827690
-14.944065093994 -70.159614562988 -253.396240234375 1.820780038834
-85.656539916992 -71.649887084961 -251.742645263672 2.190947771072
-78.795059204102 -70.189018249512 -250.006744384766 0.271467566490
45.742012023926 -69.447547912598 -245.958953857422 2.409651041031
-147.973815917969 -70.923980712891 -250.321655273438 4.093249797821
36.544643402100 -73.089096069336 -253.646514892578 3.245869398117
-91.938369750977 -72.293418884277 -251.720428466797 1.609436750412
-157.301742553711 -69.117210388184 -256.552551269531 1.048534750938
-141.663482666016 -70.567504882813 -253.933013916016 1.756976842880
48.990280151367 -71.416847229004 -251.948822021484 2.313365697861
-122.265647888184 -70.278694152832 -256.343414306641 1.518818020821
-118.306358337402 -71.546897888184 -256.720031738281 1.940762877464
-91.547698974609 -68.139305114746 -260.751983642578 2.814097166061
-13.300950050354 -72.713096618652 -252.127288818359 1.110360264778
33.134075164795 -71.930343627930 -261.150573730469 3.717162132263
23.701730728149 -72.834739685059 -262.663330078125 1.058046221733
-157.909729003906 -69.018501281738 -259.986083984375 2.637928009033
-115.005157470703 -72.493911743164 -264.181793212891 1.902923703194
-13.161136627197 -64.415222167969 -259.861480712891 4.398029804230
-136.640396118164 -70.437507629395 -264.277679443359 1.701436042786
-17.181556701660 -69.774673461914 -269.835601806641 2.813331604004
-167.452667236328 -70.684890747070 -278.601318359375 3.170809030533
-10.932743072510 -70.945007324219 -284.259826660156 2.956634283066
-161.175964355469 -70.013313293457 -287.239410400391 0.657208800316
-164.390274047852 -67.568870544434 -279.327148437500 2.997307062149
-143.184478759766 -67.786575317383 -283.634429931641 1.952680230141
-165.094436645508 -69.929168701172 -282.882446289063 2.203626394272
12.958620071411 -69.680938720703 -288.071502685547 2.023755788803
-102.705162048340 -68.942955017090 -288.294464111328 2.829377412796
-84.974861145020 -68.084777832031 -287.966186523438 2.274518728256
-167.918518066406 -68.788246154785 -288.512145996094 1.750216722488
-89.016792297363 -67.154312133789 -289.042358398438 1.606069207191
-149.472839355469 -70.661712646484 -283.746948242188 3.018990516663
-71.667190551758 -68.227249145508 -287.338378906250 3.123090267181
-68.466400146484 -70.996482849121 -286.368194580078 1.870716691017
-83.865936279297 -67.167198181152 -289.693542480469 2.347573757172
-2.742274284363 -72.109474182129 -288.634887695313 1.110615015030
-84.375663757324 -70.792312622070 -292.424499511719 2.329684972763
-101.821716308594 -69.720817565918 -292.423004150391 2.479559183121
-113.551353454590 -70.771575927734 -291.791625976563 1.398287296295
-116.592697143555 -69.122268676758 -291.884155273438 1.572144508362
-136.598510742188 -64.675895690918 -293.155456542969 2.540969371796
-142.627212524414 -69.530815124512 -300.789459228516 2.569168806076
-145.198379516602 -72.429618835449 -314.460266113281 2.155246734619
27.451519012451 -70.148612976074 -15.914074897766 2.866886854172
36.825195312500 -67.376602172852 -19.537651062012 3.906898021698
29.951967239380 -71.059562683105 -20.368602752686 1.985042452812
50.552356719971 -70.237266540527 -25.881805419922 1.775537252426
27.286458969116 -71.518844604492 -30.522884368896 0.190016731620
-72.663352966309 -66.022537231445 -51.555824279785 3.199481964111
91.201126098633 -67.848030090332 -68.107711791992 3.146625518799
-16.315395355225 -71.966697692871 -68.914512634277 2.120130300522
101.806053161621 -66.394500732422 -71.875915527344 3.057713985443
96.690483093262 -68.460273742676 -74.960006713867 3.525331020355
71.317535400391 -73.477172851563 -76.107406616211 1.323460459709
70.186637878418 -71.719245910645 -84.495536804199 3.541822671890
-44.648574829102 -71.160682678223 -85.109321594238 1.784156918526
61.356483459473 -67.285209655762 -83.963363647461 1.891252160072
-98.364303588867 -70.660232543945 -86.387794494629 3.451488733292
-53.354537963867 -71.769577026367 -85.798637390137 1.838076710701
-55.940601348877 -77.863861083984 -92.679092407227 1.544620037079
96.657974243164 -73.177597045898 -94.887298583984 1.371046781540
59.866298675537 -70.103370666504 -94.377960205078 1.329030394554
62.367874145508 -66.981277465820 -92.061920166016 1.428827524185
-96.886993408203 -65.796707153320 -93.829978942871 1.406328082085
106.791023254395 -67.301017761230 -94.911216735840 2.228689908981
47.738254547119 -68.567314147949 -98.173965454102 1.798221826553
101.765426635742 -72.581977844238 -100.280982971191 2.299747228622
107.582649230957 -70.918418884277 -104.118331909180 0.725967407227
100.894462585449 -67.447013854980 -109.779083251953 4.137200355530
74.178054809570 -69.631820678711 -106.295532226563 2.356496810913
90.307540893555 -66.312881469727 -107.461540222168 1.648488402367
49.687702178955 -72.389892578125 -111.904396057129 0.857058942318
111.942245483398 -68.537025451660 -108.875534057617 1.684570550919
42.200721740723 -72.156982421875 -104.417572021484 1.934697031975
42.201148986816 -67.913269042969 -99.799186706543 3.298629045486
110.869918823242 -68.956687927246 -110.505607604980 0.317697107792
-79.073783874512 -68.804603576660 -107.013526916504 1.743386745453
46.087306976318 -68.120025634766 -112.905693054199 1.582193374634
36.155155181885 -70.063125610352 -111.026039123535 2.849199056625
108.559906005859 -68.856819152832 -108.703369140625 1.825350522995
38.908401489258 -69.332267761230 -111.907714843750 0.915886163712
-89.277000427246 -68.152297973633 -115.320999145508 1.895538926125
-93.794624328613 -71.584213256836 -116.899971008301 1.308933377266
108.095016479492 -70.608222961426 -116.645851135254 1.135336518288
-92.634742736816 -71.205245971680 -118.667320251465 0.997069418430
35.490425109863 -68.145378112793 -124.196418762207 1.857606887817
37.311412811279 -68.598037719727 -118.657234191895 0.826082706451
-81.776039123535 -69.730628967285 -126.596183776855 1.768181920052
30.000474929810 -68.879692077637 -131.805435180664 1.855408906937
107.761764526367 -70.993545532227 -131.886917114258 1.822538256645
-52.739345550537 -68.677238464355 -129.916809082031 1.371688485146
-90.137313842773 -68.948516845703 -132.001617431641 1.624323248863
37.607013702393 -68.042709350586 -133.763961791992 2.230128526688
-92.848976135254 -67.349037170410 -136.958877563477 2.054684400558
-90.893386840820 -69.014427185059 -137.393829345703 1.120972156525
-49.680778503418 -74.264869689941 -140.915878295898 2.037394285202
-68.327911376953 -66.398162841797 -142.950012207031 2.615885496140
-51.542762756348 -66.259811401367 -135.387100219727 1.067330360413
112.767005920410 -70.005111694336 -140.900039672852 2.187690258026
-78.370109558105 -68.836135864258 -139.333694458008 1.680568099022
33.553546905518 -67.220657348633 -132.556533813477 3.281612873077
-77.918205261230 -68.403015136719 -138.087799072266 1.133653283119
-74.916633605957 -66.305809020996 -134.253250122070 1.434866309166
-86.080856323242 -72.353988647461 -136.870788574219 4.181839466095
-54.714347839355 -67.863334655762 -149.893737792969 2.345442533493
29.215488433838 -67.408119201660 -146.094848632813 3.382246732712
27.869163513184 -67.573295593262 -148.198120117188 2.239434242249
18.664951324463 -68.614852905273 -146.840118408203 1.781780719757
117.605262756348 -71.341468811035 -146.010147094727 1.561510086060
-98.966232299805 -67.201210021973 -153.313262939453 1.258993506432
17.727685928345 -69.776718139648 -153.966217041016 2.919330358505
-72.426719665527 -69.854194641113 -151.202316284180 1.895049333572
24.939243316650 -69.882843017578 -150.709320068359 1.998695254326
-47.952899932861 -72.255790710449 -157.823898315430 0.607884109020
9.843733787537 -69.327575683594 -154.578369140625 2.297546625137
12.741076469421 -69.573204040527 -155.351013183594 1.564953565598
17.562526702881 -68.296852111816 -165.683456420898 1.755022644997
-42.656486511230 -73.152023315430 -160.407882690430 2.474449634552
-38.874847412109 -65.831100463867 -153.225021362305 4.477636814117
-43.399501800537 -70.133232116699 -158.601348876953 2.524308681488
-104.635147094727 -71.642158508301 -170.305633544922 2.569338560104
20.907741546631 -64.718658447266 -173.490661621094 3.028296947479
-34.102813720703 -68.053665161133 -173.685180664063 2.073308467865
14.871459007263 -70.043685913086 -178.793212890625 1.756859302521
-148.850463867188 -70.156440734863 -174.844985961914 1.557711720467
-34.581062316895 -68.734611511230 -171.818832397461 1.791338920593
-157.885177612305 -65.226173400879 -174.649337768555 5.828636646271
21.949453353882 -62.479625701904 -180.249511718750 3.945739030838
-26.573091506958 -68.879760742188 -174.736968994141 1.837319135666
-112.203193664551 -66.620712280273 -179.863754272461 2.523178100586
-109.122848510742 -71.609413146973 -179.371047973633 3.229695320129
-27.627132415771 -67.502265930176 -183.824722290039 1.812907695770
-22.859344482422 -72.771537780762 -181.747863769531 0.693114578724
17.436805725098 -68.227577209473 -191.803222656250 1.652647733688
20.786027908325 -67.049301147461 -197.989807128906 2.279221296310
12.579000473022 -68.685729980469 -186.295410156250 3.165446043015
-144.358932495117 -71.474571228027 -189.748306274414 2.040828943253
18.557304382324 -68.938461303711 -189.561264038086 1.106007337570
9.400902748108 -69.524269104004 -194.467971801758 2.502423763275
-139.396667480469 -66.529891967773 -194.034301757813 2.367822170258
-116.649742126465 -70.455108642578 -198.186355590820 2.574843406677
12.881748199463 -67.777603149414 -197.484558105469 2.425212144852
-110.060287475586 -66.530639648438 -197.853759765625 1.204735279083
-109.737876892090 -71.372467041016 -192.895660400391 1.478477239609
-163.807952880859 -69.892066955566 -197.807693481445 1.707253217697
-27.069751739502 -71.611869812012 -201.721176147461 3.737359523773
17.495038986206 -68.650382995605 -199.985061645508 0.780465245247
-138.686019897461 -68.490226745605 -204.970260620117 1.966335177422
-135.365768432617 -70.032386779785 -202.679016113281 2.096575975418
-18.993307113647 -68.711318969727 -204.377349853516 1.050900101662
-12.337604522705 -72.660118103027 -203.783630371094 2.256196022034
-16.221315383911 -66.832092285156 -205.681869506836 1.078644394875
-145.138687133789 -69.706367492676 -207.319122314453 1.843381762505
-14.938370704651 -71.755210876465 -215.000595092773 1.742401123047
-13.381643295288 -70.073402404785 -214.900726318359 1.152176260948
18.240701675415 -68.331245422363 -211.255065917969 1.837249398232
-10.585637092590 -68.367591857910 -210.323348999023 2.149433612823
7.982093334198 -69.827423095703 -214.733245849609 1.687123894691
-8.285536766052 -70.082122802734 -215.050888061523 1.339387536049
-13.964864730835 -66.405929565430 -212.461395263672 1.407506942749
13.351206779480 -65.129341125488 -218.704696655273 4.023090839386
-2.227685451508 -71.191741943359 -218.027786254883 2.035059452057
11.534914970398 -68.234931945801 -224.110946655273 1.835072517395
-4.563458442688 -68.966384887695 -224.587936401367 2.262671947479
-155.517745971680 -69.659263610840 -221.381973266602 2.659157514572
78.465461730957 -68.335952758789 -221.264846801758 2.841898679733
-129.928268432617 -69.188125610352 -224.100646972656 2.449046850204
-133.973953247070 -68.033447265625 -226.554962158203 1.715301990509
-8.160080909729 -70.730102539063 -224.557662963867 1.642256855965
12.252799034119 -66.153381347656 -231.102630615234 3.927650451660
-150.757766723633 -70.196243286133 -228.457992553711 1.970174551010
85.074073791504 -71.228881835938 -221.497451782227 1.305141687393
-1.591795325279 -69.970039367676 -225.368453979492 1.241464257240
1.934309601784 -68.321762084961 -224.550567626953 0.998693764210
74.299621582031 -66.783775329590 -227.085815429688 2.743772745132
-0.150569304824 -66.799095153809 -234.915557861328 1.852364301682
-13.372800827026 -69.471115112305 -231.472549438477 1.755790710449
-124.341064453125 -71.867019653320 -235.189407348633 1.949586749077
-4.727334499359 -67.791160583496 -233.193374633789 1.438476204872
1.486472249031 -68.914985656738 -235.180709838867 0.934751212597
65.640975952148 -67.530693054199 -237.996505737305 2.166020393372
-162.069915771484 -67.282707214355 -238.423553466797 0.793808698654
-10.413423538208 -68.486923217773 -242.630264282227 1.437860727310
-167.384262084961 -68.893943786621 -238.884796142578 0.514565348625
8.944091796875 -71.673233032227 -243.112716674805 0.448413163424
-163.886779785156 -70.617279052734 -238.407577514648 1.730175971985
-162.258316040039 -68.574798583984 -246.038970947266 1.939846158028
55.162010192871 -68.919593811035 -247.859680175781 1.854422569275
63.219829559326 -68.035240173340 -245.457443237305 2.607523679733
58.250583648682 -68.460937500000 -244.706817626953 1.361949682236
52.149799346924 -69.141960144043 -249.666046142578 1.168635249138
-158.547515869141 -71.867942810059 -243.571365356445 2.155884504318
-157.952804565430 -68.224533081055 -250.714019775391 2.095400810242
-11.854124069214 -70.722175598145 -251.120697021484 2.375303506851
-151.591934204102 -69.575912475586 -246.332550048828 2.315636873245
21.165210723877 -72.734939575195 -253.498931884766 3.104323148727
-166.380661010742 -70.404129028320 -251.372741699219 1.253795146942
-163.402938842773 -68.544136047363 -245.709426879883 2.406430959702
-83.316841125488 -68.208129882813 -252.137054443359 1.216367125511
-166.776290893555 -71.519981384277 -261.189544677734 0.345921218395
-83.345092773438 -71.025688171387 -256.437683105469 1.058914184570
45.038921356201 -70.383384704590 -253.594940185547 1.216880798340
24.019855499268 -72.186141967773 -254.240814208984 2.476736545563
-158.258224487305 -66.884445190430 -260.740295410156 3.136848926544
-100.728584289551 -68.120628356934 -260.220916748047 1.223680973053
39.523075103760 -70.427490234375 -254.649047851563 1.888318657875
-103.490234375000 -70.560394287109 -257.390533447266 1.711606264114
-155.447662353516 -64.362670898438 -260.475219726563 1.197747588158
-106.504364013672 -67.277648925781 -259.800598144531 1.246400833130
-163.539382934570 -68.827095031738 -257.077545166016 3.094921588898
-114.985488891602 -71.575012207031 -263.345886230469 0.924236893654
-153.652114868164 -66.810897827148 -265.163024902344 1.331766366959
-157.433105468750 -67.526992797852 -265.930267333984 2.747155189514
-165.921249389648 -72.007202148438 -264.891479492188 2.224489450455
-159.585632324219 -68.313331604004 -260.882812500000 2.890234470367
-166.032775878906 -70.144554138184 -266.006958007813 2.015730142593
-162.294219970703 -68.339057922363 -268.090606689453 1.556965589523
21.625102996826 -68.698036193848 -265.484649658203 2.144973278046
-156.128570556641 -68.599647521973 -265.454895019531 2.527881383896
-147.640945434570 -69.541381835938 -278.459808349609 1.977529048920
20.398048400879 -72.930610656738 -279.778564453125 2.846885681152
-11.392297744751 -69.663719177246 -271.371765136719 2.644228458405
-129.285995483398 -72.225639343262 -282.910400390625 3.479367017746
-138.356094360352 -73.342193603516 -284.008239746094 3.134647130966
-136.008087158203 -67.315391540527 -286.265686035156 1.272517085075
-128.236358642578 -68.812889099121 -285.228302001953 1.905297279358
-118.829048156738 -66.721626281738 -285.985229492188 3.230952501297
-105.165451049805 -67.814491271973 -288.896148681641 1.617080330849
15.132153511047 -67.626106262207 -287.379882812500 2.074150800705
-85.060226440430 -63.782901763916 -290.718475341797 4.433471679688
-149.695068359375 -71.167457580566 -290.335540771484 0.661306679249
-101.618667602539 -69.321434020996 -291.291381835938 1.440027236938
-123.248458862305 -67.166046142578 -290.998931884766 0.437750548124
9.576093673706 -68.897155761719 -291.214569091797 2.483030796051
-109.502189636230 -68.101043701172 -293.700134277344 2.956444740295
-1.083850383759 -68.541931152344 -295.524139404297 3.710522651672
-143.376342773438 -65.988723754883 -291.363616943359 1.820969820023
-150.236953735352 -74.087059020996 -298.050109863281 2.086740732193
-153.752304077148 -73.862236022949 -308.666259765625 2.900027990341
-155.008438110352 -69.262161254883 -311.329681396484 1.433139920235
52.103141784668 -69.671333312988 -23.596332550049 1.795263886452
21.316608428955 -73.422531127930 -32.939567565918 1.252235293388
32.192035675049 -70.063285827637 -39.340129852295 1.200941324234
-46.893577575684 -70.736495971680 -52.183715820313 1.928271412849
-13.126491546631 -67.999931335449 -61.071018218994 1.457517743111
94.463005065918 -71.694007873535 -67.498939514160 2.343570470810
66.963226318359 -66.865684509277 -71.632377624512 1.846477746964
-19.505826950073 -69.660758972168 -75.763229370117 3.024588346481
-93.901016235352 -72.299034118652 -84.795997619629 0.168851286173
-40.825466156006 -69.711051940918 -77.782226562500 1.125786662102
66.021476745605 -67.703948974609 -84.348396301270 1.185553908348
55.734451293945 -67.189926147461 -88.249862670898 0.365091979504
55.086261749268 -67.341407775879 -90.419189453125 2.239904403687
-54.665649414063 -66.447532653809 -90.097091674805 2.790601730347
63.915145874023 -64.012077331543 -89.666046142578 1.636443376541
48.461868286133 -70.759681701660 -97.412704467773 0.854430019855
68.889945983887 -65.861923217773 -96.275367736816 2.659726858139
-65.066932678223 -66.563545227051 -93.725006103516 2.385436534882
49.940002441406 -71.889724731445 -96.571815490723 1.556972146034
43.719715118408 -65.380859375000 -98.851287841797 3.457618474960
102.194946289063 -68.901313781738 -100.276000976563 0.971000611782
-70.382614135742 -66.896926879883 -99.577972412109 0.506448030472
111.401847839355 -65.473663330078 -103.127723693848 3.021381616592
-84.097373962402 -69.814147949219 -98.888763427734 4.827556133270
55.768814086914 -74.197959899902 -102.315765380859 1.986029148102
46.927547454834 -65.734649658203 -98.695312500000 1.530776023865
90.114990234375 -72.357131958008 -103.331733703613 1.422314524651
84.409088134766 -64.536460876465 -109.003433227539 1.957663774490
55.578208923340 -65.931106567383 -106.652496337891 3.799742221832
-73.978805541992 -70.557205200195 -108.683067321777 1.743161678314
-75.782928466797 -68.251396179199 -111.685470581055 1.745496273041
-77.982978820801 -68.762062072754 -118.974586486816 2.192042112350
-90.686279296875 -70.472724914551 -119.527534484863 0.824444591999
109.888160705566 -65.665901184082 -115.034317016602 1.390076637268
-82.706779479980 -68.847549438477 -120.040809631348 2.446204900742
-79.313636779785 -66.326881408691 -119.960166931152 1.498952150345
112.446357727051 -66.032905578613 -114.063911437988 3.070107698441
-64.121269226074 -67.030403137207 -117.989822387695 2.211597442627
113.195312500000 -67.829132080078 -132.390563964844 1.722981095314
109.742149353027 -68.296485900879 -130.380950927734 1.385244727135
108.386894226074 -66.552825927734 -121.390586853027 1.581177353859
-92.072113037109 -71.748931884766 -139.821273803711 1.889052271843
-47.267364501953 -67.685379028320 -142.930694580078 3.244418144226
-74.996437072754 -71.514167785645 -146.819686889648 1.608733534813
-67.742729187012 -66.853286743164 -149.436355590820 2.913291454315
-74.951004028320 -65.367500305176 -147.549926757813 3.531455755234
-53.852294921875 -68.794097900391 -139.652496337891 1.600782871246
-50.134956359863 -65.275581359863 -149.199493408203 2.957483530045
21.276121139526 -69.184440612793 -144.379776000977 1.564601659775
-96.448417663574 -66.537139892578 -143.422088623047 1.460294365883
-40.671375274658 -67.479164123535 -149.088073730469 3.881626129150
-54.912921905518 -66.632179260254 -147.997146606445 2.633417606354
-41.374111175537 -70.376647949219 -156.453186035156 2.375751495361
27.076940536499 -70.064743041992 -163.336410522461 2.938860177994
-46.685813903809 -65.817291259766 -148.901214599609 2.478729486465
-96.251525878906 -67.996543884277 -150.620544433594 1.063512682915
-43.540122985840 -68.569526672363 -158.615539550781 1.623286247253
27.001468658447 -66.220321655273 -150.948348999023 1.737609982491
-102.631034851074 -68.414505004883 -161.506423950195 1.223293900490
19.695646286011 -64.280120849609 -157.619827270508 4.631440162659
-108.699234008789 -69.127532958984 -175.023147583008 2.563237667084
-101.002395629883 -70.026191711426 -166.466293334961 2.035099983215
23.884248733521 -66.544631958008 -158.880706787109 2.420319557190
27.284584045410 -63.922306060791 -170.271209716797 4.478488445282
-100.500740051270 -70.850265502930 -171.416580200195 3.314088821411
-143.739379882813 -72.776237487793 -174.768356323242 1.210834741592
-21.266376495361 -67.127861022949 -184.271820068359 3.380765199661
-28.266130447388 -69.236068725586 -181.638732910156 1.588992238045
-115.146232604980 -68.077941894531 -189.836837768555 2.534309387207
-145.736694335938 -63.187725067139 -188.480102539063 1.295854210854
-107.659774780273 -66.577316284180 -182.496459960938 2.539294004440
-156.180145263672 -68.786888122559 -194.252105712891 0.984422266483
-132.300720214844 -70.130218505859 -195.257308959961 1.164191246033
-135.026336669922 -69.907089233398 -194.302597045898 1.996715188026
-20.858905792236 -62.692337036133 -191.571182250977 4.868501186371
-123.022392272949 -69.999557495117 -193.548858642578 1.946083664894
-114.993453979492 -67.333152770996 -193.118362426758 1.362262606621
-22.254684448242 -67.322982788086 -197.417999267578 1.916094422340
-153.612655639648 -68.081443786621 -203.240203857422 1.614259481430
-131.319671630859 -72.891723632813 -205.474807739258 2.371742248535
-125.800369262695 -67.478248596191 -204.196762084961 2.433069944382
18.691789627075 -64.047218322754 -203.047882080078 4.795711994171
-158.646682739258 -65.875900268555 -208.340896606445 2.342573404312
8.228055000305 -68.922447204590 -211.813705444336 2.519380092621
12.760992050171 -69.052627563477 -214.133560180664 1.185187816620
-17.969736099243 -68.277954101563 -206.553604125977 1.368750929832
-4.649434566498 -68.872787475586 -215.574874877930 0.726535379887
-165.975952148438 -69.466857910156 -210.851715087891 1.963910102844
-156.480651855469 -66.487075805664 -213.331253051758 2.429336547852
-90.620140075684 -70.337120056152 -217.741302490234 1.027760744095
-103.868469238281 -67.068489074707 -226.786010742188 2.948309183121
-165.433792114258 -68.449310302734 -222.120056152344 0.490902423859
-100.379600524902 -67.072723388672 -222.824981689453 2.049698352814
-12.586788177490 -69.220642089844 -221.193496704102 0.821413516998
-125.681335449219 -68.206031799316 -224.361404418945 1.678631067276
-139.128204345703 -71.974555969238 -226.310455322266 1.433545470238
-2.959284305573 -66.775573730469 -221.002487182617 2.602259159088
-133.025497436523 -68.875038146973 -228.126892089844 2.908086299896
-125.837303161621 -65.892395019531 -225.716049194336 1.272429704666
-112.404800415039 -70.587829589844 -223.462966918945 1.513922333717
3.920410633087 -64.522300720215 -229.617675781250 2.346387863159
-106.783065795898 -70.738296508789 -229.326965332031 2.027034282684
-156.263732910156 -65.555549621582 -223.401657104492 3.608460426331
-147.434082031250 -71.256362915039 -227.243652343750 1.383601665497
-167.152755737305 -68.163368225098 -225.158340454102 2.497747182846
-5.949619293213 -69.725303649902 -228.128280639648 1.430184841156
-8.162212371826 -69.520606994629 -231.596649169922 1.325891613960
77.388854980469 -65.355674743652 -229.659103393555 2.971673965454
1.956817150116 -63.868049621582 -227.702621459961 3.557514905930
-139.969619750977 -69.331573486328 -232.735977172852 0.686962306499
-14.118071556091 -68.107238769531 -226.798919677734 2.309574604034
75.650955200195 -67.370719909668 -230.617645263672 2.977967739105
76.507179260254 -66.968360900879 -230.044555664063 2.288221359253
-135.423431396484 -66.804389953613 -230.743896484375 1.944752931595
-157.021041870117 -70.214927673340 -224.127197265625 1.266833186150
-115.810462951660 -67.986732482910 -231.758239746094 2.581792354584
-123.439811706543 -67.079002380371 -234.610748291016 1.601900935173
-167.884506225586 -65.690528869629 -233.171005249023 3.175867319107
-157.703643798828 -68.042839050293 -236.371093750000 1.181833267212
-146.396286010742 -69.945220947266 -234.875076293945 1.580515384674
-8.383856773376 -71.985786437988 -238.387145996094 1.858983874321
-4.908938407898 -68.758811950684 -237.879425048828 0.702613413334
-163.161788940430 -67.614173889160 -236.663085937500 1.619153618813
6.194430828094 -72.780181884766 -238.051193237305 1.956891894341
5.606923580170 -70.929069519043 -231.722824096680 2.344454526901
-161.652755737305 -65.917427062988 -237.300430297852 2.140102148056
14.608988761902 -69.260528564453 -247.673797607422 2.502654075623
50.244331359863 -66.291152954102 -243.400161743164 1.541590213776
49.173847198486 -70.142272949219 -242.225326538086 2.626771211624
-13.825293540955 -69.862609863281 -246.706665039063 0.771158516407
46.471805572510 -66.136222839355 -251.308288574219 1.706566333771
-165.570693969727 -68.327476501465 -251.585357666016 0.764012992382
-158.130706787109 -69.330802917480 -245.045059204102 1.113472342491
-158.611099243164 -66.492691040039 -246.398132324219 2.054660797119
51.367771148682 -68.215187072754 -251.434844970703 0.958988547325
-89.156829833984 -70.616119384766 -256.032836914063 1.994203686714
-128.175125122070 -68.881050109863 -254.914398193359 2.234892368317
-102.999877929688 -69.218948364258 -255.711486816406 1.892351150513
25.793987274170 -66.433906555176 -258.165161132813 1.068590521812
44.928661346436 -69.998931884766 -252.791320800781 0.673594772816
-102.037223815918 -67.496337890625 -254.856658935547 0.947050631046
-94.061691284180 -68.032974243164 -255.796691894531 1.211097955704
43.429069519043 -67.408035278320 -251.803558349609 2.043667793274
44.583332061768 -64.974815368652 -257.919769287109 3.046825647354
-152.440017700195 -74.676361083984 -257.046569824219 1.607662677765
32.761806488037 -68.258689880371 -258.287445068359 0.388382732868
-139.824050903320 -69.526947021484 -264.460266113281 2.778811693192
-113.114601135254 -68.895721435547 -260.447265625000 2.095197916031
-135.372161865234 -72.603828430176 -265.560607910156 2.131658315659
27.186567306519 -67.582054138184 -264.940948486328 1.777428865433
-127.661437988281 -69.429405212402 -266.186920166016 2.116626977921
-8.532796859741 -66.362312316895 -263.857360839844 3.217823505402
23.937005996704 -68.182029724121 -269.767700195313 0.849122822285
-7.217977523804 -64.588256835938 -267.133270263672 2.745701313019
21.036687850952 -71.133895874023 -278.428619384766 1.419326782227
-154.091827392578 -68.857841491699 -280.865997314453 1.480916976929
-11.563819885254 -69.073059082031 -276.480407714844 1.298333883286
-155.660827636719 -72.678710937500 -283.840850830078 1.907248854637
-129.677688598633 -66.798103332520 -284.244384765625 2.232932090759
-155.185516357422 -69.377845764160 -285.344360351563 1.792265892029
-116.132186889648 -68.656715393066 -289.528900146484 1.640856862068
-108.728164672852 -70.216094970703 -290.934020996094 1.989578127861
-7.169342994690 -71.181938171387 -287.041839599609 1.476269721985
-109.498497009277 -68.287528991699 -291.817749023438 2.392438650131
-116.197349548340 -67.894958496094 -290.365753173828 2.033339500427
-116.685798645020 -67.782600402832 -290.830841064453 2.321254014969
-138.247390747070 -67.436599731445 -289.633941650391 2.103379487991
-122.571624755859 -70.685417175293 -290.797576904297 2.288155794144
-156.167282104492 -71.609626770020 -291.576049804688 2.166640520096
-144.286209106445 -69.661399841309 -295.068450927734 1.019166827202
-154.088958740234 -66.462837219238 -301.482543945313 2.580672502518
-153.999099731445 -65.565071105957 -311.870086669922 3.023004293442
-152.295547485352 -65.862594604492 -300.754974365234 2.037361145020
-143.364410400391 -68.671485900879 -311.610504150391 3.132446050644
-155.244659423828 -65.475402832031 -312.363555908203 3.519250392914
36.419296264648 -66.415977478027 -10.477734565735 3.453896045685
42.283561706543 -71.378974914551 -12.297444343567 0.977013647556
24.867797851563 -65.996917724609 -23.771423339844 2.716357469559
51.510604858398 -70.682174682617 -30.213821411133 2.121925115585
27.372964859009 -72.704666137695 -35.016437530518 1.212527275085
38.006240844727 -66.019378662109 -35.641380310059 2.400417327881
-58.430919647217 -68.768020629883 -45.827819824219 1.221800088882
86.064315795898 -66.446266174316 -64.113059997559 0.958837568760
80.982940673828 -71.501647949219 -62.114048004150 2.937234640121
-90.701538085938 -65.769050598145 -60.439403533936 1.186188459396
-11.876986503601 -63.234138488770 -63.898860931396 1.106159210205
-92.506950378418 -67.078620910645 -66.474327087402 1.783725380898
96.028076171875 -68.985832214355 -68.642959594727 1.304877996445
-17.071102142334 -68.049522399902 -68.800849914551 2.247713327408
68.294891357422 -64.775299072266 -74.118148803711 2.611687898636
-38.226058959961 -69.885383605957 -76.745330810547 1.418530106544
-25.987115859985 -74.311126708984 -77.681030273438 2.045526981354
55.642875671387 -74.145706176758 -86.317344665527 1.868138313293
