# This PCD file was generated using the MATLAB® pcwrite function
# from Computer Vision Toolbox®.
# .PCD v.7 - Point Cloud Data file format
VERSION .7
FIELDS x y z
SIZE 8 8 8
TYPE F F F
COUNT 1 1 1
WIDTH 786
HEIGHT 1
VIEWPOINT 0 0 0 1 0 0 0
POINTS 786
DATA ascii
-147.851582826735438 -73.978157816439378 -202.755049794175733
-138.701591398131171 -72.802370331341237 -201.907991109707694
-9.803229838545031 -73.036761185312670 -206.583657158834342
-124.146534274855810 -73.345793087196370 -203.614446292639741
-143.647725580223749 -75.895716889287456 -199.544132399113352
4.200180516850194 -73.632670146766429 -199.456181112797310
-23.989951008919473 -75.544589414219473 -200.939982342434007
20.929494369958732 -76.117968473876275 -202.163374552724918
6.869815150463426 -74.703616235719622 -211.682912369304830
85.672258267047454 -70.883137443686579 -208.462596794519953
-18.174737392759955 -70.946258662292706 -211.803090716849255
91.560180659699384 -71.130465026794198 -208.863146786071866
97.306792608344878 -75.071305787505693 -206.887842363254777
-148.733417948312166 -74.594361305912003 -214.382819073993289
95.737831837715817 -74.947628884697437 -211.453911236297387
5.229756904514141 -72.496385755536537 -207.172331547691527
3.816780679625470 -75.523543079523861 -214.260906229083758
-32.741353765984385 -73.048998917748548 -206.836845938192852
-89.206019435190768 -72.928969606240713 -212.978595231173472
-26.001732802591810 -74.828068727887981 -210.692252642184854
85.353482204784328 -72.567282355058651 -216.781602320049956
89.512286323264320 -72.391864454880661 -216.894316693187818
-31.623242222295307 -72.670088503465891 -212.089436948218719
-84.190323855709082 -70.593059753428790 -218.268113488631570
-0.826763171716392 -75.419238812387292 -218.548782347615315
82.255654339188368 -69.850097886309257 -213.051463543330897
-151.711192929775223 -77.272733685168063 -221.726596360367012
-165.606639673553332 -71.998336675400395 -214.210570633998088
-161.771791244921161 -76.005926256099855 -222.143543467413991
-21.192553590304350 -74.367087607346306 -226.709635401793776
-153.687543558299438 -76.424778806617738 -222.635512917757495
-5.519650671772224 -74.590904307388641 -224.311016472315345
6.780696733940342 -74.431711762568568 -218.230808224895696
-166.958323486348263 -73.452008046051589 -225.461577666985875
-158.606512311887684 -73.935507731743485 -227.300666708752345
79.492212390735219 -76.442616784329658 -231.244521566671835
0.473171242303631 -72.316127229901994 -226.498638248099553
-157.353221450689830 -69.000271369002760 -226.114451152800882
-142.288539762474755 -75.115489989680725 -224.287717262220269
-18.984951725463713 -72.510607859092033 -223.776290411126922
-0.168481273585567 -77.567298298423552 -222.273141989268140
80.275376999525335 -70.927368314206589 -225.463104602253765
-161.068179576600897 -71.949477849024262 -227.826229556136553
-143.799828023919844 -71.311517473190179 -230.818018977894042
-124.912759303274015 -71.971078372430895 -230.847990366606325
79.021339150281605 -74.701308674632813 -226.487442416438427
-115.424326447121416 -73.431766856593768 -229.099055306220720
-146.200443024487015 -73.491663378724880 -229.235312423117307
-150.308780165153991 -72.254744095831612 -231.382683848478990
-148.811670988079442 -74.298214452167031 -231.284684189818051
-155.619133425498461 -74.079849187441425 -229.055321825631836
-164.871832087610755 -74.018455379972224 -228.983828384871146
-133.494287140312423 -73.720694146381263 -235.291801446047486
-133.061355346796915 -74.687755528194742 -233.082959070873159
-152.964490491182801 -77.188464288888909 -232.834312488071959
-145.181303473988521 -70.142491069999210 -236.821637105670419
-151.400139080997576 -74.058158504730827 -235.283034005689700
75.182668353933224 -75.297043923837208 -232.234256321388102
67.592910210421252 -68.609821420537827 -235.833424379425082
-156.789636474498423 -72.189068527975707 -235.364701234779176
71.991831600370602 -69.002602090767908 -233.120233682883395
-19.522924120552958 -72.074728002000541 -236.532245918055565
11.685808258787779 -74.626225566377997 -236.932400964475818
7.200267020208666 -74.203255060194735 -235.870034457555732
-154.262956396580449 -73.737307411188638 -242.638363618594212
14.860108683050441 -72.867262695235794 -240.958084166039868
61.232319365136256 -72.151663168379542 -237.817717749483251
13.681902990984094 -71.003546597542098 -237.817133290397351
5.636924607765058 -73.895318193964272 -241.430050710480458
-6.238239444275953 -71.405057763703155 -240.239156284536136
-20.874297179309131 -72.071577606101656 -242.738810082638736
-1.445132515646082 -73.365420825955923 -241.841784010511049
4.112833475149586 -76.079561356033480 -244.846818378208553
57.709526279070182 -74.338344317276977 -241.407946690185724
-55.162826786452328 -76.841774086834050 -244.656518176104242
19.874020912275935 -72.390137074014021 -247.218879351719835
-59.286431601868237 -74.463027990760594 -241.729003916625402
-9.601748554772938 -73.640140402077876 -247.781416625981450
-65.838342929308922 -70.254763996627233 -250.247321862291216
-85.804010362217056 -72.048965892575708 -253.109002987122523
-82.364791352296606 -74.530848086157675 -252.084208330234532
-9.591168268595316 -72.858862228803474 -254.694529983562489
-123.644715039889590 -73.521529282625664 -259.048654656511815
-13.854299366534043 -74.371848848720234 -252.883453067531406
-116.757532934572282 -73.702496206370540 -255.702301435771034
-116.271698897502759 -72.394455190323157 -258.643630236523279
-103.326824116640765 -73.482587377401074 -256.528761129477402
-143.665839455183402 -72.813510069757498 -261.866654201238816
-144.811967172742413 -73.254380927340975 -267.267209695957490
-168.451769480989071 -73.851217390290955 -263.651686706126384
19.606226687420882 -76.950999833756441 -280.142558510826689
-57.843906479004261 -71.827286958044667 -285.360136146990953
-67.032681667689815 -72.698881979847386 -283.675640519011210
-41.936748134331040 -75.346788390158054 -283.814502806187022
-27.846350307925366 -74.570263437517056 -286.406412022056315
-96.132056623858446 -75.638622566500572 -289.209633592145394
-30.649314930858313 -71.733114806327436 -285.670382408115984
-3.915079091834069 -73.615391925615072 -286.097220191953170
-167.208710595885861 -73.945121761537365 -289.363532417511919
-15.676351764857664 -75.667315561233593 -285.801565743949368
6.548846826182917 -74.740017856589461 -287.846587416434318
14.329854877737860 -77.850510573101118 -283.486054742420947
-56.780963449485824 -75.976466378737925 -287.567900796753690
-33.052586279178776 -74.091786629808070 -291.419082370528827
14.368328518781686 -71.715527379225293 -292.991686909720215
-70.760270280293440 -72.377774755687014 -292.906458600818553
-40.099849002304445 -71.170616974641305 -289.114223380606234
-17.704128780835173 -71.646267469847785 -289.935032726632812
15.222035138765253 -75.766971242198963 -290.910162908104041
-11.401647535316036 -75.270398481114356 -294.131493078899211
4.100829506335050 -72.437303752129452 -293.724089139808996
14.425166791433856 -75.505159322147549 -290.484473623422446
-134.753915345083584 -72.890188805383318 -294.366209484878880
-144.816721441740839 -76.222695927824816 -299.153032380773652
-150.878368701849610 -74.399492122902444 -313.230386203434250
43.527171239721511 -71.101496897851661 -13.611704644407700
30.629813707008033 -71.548184476909043 -11.718231287573184
39.781179866406418 -71.817003369836826 -15.308848061565913
22.464007840257747 -68.624062588527664 -18.644862491278538
45.436005151299980 -69.705388405584088 -22.283329652374306
26.025640340303408 -69.976071062432567 -23.885429128818892
24.239535984512095 -72.062779892323633 -27.396730665859195
25.271206180700577 -72.665322721723555 -38.173902094733506
40.028116113558291 -73.810521173788842 -30.678380747541190
26.771508501801733 -75.270952830518681 -36.201180854465278
43.531164932216384 -70.525734248256896 -37.568139062438107
32.325117705664248 -72.353704437568254 -39.309095074190424
39.247282848045231 -73.136329508418100 -35.816517688363660
31.408018864778676 -70.985427074187129 -39.851543082630108
44.059245463415202 -71.781883266804201 -41.065489429386098
34.177194584558748 -71.329407573645597 -38.889550042011550
-40.535998281619477 -70.294543801053479 -48.175396547690809
-29.676788171067543 -67.115936728507847 -50.594204215794832
-88.980666590065141 -70.597370802499455 -54.686214231941250
-88.662230394471763 -72.998160182366448 -65.436182006597988
78.324678423885715 -74.210548535198839 -66.445676585553613
84.716303648563851 -71.549083045993939 -72.276904479976025
-19.272388492106089 -70.079514565735110 -73.434476444580213
-87.857554985776119 -72.251587804527105 -71.600223040689329
-24.801772485123383 -71.353397597323720 -76.604019122059782
-49.300542212358806 -73.145495860663530 -84.797796017627007
66.284953593923319 -68.176888885330186 -86.011204633630825
53.077490194230990 -70.925701467143000 -92.984883554666709
99.871629648365001 -70.009016164516396 -91.143065793565910
69.823251500112562 -73.371497710318678 -96.295465319709336
-67.861850144074552 -73.535456943134818 -90.872013280487678
-61.848619510370938 -70.323778994049860 -97.732647230751425
45.189017836345322 -72.378639511763950 -97.132696474166991
77.779918267097173 -70.438404179410057 -99.569046723710926
54.872052336089737 -78.878333277841904 -104.668662294348437
101.648139298247926 -71.377374036047229 -96.280999231862637
-94.863541747733365 -73.847315101672095 -107.078436145112335
40.211225957592227 -72.239412252858031 -110.373649861580930
107.409420079465136 -72.597620941995842 -108.345608571699572
48.851461192858707 -71.828003771722067 -110.942903947090812
101.850397426474188 -72.723587833647272 -109.345812520295155
-85.120486346750852 -72.296870850618788 -115.124805113310785
36.188755022170042 -75.127510328781597 -111.541362666597223
106.973034875326391 -70.679335703481058 -116.405835815488373
105.059288238570346 -69.215963819775112 -115.410654070948894
105.877545988436481 -72.123846772574709 -114.702442206202306
110.870314473436494 -70.769213807202917 -114.166615667252913
40.270922425766159 -73.637568048515561 -109.841966411681966
32.384805682506588 -69.637859174622690 -116.998534641931769
41.271033217038088 -71.598579972862780 -113.805342855698910
107.141728429418635 -73.068801686282910 -121.352656839558605
40.447593684148885 -70.414808484436605 -122.909773123565188
109.400875608246082 -70.977751062079150 -131.738022671563897
111.273461085497047 -70.548552677879371 -130.628177364579216
33.901202576493084 -69.857608256758397 -120.296518657387381
-77.685509665659779 -72.151378465545505 -125.144703147421993
114.183923129644484 -69.349079037743593 -133.822404886459168
-54.179916805035525 -72.406230272553515 -137.164405961023476
35.794625197976210 -72.826313153753645 -134.383209492957008
-73.056668224796326 -72.683676394261653 -135.120139439936708
27.205498773203580 -74.183459800145243 -131.310827213113612
-79.389288449092945 -72.916701145535683 -142.495345674254679
-45.103676706387255 -75.209946431896910 -141.576001602901613
-73.773293912038127 -73.060203331724637 -137.857913120604337
110.437852576481859 -70.966704449293132 -136.616793758440025
117.414312457808776 -70.014418943865422 -141.165731517199077
118.326224082228194 -74.838198185003520 -145.930085468168812
-77.145101270347254 -71.476950306995022 -143.328958223944056
8.159399436479239 -68.437781870437831 -150.464314472116200
-51.860566839719702 -72.974169274855285 -149.016656516039461
-50.650040765846171 -73.293556952700470 -154.923905599942799
107.075106193180616 -72.254582190664479 -161.225071657474501
-41.272750221363502 -74.100184800142969 -148.871394656810480
14.139687248329366 -70.161816492493131 -157.335103452738934
22.492836569327771 -73.800873010553531 -157.215791191668274
114.880605747518217 -71.260663061963072 -164.191706960025869
29.942196589171825 -71.685238319970892 -165.357129990916349
-0.740877750436976 -73.606313969613439 -163.111139976368378
31.993148993420839 -72.973531464617636 -160.414101159990196
-67.648688224503331 -70.839022681799563 -157.322864280381538
-65.644436022257679 -72.100623921228106 -158.755489084545331
-68.748598737867582 -71.154251721313301 -165.276500148157538
114.871531123356419 -68.577761165555472 -161.007261449955934
-44.433428632584786 -72.565527974752939 -162.604224191160796
17.892874036727054 -72.418270377291662 -165.123860886282671
-63.827018927251174 -71.462376272432351 -169.252957193972065
-62.950609147947524 -70.760490427562587 -171.012682347532262
-41.164105484489426 -73.220082421926023 -159.860811993455286
-33.417870454013197 -74.481467363714387 -168.209132552341032
115.144280879447734 -73.990344747451417 -170.825011878027283
-36.931898878974039 -67.940672147661644 -179.407201312708963
13.873088114018033 -73.286569629489108 -172.734402378448038
110.860921171747364 -74.624277058236331 -183.825910377919229
-147.494435500121710 -74.380533718145060 -175.594653434155418
-145.792258605100102 -72.444729187223714 -173.105863614357418
-148.542326257411418 -70.956146896251653 -179.489640861390257
-142.310397591328439 -74.024130520770768 -182.292458593904428
-31.735871528264031 -71.152103210780922 -185.090662417091636
-22.975970873104199 -72.520187872969629 -185.303349372603179
23.385337668724862 -68.821289586277658 -190.682731060180146
-141.318766670496473 -71.871838421433040 -186.257184874702915
-147.157253735820149 -72.999081271852262 -188.081266328551663
-21.181377221089988 -69.908405600576970 -186.053636641561752
11.246298507210815 -72.629149719809760 -182.126298626979320
-149.231463076756739 -72.651644550177579 -193.781877799484647
-31.441119965978487 -73.122709804185163 -187.539018619912440
100.267565485015780 -72.131572032028743 -187.901846054858055
106.412215312654737 -71.120045719809880 -189.375126679587510
24.293311832219704 -68.043275501674302 -193.045100924573404
-13.364406253882038 -72.607265072664646 -188.071007463154132
-27.598132334053933 -74.331388075680707 -192.926349111136346
-155.208558091350682 -73.730046260643462 -198.658708271024324
-132.490641194788907 -73.551280832939185 -196.386524560707841
-125.060184850683726 -70.014638106450931 -194.595805655712383
-124.568730875716810 -71.008984377743772 -197.175009859620388
-22.357216653895801 -68.389375393859908 -195.761524305616405
12.824834812762100 -74.277575999362057 -192.023497052945146
92.807530508735454 -75.637558055881811 -200.751832880295780
-149.939501262736741 -69.077645331302662 -194.988219884131837
-144.942571302695512 -70.237550830558249 -198.290530415341436
-150.767998264398813 -72.064109294888965 -199.687411260199553
-154.808539363621776 -70.416649912309992 -197.012306799748387
-24.628141769387657 -71.947249904939952 -199.223508921094208
-10.581462625121128 -70.934480375017543 -195.003261526312343
-146.251574966335937 -68.834441459396771 -201.702523934863990
-18.321544255056473 -71.644541332552450 -200.789665519063618
-161.286452201692668 -71.917791984538169 -200.192060197533522
-134.218020631591628 -72.351781193628753 -198.951864394005412
15.867936584276080 -74.125738481579035 -206.648872131604094
-161.177252231154370 -69.471428685294001 -203.660962381301971
-145.984386923955697 -73.983183690411181 -206.027410472964675
8.374535796884379 -70.499158313872741 -202.476228213144822
-153.996963841440703 -70.096782316831906 -202.219735637812676
-24.444670973769966 -71.830349110516593 -201.462401387235246
97.531324635647280 -72.776876450993328 -198.984688440192798
-158.332538991698499 -73.518222830161704 -212.028030456660730
-164.358542903139295 -75.575849323359876 -207.210025588059409
-76.742759332228260 -70.497017596035178 -207.937136428895712
89.427272169985955 -71.529681043734300 -208.727139707512151
-3.700474687158906 -71.224824490773628 -218.078000899351537
-154.412551770395027 -71.445799413750507 -212.459407870985018
-87.482600392530088 -72.562440366387634 -213.086339166605597
-9.176859465795669 -74.922086594780140 -210.958289180487157
15.697602055246435 -72.158464638341584 -219.599699140843114
-144.810481626078001 -73.250660586516190 -219.641513760523623
-3.464471593285707 -76.210770753155003 -220.557942921797149
-19.261016950587667 -73.385970140740667 -217.907793856648738
-14.524167093238148 -69.354631652025702 -220.153084371792488
90.375100126624716 -72.240858856957502 -218.848264290271146
-20.630767171605534 -71.158247934705017 -216.511636852650241
-31.626213028943486 -71.873052355586921 -216.818300735221527
-107.493610440331580 -68.362475377624961 -224.428135215508348
-16.030219133948485 -70.845509045651937 -222.936662501458159
92.541938069879663 -70.275053213482650 -218.762091511561948
77.622618589438574 -73.044457960955313 -220.235444058151643
7.318507770785769 -73.555033187141561 -219.047561194037286
-11.082299004840134 -70.337780144883766 -225.137288466307041
78.752632330872274 -72.830918723831886 -221.811474747526660
-122.274834702271846 -75.671187799866431 -224.802768528929846
-19.932206842793292 -70.565142053594528 -222.936943464208696
-97.050588061681466 -71.855796924921833 -223.296488814376289
-102.412871377644620 -72.581576378703787 -223.838624686088366
-131.480790717934042 -74.479418193048602 -228.319894929111456
81.435473200345399 -72.363585205003105 -223.447061584508475
-123.099557257562068 -73.103808133498745 -226.942310797551784
4.829907059095390 -71.823039000610805 -228.539060573327959
81.343727619593636 -70.914116280729317 -224.267484496287267
-15.623166968458303 -73.464049993858154 -230.294730482037693
-13.440691563807430 -73.155257698392305 -227.184169588797289
-1.749287788472428 -77.313476336703346 -229.656156348829455
10.398107524495718 -74.210015736961367 -227.191705725498878
89.007006368573116 -73.495843924522248 -226.316933852123412
10.059836407116215 -70.978220000091227 -231.214292820738308
5.656796667216900 -72.129693424735663 -229.237749803149342
-8.911118713698629 -72.993876599633865 -231.029328939972316
-6.644326983124643 -73.271086716867472 -229.915077796413499
18.844649917478886 -71.227897990805332 -232.563082938282378
-12.365422259942541 -70.070083677799147 -233.036032104718970
71.135007374934432 -72.912423924233480 -239.627174648861711
-9.036282437718796 -71.027583906992092 -238.631872014543092
19.117119585927099 -73.440002458760532 -235.563049656727088
-162.801304136547202 -71.366269452172133 -240.055232731701295
-5.483873771644537 -70.403509233859282 -236.901892817291099
-8.000896209442159 -73.266221921645950 -240.005771961809216
-167.611947534268296 -73.257134844651304 -250.383204698563276
-10.765291769397335 -70.971905626889424 -244.231617330073647
15.643786038192587 -69.969412295598630 -245.357650576765707
-147.590579892228817 -74.560249966143957 -251.423156974925092
-73.229620066036659 -71.993906944234084 -250.138644212537400
-61.571350347459664 -73.400369684454276 -246.759348083167737
52.397829080188288 -70.321026824756316 -246.702096703157139
-74.627597190464016 -72.170144217542813 -246.543818816878257
16.937483680410889 -73.144605898146750 -249.360752603964357
-73.047606158134357 -72.961163579639958 -251.027036305085602
-15.308087680736509 -70.914302019951705 -245.756509697456522
-145.469779408534947 -75.320599794546524 -252.342071883420914
46.651525104018852 -69.261674726317750 -249.890533152627796
-80.020440621735929 -74.740063216512766 -255.418746453571629
-102.753451831960959 -69.807954143506137 -254.710161597542339
-99.334788682140058 -74.189922442313261 -254.256910907296884
-119.889723063185414 -70.780677472448005 -252.672787711828136
-105.847638116165783 -70.283449469056421 -256.820661604164854
-105.848247271315600 -72.358500943697265 -257.791200751913493
21.577458653348494 -70.113167154875484 -258.410868307013629
-129.407957539318573 -70.431208134955398 -264.723296014377183
-13.922259254073499 -73.497498574375427 -275.375034573960988
-147.821496475913904 -70.444262846420230 -282.930260012482336
-168.876714216055859 -74.459886938936492 -285.097906449753282
-125.130431982351013 -73.746909092019607 -283.755381947818648
-114.394416599201591 -69.816353560904759 -286.528826774139532
-75.793846255866981 -68.647145009573009 -284.255172184605954
-57.742545185980063 -73.298574209428551 -286.438977832541582
-42.147501057437239 -71.606593138787545 -285.852569457201184
-15.605143377432535 -75.561513535604334 -289.609816373959347
-14.102947120356573 -70.296588717455705 -291.574635638254620
-38.683052426168651 -74.465378888625963 -289.964008495339215
-34.688728718827711 -72.424937055856972 -288.575101953820251
-19.313731632444252 -69.643219502625911 -288.597915180566474
-72.156240059210560 -71.720679282187504 -292.750882191784001
-55.888092717702307 -71.987238224446259 -290.839221891769341
-17.998730562413787 -69.231672482562288 -291.343126316795576
-14.079438012936441 -74.106027263141812 -289.541496792736496
-4.074660916297804 -71.777236193066997 -292.238757556459973
2.101522719624333 -69.349052431942596 -292.085886226263710
-92.534765490115447 -72.818215338313607 -292.662839433948989
-140.165507653912812 -74.442529856206804 -294.620013147607779
-116.700396425193077 -73.702738020840897 -292.299818454367198
-153.975876993359719 -71.708091850261411 -294.534000953018676
-152.402484798809837 -73.543076113320666 -299.117800255664122
-147.175716442952478 -71.309807640530053 -299.660852514311557
44.898449253165353 -68.381317748500265 -20.940707851822573
20.327002397006275 -73.307062090207864 -23.131351912160554
49.924171564001092 -67.872353837628765 -24.771710036098661
47.487693400227286 -71.449600169366363 -34.766014242885269
87.903366692428065 -70.459992971681885 -69.914595032363110
95.864525309784909 -72.245160415651185 -73.646210875162794
101.492007274454508 -70.222160196032121 -77.869616476999141
98.567465166285956 -71.177982544199352 -83.214474417339858
56.946537482725297 -71.732820068353988 -89.113998758002282
45.811416217962012 -75.863956899062785 -90.863588273189208
63.551579947795162 -69.711604939496169 -90.507910533714579
-64.998771295915404 -68.666032590120409 -92.846358926817715
71.053877082006011 -70.200012899758619 -87.561567018991454
101.047621280641962 -64.667608799145555 -98.710746731620631
74.752457766066300 -71.524989660915381 -100.855385454630479
94.508515713729466 -69.719406998327742 -102.334844466193431
-84.364142000250084 -72.058640912763650 -103.149606930402371
45.354804991776213 -69.863309216877838 -97.875824828725811
-86.291052566480786 -72.478966632575975 -101.964080483279957
51.354563398028425 -72.241453455341613 -110.104697196897476
37.982503942660465 -75.891861238550973 -103.346539107443107
102.350576856301132 -69.818931717788232 -103.069977481110584
37.378591524665872 -70.656511984740291 -105.719306577289217
42.754220537298231 -71.961507385147570 -118.319593317371854
42.910724899092692 -70.688993255519222 -112.825722505888606
110.253952608653634 -69.474487709546679 -112.199132080004389
-81.176212738981960 -75.095155626317975 -121.234504801138300
112.373075043833083 -73.884406107681670 -123.803434409084915
40.135741814241136 -67.560763608367637 -124.554591108790945
40.669857687124789 -70.215066379783423 -120.023518493469069
35.122896104266601 -71.334178508935949 -120.665851014085476
-55.642469803493277 -75.223172906934863 -129.290684106170033
30.287154319609876 -70.093248362603845 -123.258940763693616
-77.354656818150019 -69.649110952430505 -137.563945777279315
-55.277689350391839 -74.391082484330411 -132.345979816462830
-79.466727135280010 -69.263806563699987 -134.632477139852227
35.635024462602388 -69.168327363366487 -130.559117935418385
-59.574847848630924 -72.282054321319720 -133.362831400272029
35.191923801972834 -70.280145637140194 -133.190422932704166
-71.967854372953468 -69.498623220319260 -139.389812485534947
-59.246620574627528 -68.941103206162239 -140.533619636404893
25.700848275560027 -71.766198272148230 -142.449451790121003
110.918560583914740 -73.370433127292330 -142.991500966646328
115.283017606204012 -66.999764348724383 -137.054521768315283
30.725404546622933 -71.051260878036317 -141.335114637138673
-48.194992249058274 -72.512773523377064 -139.992413045160617
106.769401882008168 -68.850486354378020 -152.134831411268493
-75.588299021101804 -71.142433096003003 -142.841554455662930
-58.651216089479405 -71.278907646100535 -142.092027710124000
31.555313740532164 -67.252208717314716 -147.300475086219421
-77.587391788848223 -72.565957661690433 -145.933230514820082
-70.696830965891564 -71.225651722208752 -150.038693406857192
114.878429471155457 -74.355762381180369 -149.475555195632609
-64.734871890750682 -70.672698300431094 -154.902783289701460
-39.427698330696991 -68.642429739278043 -152.057265538749675
25.647235251600076 -69.534029980039008 -145.836730188119162
-73.259054600421649 -71.690205761949287 -145.824399585227980
12.324519630823941 -70.642319878642411 -149.616804596561479
31.758097014183456 -70.487360556482471 -156.805423130380888
30.909466808223698 -68.817541828864876 -150.107861873848634
15.150920566410701 -75.258928004683980 -153.983126485541447
-49.998168105587631 -72.659447284389501 -153.050797197179236
24.677789082596654 -72.329952282621974 -153.022348976085112
-46.295983644664126 -70.358990873080401 -149.994770226251688
4.622562147860452 -71.301743179336071 -153.911727776269601
20.363895403521497 -70.264170292834791 -149.837946910712986
-69.030567630441723 -70.659854602994443 -157.212163534393881
-46.786621416650185 -68.474916883714130 -153.940249920456324
-68.316034197563638 -70.781154904034594 -153.566863030543686
17.992823449381216 -69.928161052343910 -158.355738677259552
24.104690902465038 -70.202769587477235 -149.976937898977098
2.359405512754122 -71.137218725124029 -164.384091147379564
21.196147248011815 -70.843473165868772 -153.457049221321967
30.566916605140538 -70.748213167431956 -167.058283183190071
-47.499679401275550 -72.520349804936160 -163.036480722637265
-36.972483400450706 -77.170005415405157 -163.029392373559858
-41.034822444923336 -71.956884425543620 -160.655854356249080
27.656787954402901 -71.312253282227530 -158.575761318891608
-44.502384727339567 -69.623533977096571 -166.620134981584698
-40.006188873655937 -69.796117697693774 -166.217736025201816
21.138049151274323 -69.765992714142428 -165.651656001435100
-40.114974148384761 -71.765790370138859 -175.024169558713339
27.673469978704496 -67.665092401724792 -170.006456640316088
111.457256918295258 -67.743424185150786 -164.904942359633594
-33.784040735299051 -71.121152679170166 -171.843236900331220
102.499436516215397 -68.546834925577059 -173.231771271059841
-34.857290180388709 -70.846834567948875 -177.239936898159812
-37.699004911594109 -74.079753058442336 -181.219877259485571
20.887692809420255 -73.764668677333162 -176.882920383640624
105.537254633889475 -71.153725497480480 -181.983073347062231
-31.801967717126775 -69.711974535677527 -182.734015771964778
-35.475516811141929 -70.684700079408827 -177.325757900306286
-23.505110171422995 -74.564960254083516 -186.645280705264128
-149.366621348475547 -72.227086253618964 -188.595098979585629
12.633881573989379 -70.828344398036108 -183.237109712217631
104.662637241295457 -69.465293074178149 -191.094616271071175
-159.303002378743656 -71.316528248700493 -192.739315685996729
-23.315934012341145 -68.284629029115891 -189.370703623684534
-115.976378993126104 -73.164379078795420 -197.066578734985484
-131.139904885798330 -72.985276941086227 -195.283786261876770
-108.233345396235180 -72.048949955430245 -199.534840221736545
-114.007817705047913 -70.778889054510273 -199.962331438665473
-12.661278162896476 -71.979694531761240 -196.203404164879657
19.768233156220042 -69.925165998889526 -196.001403531637294
-16.168663459765696 -67.645766006084642 -201.740878341320808
-127.081387156888354 -71.647558111632918 -205.278412999089738
-21.205841725000951 -67.664677137972106 -202.860856006348627
-129.716847310876119 -70.515440858644610 -202.648639453112992
-15.752479832618901 -71.320390245907703 -200.103099731103413
-146.436342971858068 -70.537670034692539 -202.520104272740014
91.469300814160107 -67.170037701055833 -206.449159412669445
-164.894311142087531 -67.072161417887131 -201.185092063922298
-3.097830574831995 -72.809767652371661 -217.709147624788898
11.136344433097662 -72.248452279478926 -209.760443209095399
9.993824214486116 -73.219671804649025 -216.885399916745257
82.323383306751978 -70.826517492499718 -216.662522434533969
8.191796264167200 -72.099407335490625 -212.934289235072697
12.291588544714230 -70.236802192713157 -214.644277458717198
-16.151589623646707 -74.403141685384057 -215.739447062387569
-90.795689339078521 -71.845797264533587 -214.227455164528664
-98.328471946112046 -71.610181970776708 -216.356145840593030
-0.322552385916949 -70.134161850245164 -219.011566081062313
-166.796183958518583 -73.581834225374180 -221.657658179779446
14.812660807425075 -69.114301637435872 -219.520373553603747
-144.965346970664399 -71.032967118881785 -220.978486158844362
12.643873638773078 -71.439585671428318 -224.837460170453681
-134.970000587532326 -72.986852438782478 -224.591540350781372
-116.249909667430771 -72.545712989610522 -226.939228634306062
16.449206079227228 -70.343830650899520 -220.780860162277037
78.090381642860578 -70.898885390299100 -221.318587676618705
6.429653742795080 -71.129681693647342 -223.355781228195923
-110.211467950771592 -70.883691772614824 -230.672872933395411
72.055462321184990 -71.820620229543422 -227.748740489679449
83.706062691113175 -71.944379551841152 -229.443128672785321
-125.540808728410809 -71.435272136457186 -234.834792583020402
-117.363636727718927 -71.618597083524406 -230.206703857357780
-10.364856145590123 -68.095317866225443 -227.701587499817265
71.679741242097748 -71.637153832510691 -231.343886537081829
64.341074931760176 -71.560370086571794 -233.145575712075015
72.976389347510178 -70.433687857664850 -229.453630290221525
-135.606091535496461 -68.419693072058095 -233.847256150071871
69.867198549429503 -72.035372130588740 -232.309751154762779
65.850400738497541 -68.829002227830500 -235.293209999782562
-166.472690301052296 -70.385809801024493 -230.252838647269073
1.135239974792061 -77.521840568143389 -240.819868148832882
19.044861524090798 -72.385193480762396 -239.404835078162904
-6.360534791203714 -68.713128912680702 -240.590243561719348
15.418375352531022 -66.338475331624977 -239.233310862909974
65.914727165084656 -71.936569356468056 -238.101705541197333
8.581924555851689 -69.429065381685604 -243.311658471222245
-11.287168598070171 -65.392609536468029 -240.721788732180414
-0.875517759402398 -68.115162200151090 -237.387759174812999
64.628196120766319 -71.646357798551946 -242.408101750772204
2.729959252446898 -71.739126979272399 -242.481212729419951
-7.322410973532467 -72.001016627804518 -243.044369858756284
13.956923265598080 -73.535344790254172 -242.816064776349890
-167.818065244616918 -73.393859641247147 -240.840259749904391
55.692708457584430 -71.374833083946314 -247.225907858051386
49.588149884557410 -65.620579633825471 -250.831287589497919
57.872233153291738 -71.749362606126979 -242.781302417239175
-12.514073995440175 -69.604807948776141 -247.824663529849460
56.854092422895832 -70.863470821861540 -245.661382974369360
-74.248871103698136 -71.009744009503692 -249.698516890989453
50.437484589438029 -71.470432343799814 -248.622164714994341
-89.112336310074667 -71.344606663685227 -252.305275128753038
-123.583938986463195 -72.734046505525612 -256.431546624678447
-132.773043919828183 -71.632516652356529 -252.690686148856827
45.774851424803444 -72.636131496048435 -251.821918838260700
-132.929446394908922 -74.157411354834409 -252.927406853041674
-109.581762239005727 -69.842302219382532 -254.878830657855730
-116.467857456345385 -69.403090959203993 -257.236241674902431
-84.123668679586757 -71.913954542775571 -254.488777372319959
-111.390243287021192 -69.915076917372730 -258.925980050534918
-124.460330066571444 -74.849007084133760 -262.172299914242217
-146.924881219267974 -69.255104093721499 -267.352531042067369
-15.705359711219467 -69.969943051298642 -265.527627163784246
-171.733168352072084 -73.766369152257539 -264.158274177103863
-15.006471871945037 -70.744184047304316 -273.684495195978172
-159.426878567201243 -68.575589582479310 -267.008467769494757
-153.126296264744923 -71.965677188041084 -273.152687121190695
-170.373528181901918 -71.742593879484289 -277.226257172536975
-14.672480527791626 -71.350987694131177 -279.242419848256588
-130.644321415137426 -73.964148844198846 -282.900282127736659
-158.514187827713329 -71.488753394110660 -285.935785789991542
-144.429884270815592 -70.760628325500932 -280.696520288626118
-135.336344392522619 -74.443957576643200 -280.235253267455903
-8.687188271434200 -65.630355395442464 -284.394438753997406
-126.328928113223938 -75.058508389043254 -283.164020147600695
-141.524146911396514 -69.688192568802279 -285.345548591550937
-116.205186968136260 -74.450879879226761 -285.481970776283390
-79.491782887869789 -69.614746119872123 -287.862867820787244
-61.193493114815219 -72.054993913738898 -286.894122128323602
-7.492492453516431 -72.189462830992298 -287.744030198285259
-54.419210720579713 -70.213783384475150 -285.563454324798840
-57.719194593708679 -69.116150623544300 -288.473460733675267
-70.917027657854618 -69.719030145590509 -290.147792735320195
-88.575717210272344 -70.581279157358196 -293.582243264101237
-95.555799009914864 -69.285688447806521 -288.781589887801886
-160.857595718958635 -70.850913207823965 -291.170204086852266
-161.614155180955692 -72.652832969646980 -293.410680802884713
-125.141934978928461 -74.355162571920559 -293.624850780258441
-145.189620129467528 -71.869618106003941 -294.704859413094084
-153.608689842493192 -73.968079182451689 -303.432535174349482
-151.051141692843430 -74.049847488303485 -311.845813584113444
47.999030314485005 -68.702894960598243 -14.605965894069639
16.801897673935713 -71.935733154059633 -29.692852446225722
41.969975092796865 -66.871863760313104 -34.625251838631655
-15.507232416901852 -73.567840096484545 -66.225417107900796
81.764049520894105 -68.264828336389087 -65.143124784070579
88.626469095382959 -66.108241163787696 -66.000690973818536
77.890088722801877 -73.088130608758462 -65.467495951136172
72.703468230880731 -71.276754240028026 -69.220560761396754
91.164798621245453 -72.316006209691452 -74.954821403289159
-96.192292336030519 -67.739623750562032 -70.012447551938308
67.770597435445850 -70.693534828631783 -75.385834726102544
-36.606491300447374 -71.588272335966124 -77.199856550241307
98.844733925803865 -69.824974139024448 -85.905537412130968
61.371517488250468 -67.499431743827799 -90.378584519580897
107.038571743722102 -74.203930180047394 -93.679994518156533
101.450134263247435 -73.280133765007719 -98.437317700637593
72.185802043001303 -69.826372940031121 -100.636615184225377
-80.331512377438870 -69.573293215371891 -101.285506908512673
54.206910404403388 -69.973993569771793 -104.198887485783800
106.948465697481652 -67.195317218918035 -106.081640230248951
46.895852064604000 -70.709073806739028 -112.348467313344727
79.741112689938575 -68.794581670575141 -105.420522110479553
41.461815216541083 -69.697335744978034 -107.391894793534320
104.090601949054403 -69.366567058420998 -103.273949682889977
47.377074278434293 -69.459013737345259 -107.740383766468042
107.092565881646408 -74.383446169927012 -109.936403092563410
109.970037940607554 -72.505763202675411 -111.367523651981230
-79.652076346076257 -68.718054542086122 -113.927077290901423
-83.201638197260337 -68.930509680808797 -119.114850581924614
43.716950517763472 -72.926456089708680 -119.982168098898612
113.585250307998280 -71.147466654730721 -121.345414534015006
113.449111298175183 -69.290395839279540 -123.637073482019005
-87.521062050399436 -69.766878118353588 -126.715182253876904
105.743307484778470 -71.401586260429710 -125.804958263677932
-59.607775961900892 -74.638928865920690 -131.565145072434916
-86.445695764520949 -70.945426928675857 -127.029434174931211
-72.818393718745227 -70.723679042579477 -126.902895318068985
-59.492410691504496 -66.764917408199679 -126.552866608271572
31.356538768224183 -69.657904085478492 -130.087512068812629
42.092863223824182 -68.389757845209687 -134.639377116383969
-73.433631900506469 -70.205869515076373 -136.361682455621718
28.453773231965794 -68.111194494649425 -130.856020498379394
111.400897118601591 -69.523741886328011 -142.947118680478610
-40.477982214954359 -70.400137309908601 -148.077448363443182
30.093697235216744 -70.783431013888148 -148.748147242887171
113.598387603883381 -67.914844639007228 -147.738561712919449
35.272912665580144 -70.484329373730034 -142.651562008124074
110.094419981687523 -68.325616352326463 -140.843355844258241
-52.633876633092491 -70.644942885803289 -149.165076240277841
-71.591314402751664 -68.011206737772525 -150.729088172987872
-55.417914616026565 -70.892398890838237 -152.319238369460322
-42.385467881418101 -73.704218023160706 -164.739060860482397
4.405727932880190 -71.354816290724116 -155.713696850638200
109.544476032088582 -69.706414197409856 -153.524963737505487
108.670998590173056 -69.378988712371068 -159.632552946532741
9.737006103605152 -69.444371807591665 -157.303211419565599
2.995414431081406 -70.122594529876281 -161.153603247462144
18.924685604081031 -69.260728338050228 -155.122997892939651
25.347768658415323 -68.653193442849698 -155.540795093162245
108.423625141245282 -69.068562191100540 -165.632459430416276
109.274180893451572 -72.513701353283281 -167.716142629727130
23.595284630856451 -67.368927781155548 -174.266205073917746
24.688990107927101 -71.965023089919157 -163.689524795545594
111.913040847522211 -67.568406176636529 -162.000297482863004
-29.447518273718153 -69.100711345328989 -176.976901704244000
109.902368173049851 -69.687106045079233 -167.761588684549054
17.221644388803735 -70.465164350496693 -167.458643175875324
21.313022898308166 -69.836277746575007 -167.590443640260389
108.225954501967365 -69.655197265289672 -172.853142303197075
26.423657540806303 -69.076350667805059 -170.251339678780226
111.962113719858166 -68.777005188726108 -183.710277792413308
-38.611215258925142 -69.622742219320514 -177.483936851455439
24.799577521449976 -69.529668383350653 -170.973890658750946
107.164844418132617 -69.323827698908943 -183.852850766478610
22.790157326936210 -70.901523406650625 -178.426351543031444
-152.205175897539789 -69.406965783402214 -186.090758344060163
-28.569511120913226 -67.262944107124326 -189.125932250803459
24.253961573997529 -67.867792837277335 -184.768828758621254
-114.093686504111076 -72.011620661122578 -191.530537827070418
-111.210032337714026 -68.217475700625457 -190.994883175956176
23.451594609205507 -70.432534112455613 -188.394112461832094
11.334606665721068 -68.108759929083220 -184.877213538378385
-27.241717463695220 -67.620753659308136 -190.014569909301144
-29.952530364394931 -73.918569423837326 -188.987985763848059
-28.336904055763291 -70.487868603894896 -186.973943754503296
14.476283814596259 -67.961167836568038 -179.837213701954198
-151.196818875572689 -70.727957454890714 -194.690087956924259
-145.696235594644492 -70.386695211343124 -192.470086455835201
-144.723014714213036 -73.576199902054924 -197.942603353918685
-23.259493609864300 -69.177360224034985 -191.186644662404547
13.289213036262636 -67.774636529634037 -199.424153257585402
98.517832824260154 -68.653319684131944 -193.339354437913755
-114.079321090632874 -69.444804723513542 -198.019440400694151
20.940869282934077 -73.082687361088418 -198.219561008231238
-15.665893257306562 -69.013343023712579 -195.368955824952053
-18.068106266154370 -69.433788762696608 -198.537783042709066
100.615071455288899 -68.311551906207100 -199.539302656999837
7.597123544505182 -71.774548904367933 -199.129979726814014
-22.320042165339739 -68.386609426004682 -196.299160109832798
-121.685271373601623 -73.477858900633677 -202.746276036226220
-134.535835805104426 -70.776434936528375 -202.940503186330915
-114.464785202725665 -66.190341731707022 -204.625051829731973
-142.514576525416402 -73.409319176287397 -203.015847078571682
17.166723917067845 -69.498307798545298 -197.627709383288732
93.474093796990189 -70.707575861989355 -201.854423687041276
-166.306846973597374 -66.373804956782124 -201.072511175563108
99.650440370788189 -69.099520226084366 -202.201493576318512
-21.974274063238543 -73.630317841120643 -205.874688794954551
94.231227000374801 -67.464738378699039 -210.571727606130736
87.714195215143306 -70.909313429302600 -211.536048239824453
11.788350556867686 -71.549853756824476 -205.859159574633907
19.401596817405462 -69.281513940340588 -211.904227315709647
12.462067342605081 -67.099620231036553 -207.755476401796983
-11.248873136018016 -70.348258977147225 -222.268566506713483
-94.795421840440397 -72.326761288941171 -218.328985264731301
-10.793848177097056 -72.023096008746265 -212.149457317463259
88.688329305958746 -69.737029293506609 -216.348019874735058
-93.913461613260779 -72.525365232084170 -217.407675996290777
-101.540623061624359 -68.233610512990992 -220.941961242331217
-94.827573514063246 -71.051271959011515 -219.233634698544449
87.860682358327182 -71.107124718765590 -222.014030028734055
-135.685994208947534 -71.043684281351688 -224.832410698552081
-132.823811818537507 -74.454853102962616 -226.391110416281492
-117.051101916634778 -70.432451415216448 -224.528849378777750
-113.519219441638924 -67.931113760333531 -222.908377915093155
-133.754068997409178 -69.221693352424211 -226.889776014636112
-112.067256322647395 -77.052655226971694 -227.209399126182632
-112.609567087332593 -70.389046134227115 -227.775634858788948
-7.237566763387703 -73.200167860799780 -224.529369841705943
-16.317019004543141 -72.289350240475272 -223.046350774748873
-1.381990713257041 -68.091000672164313 -230.364382567293887
-10.568616507107373 -67.279494950006338 -226.904834323374871
14.994621580544278 -70.696635559182184 -233.462025425555652
-19.260780176280097 -68.464954103284043 -229.022072644621517
-167.245440037447679 -69.222091354696943 -221.913505746118233
-4.508213701106333 -70.036802376739402 -233.384105964813784
80.403072593910849 -66.893827136585443 -231.268586441342165
10.577658622142778 -71.741205407812373 -233.594839221482005
-6.300988399722958 -69.366250023455606 -234.696593657658383
-157.289907199636247 -68.579355338448480 -236.157731408973490
-142.696215830137163 -69.286257360203138 -230.085616502882772
62.186842595412280 -68.518504065660579 -235.938078150340061
-6.051568163527518 -70.997315468693259 -234.034025498055172
8.927622949044316 -72.011723582204581 -230.663868440437653
69.054689437447891 -71.876136739340055 -230.326166325898811
76.567439411830634 -70.101070855797900 -234.372357247752831
70.640153225789589 -70.862813999161816 -241.426914929091026
-1.958342409566636 -72.825685363980384 -235.614767085561681
57.634716540047719 -68.170406158913636 -237.996659240130413
-19.410050567400958 -72.671245362077514 -239.614339068495809
-15.695683259140200 -67.872611112668835 -240.290998120764442
7.821316181124509 -69.933799117212160 -239.298085917322652
64.401688460132050 -72.904251919017284 -237.938226963545532
65.028531839904460 -68.325231139977731 -240.712792901171156
49.204674556005948 -70.078324186761932 -246.144918056608191
60.744531836235844 -72.864422076730477 -242.768955353743422
-15.926683472477997 -74.542802876238596 -249.544477541089208
-84.051125183198536 -67.937214205526118 -253.944250791676865
-77.297692938213572 -68.471122002675017 -252.716571894963948
43.862828038231314 -72.643004188740605 -247.784731114412153
-149.555684912701366 -71.896713015077822 -250.295927443478689
35.577990055422937 -69.951471427243959 -256.221880357077737
-92.454924195949076 -73.958363688449950 -251.636792677878503
-156.714317648225773 -67.174126493479235 -254.320284767792629
-140.802309512959567 -64.715028829353855 -252.975168315497825
44.742385385692735 -69.741834323807481 -253.525887952532258
-125.455120263850972 -66.901210955986571 -257.554122214519396
-117.319486328598302 -70.883463255505617 -255.039186695774418
-92.833940952864864 -66.628750469564196 -256.827638827884869
-14.142495246654537 -67.023624112511982 -250.287618917529159
31.440328056486273 -69.666280329447162 -257.188457338541582
24.494940706918637 -67.484657263841626 -259.437111372729930
-159.442993472273599 -66.499347130855824 -259.925304707761654
-115.190381554268043 -73.223116548256655 -262.359305741203173
-14.374218358931577 -69.850105085921825 -261.839637671434218
-133.258690726409839 -70.480331850097897 -265.036497023728828
-14.613874225243331 -68.949576893180875 -270.198652585229127
-165.385369253009060 -70.068286040560380 -272.109338703597075
-7.806731551816059 -71.079663255737671 -279.378373195265283
-161.416722067373996 -71.127131064539910 -287.393921071680779
-164.369939182226830 -72.619960127596329 -277.473355623465238
-143.147173124933829 -70.940840476799366 -284.838976372993443
-170.708459477241576 -72.772378110125061 -284.228934575958078
13.501874221090189 -72.230590209159587 -287.921573143988610
-103.711938510785856 -71.552950169101663 -286.257828776014492
-87.766124056108509 -66.458597883047162 -285.756308755819646
-168.347669063799884 -68.100162724277979 -284.164418050771019
-92.560270264765123 -74.300741599625255 -283.732556377211722
-154.279586030920797 -71.228630376325086 -288.086301117311109
-76.053321773453646 -71.344821421140452 -293.391575961547630
-71.213474185801289 -69.743929214579865 -288.505427744975350
-83.112837117991376 -71.473620134123578 -291.075667791159162
-4.296818404806172 -67.571477107840536 -288.866200700181025
-88.608361476288650 -70.448899614497577 -288.391237370686156
-99.585504121264194 -71.922727598723029 -290.657208613195110
-117.265046158726818 -70.948289455065691 -292.358250508602225
-117.202610950812456 -67.992040216500641 -292.502049419159960
-134.785635257845314 -70.089140828737641 -291.863047189017891
-143.441795785592916 -70.989387367163815 -300.441073545895449
-144.887543736280776 -72.240510732637176 -311.381258827325155
24.005187025782458 -67.294973403555176 -15.065718381854319
32.450354482451253 -68.463770050662362 -16.332872806537075
29.493882962514295 -71.113608657989857 -18.173978376215842
44.273931592119553 -67.146605554261910 -20.524395188646800
25.011909447808105 -69.076159842429021 -31.564784085361453
-74.836499623924780 -67.786865812269482 -46.772612830051628
89.725974887003858 -64.666458834030024 -65.516831137245532
-17.583804508763500 -67.469306544995007 -67.361482265782115
102.675545572894009 -67.711596833095371 -72.905347411180941
95.154023250729637 -72.556911350343626 -75.594843184506587
68.560459994504754 -70.308114711825695 -78.436386744347402
70.307084478548248 -72.147569764259259 -82.556974091537498
-44.633649243833887 -72.612995637529707 -82.191137831447705
61.211418602603288 -72.248584044609061 -82.320611081047588
-94.414286433523387 -69.976918041198189 -87.989487494863482
-49.210104791292096 -67.201894445662447 -85.005294824636209
-55.849258378542672 -76.049439431666372 -87.285624340180021
101.025226101950210 -74.161744606218079 -97.541982432340447
59.238143036752156 -72.082316372108806 -92.175187844067523
65.890167161301832 -68.262699788953199 -90.944144241745107
-95.757244757206607 -64.336052435600678 -96.597382000000295
107.875012411046328 -70.202633242684783 -93.067566935826903
44.086871701433843 -67.790296244865459 -98.838766396165639
101.414713118736728 -68.561237395776075 -98.085669109681291
106.730485561016096 -66.765626503832664 -105.974693255646358
101.270388379557218 -69.161564612553633 -104.507633584761592
73.876649797420697 -71.141106664042610 -100.632289759995274
87.300999516994992 -70.936395598206829 -106.485134239959351
49.989248955603735 -68.851403330371753 -111.088898555976272
110.623300179157908 -66.661296216457444 -103.580084481232930
46.206170550981454 -71.613604525686114 -105.303661307467365
40.546289931128193 -67.248568368893658 -101.448355735919733
112.740673777633575 -69.181053539919859 -110.332857928026712
-78.577551052810563 -66.795116104277724 -109.331937784955301
46.073253103017848 -68.252909696668723 -112.749787935936951
34.738920178337608 -71.020495599733351 -114.911012738005297
105.440549821142255 -66.560582927037927 -110.065834615246629
