48.073402404785 -64.442291259766 -248.877746582031 0.069152832031 1.435212254524 1.367870330811 -0.428932189941
42.417617797852 -65.481254577637 -250.810134887695 -0.596405029297 1.594509243965 0.045886993408 -1.478057861328
41.832008361816 -66.500984191895 -255.927124023438 0.675079345703 1.516941547394 -1.318691253662 0.326240539551
-130.804458618164 -65.359512329102 -258.029541015625 0.431762695313 2.512614727020 2.290237426758 -0.938949584961
-9.281784057617 -67.473381042480 -249.722229003906 -1.771835327148 2.060444116592 -0.153991699219 -1.040344238281
29.484498977661 -66.504264831543 -257.603332519531 0.113098144531 1.451021552086 -0.064008712769 1.445190429688
46.141407012939 -66.589820861816 -247.583221435547 0.243896484375 2.209616422653 -2.191150665283 -0.147575378418
28.512296676636 -69.920516967773 -253.409606933594 2.924041748047 2.928051710129 -0.070337295532 -0.136085510254
-101.785995483398 -70.306983947754 -258.770294189453 1.625244140625 1.657329559326 -0.170562744141 0.276100158691
32.366981506348 -68.392227172852 -255.780181884766 -0.183670043945 1.209145784378 -0.754795074463 -0.926597595215
-146.038101196289 -71.044692993164 -261.103729248047 -1.689422607422 2.671895503998 1.596740722656 -1.317306518555
-115.288841247559 -70.245124816895 -256.904052734375 -1.163330078125 1.438936591148 -0.580757141113 -0.616378784180
-107.766822814941 -68.632873535156 -257.947265625000 -1.073730468750 2.498881578445 2.164268493652 -0.638320922852
-2.441576957703 -69.840904235840 -258.671081542969 -0.038116455078 5.338080883026 -0.278817892075 -5.330657958984
-149.368392944336 -70.427902221680 -257.529144287109 0.571441650391 2.015092611313 0.004104614258 -1.932365417480
36.378360748291 -67.351371765137 -261.356384277344 -0.610198974609 2.475008726120 -0.032848358154 -2.398384094238
-108.706794738770 -67.555915832520 -256.716247558594 0.157287597656 1.309978485107 1.224296569824 0.438636779785
27.291151046753 -70.849288940430 -258.726776123047 1.122985839844 2.039643764496 0.606069564819 -1.591140747070
-133.870132446289 -70.645530700684 -262.904296875000 0.254974365234 1.084135413170 0.767440795898 -0.722061157227
-115.450447082520 -67.986190795898 -264.117858886719 0.934997558594 2.388985633850 1.809646606445 -1.248283386230
-108.500961303711 -68.150833129883 -261.368774414063 0.181549072266 1.417326450348 -1.243728637695 0.654975891113
-113.904083251953 -72.865966796875 -261.514495849609 0.598693847656 1.094017982483 -0.722038269043 -0.563117980957
-138.948425292969 -70.475654602051 -258.004943847656 -2.348510742188 2.690121889114 1.297149658203 0.196609497070
30.085460662842 -68.040275573730 -259.720123291016 0.047607421875 1.243081569672 -0.158130645752 -1.232063293457
-116.335639953613 -67.609619140625 -263.101989746094 -1.028564453125 1.506309986115 0.646667480469 -0.890419006348
-143.274307250977 -70.627655029297 -263.671661376953 -0.128845214844 1.004146575928 -0.973098754883 -0.211631774902
-4.020081043243 -66.053146362305 -270.427978515625 -1.173431396484 1.807913780212 1.014895915985 0.928222656250
-149.675872802734 -71.627418518066 -281.330963134766 -0.224212646484 3.504371881485 1.478744506836 -3.169174194336
-7.252015113831 -68.761627197266 -285.914703369141 0.716735839844 0.820322155952 -0.220427036285 -0.332611083984
-4.316330909729 -65.918052673340 -282.586944580078 -1.588256835938 1.621432065964 0.187590122223 0.267005920410
-133.261093139648 -68.973892211914 -287.870452880859 -1.001953125000 1.494006991386 1.099639892578 -0.137619018555
-126.476058959961 -69.536994934082 -290.577575683594 1.438781738281 2.420718193054 -1.946464538574 0.032546997070
-134.607330322266 -69.227851867676 -294.139617919922 -0.356964111328 1.255305171013 0.823120117188 0.877975463867
-125.527549743652 -68.051361083984 -291.925994873047 -0.135620117188 1.173363804817 -1.164077758789 -0.057556152344
-153.777587890625 -69.980087280273 -294.696746826172 -0.214019775391 1.088425993919 0.320205688477 -1.018005371094
-155.065643310547 -69.885215759277 -300.423217773438 -0.449005126953 1.637379765511 -1.145309448242 -1.080589294434
-146.749252319336 -72.553665161133 -301.161193847656 -0.234741210938 1.373519182205 -0.985092163086 0.927925109863
-148.684112548828 -70.235351562500 -303.541870117188 0.799499511719 3.954290628433 -1.759201049805 -3.449989318848
-144.018402099609 -69.364463806152 -299.303070068359 2.449371337891 2.559172153473 0.610641479492 -0.420783996582
-148.406402587891 -68.749237060547 -304.446472167969 -0.105102539063 2.462248325348 -1.481491088867 -1.963874816895
-145.161849975586 -67.475082397461 -315.045227050781 -2.506835937500 2.915351629257 1.456558227539 0.305755615234
20.316614151001 -68.989501953125 -27.018394470215 -1.091543197632 1.251109838486 0.445409774780 0.418830871582
50.237884521484 -68.693580627441 -35.316993713379 -0.130073547363 2.353559732437 -0.068344116211 2.348968505859
26.375373840332 -71.585700988770 -37.244758605957 1.711730957031 1.857893109322 0.049518585205 -0.720619201660
33.349689483643 -67.155426025391 -42.073707580566 -1.415924072266 1.875203371048 -0.458465576172 1.140769958496
-41.761184692383 -61.356666564941 -47.721530914307 -1.827735900879 3.739351272583 -2.007728576660 -2.571216583252
-75.697380065918 -64.689338684082 -50.433250427246 -1.916061401367 2.568687438965 0.158630371094 1.703437805176
81.276420593262 -64.496910095215 -60.923191070557 -0.938255310059 1.549616456032 0.632286071777 -1.058868408203
75.470985412598 -65.990051269531 -61.737266540527 0.051753997803 1.437172532082 -0.430335998535 -1.370254516602
72.495750427246 -67.089706420898 -65.694366455078 0.317436218262 1.233365535736 0.123039245605 -1.185447692871
-98.417999267578 -66.733818054199 -72.683685302734 -0.551300048828 3.047339916229 -2.313217163086 -1.905616760254
100.246269226074 -68.524986267090 -75.138854980469 -1.690452575684 2.292190790176 -1.498527526855 0.388488769531
-29.580898284912 -67.427246093750 -82.351646423340 -4.070030212402 4.795577526093 2.450508117676 -0.653778076172
63.965393066406 -64.166778564453 -76.009902954102 0.011444091797 1.190892815590 -0.742691040039 0.930862426758
-42.344036102295 -63.545135498047 -82.474990844727 0.007072448730 2.966993570328 2.189365386963 2.002418518066
-53.099143981934 -64.390083312988 -82.471412658691 1.630058288574 2.238556623459 1.479518890381 0.406288146973
51.719383239746 -66.802619934082 -89.978912353516 0.455123901367 0.940046608448 -0.820720672607 0.054473876953
103.220970153809 -64.838104248047 -89.821846008301 1.691482543945 2.977324962616 -2.210952758789 1.055953979492
64.961265563965 -63.587253570557 -93.263931274414 -0.083358764648 1.146106481552 -0.359924316406 1.084926605225
57.655368804932 -64.298339843750 -92.427490234375 0.906929016113 2.218634128571 2.014438629150 -0.204582214355
49.559329986572 -63.452011108398 -100.983184814453 0.951957702637 1.292334556580 -0.447196960449 0.750946044922
57.489913940430 -62.411876678467 -99.924407958984 -2.948043823242 3.156760454178 1.125591278076 0.084957122803
103.996864318848 -63.488513946533 -97.250175476074 1.843750000000 2.231527090073 -0.391006469727 -1.194744110107
70.688476562500 -65.016403198242 -105.777420043945 -0.636970520020 1.806736826897 -0.431907653809 -1.634632110596
51.074459075928 -65.562545776367 -105.280288696289 0.703063964844 1.946827411652 1.795963287354 0.265243530273
77.570770263672 -70.016769409180 -106.388702392578 -1.820289611816 1.828945279121 0.114639282227 -0.135810852051
96.513923645020 -62.157821655273 -107.302017211914 0.850715637207 2.174567937851 0.729278564453 -1.863647460938
-74.373214721680 -64.922546386719 -101.493484497070 0.030647277832 1.141487240791 1.138900756836 -0.070419311523
-85.903724670410 -67.514945983887 -110.126770019531 1.119850158691 1.721996188164 1.143554687500 0.635208129883
-81.301933288574 -67.680564880371 -112.685592651367 0.416526794434 1.510477900505 0.460578918457 -1.376922607422
-59.263271331787 -65.833038330078 -118.500999450684 -1.127807617188 1.462830662727 0.625896453857 -0.690055847168
-56.222774505615 -70.097999572754 -125.806892395020 1.255149841309 1.517001152039 0.499450683594 0.690246582031
-93.720878601074 -66.642898559570 -121.702499389648 0.121337890625 0.935031592846 -0.022926330566 -0.926841735840
-74.185226440430 -68.176551818848 -119.327713012695 -0.555870056152 2.947779417038 1.092048645020 -2.681015014648
-75.756340026855 -70.277946472168 -132.201919555664 -1.497085571289 1.603966593742 -0.241806030273 0.522468566895
-59.977729797363 -64.571754455566 -128.180679321289 0.544830322266 1.224557399750 0.666614532471 0.870819091797
-87.689903259277 -63.696113586426 -130.358474731445 0.653640747070 1.169120073318 -0.956741333008 -0.155696868896
-88.867340087891 -66.418800354004 -130.024703979492 0.447860717773 0.987137079239 -0.562454223633 -0.676391601563
-47.202148437500 -70.211059570313 -135.100128173828 1.026092529297 1.887928366661 0.689807891846 1.426734924316
-50.533813476563 -67.405868530273 -136.455917358398 0.802459716797 1.843346953392 1.575729370117 -0.520637512207
-76.329490661621 -68.586067199707 -138.363342285156 -1.450958251953 1.770787358284 1.006225585938 -0.133857727051
-53.006484985352 -68.493438720703 -141.342117309570 1.011215209961 1.831582069397 0.003170013428 -1.527130126953
-73.420608520508 -69.855789184570 -143.685638427734 0.064712524414 1.120968461037 -1.119033813477 0.012077331543
22.054546356201 -64.036544799805 -138.373352050781 -0.960876464844 1.239119410515 -0.188070297241 -0.759449005127
-56.468063354492 -70.632553100586 -144.605865478516 0.998107910156 1.735873222351 0.537147521973 1.314727783203
-54.095977783203 -64.115608215332 -145.430923461914 -0.945556640625 2.901532888412 -0.815963745117 2.618972778320
10.188575744629 -69.375862121582 -154.739593505859 0.325103759766 1.654677987099 -0.100287437439 -1.619323730469
17.677185058594 -64.722923278809 -150.702819824219 0.638931274414 0.992125928402 -0.109676361084 -0.751033782959
-141.302108764648 -68.263977050781 -174.240371704102 0.491287231445 1.977431774139 1.578842163086 -1.084495544434
-109.324722290039 -66.847648620605 -178.117889404297 -0.300964355469 1.012403011322 0.329299926758 -0.908813476563
-108.646659851074 -64.696090698242 -189.734756469727 0.250671386719 1.709071874619 1.682937622070 0.160659790039
-151.474395751953 -69.776000976563 -191.554977416992 0.820007324219 2.816817522049 2.693099975586 -0.096237182617
-111.996414184570 -67.045196533203 -185.732070922852 1.570648193359 1.892148494720 0.441322326660 -0.958396911621
-151.029174804688 -64.559226989746 -196.379486083984 -1.502609252930 2.457391500473 0.785369873047 1.778800964355
-113.062675476074 -66.545249938965 -198.559906005859 -0.287521362305 1.326343894005 -0.792160034180 -1.024208068848
-149.226196289063 -65.878067016602 -200.495742797852 -0.305450439453 0.608400583267 -0.045532226563 0.524192810059
-149.446762084961 -68.325134277344 -206.389770507813 -0.440124511719 2.651746988297 2.324081420898 -1.198623657227
-151.779571533203 -71.836814880371 -208.038528442383 -0.465408325195 1.555432438850 1.483261108398 0.051979064941
-146.684249877930 -68.143592834473 -224.016784667969 -0.550491333008 2.457595348358 -1.546081542969 -1.829307556152
-149.124542236328 -71.069282531738 -225.379180908203 -2.485504150391 2.864550590515 1.039367675781 0.973464965820
-103.922729492188 -65.961585998535 -226.039016723633 -2.347091674805 2.873264074326 1.472297668457 -0.761016845703
-100.750961303711 -67.740753173828 -222.428710937500 0.292694091797 1.347378492355 -1.272758483887 -0.331428527832
-122.176094055176 -64.123863220215 -230.576690673828 -0.735076904297 1.888519406319 -1.571243286133 0.746566772461
-106.917724609375 -67.432144165039 -226.131072998047 0.028747558594 0.203680828214 0.157562255859 -0.125831604004
-155.291519165039 -69.555381774902 -230.757171630859 -0.260314941406 0.523096561432 0.288650512695 0.350067138672
-1.773736953735 -66.625358581543 -225.699905395508 -0.392272949219 2.112623929977 -0.430691003799 2.030715942383
-132.667175292969 -69.978561401367 -230.833404541016 1.400817871094 2.180767059326 1.663391113281 0.163047790527
-152.217712402344 -69.708183288574 -235.275695800781 0.460708618164 1.391504883766 -0.717910766602 -1.099380493164
-135.749603271484 -70.610015869141 -233.311645507813 -1.077423095703 1.842257022858 -1.419036865234 -0.468406677246
-10.074313163757 -66.427299499512 -235.763809204102 1.812881469727 2.175802707672 -1.201197624207 -0.068572998047
10.052634239197 -67.316535949707 -242.678894042969 0.339797973633 1.700889945030 1.239681243896 1.113891601563
64.028282165527 -62.676395416260 -240.233734130859 0.918991088867 3.788157224655 -0.060134887695 3.674503326416
19.490470886230 -69.927619934082 -248.171737670898 -0.902709960938 1.592916846275 1.200143814087 -0.531181335449
57.189899444580 -66.161270141602 -243.137466430664 0.127639770508 1.576985120773 -0.982864379883 -1.226608276367
42.462806701660 -68.370124816895 -249.145309448242 -0.128662109375 0.617395102978 -0.401554107666 0.450973510742
60.031219482422 -64.367721557617 -251.069625854492 -1.095825195313 5.341331958771 4.439147949219 2.760971069336
-151.260070800781 -68.589210510254 -250.406021118164 1.374328613281 2.172347545624 -1.364791870117 -0.983695983887
-148.206634521484 -72.093750000000 -254.481781005859 2.817047119141 2.970410823822 -0.775161743164 0.535453796387
43.997589111328 -65.637977600098 -256.311676025391 -1.247634887695 1.337356448174 0.080989837646 -0.474731445313
30.612564086914 -66.591415405273 -255.266845703125 0.329666137695 2.677513360977 -2.509212493896 0.874214172363
48.913311004639 -64.548255920410 -252.222732543945 0.203872680664 1.908465862274 -1.291702270508 1.390029907227
-143.538253784180 -71.325325012207 -259.620605468750 2.145080566406 2.897586345673 -1.536788940430 -1.197044372559
-135.195785522461 -66.970458984375 -255.401916503906 -0.481536865234 1.192827105522 -0.351623535156 1.033111572266
-123.732879638672 -66.214057922363 -257.982025146484 -0.387268066406 1.897452354431 0.931686401367 1.606956481934
-132.801010131836 -68.702026367188 -256.118865966797 0.204559326172 1.910004615784 1.896652221680 0.094779968262
-139.625534057617 -69.208755493164 -258.012023925781 -2.355590820313 2.841674804688 0.620040893555 1.463508605957
-122.475975036621 -67.670806884766 -259.513000488281 -1.918243408203 2.914129495621 2.188591003418 0.150207519531
-141.571746826172 -67.003143310547 -260.396820068359 0.717498779297 1.003240823746 0.695999145508 -0.085281372070
-125.050956726074 -70.061019897461 -259.523590087891 2.269958496094 2.330739021301 -0.037590026855 0.527465820313
-121.205810546875 -68.532997131348 -264.426849365234 -1.642639160156 3.478729963303 -2.833076477051 1.173446655273
-126.364280700684 -68.988220214844 -264.860534667969 -1.850677490234 2.121309757233 -0.534469604492 -0.888420104980
-119.259796142578 -65.428894042969 -264.104095458984 -0.859497070313 1.038516640663 -0.412055969238 0.412300109863
-4.041499137878 -67.730117797852 -265.668487548828 -0.154418945313 1.597982883453 0.491992950439 -1.512496948242
29.150232315063 -64.551933288574 -261.686218261719 1.206512451172 2.147383689880 1.004446029663 -1.465152740479
-145.071899414063 -65.154579162598 -267.042236328125 -2.502960205078 2.909028768539 -1.004943847656 -1.089828491211
27.418933868408 -67.359535217285 -268.664886474609 -2.775482177734 2.825865983963 0.209066390991 -0.488372802734
-3.714709043503 -63.244998931885 -274.082427978516 -1.760070800781 4.863160133362 -3.617854118347 2.731960296631
18.334465026855 -72.474395751953 -283.102416992188 -0.272125244141 1.633403539658 1.048852920532 1.222236633301
-140.402511596680 -69.286979675293 -289.261138916016 1.588653564453 2.076297044754 1.312438964844 -0.254348754883
-124.234756469727 -69.728775024414 -287.323364257813 -0.433105468750 0.593790352345 -0.318824768066 -0.251708984375
-131.076248168945 -65.103317260742 -290.417724609375 -0.357513427734 2.651387691498 2.116500854492 1.556427001953
-157.346420288086 -65.073608398438 -292.119506835938 -0.278381347656 2.122682332993 -2.081558227539 -0.308868408203
-124.900543212891 -64.312904357910 -289.395446777344 0.725524902344 1.425437688828 0.087028503418 1.223892211914
-116.925682067871 -66.521049499512 -289.264770507813 0.762634277344 0.784390509129 -0.171386718750 0.065452575684
-124.379379272461 -70.358894348145 -295.710571289063 0.760498046875 2.021440267563 0.725532531738 1.726692199707
-149.655838012695 -71.426864624023 -293.712799072266 1.555450439453 2.756663322449 1.204772949219 -1.930877685547
28.953617095947 -68.829490661621 -11.940117835999 0.520236968994 1.952123641968 -1.592933654785 1.001350402832
32.183540344238 -69.442153930664 -16.888175964355 0.348882675171 1.681728005409 0.794378280640 -1.440643310547
38.655025482178 -66.021026611328 -19.378276824951 -1.498807907104 2.146585464478 -1.280891418457 -0.848953247070
48.701286315918 -60.192672729492 -23.090337753296 0.060501098633 0.841575980186 -0.820770263672 -0.175857543945
28.124771118164 -70.594398498535 -27.414478302002 0.491556167603 2.405109643936 2.203552246094 0.829025268555
21.138408660889 -69.004394531250 -34.002254486084 -1.342960357666 2.312086820602 0.582355499268 1.789710998535
-33.615848541260 -66.201614379883 -46.062759399414 1.491806030273 2.486402511597 1.561866760254 -1.231781005859
-81.630653381348 -67.590911865234 -52.974372863770 -0.865119934082 1.627089381218 1.335044860840 -0.341529846191
-15.697723388672 -65.391090393066 -58.279132843018 0.583763122559 3.305104017258 2.196491241455 2.399658203125
73.464828491211 -63.072208404541 -64.216247558594 -1.920555114746 2.282151699066 0.417976379395 1.159732818604
102.463058471680 -63.690254211426 -67.985908508301 1.851951599121 2.198614835739 1.014533996582 -0.612293243408
65.457572937012 -63.386871337891 -82.399078369141 0.117362976074 0.730398476124 -0.142364501953 0.706710815430
62.041816711426 -60.374183654785 -82.600234985352 0.136207580566 0.465069890022 -0.317699432373 0.311134338379
101.022247314453 -64.460151672363 -83.724197387695 0.482528686523 2.490575790405 -0.895484924316 2.273376464844
-63.348892211914 -63.628948211670 -90.389610290527 -0.987091064453 2.125504255295 -0.676563262939 1.756610870361
-64.671432495117 -65.926643371582 -91.046028137207 1.112121582031 2.344530105591 -0.881916046143 1.866073608398
50.376609802246 -62.948513031006 -92.848617553711 -1.728401184082 2.340342760086 -0.263931274414 1.555690765381
-66.423110961914 -67.429054260254 -95.782737731934 -0.620414733887 2.680538415909 -2.046493530273 -1.616241455078
-70.776893615723 -65.816711425781 -100.670944213867 -0.118705749512 1.130790829659 -1.031379699707 -0.448165893555
-95.933609008789 -65.195632934570 -99.762336730957 1.430236816406 2.514852762222 2.068069458008 -0.044677734375
-75.029479980469 -62.952583312988 -100.010437011719 1.513694763184 2.476383447647 0.482635498047 1.899543762207
47.618824005127 -61.960559844971 -101.150817871094 -2.492309570313 3.197922229767 0.003173828125 2.003768920898
-66.709915161133 -67.957931518555 -103.237083435059 -2.886726379395 3.691212177277 1.590560913086 1.661918640137
50.240737915039 -62.891105651855 -102.550384521484 -0.615242004395 1.467764258385 0.234210968018 1.311851501465
96.965316772461 -64.117111206055 -104.041641235352 1.782867431641 2.216494798660 1.313636779785 -0.092689514160
91.586654663086 -64.254287719727 -110.586425781250 -1.842453002930 2.218126773834 1.212402343750 0.235656738281
-72.113899230957 -65.716445922852 -114.324378967285 0.441856384277 2.875578641891 2.637878417969 1.056083679199
-83.738479614258 -67.016677856445 -112.347518920898 1.520675659180 1.659933924675 0.306037902832 0.590988159180
-61.105915069580 -65.819000244141 -118.980873107910 -1.607681274414 2.126526117325 -1.216747283936 -0.676017761230
-95.462852478027 -62.959690093994 -119.115844726563 -0.712829589844 3.466302633286 2.705337524414 2.046527862549
-75.876403808594 -67.870254516602 -127.124168395996 1.295692443848 1.380088090897 0.424118041992 -0.214355468750
-92.715270996094 -60.246452331543 -125.329505920410 -1.821128845215 1.877000331879 0.410400390625 -0.195426940918
-62.586673736572 -64.221847534180 -117.791343688965 -0.446174621582 1.399105906487 -1.247360229492 -0.450019836426
-59.509471893311 -60.446605682373 -120.325363159180 -0.766258239746 2.188181877136 -1.922096252441 -0.711711883545
-87.884666442871 -66.670425415039 -129.485153198242 0.987411499023 1.418725013733 0.420219421387 -0.928016662598
-62.451011657715 -69.010910034180 -127.241882324219 2.729110717773 3.026240825653 -1.016891479492 -0.822204589844
-83.344161987305 -65.210014343262 -132.417907714844 -0.784957885742 1.696040153503 0.981079101563 1.139244079590
-78.728210449219 -66.856712341309 -133.774291992188 0.491180419922 2.205152034760 2.146301269531 -0.121772766113
-61.261631011963 -69.338043212891 -134.327728271484 0.844497680664 1.635594367981 1.372123718262 0.281547546387
-60.102890014648 -62.359001159668 -134.482742309570 0.725296020508 1.830418944359 -1.023529052734 1.332954406738
-53.934452056885 -61.306072235107 -135.342376708984 -0.950027465820 0.963243067265 -0.005847930908 0.158905029297
-95.537277221680 -63.856552124023 -132.323135375977 0.209045410156 3.933038473129 -3.247001647949 2.209541320801
-96.193824768066 -63.827964782715 -144.115539550781 -0.234100341797 1.977562308311 -0.894584655762 1.748046875000
-87.692367553711 -66.474349975586 -134.891403198242 0.436737060547 2.111470699310 -1.346923828125 -1.566322326660
21.488424301147 -67.407867431641 -148.054992675781 -1.941619873047 2.214999198914 0.843933105469 -0.651237487793
-49.095428466797 -66.454666137695 -141.643997192383 -0.907638549805 1.019711852074 -0.102851867676 -0.453239440918
18.855327606201 -64.994773864746 -149.833358764648 0.707397460938 1.207816481590 -0.975200653076 0.085983276367
-97.248062133789 -67.053009033203 -164.487380981445 -2.991378784180 3.957990407944 2.034767150879 -1.605323791504
-101.924575805664 -70.539840698242 -171.357833862305 0.752700805664 2.018361568451 0.846626281738 -1.670463562012
-101.560638427734 -63.497631072998 -171.329620361328 -0.242156982422 1.919388651848 1.728660583496 0.798213958740
-106.968719482422 -62.064823150635 -171.390106201172 -1.766220092773 2.828450918198 -1.057487487793 1.939670562744
-106.530799865723 -67.297271728516 -179.575668334961 -2.030593872070 2.642144680023 -1.642410278320 0.400131225586
-109.616333007813 -66.321578979492 -178.362289428711 -0.545364379883 0.667334735394 0.037689208984 -0.382743835449
-141.152389526367 -65.531684875488 -187.201919555664 -0.515701293945 1.717230796814 0.895339965820 1.371604919434
-110.940948486328 -65.506835937500 -186.529342651367 0.773376464844 1.781808972359 1.496788024902 0.579963684082
-132.698043823242 -64.250007629395 -199.807281494141 0.510864257813 0.564404904842 -0.176437377930 0.162605285645
-148.227478027344 -69.087165832520 -198.540328979492 -0.942840576172 1.729722261429 0.812850952148 1.200942993164
-125.412651062012 -67.162277221680 -198.136123657227 -0.805587768555 2.955332994461 -2.835235595703 0.215545654297
-155.787033081055 -68.915756225586 -196.684921264648 0.925506591797 2.133021831512 -1.795715332031 -0.684562683105
-146.142318725586 -70.233589172363 -202.156768798828 -0.730056762695 2.346498966217 1.259643554688 1.840209960938
-124.189659118652 -62.532642364502 -198.962158203125 1.314880371094 1.552342176437 0.522132873535 -0.638931274414
-133.503524780273 -66.000885009766 -201.595291137695 1.090545654297 1.810155749321 0.246673583984 1.423561096191
-140.385223388672 -71.776153564453 -206.583801269531 -3.040740966797 4.107411861420 2.756607055664 -0.160766601563
-130.943099975586 -69.431259155273 -223.629989624023 1.050811767578 2.278818607330 1.991729736328 -0.349029541016
-109.412109375000 -68.579994201660 -229.633819580078 0.191543579102 2.259511470795 -0.929634094238 -2.050483703613
-142.912277221680 -68.318283081055 -228.526245117188 -0.901184082031 2.292300939560 -0.413970947266 -2.066673278809
-117.592895507813 -65.633079528809 -231.224334716797 0.857070922852 1.997543215752 -1.723098754883 -0.535293579102
-114.652847290039 -63.267993927002 -231.046676635742 0.447433471680 1.167007803917 0.760345458984 0.763927459717
-121.607681274414 -68.034408569336 -233.269226074219 1.416641235352 2.469401597977 1.803497314453 0.915679931641
-129.556198120117 -67.248306274414 -234.584640502930 -0.952270507813 3.020624637604 -1.741333007813 -2.277084350586
-114.573059082031 -64.409523010254 -236.648452758789 -3.699645996094 3.868070840836 1.038734436035 0.442291259766
5.578273773193 -65.131248474121 -235.472290039063 0.558715820313 0.894502103329 -0.156295299530 0.680839538574
-150.839248657227 -69.199287414551 -237.936172485352 -2.199768066406 2.371493577957 0.660552978516 -0.590484619141
7.646420955658 -66.933494567871 -234.710083007813 -0.241500854492 1.836498260498 1.103035926819 1.448348999023
6.623075962067 -62.828456878662 -241.864013671875 -1.732437133789 1.834665894508 0.552557945251 0.243598937988
3.062680959702 -67.796173095703 -240.985763549805 -1.566680908203 1.687149405479 0.118345975876 -0.614799499512
15.137138366699 -62.695281982422 -240.423538208008 0.482376098633 0.867102563381 -0.387742042542 0.607318878174
-143.348373413086 -65.945999145508 -235.452316284180 -0.529190063477 2.536433696747 1.908752441406 1.584335327148
-3.846025943756 -67.270622253418 -246.842208862305 -2.401596069336 3.527697801590 -0.469118833542 -2.541046142578
20.597417831421 -65.445266723633 -240.907821655273 1.988601684570 2.565620422363 0.197389602661 -1.609008789063
50.799381256104 -63.877643585205 -249.232086181641 -0.064773559570 0.344068795443 -0.319961547852 -0.108684539795
51.852081298828 -64.023765563965 -249.852188110352 -0.684875488281 1.034836411476 0.732738494873 -0.254806518555
-145.624893188477 -69.277801513672 -252.674179077148 -0.454895019531 1.711959719658 -1.541870117188 -0.588653564453
-4.671263217926 -66.940254211426 -251.253494262695 1.128448486328 2.301270246506 1.535940647125 -1.289703369141
24.012460708618 -66.488281250000 -255.469100952148 1.076461791992 1.660082936287 1.258613586426 0.114006042480
-131.294616699219 -62.705112457275 -258.698150634766 -0.236846923828 2.497829437256 1.800079345703 1.715450286865
-123.011543273926 -65.829574584961 -258.828948974609 0.802368164063 2.773764133453 2.484497070313 -0.936614990234
-123.663734436035 -68.119483947754 -258.274871826172 -0.680114746094 1.246316194534 1.000831604004 -0.298469543457
27.630750656128 -65.540557861328 -258.497802734375 -1.053924560547 1.706489324570 1.120450973511 -0.738876342773
-132.882110595703 -65.442443847656 -265.839935302734 -1.696197509766 3.575259685516 2.110946655273 2.334373474121
31.761596679688 -63.803459167480 -260.263580322266 -0.145812988281 1.529799222946 0.478324890137 1.445762634277
33.714950561523 -65.914474487305 -263.087066650391 -1.706909179688 1.850060343742 0.301097869873 0.646934509277
-151.895324707031 -69.806358337402 -267.357238769531 -1.441589355469 1.745978474617 0.630142211914 0.757087707520
-145.526535034180 -72.998771667480 -287.236145019531 -0.524078369141 2.282749176025 1.256881713867 1.832084655762
-148.509948730469 -64.856399536133 -288.353271484375 0.639129638672 0.861751616001 -0.560424804688 0.141609191895
-142.881713867188 -65.707092285156 -294.589691162109 -0.148162841797 1.986037850380 1.922042846680 0.477645874023
13.201810836792 -69.253494262695 -291.934417724609 0.131347656250 2.283484935760 -0.206415176392 2.270339965820
-153.406112670898 -65.985382080078 -300.333099365234 0.680114746094 1.740083575249 0.389968872070 1.553466796875
46.367740631104 -68.748512268066 -25.777935028076 -0.664281845093 2.556366443634 1.811061859131 1.677436828613
36.026599884033 -70.307510375977 -39.885112762451 0.971797943115 1.074605584145 0.322864532471 -0.325798034668
-60.849567413330 -62.831287384033 -46.096160888672 -2.680744171143 3.190280199051 -1.524726867676 -0.816520690918
-71.739067077637 -62.989631652832 -46.679187774658 -1.498950958252 2.107618808746 0.475959777832 1.403091430664
-26.569438934326 -62.585708618164 -50.600646972656 1.467613220215 1.961193680763 -0.961576461792 0.876220703125
-21.587656021118 -67.645416259766 -54.439186096191 1.231727600098 2.013285875320 -0.479265213013 1.518707275391
-10.943668365479 -61.207424163818 -66.690467834473 -1.484260559082 1.812942981720 0.126815795898 1.033271789551
-25.928192138672 -61.425834655762 -69.830352783203 -0.689292907715 2.446815252304 -1.501049041748 1.805168151855
65.397758483887 -63.592681884766 -73.532127380371 -0.771415710449 0.869231700897 0.145095825195 0.373401641846
-96.423309326172 -60.478740692139 -78.983078002930 0.879981994629 3.006951570511 2.841720581055 -0.438194274902
-45.913543701172 -65.261589050293 -86.299240112305 -2.516189575195 2.707194328308 0.373256683350 0.926483154297
55.158439636230 -65.077102661133 -85.655448913574 0.900566101074 1.334226846695 0.611064910889 0.771842956543
59.166397094727 -63.948108673096 -86.260345458984 -1.245353698730 1.367919921875 0.045265197754 0.564136505127
62.776103973389 -64.431732177734 -88.554481506348 2.193458557129 2.650354862213 0.837615966797 -1.229438781738
106.772308349609 -62.582759857178 -90.433952331543 -1.186492919922 3.342371940613 1.299674987793 -2.841571807861
52.713764190674 -61.405448913574 -90.663696289063 1.709266662598 1.831656336784 -0.555976867676 -0.352508544922
99.417327880859 -59.292716979980 -99.990615844727 -0.097091674805 2.769763946533 -2.715225219727 -0.538253784180
-81.432937622070 -67.162124633789 -103.429428100586 0.278678894043 1.333980679512 1.271286010742 0.292701721191
-93.594192504883 -65.518005371094 -102.059204101563 1.309188842773 4.191231727600 3.976760864258 -0.194473266602
75.780601501465 -60.605049133301 -111.764244079590 -1.706260681152 2.301463603973 -0.142395019531 1.537899017334
-77.011299133301 -64.680236816406 -103.961349487305 1.692832946777 2.612540245056 -0.891601562500 -1.778968811035
-77.136604309082 -69.212417602539 -114.911720275879 -1.759620666504 2.057974338531 0.402145385742 0.988571166992
-83.384658813477 -69.681610107422 -119.163993835449 -0.550727844238 1.531400799751 -0.532104492188 1.326179504395
-54.738430023193 -66.293571472168 -126.737525939941 0.903602600098 1.033087372780 0.484832763672 -0.125335693359
-76.889625549316 -65.721862792969 -129.033996582031 -0.614135742188 2.112984180450 -0.589103698730 1.934036254883
-61.991641998291 -62.392509460449 -129.776992797852 0.872390747070 1.582559227943 -0.639614105225 1.155128479004
-83.283264160156 -67.080337524414 -135.214370727539 -0.948898315430 2.611856937408 -2.408752441406 -0.345397949219
-75.335105895996 -64.238403320313 -133.274139404297 -0.305984497070 0.869374215603 0.550994873047 0.598823547363
-79.225639343262 -62.480205535889 -125.656555175781 -0.383583068848 0.712251067162 0.083862304688 0.594249725342
-88.136611938477 -63.890075683594 -130.612396240234 0.399719238281 1.500569462776 -1.403450012207 -0.349658966064
-65.055679321289 -62.655166625977 -134.605575561523 0.389862060547 2.844286441803 -2.358966827393 1.540534973145
-89.957618713379 -65.241882324219 -133.088363647461 -0.655426025391 2.153458595276 -1.878356933594 -0.824363708496
-49.403324127197 -66.870330810547 -133.621200561523 0.306625366211 1.632390379906 0.957382202148 -1.286117553711
-55.014854431152 -69.286201477051 -139.245101928711 2.229263305664 3.277261972427 1.768867492676 1.625404357910
28.432495117188 -64.315666198730 -139.510223388672 -1.406906127930 1.417549133301 -0.099756240845 -0.141807556152
-56.346199035645 -60.012569427490 -137.230331420898 -0.961196899414 1.494717121124 0.792152404785 -0.826301574707
15.985252380371 -68.159729003906 -144.033218383789 0.102096557617 1.388993144035 0.390810012817 -1.328964233398
17.115438461304 -63.533821105957 -148.122787475586 0.429763793945 1.080654501915 -0.826175689697 0.548225402832
18.431991577148 -61.228790283203 -153.439590454102 -1.583648681641 1.944751381874 1.083969116211 0.314842224121
-97.313789367676 -64.245101928711 -145.541717529297 2.356491088867 2.727264404297 0.726303100586 1.165077209473
-90.644020080566 -65.818389892578 -150.375244140625 0.548614501953 2.508960247040 2.089515686035 1.275863647461
-95.569740295410 -62.386692047119 -151.596359252930 -1.253311157227 1.347188353539 -0.443763732910 -0.217258453369
-104.099807739258 -66.047241210938 -161.625656127930 1.012374877930 2.081203460693 1.426528930664 1.127616882324
-96.889694213867 -64.546463012695 -159.548828125000 -1.565567016602 2.293260335922 1.671546936035 0.118209838867
-151.193161010742 -66.441719055176 -176.005950927734 -1.440444946289 2.263799428940 -1.736129760742 -0.189102172852
-153.027633666992 -66.564422607422 -176.383041381836 -0.552856445313 2.778547763824 -0.578598022461 -2.660808563232
-109.646949768066 -64.026557922363 -182.082855224609 -1.126571655273 2.512107849121 -0.075592041016 -2.244060516357
-141.143585205078 -64.220809936523 -178.094192504883 -0.220901489258 1.920207977295 0.792724609375 -1.734931945801
-109.244575500488 -62.911319732666 -181.693878173828 -0.737594604492 1.387469768524 0.326782226563 -1.128822326660
-149.013168334961 -60.637611389160 -187.673324584961 -0.782394409180 2.140756368637 0.445098876953 1.942314147949
-110.755195617676 -63.088699340820 -192.659072875977 -0.452102661133 2.772617101669 2.609138488770 0.821830749512
-109.521232604980 -66.157997131348 -184.242416381836 1.557647705078 1.988358020782 -1.127464294434 -0.506088256836
-143.191452026367 -66.020790100098 -199.404556274414 -0.271026611328 1.917562961578 1.846191406250 -0.441780090332
-129.432434082031 -67.414375305176 -197.161605834961 -2.631607055664 3.518969297409 2.117004394531 -0.987968444824
-106.378585815430 -66.088050842285 -198.104782104492 -1.669036865234 2.685235261917 1.985244750977 -0.695419311523
-115.215240478516 -61.392219543457 -199.362930297852 -0.634475708008 2.453575134277 -0.416549682617 2.333229064941
-112.073532104492 -66.610504150391 -200.767288208008 -0.634277343750 2.381698846817 0.656173706055 -2.199913024902
-115.259780883789 -62.283939361572 -203.083053588867 -2.120986938477 2.374364852905 -0.174987792969 1.052806854248
-133.447265625000 -63.812988281250 -198.011077880859 -0.936782836914 1.067470431328 -0.480880737305 -0.175170898438
-137.541793823242 -66.005996704102 -203.288192749023 -0.684082031250 3.804853916168 3.564697265625 1.140998840332
-130.160812377930 -64.791908264160 -207.494430541992 -2.357147216797 2.612374067307 -0.946884155273 0.609725952148
-126.722434997559 -61.578529357910 -201.743927001953 1.370193481445 2.192553281784 -1.195167541504 1.225330352783
-123.611129760742 -64.838844299316 -205.313125610352 -0.167739868164 0.907479047775 0.019332885742 0.891632080078
-112.931411743164 -64.970977783203 -205.085189819336 -0.870803833008 2.195537090302 -0.939567565918 1.783058166504
-147.193527221680 -65.642692565918 -214.459823608398 0.257827758789 2.910520553589 2.377075195313 1.659568786621
-151.156173706055 -66.243301391602 -220.575683593750 0.294494628906 2.459707498550 -2.417831420898 -0.342819213867
-152.174163818359 -65.227905273438 -223.081268310547 1.213851928711 2.300171136856 0.222900390625 -1.941047668457
-139.425094604492 -70.736900329590 -225.707504272461 -0.752197265625 1.801459670067 0.578659057617 -1.531211853027
-131.198440551758 -62.670078277588 -227.646133422852 0.576934814453 2.212691545486 1.112457275391 1.823619842529
-121.466621398926 -67.833328247070 -220.865325927734 4.474700927734 4.707271099091 -0.070335388184 1.459625244141
-139.912750244141 -68.044052124023 -229.444869995117 -1.074172973633 3.369237661362 1.416580200195 -2.862030029297
-150.272689819336 -68.372108459473 -226.692031860352 2.136444091797 2.875746965408 -1.910385131836 -0.236549377441
-133.178588867188 -67.167358398438 -226.795303344727 -1.347656250000 1.388071060181 0.167465209961 0.287261962891
-132.638275146484 -63.523712158203 -228.933502197266 -0.710433959961 1.246099948883 -0.327377319336 0.969985961914
-146.776382446289 -66.708045959473 -229.931030273438 0.539108276367 1.446225762367 1.283172607422 -0.392936706543
-134.025756835938 -61.087520599365 -230.309249877930 -0.469909667969 2.310930013657 -0.220413208008 2.251888275146
-126.792022705078 -64.775505065918 -231.108139038086 -0.818771362305 1.417252898216 -1.081420898438 -0.410789489746
-9.632073402405 -67.273429870605 -236.993408203125 0.583282470703 1.323977947235 -0.758957862854 -0.914703369141
5.829791069031 -63.663856506348 -240.644546508789 -0.512969970703 0.819338560104 -0.240726947784 -0.591800689697
14.561403274536 -60.688713073730 -242.995010375977 -0.808471679688 0.946567237377 -0.454872131348 -0.188293457031
10.435776710510 -67.204750061035 -243.674438476563 1.177215576172 2.024264335632 0.027356147766 1.646530151367
-7.457366943359 -67.200958251953 -240.047058105469 1.168746948242 1.913024544716 -0.188149929047 -1.502761840820
-11.408879280090 -65.486625671387 -246.845596313477 1.420257568359 1.473200559616 -0.097392082214 0.379081726074
38.934612274170 -63.097526550293 -250.249588012695 -0.282852172852 1.782034635544 0.332157135010 1.727806091309
48.790904998779 -64.128318786621 -252.788528442383 -0.361923217773 2.325225114822 -1.414108276367 1.809967041016
-145.070739746094 -65.076980590820 -254.621948242188 -0.135131835938 1.371497750282 0.552139282227 -1.248153686523
42.916919708252 -62.851951599121 -254.872680664063 0.209915161133 0.215340510011 0.047782897949 -0.004894256592
39.333572387695 -65.434272766113 -253.356246948242 1.217376708984 1.560735225677 0.857078552246 0.468299865723
-157.543518066406 -69.792655944824 -257.811920166016 -0.736968994141 1.500007987022 -1.160202026367 0.600692749023
-149.959594726563 -65.972831726074 -257.812713623047 -0.500366210938 1.127046942711 -0.326095581055 0.955787658691
-149.842071533203 -69.597358703613 -259.794708251953 1.205291748047 1.764824509621 -0.740127563477 -1.055503845215
3.551094055176 -66.018608093262 -263.553802490234 0.771911621094 2.742570400238 0.907036066055 -2.470451354980
-150.037353515625 -67.062591552734 -267.129058837891 -0.103576660156 1.838480234146 1.833099365234 -0.095016479492
0.515182018280 -65.415863037109 -274.294036865234 -1.971679687500 2.139378070831 0.612037003040 0.561096191406
-145.481674194336 -68.855911254883 -275.176483154297 -1.418304443359 1.887931704521 -1.055618286133 0.662094116211
-146.938369750977 -66.854995727539 -282.009277343750 -0.341735839844 1.771330714226 -0.576721191406 -1.639579772949
-150.195785522461 -66.601325988770 -285.471588134766 0.242370605469 0.752953171730 0.302871704102 -0.645339965820
-149.034591674805 -60.719322204590 -284.025207519531 1.162292480469 2.460165262222 -1.710571289063 1.332454681396
-144.347198486328 -65.160926818848 -289.780181884766 1.038940429688 2.010141611099 -0.828765869141 -1.508117675781
-154.452102661133 -65.910804748535 -285.707794189453 -1.189331054688 1.567216634750 -0.134307861328 -1.011741638184
-150.283676147461 -66.584632873535 -286.576019287109 -0.319702148438 0.676480233669 -0.079727172852 -0.590812683105
-150.797302246094 -64.387702941895 -287.976531982422 -1.720214843750 2.427101135254 -0.593353271484 1.606117248535
-146.671035766602 -66.008102416992 -287.850250244141 1.142150878906 1.989806532860 1.278488159180 -1.010093688965
-143.110809326172 -66.049797058105 -287.608764648438 0.757354736328 1.746532678604 -1.512496948242 0.434906005859
12.365759849548 -66.334449768066 -285.106658935547 2.510559082031 2.932210206985 -1.388506889343 -0.605804443359
-146.000732421875 -66.140899658203 -293.685791015625 -0.984802246094 1.364326238632 0.728164672852 -0.601104736328
-156.220489501953 -63.434638977051 -291.944213867188 -0.103088378906 1.641042232513 -0.955627441406 1.330101013184
-154.423858642578 -62.319427490234 -289.084747314453 -0.457427978516 1.606177806854 1.113632202148 1.063198089600
-149.769836425781 -64.676567077637 -293.710784912109 -1.435577392578 1.505994200706 -0.340972900391 0.301452636719
-148.006103515625 -61.172466278076 -289.686187744141 2.314147949219 3.755488395691 -1.998153686523 2.180778503418
-145.732269287109 -67.857048034668 -292.308441162109 -0.848510742188 2.270400762558 -1.653045654297 -1.304679870605
5.007163047791 -66.626617431641 -292.451904296875 0.715332031250 0.937020242214 -0.604758739471 -0.023956298828
-143.289321899414 -64.468955993652 -294.784484863281 -0.342956542969 2.314095973969 1.514434814453 1.715782165527
-147.003433227539 -63.524570465088 -293.800354003906 0.532867431641 1.003007054329 -0.819046020508 0.226360321045
29.368831634521 -57.279811859131 -16.566436767578 2.129159927368 3.326667070389 -0.739120483398 2.446853637695
42.747158050537 -67.554306030273 -20.328998565674 0.536588668823 2.291246414185 1.395328521729 1.736358642578
43.088443756104 -60.264560699463 -21.461536407471 -1.260618209839 1.713090896606 1.159610748291 0.028720855713
18.369804382324 -68.291473388672 -31.425754547119 -0.103290557861 3.078032016754 -1.526245117188 2.670989990234
27.060155868530 -55.403675079346 -35.117900848389 -1.110363006592 2.394524574280 -1.949680328369 0.836414337158
38.065319061279 -64.853340148926 -35.816131591797 -1.208042144775 1.795723319054 -0.361801147461 1.278419494629
-56.116703033447 -62.095512390137 -44.510009765625 0.097904205322 1.989060401917 -1.882293701172 0.635410308838
-50.319351196289 -63.316383361816 -42.211971282959 2.824310302734 2.826579332352 -0.108776092529 0.031467437744
90.454750061035 -62.739395141602 -64.074897766113 -2.147274017334 2.899746179581 1.892074584961 -0.466686248779
-95.233009338379 -62.390510559082 -65.589286804199 1.157699584961 1.291547298431 0.564460754395 -0.095970153809
96.924880981445 -69.830383300781 -62.548160552979 3.650638580322 4.474575996399 1.532615661621 -2.084648132324
68.539428710938 -63.859546661377 -69.701164245605 -0.371688842773 1.275012969971 0.784294128418 0.934017181396
101.141326904297 -64.451629638672 -77.457305908203 -2.230354309082 2.974671125412 -1.693855285645 1.002517700195
64.232139587402 -66.567352294922 -75.978561401367 0.042785644531 1.545446515083 -0.475944519043 -1.469711303711
-41.435382843018 -64.504600524902 -77.834564208984 -0.010429382324 1.320978879929 -0.061038970947 -1.319526672363
60.492801666260 -59.862808227539 -81.653511047363 1.082931518555 2.309520721436 -1.866714477539 0.822509765625
-53.090690612793 -60.897613525391 -78.601524353027 -1.105407714844 1.161676287651 0.349365234375 -0.074226379395
59.479343414307 -62.206138610840 -83.952186584473 1.062805175781 2.564370870590 0.358211517334 2.306106567383
62.836765289307 -60.269351959229 -85.138412475586 -0.031753540039 2.235058307648 -0.103282928467 -2.232444763184
-97.734153747559 -64.119071960449 -83.740608215332 1.419204711914 1.788927555084 1.065605163574 -0.224956512451
52.102230072021 -61.610706329346 -86.119934082031 2.623649597168 3.801495313644 -2.717124938965 -0.430187225342
52.588371276855 -66.913978576660 -92.828071594238 0.583099365234 1.487662315369 0.933403015137 1.000946044922
65.459632873535 -63.996318817139 -91.896736145020 -0.098609924316 0.503049373627 -0.285949707031 -0.401954650879
52.896247863770 -61.673023223877 -96.171661376953 -0.952011108398 1.766810894012 -1.038173675537 1.066532135010
-80.430725097656 -62.589870452881 -106.765548706055 1.112190246582 2.152919769287 -1.533271789551 1.023315429688
83.587226867676 -66.293907165527 -105.613105773926 -0.254882812500 1.929290771484 1.364242553711 1.340164184570
-80.243385314941 -66.930313110352 -117.531509399414 2.013031005859 2.563471555710 0.527915954590 -1.496795654297
-76.254852294922 -62.206535339355 -106.690711975098 -1.036529541016 1.255115032196 -0.135154724121 0.694732666016
-79.089462280273 -65.244079589844 -122.574089050293 1.022651672363 1.132502436638 -0.046508789063 -0.484336853027
-85.314193725586 -63.435489654541 -115.039245605469 -1.660171508789 2.100263834000 1.125534057617 -0.622985839844
-93.166915893555 -62.371200561523 -119.908134460449 -0.949989318848 2.254484415054 -2.037139892578 0.174015045166
-79.875854492188 -65.054557800293 -122.966392517090 0.630348205566 1.085347294807 -0.832901000977 -0.294815063477
-52.136058807373 -61.831321716309 -125.780937194824 -2.101219177246 2.976597547531 2.001552581787 -0.662418365479
-77.479682922363 -62.391540527344 -134.689895629883 -1.207122802734 2.045460462570 0.266815185547 1.629592895508
-56.204051971436 -59.393440246582 -130.633972167969 0.323410034180 1.031142950058 0.285243988037 -0.936641693115
-87.574531555176 -62.072814941406 -136.993896484375 -0.044952392578 2.814645290375 0.460517883301 2.776351928711
30.186990737915 -62.467819213867 -137.729553222656 -1.628997802734 2.206703662872 0.233905792236 -1.470100402832
20.279037475586 -63.542175292969 -140.614212036133 0.413253784180 0.929822921753 0.232629776001 0.799797058105
-92.560409545898 -56.907321929932 -142.353591918945 -3.521789550781 6.006617546082 0.009078979492 4.865837097168
21.553537368774 -64.723983764648 -148.211822509766 0.331207275391 2.284734487534 1.804611206055 1.361503601074
-89.409797668457 -66.374839782715 -146.435287475586 0.224838256836 1.942571520805 1.220321655273 -1.494606018066
-93.470222473145 -60.424583435059 -147.695175170898 -1.461456298828 2.770552158356 0.424621582031 2.315124511719
19.607719421387 -63.680377960205 -158.233062744141 0.352325439453 5.503779888153 -3.828191757202 3.938579559326
-95.363517761230 -63.215446472168 -146.980438232422 -0.746719360352 1.714910864830 -1.468673706055 -0.475738525391
-97.520675659180 -62.104496002197 -147.665710449219 0.725723266602 1.469328999519 -1.170364379883 0.512348175049
-102.627174377441 -63.294311523438 -156.731704711914 0.703201293945 2.082046031952 -1.866271972656 -0.597873687744
-95.251655578613 -63.676506042480 -161.283584594727 0.152679443359 3.234187126160 3.051994323730 -1.059238433838
-103.233810424805 -66.043159484863 -178.138153076172 -0.593078613281 2.413689374924 1.654579162598 1.654243469238
-107.972145080566 -69.018447875977 -169.005203247070 1.922698974609 2.215317964554 -1.100387573242 0.003143310547
-98.627349853516 -64.504875183105 -165.351577758789 -3.855575561523 4.022934913635 0.655479431152 0.942810058594
-104.751434326172 -64.715393066406 -169.489181518555 0.134704589844 1.366987109184 1.159797668457 -0.710899353027
-139.899200439453 -65.972755432129 -178.318435668945 -2.501022338867 3.073520421982 1.636596679688 -0.716217041016
-109.243339538574 -63.999691009521 -178.277267456055 0.435287475586 1.052476644516 0.609321594238 -0.739566802979
-140.549957275391 -64.690971374512 -187.926284790039 -1.240066528320 2.945409774780 1.497772216797 2.212318420410
-147.830657958984 -62.304409027100 -190.411819458008 2.976928710938 3.065908908844 0.445709228516 -0.582267761230
-152.135101318359 -61.708568572998 -190.167480468750 -3.276550292969 4.319778442383 -2.676834106445 0.871356964111
-122.007591247559 -62.685867309570 -196.679214477539 0.411224365234 1.326313138008 0.432312011719 -1.184528350830
-129.089828491211 -66.853004455566 -195.875762939453 -1.345764160156 2.835973978043 2.459609985352 -0.426597595215
-121.554687500000 -63.139266967773 -200.670104980469 -0.108489990234 1.693571567535 1.456176757813 0.857883453369
-142.262207031250 -67.054794311523 -202.113891601563 0.490219116211 1.258767366409 -1.155715942383 0.092201232910
-122.669113159180 -67.240036010742 -203.974884033203 -0.320220947266 0.483261913061 -0.193420410156 -0.305923461914
-145.509140014648 -65.887397766113 -204.629562377930 1.365707397461 1.535626411438 0.161193847656 -0.683380126953
-150.500320434570 -64.969261169434 -205.986541748047 1.122879028320 1.163647055626 0.290756225586 -0.093154907227
-153.938873291016 -63.573364257813 -227.960403442383 0.434127807617 1.191035032272 0.728500366211 -0.836292266846
-141.761810302734 -69.613639831543 -231.812423706055 1.324020385742 2.184628963470 -0.036331176758 -1.737312316895
