-160.919677734375 -75.641845703125 -288.380523681641 1.510406494141 1.609504461288 0.475799560547 -0.287734985352
-141.441864013672 -76.430572509766 -290.443359375000 -0.327880859375 0.404390096664 0.231597900391 -0.048866271973
-117.972106933594 -76.062454223633 -288.597656250000 0.481597900391 0.576212942600 -0.169166564941 0.267333984375
-70.246154785156 -77.888900756836 -286.227844238281 0.141387939453 1.920945286751 -1.649543762207 -0.974189758301
14.326535224915 -75.133605957031 -290.386260986328 -0.761169433594 1.056862473488 -0.732237815857 0.037513732910
-34.404865264893 -78.546707153320 -290.281555175781 1.079254150391 1.113081216812 -0.009120941162 -0.272171020508
-20.107307434082 -76.230255126953 -290.837036132813 0.692810058594 0.832081317902 -0.410753250122 -0.208938598633
-134.852294921875 -75.179206848145 -290.983398437500 -0.605804443359 1.397585988045 0.491378784180 -1.159652709961
-133.525360107422 -74.393058776855 -293.630981445313 0.884765625000 2.867702484131 0.053802490234 -2.727272033691
-145.982849121094 -73.605628967285 -294.511352539063 1.533477783203 2.069150686264 -0.242858886719 -1.367790222168
-148.865066528320 -75.173706054688 -300.546691894531 -2.234313964844 2.644489288330 -0.882400512695 1.105682373047
-149.027511596680 -73.547470092773 -308.598083496094 4.540618896484 4.554524421692 0.321289062500 -0.152465820313
-59.539325714111 -72.580558776855 -53.287082672119 0.168781280518 4.224449157715 -0.056121826172 4.220703125000
-78.657524108887 -70.018333435059 -54.455379486084 -3.904899597168 4.065027713776 -0.408317565918 1.053321838379
-80.031669616699 -71.150840759277 -54.470531463623 3.195484161377 3.465201139450 -0.498916625977 1.244018554688
-27.708538055420 -72.849136352539 -58.653614044189 -0.867389678955 2.480943441391 -2.322019577026 -0.104598999023
-22.372606277466 -71.542709350586 -59.339336395264 1.307342529297 2.480839252472 -0.357666015625 2.077857971191
-82.796546936035 -71.882438659668 -65.263801574707 -0.196205139160 3.683613538742 3.658218383789 0.384643554688
-88.922744750977 -73.020416259766 -67.941253662109 -1.092071533203 3.242163896561 2.120635986328 -2.195884704590
83.391258239746 -72.607078552246 -71.627799987793 -0.360626220703 2.318472623825 1.216575622559 1.940414428711
89.489196777344 -75.968704223633 -72.856925964355 0.005416870117 0.943832218647 -0.362602233887 -0.871383666992
-94.597167968750 -70.978775024414 -74.825927734375 0.222908020020 3.353169441223 -2.881988525391 1.699470520020
-31.257322311401 -75.209396362305 -73.843162536621 -0.390533447266 4.389981269836 -0.979713439941 4.261405944824
92.450546264648 -73.107971191406 -78.021430969238 -2.251380920410 2.663493156433 -0.917129516602 1.088279724121
90.946464538574 -72.562377929688 -84.466423034668 -2.812873840332 4.975955963135 -1.675460815430 3.747093200684
-94.586410522461 -68.053146362305 -75.151878356934 1.256080627441 2.067633867264 1.524131774902 -0.611877441406
-50.799121856689 -71.041847229004 -83.144905090332 1.996078491211 2.619137763977 -1.197246551514 1.200897216797
97.240562438965 -72.276206970215 -87.549972534180 -2.187614440918 2.519959211349 -1.071807861328 0.644798278809
-57.900249481201 -75.003181457520 -87.553482055664 3.202583312988 4.653041839600 -3.244323730469 0.931999206543
52.856494903564 -75.751502990723 -92.041275024414 -0.410102844238 1.413606762886 0.106250762939 -1.348632812500
-60.697284698486 -73.381851196289 -88.659263610840 2.078186035156 4.172638893127 -0.474872589111 -3.586997985840
48.481037139893 -72.323379516602 -91.456703186035 -1.642257690430 2.361538648605 -0.433998107910 -1.640579223633
43.832901000977 -76.072563171387 -96.651473999023 0.729408264160 2.945533275604 -0.993591308594 -2.675239562988
51.961181640625 -73.698562622070 -93.131164550781 -1.499992370605 1.835387110710 -0.789062500000 0.704307556152
51.054191589355 -73.555015563965 -97.081329345703 0.385116577148 1.218037605286 0.249256134033 1.128349304199
41.502960205078 -72.969772338867 -104.163848876953 0.646232604980 1.245414614677 0.759643554688 0.745910644531
106.929283142090 -75.231300354004 -102.784446716309 -0.742706298828 2.053951740265 -0.422248840332 -1.867835998535
-82.910125732422 -71.339340209961 -108.021247863770 -1.003662109375 1.306037902832 0.739738464355 0.388824462891
-86.375030517578 -71.572517395020 -106.778610229492 0.238975524902 2.740048646927 -2.725166320801 0.155647277832
107.596275329590 -73.967155456543 -110.197547912598 0.159667968750 0.820481538773 0.322593688965 -0.737312316895
44.260761260986 -74.543716430664 -113.578025817871 2.044456481934 2.438041687012 -1.322872161865 0.119392395020
45.465274810791 -72.935989379883 -118.885192871094 0.518714904785 1.644159674644 -1.551124572754 0.167953491211
-90.195594787598 -73.943634033203 -113.794403076172 -2.468887329102 3.293018102646 0.586692810059 2.098655700684
108.659271240234 -75.599998474121 -112.394042968750 -0.548110961914 0.797833263874 0.093849182129 -0.572105407715
111.093826293945 -70.529022216797 -116.517585754395 -0.511077880859 0.746703028679 0.517951965332 0.167602539063
41.446994781494 -75.765190124512 -121.494750976563 2.144027709961 2.272853612900 0.614662170410 0.437263488770
109.322906494141 -75.943778991699 -124.191146850586 2.124832153320 2.131448984146 -0.112701416016 0.124343872070
106.313911437988 -73.974136352539 -128.925292968750 1.802627563477 3.873677968979 -3.257026672363 -1.071304321289
26.158018112183 -72.145126342773 -132.790420532227 3.345642089844 3.546039104462 -0.978437423706 -0.650947570801
112.619575500488 -75.066467285156 -136.344894409180 -0.943389892578 1.994880080223 1.726364135742 0.330497741699
107.518959045410 -75.569709777832 -130.111541748047 -0.469940185547 3.159383773804 -3.120559692383 0.151557922363
-62.776649475098 -72.005455017090 -134.415786743164 0.756439208984 2.506983757019 -0.142894744873 -2.385864257813
-57.596584320068 -73.594390869141 -136.527587890625 1.785812377930 1.993409991264 -0.582889556885 0.666931152344
24.983686447144 -72.270881652832 -140.782714843750 -0.894058227539 1.006001591682 -0.139928817749 0.439453125000
-55.402954101563 -68.508415222168 -132.665405273438 -0.075317382813 2.578918933868 -0.551528930664 2.518127441406
-76.357681274414 -70.422050476074 -137.937438964844 -1.025054931641 2.426430225372 0.978034973145 -1.969841003418
-73.455680847168 -71.861717224121 -142.425521850586 0.684402465820 1.165080308914 0.931365966797 0.146842956543
103.587532043457 -76.409820556641 -138.827285766602 1.169815063477 5.313376426697 -4.964462280273 -1.489166259766
-57.200775146484 -73.713920593262 -144.600906372070 1.003067016602 2.040932416916 -0.195564270020 -1.766639709473
-75.162216186523 -72.141632080078 -143.582977294922 -0.307189941406 0.848668098450 -0.789031982422 -0.057449340820
-44.079265594482 -73.502723693848 -143.798324584961 -0.228866577148 0.862241983414 -0.295593261719 0.776985168457
110.788032531738 -72.570632934570 -151.785522460938 0.459304809570 1.137227773666 -0.937423706055 0.451179504395
22.812084197998 -73.282142639160 -152.085662841797 0.035919189453 1.551981091499 0.934240341187 1.238769531250
-76.980133056641 -74.028869628906 -154.421997070313 -2.404464721680 5.159164428711 -4.535530090332 0.514289855957
-53.663295745850 -74.292610168457 -155.207702636719 1.309020996094 2.765999555588 -2.123004913330 1.195854187012
-37.952602386475 -76.532608032227 -152.707580566406 0.979171752930 1.458084583282 -0.492649078369 0.961524963379
-41.072227478027 -77.418815612793 -152.556320190430 -0.962387084961 1.999906420708 0.647998809814 -1.628967285156
-72.832153320313 -75.307914733887 -156.445343017578 1.915267944336 2.540879964828 -0.776535034180 -1.478111267090
8.694735527039 -74.135627746582 -158.362426757813 0.514678955078 0.849833786488 0.487306594849 0.468887329102
-51.947818756104 -72.664474487305 -156.837921142578 0.394363403320 1.311118483543 -1.164203643799 -0.456222534180
-48.084156036377 -73.323257446289 -156.516357421875 0.692886352539 1.413152337074 -0.194561004639 -1.216163635254
28.219890594482 -74.400672912598 -160.313766479492 -1.254302978516 2.465402364731 1.109626770020 1.809326171875
-35.892749786377 -74.694503784180 -164.120758056641 1.661224365234 2.386389017105 -1.708118438721 0.132354736328
-71.315444946289 -75.594795227051 -163.425445556641 -1.096008300781 3.201812505722 -2.447334289551 -1.749549865723
105.700736999512 -74.633644104004 -159.517166137695 -0.036422729492 2.544732332230 -2.499809265137 0.474647521973
107.281524658203 -71.436897277832 -163.607284545898 -0.965362548828 1.978690505028 -0.875495910645 1.488891601563
28.256286621094 -73.934448242188 -164.172515869141 -0.371643066406 0.969526708126 -0.007225036621 0.895439147949
110.515968322754 -72.403251647949 -165.297912597656 0.973541259766 2.071417093277 0.535049438477 1.748344421387
105.848510742188 -76.158988952637 -166.228958129883 1.362747192383 2.992304563522 -0.853652954102 -2.523506164551
16.321336746216 -76.812629699707 -173.941162109375 2.497924804688 2.811088562012 -1.275545120239 0.188613891602
-29.625547409058 -70.471290588379 -171.366317749023 -0.383224487305 1.308287024498 0.450445175171 1.166984558105
-54.873584747314 -75.396118164063 -175.728179931641 0.046142578125 1.351811647415 0.972118377686 0.938217163086
108.375320434570 -75.323059082031 -176.793106079102 -0.045837402344 0.769677758217 -0.714736938477 0.281875610352
-38.743602752686 -74.638053894043 -176.689880371094 1.299728393555 1.478340506554 0.703372955322 -0.038253784180
12.515692710876 -73.547569274902 -176.147689819336 1.699523925781 4.621464252472 -4.296916007996 0.077865600586
-36.264034271240 -71.421318054199 -175.251708984375 1.372848510742 1.508567929268 -0.091545104980 -0.618614196777
-56.477024078369 -72.865119934082 -181.112731933594 -0.332687377930 1.887863397598 1.792476654053 0.490280151367
-149.930801391602 -72.122978210449 -181.712417602539 -0.415176391602 1.138898730278 0.990646362305 0.378601074219
-151.156066894531 -70.897689819336 -182.058990478516 -0.761749267578 1.791024684906 -0.234619140625 1.603889465332
105.096099853516 -76.544151306152 -178.894378662109 1.596527099609 1.880776405334 -0.900695800781 -0.420913696289
18.556772232056 -72.661964416504 -182.547378540039 -1.013427734375 2.550143003464 0.936368942261 -2.144622802734
-57.791828155518 -72.601860046387 -182.351867675781 -1.571823120117 1.807379722595 0.477672576904 0.753540039063
-51.317874908447 -76.087623596191 -191.083938598633 0.002761840820 0.516684055328 -0.259311676025 0.446891784668
-49.517951965332 -72.151992797852 -188.958511352539 -1.389205932617 2.851968526840 0.769355773926 2.368949890137
-50.306056976318 -75.929504394531 -192.158187866211 -1.071487426758 1.442355513573 0.752506256104 0.605010986328
13.642895698547 -74.414627075195 -186.731079101563 -1.311187744141 1.472860217094 -0.412081718445 0.529426574707
13.445800781250 -74.724563598633 -186.340301513672 -0.920410156250 1.125356316566 -0.609176635742 0.219490051270
103.919929504395 -74.123023986816 -192.098632812500 -0.312911987305 0.829589784145 0.394660949707 0.659202575684
-26.033077239990 -73.063247680664 -194.367599487305 -2.396423339844 2.661320447922 -0.646286010742 -0.960258483887
-46.381942749023 -74.680397033691 -195.472900390625 -1.973739624023 1.991268277168 -0.189769744873 0.182998657227
20.679397583008 -73.595527648926 -195.660446166992 1.479949951172 1.532692790031 -0.363817214966 0.162887573242
-44.586662292480 -72.871589660645 -195.530685424805 -2.031524658203 3.266810178757 1.605510711670 1.991806030273
96.711204528809 -76.612251281738 -198.153411865234 1.179443359375 1.821746826172 -1.203620910645 0.692077636719
-38.942367553711 -72.058029174805 -200.906921386719 1.665100097656 2.212306499481 -0.056972503662 1.455505371094
92.443580627441 -78.192634582520 -199.621917724609 4.876403808594 5.099871635437 -0.709320068359 -1.313865661621
17.551471710205 -73.328224182129 -201.539337158203 -0.627273559570 0.748082935810 -0.096189498901 0.396110534668
-40.174552917480 -72.477523803711 -204.357040405273 0.602172851563 1.217922091484 -0.873931884766 0.597465515137
15.404116630554 -71.903533935547 -199.341827392578 1.570236206055 3.288532972336 -2.243544578552 1.820800781250
-23.691123962402 -75.488365173340 -206.384185791016 -3.530685424805 3.727509737015 -1.171367645264 0.237670898438
-41.716083526611 -74.465133666992 -203.158126831055 0.373855590820 2.987174749374 -0.101184844971 2.961959838867
91.216995239258 -76.433029174805 -206.440887451172 -0.286590576172 2.190457582474 -1.871841430664 -1.100990295410
7.242496013641 -74.250465393066 -205.611984252930 -0.304794311523 1.816118478775 1.768756866455 -0.277282714844
87.973083496094 -71.980003356934 -215.528182983398 -0.786132812500 1.627204775810 -0.419120788574 1.361663818359
-9.338430404663 -75.959671020508 -210.358551025391 -1.045654296875 2.663838386536 -0.223769187927 -2.439788818359
-26.294279098511 -74.390434265137 -208.200775146484 3.241241455078 3.400750875473 -0.940170288086 0.418975830078
-81.496253967285 -74.061721801758 -211.366439819336 1.039916992188 1.433281660080 0.872985839844 -0.459091186523
83.068496704102 -75.604835510254 -216.612838745117 -0.183959960938 0.848300993443 -0.784545898438 -0.265068054199
-21.383817672729 -74.686958312988 -216.220245361328 -0.297103881836 1.661229491234 -0.699165344238 1.477355957031
16.426397323608 -73.132003784180 -216.136672973633 0.662017822266 1.202920913696 0.908545494080 0.428131103516
-27.870828628540 -76.775840759277 -216.763137817383 1.158538818359 1.355059981346 0.598300933838 0.368797302246
-31.744604110718 -74.023239135742 -214.474411010742 -1.891433715820 1.935866713524 0.268659591675 0.312858581543
-100.913894653320 -74.881401062012 -218.002502441406 1.965347290039 2.945599079132 -1.167869567871 -1.857429504395
-11.485409736633 -72.969718933105 -219.519470214844 -0.871841430664 2.101479291916 -0.022359848022 -1.911964416504
-23.012033462524 -74.269279479980 -220.030319213867 -0.441604614258 0.547104716301 -0.117387771606 0.300880432129
-1.209352970123 -74.443336486816 -222.997619628906 0.955749511719 1.608869910240 0.094727039337 1.290748596191
12.784294128418 -77.013870239258 -220.654098510742 -0.651855468750 1.432646393776 0.317589759827 1.235595703125
-16.251544952393 -73.709846496582 -221.306930541992 -1.191589355469 2.051342010498 -1.613761901855 -0.428825378418
-15.673140525818 -79.303955078125 -223.620330810547 -0.980514526367 2.479419469833 -0.807194709778 -2.129447937012
15.880756378174 -75.767013549805 -222.098587036133 0.317810058594 1.164534330368 -0.415124893188 1.040580749512
6.414554119110 -75.377929687500 -220.448593139648 0.189498901367 0.759611189365 -0.637382030487 0.367210388184
4.836275100708 -76.519828796387 -219.387283325195 1.250808715820 2.659665107727 -2.215661048889 -0.774688720703
-130.890792846680 -74.928451538086 -228.417938232422 1.401885986328 2.181048154831 1.460052490234 -0.812362670898
-14.491426467896 -73.886245727539 -225.920425415039 1.567794799805 1.838800907135 -0.887272834778 -0.368721008301
76.629188537598 -75.416000366211 -227.246963500977 0.408050537109 1.363095641136 -1.287178039551 0.186271667480
-18.036643981934 -75.624519348145 -226.477325439453 -0.437515258789 2.236190319061 -1.553543090820 -1.547782897949
-153.974746704102 -76.538345336914 -228.456863403320 1.113067626953 2.911175727844 -1.558883666992 2.192237854004
-130.996276855469 -74.711662292480 -231.895431518555 -2.075607299805 2.549060344696 1.354568481445 -0.595573425293
-12.499183654785 -73.309852600098 -234.326934814453 -0.799453735352 2.419483423233 -1.313151359558 -1.868263244629
75.042999267578 -77.028320312500 -226.842453002930 0.812561035156 3.309094905853 -2.873367309570 -1.426048278809
-9.254788398743 -75.575035095215 -228.845092773438 -1.921142578125 2.322767972946 -1.171085357666 -0.577079772949
-4.238901138306 -75.258491516113 -233.201568603516 -0.402572631836 1.745816946030 -0.891286134720 1.446174621582
65.033813476563 -76.547523498535 -236.051330566406 1.076873779297 3.002600669861 -1.631546020508 -2.279037475586
-0.336548000574 -75.602104187012 -239.772918701172 -2.367477416992 2.593716144562 0.433654993773 -0.966621398926
65.603309631348 -79.216812133789 -236.214096069336 -1.347091674805 5.140216350555 -3.758232116699 -3.237724304199
-155.741455078125 -72.667358398438 -243.749664306641 2.108978271484 2.235520601273 0.737030029297 -0.080932617188
61.342094421387 -72.924110412598 -237.287826538086 -0.665817260742 1.656742930412 0.252052307129 -1.495979309082
-37.548870086670 -74.080299377441 -239.156265258789 2.258819580078 2.719523906708 -1.496238708496 -0.234123229980
-39.667613983154 -73.019767761230 -240.651397705078 2.047027587891 2.857689380646 -1.248329162598 1.554908752441
11.514815330505 -75.739334106445 -237.767028808594 0.024063110352 0.902343392372 0.897994995117 -0.085144042969
-47.387844085693 -77.200653076172 -242.863357543945 -0.950988769531 0.970096588135 -0.186923980713 0.042037963867
-27.442396163940 -75.381416320801 -241.416061401367 -0.217910766602 1.252064943314 -0.484766006470 -1.133659362793
4.846567153931 -72.851585388184 -241.450775146484 0.948013305664 0.963233530521 0.028854370117 0.168098449707
-48.008560180664 -75.638153076172 -243.566848754883 -1.056259155273 2.066741704941 0.446960449219 -1.719291687012
-146.560791015625 -71.043624877930 -245.082138061523 -0.996063232422 2.475099563599 -1.087234497070 -1.987937927246
14.244213104248 -74.344360351563 -238.590682983398 0.796340942383 1.007217764854 0.204231262207 -0.581909179688
-151.904190063477 -76.966232299805 -240.534622192383 -0.125976562500 2.361878633499 -1.214508056641 -2.021774291992
-73.082710266113 -75.619224548340 -245.939544677734 0.496917724609 2.797402620316 2.145851135254 -1.724487304688
-6.708343982697 -77.560417175293 -246.644927978516 -0.611083984375 2.183537960052 -2.069688796997 -0.332870483398
-10.457204818726 -73.638900756836 -248.030426025391 0.183334350586 1.208656311035 -1.188951492310 0.116760253906
-83.684516906738 -74.521423339844 -246.805130004883 2.503204345703 3.472198724747 1.502037048340 -1.879898071289
-152.766891479492 -72.857322692871 -252.520065307617 0.121444702148 0.389037817717 -0.351425170898 0.114463806152
-149.595993041992 -78.892829895020 -251.258041381836 1.466415405273 1.789936542511 0.957000732422 -0.371009826660
-89.228042602539 -74.991744995117 -256.662963867188 -1.161636352539 2.139774084091 -1.271385192871 -1.269966125488
-164.048919677734 -74.373115539551 -258.404602050781 2.059661865234 2.152675628662 -0.463836669922 -0.420310974121
-127.357933044434 -76.913871765137 -254.584365844727 1.165344238281 2.259197711945 -0.905479431152 -1.710571289063
23.294948577881 -74.066680908203 -257.122924804688 -0.725555419922 1.256776690483 0.544795989990 -0.869628906250
-156.992218017578 -72.814193725586 -256.249176025391 -0.245483398438 2.505405902863 -2.184646606445 1.201713562012
-147.153030395508 -71.304908752441 -257.405273437500 -0.106445312500 1.357430696487 0.278442382813 1.324295043945
-165.667709350586 -73.339591979980 -258.822021484375 2.339477539063 2.374544858932 0.404144287109 0.044441223145
-137.518402099609 -70.271827697754 -259.777221679688 -2.689300537109 3.461997747421 -1.993560791016 0.882499694824
-124.764877319336 -75.065765380859 -261.554260253906 -0.160034179688 1.531067252159 -0.667655944824 -1.368499755859
-162.921539306641 -76.714042663574 -265.094146728516 -0.625305175781 2.093929529190 0.741165161133 -1.855857849121
-146.269226074219 -74.496864318848 -259.965576171875 -0.454833984375 0.854014933109 0.368484497070 -0.621841430664
-168.212951660156 -73.588851928711 -264.351776123047 -0.565582275391 2.359168291092 -1.782806396484 1.437843322754
-155.912094116211 -72.866508483887 -260.708282470703 1.323028564453 2.249999284744 0.010498046875 1.819885253906
-162.464080810547 -72.084663391113 -265.986267089844 -1.517425537109 3.381079673767 1.198623657227 2.773521423340
-169.822128295898 -73.043388366699 -261.493377685547 -0.495971679688 3.061668157578 -1.984085083008 -2.278427124023
16.723155975342 -80.765098571777 -271.573059082031 1.390838623047 1.609557151794 -0.680925369263 -0.438842773438
12.338968276978 -76.728820800781 -271.646759033203 0.798461914063 4.652579307556 0.140018463135 4.581413269043
-160.972778320313 -73.131423950195 -274.202087402344 -0.317016601563 2.014806747437 -1.495208740234 -1.312744140625
-159.804962158203 -73.968070983887 -271.839813232422 2.045257568359 2.984987020493 -0.327392578125 -2.149391174316
-168.878067016602 -70.615371704102 -278.829833984375 -0.846527099609 2.553319215775 -0.979568481445 2.200744628906
-157.131256103516 -73.738700866699 -270.958190917969 -2.283355712891 2.658666610718 -0.661361694336 1.190544128418
-153.987823486328 -71.156738281250 -271.410949707031 2.726684570313 2.832901239395 -0.308425903320 0.703842163086
-152.360290527344 -73.098075866699 -272.748474121094 1.502868652344 1.572085618973 -0.430694580078 -0.165351867676
-142.749740600586 -73.458930969238 -279.113983154297 -2.480010986328 3.275090694427 1.643951416016 -1.368644714355
-163.667205810547 -74.202575683594 -277.468292236328 -2.739318847656 3.680232048035 2.107482910156 -1.264419555664
-155.517639160156 -72.221527099609 -282.364013671875 -1.679901123047 3.107031822205 -2.125091552734 -1.521697998047
16.895183563232 -75.011428833008 -280.044769287109 -1.064819335938 1.273623228073 -0.524414062500 0.461807250977
-154.784637451172 -76.693725585938 -280.990875244141 2.034912109375 3.772607326508 -2.166137695313 -2.323692321777
-161.812866210938 -75.912979125977 -282.359405517578 3.295745849609 3.609223127365 1.452056884766 -0.236816406250
-163.627197265625 -73.634544372559 -280.900878906250 3.692810058594 4.552568435669 2.525451660156 0.843284606934
-129.184738159180 -74.029083251953 -285.716308593750 -2.072113037109 2.605529308319 1.308654785156 0.884620666504
-32.505844116211 -76.141929626465 -284.465942382813 1.759185791016 2.064846754074 -0.352989196777 1.021888732910
-45.102157592773 -74.215522766113 -282.930267333984 2.103973388672 4.387376308441 3.698368072510 1.069786071777
-69.501899719238 -73.055732727051 -287.789245605469 1.935974121094 2.650216341019 -1.398704528809 1.148597717285
-16.527336120605 -72.887931823730 -285.491394042969 3.012420654297 3.768642902374 -2.263940811157 0.050628662109
9.899162292480 -76.792007446289 -284.079742431641 -0.076812744141 0.327229559422 0.312454223633 -0.059593200684
-3.868257045746 -77.392921447754 -287.785186767578 -1.062255859375 1.104440689087 -0.037719011307 -0.299964904785
-113.045066833496 -75.947441101074 -288.525085449219 -0.996704101563 2.025258779526 -0.081672668457 -1.761131286621
-97.894256591797 -73.806907653809 -285.761413574219 0.717315673828 1.778529167175 1.555397033691 -0.478919982910
-115.130348205566 -74.855110168457 -290.612396240234 0.378295898438 2.183897018433 -1.757347106934 -1.240173339844
-104.750503540039 -75.125747680664 -287.509735107422 0.255218505859 1.545479178429 -1.353729248047 -0.700561523438
-94.285026550293 -76.773040771484 -289.471343994141 0.055847167969 2.330988168716 0.278907775879 -2.313568115234
-49.869476318359 -74.791328430176 -286.822082519531 -1.787841796875 2.140805959702 -1.068950653076 0.493980407715
-120.171943664551 -75.316833496094 -288.543579101563 0.771179199219 1.065325260162 0.665626525879 0.311676025391
-88.202972412109 -73.868690490723 -290.532653808594 1.298919677734 3.035115718842 2.712226867676 -0.410560607910
-117.781440734863 -74.401893615723 -291.964477539063 0.763885498047 1.254823088646 -0.812705993652 -0.574951171875
-136.840621948242 -75.447540283203 -290.172485351563 0.352294921875 0.703924536705 -0.597137451172 -0.121757507324
-12.697790145874 -73.891632080078 -292.000213623047 -0.955474853516 1.195489883423 -0.205811500549 -0.688407897949
10.002924919128 -76.256347656250 -292.175842285156 -1.855163574219 2.361088514328 0.125564575195 1.455108642578
-154.797821044922 -74.538032531738 -294.100616455078 -0.100524902344 0.673936367035 -0.044616699219 -0.664901733398
-159.523864746094 -77.116950988770 -309.465179443359 -1.126647949219 5.404743194580 -2.924118041992 -4.403572082520
-67.964256286621 -69.284690856934 -53.011653900146 -2.084354400635 3.273773670197 1.667045593262 1.895790100098
-62.466674804688 -70.549957275391 -51.783058166504 -2.076293945313 2.377758026123 0.055397033691 1.157440185547
-56.984294891357 -74.716049194336 -55.853435516357 -0.905117034912 1.162271738052 -0.712726593018 0.153816223145
-76.103614807129 -71.409469604492 -53.677619934082 -2.756305694580 3.192561864853 -1.572105407715 0.351730346680
-44.372413635254 -75.228111267090 -55.937946319580 -3.484500885010 3.770538806915 -0.807861328125 -1.192718505859
-80.595893859863 -71.516860961914 -56.882087707520 0.783927917480 1.586093544960 -1.063140869141 0.877998352051
-83.863082885742 -71.201744079590 -61.318260192871 -3.396434783936 4.056272983551 2.217315673828 -0.033035278320
-20.853176116943 -74.065742492676 -70.313163757324 -2.000946044922 2.805452585220 -0.411964416504 1.922775268555
-19.941894531250 -73.907890319824 -70.781913757324 -1.392066955566 2.628604650497 -2.210157394409 0.294815063477
72.680084228516 -73.362281799316 -73.240768432617 0.037986755371 2.734486341476 -2.713104248047 0.339172363281
-39.138908386230 -71.570182800293 -78.810234069824 0.460617065430 1.965689420700 1.881542205811 0.334014892578
-37.657703399658 -73.021347045898 -74.641998291016 -0.405105590820 0.634451210499 -0.205562591553 0.442901611328
66.508720397949 -69.847740173340 -79.003143310547 -1.161315917969 1.675671696663 0.077552795410 -1.205490112305
95.765388488770 -75.851188659668 -84.889976501465 0.177444458008 0.760044813156 0.694564819336 -0.252510070801
-57.572380065918 -71.647293090820 -90.864524841309 -0.771514892578 2.040201187134 -1.635955810547 -0.943840026855
57.836009979248 -73.647315979004 -94.582450866699 1.813796997070 1.844185829163 -0.288101196289 -0.167808532715
45.773403167725 -71.254646301270 -94.101081848145 0.145431518555 1.341161370277 -0.713069915771 -1.126541137695
47.300838470459 -72.555610656738 -97.035156250000 0.569892883301 1.197655320168 0.209457397461 -1.032341003418
38.037021636963 -71.378913879395 -99.635292053223 2.230018615723 4.716014862061 -4.048355102539 -0.937355041504
106.896484375000 -73.949409484863 -96.467399597168 1.352066040039 2.601835012436 0.026191711426 -2.222785949707
57.423198699951 -70.277183532715 -91.256744384766 1.093788146973 1.936126112938 -0.422874450684 1.540580749512
-98.159049987793 -72.961585998535 -100.646705627441 1.651473999023 5.656538963318 -0.612167358398 -5.375343322754
-77.186424255371 -68.893066406250 -100.369010925293 -1.050643920898 1.895786404610 1.572059631348 -0.137046813965
54.267002105713 -71.614097595215 -97.870712280273 -0.326980590820 1.458658218384 -1.005466461182 1.004890441895
41.491420745850 -69.152908325195 -101.306625366211 0.558685302734 1.524969935417 -0.593955993652 1.288650512695
40.673946380615 -71.088409423828 -103.676750183105 0.425048828125 0.466865688562 0.174861907959 0.081977844238
-95.865798950195 -71.179527282715 -111.425399780273 -2.462448120117 2.943906545639 -0.530097961426 1.523788452148
34.493980407715 -71.897438049316 -108.086616516113 2.094787597656 3.661746025085 -1.922332763672 2.307571411133
49.663986206055 -71.490653991699 -110.892547607422 -1.733772277832 1.797387719154 0.211994171143 -0.423904418945
41.278152465820 -73.274719238281 -116.659530639648 -1.396949768066 2.566004037857 -1.346664428711 -1.679107666016
43.880134582520 -71.534622192383 -121.053802490234 0.455398559570 2.007776498795 1.533969879150 -1.212730407715
113.107566833496 -72.462486267090 -126.836875915527 -0.499069213867 0.789463579655 -0.233779907227 0.565269470215
-58.119335174561 -71.424232482910 -129.856735229492 -0.064025878906 1.100359201431 0.949356079102 -0.552642822266
36.146572113037 -74.458160400391 -134.457244873047 2.757675170898 2.991743803024 0.993793487549 -0.598442077637
35.484462738037 -73.195266723633 -133.449569702148 -2.158660888672 2.394286394119 -0.550582885742 -0.877296447754
111.984512329102 -75.081871032715 -136.691040039063 -1.289535522461 1.718465566635 1.091300964355 0.315093994141
-76.084884643555 -70.707122802734 -132.121444702148 -1.416610717773 1.529963850975 -0.570350646973 0.093292236328
-57.594482421875 -72.377891540527 -137.863311767578 0.061431884766 1.559580087662 0.074035644531 -1.556610107422
117.585540771484 -72.237007141113 -135.087997436523 0.992950439453 1.080549955368 0.093147277832 -0.415885925293
-75.356109619141 -71.995719909668 -139.129486083984 0.045700073242 0.515043199062 0.317543029785 0.402923583984
-50.614727020264 -71.127288818359 -143.785278320313 -0.032562255859 2.468304872513 -1.523410797119 -1.941825866699
-62.857864379883 -69.138511657715 -142.652420043945 -0.309463500977 3.531310558319 -3.485736846924 0.473312377930
106.892883300781 -73.275825500488 -137.904495239258 -0.032928466797 1.740559697151 -1.184799194336 -1.274642944336
19.651153564453 -76.078216552734 -148.357467651367 -1.115814208984 2.682392597198 -2.379770278931 0.535614013672
29.147722244263 -72.449676513672 -144.647918701172 0.671813964844 2.848804235458 0.194120407104 -2.761642456055
-45.638198852539 -71.780899047852 -150.425247192383 -0.161941528320 2.249987840652 -1.643306732178 1.528320312500
-67.809814453125 -71.835510253906 -151.172576904297 0.948501586914 1.758677244186 0.138320922852 -1.474502563477
22.889989852905 -76.290451049805 -149.395523071289 2.007537841797 2.282818078995 -0.414688110352 -1.004531860352
-74.676826477051 -71.637641906738 -150.630523681641 -0.828155517578 1.717558145523 -1.176063537598 -0.938636779785
29.257375717163 -73.841430664063 -147.833190917969 0.484786987305 2.946455478668 1.900402069092 -2.198875427246
-38.635150909424 -72.729225158691 -154.409973144531 -1.089782714844 1.247440099716 -0.539928436279 -0.277412414551
21.644069671631 -73.244079589844 -151.488937377930 0.632644653320 1.444019079208 -0.233774185181 1.276832580566
8.257917404175 -74.156509399414 -153.862091064453 0.339447021484 1.157503724098 -1.040569305420 -0.376571655273
-73.055107116699 -72.186218261719 -159.977661132813 -1.617050170898 2.513006448746 -0.999488830566 1.643585205078
-50.881061553955 -75.753265380859 -156.363372802734 0.153350830078 0.726786971092 0.659229278564 -0.264801025391
-62.723091125488 -74.363449096680 -157.464187622070 1.857757568359 2.071021795273 0.600109100342 -0.691184997559
-51.649078369141 -73.779617309570 -157.347839355469 -0.115554809570 1.797656416893 -0.865463256836 -1.571365356445
3.384712934494 -73.576232910156 -159.817199707031 -0.720672607422 1.197918653488 -0.900808095932 -0.322776794434
-36.161434173584 -73.995269775391 -165.986877441406 -0.455963134766 2.030636310577 -1.755481719971 -0.913162231445
-44.039211273193 -74.727691650391 -164.346359252930 -0.659500122070 0.932840943336 0.650890350342 -0.107673645020
18.666095733643 -72.761573791504 -165.288177490234 0.170562744141 0.909149348736 0.419160842896 -0.788520812988
-43.597110748291 -75.124481201172 -166.237731933594 0.275421142578 0.980509877205 0.822040557861 -0.458030700684
24.406347274780 -72.046188354492 -165.089584350586 0.642883300781 2.654601335526 0.320768356323 -2.555526733398
114.150711059570 -71.676345825195 -164.482437133789 -0.742462158203 1.655970692635 1.061584472656 1.031517028809
-33.772697448730 -73.698425292969 -170.256546020508 3.241287231445 3.969519138336 0.188529968262 -2.283767700195
25.885299682617 -76.003608703613 -170.265518188477 1.026214599609 1.767285346985 -1.339550018311 0.525154113770
-68.345703125000 -73.207504272461 -169.063568115234 1.762298583984 3.748113393784 -3.306831359863 0.086746215820
-60.824562072754 -71.604751586914 -169.389266967773 -1.332473754883 1.546599626541 0.652194976807 -0.437179565430
-44.682006835938 -69.974311828613 -169.581817626953 -1.518310546875 3.451550722122 -2.830127716064 1.264244079590
-63.034500122070 -73.848670959473 -173.760055541992 0.484664916992 1.676508665085 -0.878345489502 1.343238830566
106.639030456543 -74.691696166992 -173.406753540039 -0.521606445313 0.747863769531 0.304450988770 0.441062927246
-149.573242187500 -71.004791259766 -174.581665039063 1.388229370117 2.144782781601 1.536697387695 0.558097839355
-146.163131713867 -73.132850646973 -176.131988525391 0.212982177734 0.949475169182 -0.110198974609 -0.918693542480
-59.157714843750 -72.450355529785 -176.009719848633 -0.058929443359 0.817450881004 0.003784179688 0.815315246582
102.847000122070 -74.654090881348 -175.028961181641 0.728759765625 2.900541782379 -2.785957336426 -0.347122192383
107.265121459961 -73.277145385742 -175.979766845703 -0.222045898438 1.942627072334 1.632164001465 1.029823303223
105.174713134766 -73.063285827637 -179.118865966797 -0.585617065430 2.013917446136 -1.926574707031 0.035011291504
22.023105621338 -75.279876708984 -185.746505737305 1.509231567383 2.302319526672 -0.430820465088 -1.684425354004
-37.346607208252 -74.453010559082 -179.317779541016 -1.328170776367 2.489403963089 2.100368499756 0.146789550781
-140.140686035156 -71.746055603027 -183.596878051758 -2.444671630859 3.040192604065 1.788253784180 0.261726379395
105.076904296875 -72.529335021973 -182.013153076172 -0.098129272461 1.121673822403 -1.047386169434 0.389236450195
19.453161239624 -73.204452514648 -192.451309204102 1.775527954102 3.915314435959 -1.834844589233 -2.968254089355
103.965370178223 -72.821693420410 -191.380325317383 -0.490356445313 0.831951677799 0.180053710938 -0.647514343262
101.793769836426 -69.974769592285 -191.621902465820 -0.731933593750 3.056041002274 -1.991546630859 2.199409484863
7.785045146942 -80.394798278809 -195.174468994141 3.139526367188 5.761834144592 -4.106864452362 -2.544754028320
-133.075057983398 -72.555625915527 -196.191696166992 -0.605270385742 0.623422801495 -0.149261474609 -0.004974365234
-125.559028625488 -70.045753479004 -196.045166015625 -1.552093505859 2.215401411057 -1.217803955078 -1.007949829102
-147.057876586914 -76.926521301270 -199.401809692383 -1.121810913086 1.698207855225 1.265869140625 -0.151741027832
-133.445220947266 -71.717552185059 -198.705047607422 -0.717803955078 0.746067821980 -0.125427246094 0.160133361816
-124.262069702148 -73.320999145508 -199.951766967773 1.332687377930 1.408168554306 0.187637329102 -0.414337158203
-23.587650299072 -74.919532775879 -201.067642211914 -0.585159301758 1.791720509529 1.691108703613 -0.089454650879
-26.617143630981 -74.656555175781 -200.640579223633 -0.158096313477 1.358814954758 -1.338384628296 0.173522949219
-131.865341186523 -73.311965942383 -199.397079467773 0.471054077148 0.854004442692 -0.652816772461 -0.285064697266
-142.784622192383 -73.673202514648 -200.721237182617 -0.294540405273 2.098386526108 -1.493499755859 1.444274902344
-14.853586196899 -73.834037780762 -208.769699096680 2.335464477539 3.482195854187 1.440631866455 2.143798828125
94.402091979980 -73.895507812500 -199.079956054688 0.890670776367 0.989551901817 -0.296188354492 -0.313354492188
-22.053312301636 -75.339797973633 -202.514282226563 0.339218139648 0.694131731987 0.466444015503 0.386238098145
87.245712280273 -71.203598022461 -208.631195068359 2.472030639648 2.782401561737 -0.839118957520 0.962654113770
15.583807945251 -73.182533264160 -206.223312377930 1.257125854492 2.875427722931 -0.362487792969 -2.560531616211
-7.809013843536 -73.597152709961 -212.567184448242 -0.513977050781 1.426335811615 -0.356970787048 1.281730651855
16.266256332397 -74.591354370117 -208.572250366211 0.246658325195 2.079434156418 -1.767391204834 1.067489624023
-32.508358001709 -71.439201354980 -207.747131347656 1.216018676758 2.543419122696 -0.843227386475 2.068634033203
-86.801223754883 -75.491523742676 -214.269775390625 -0.371765136719 1.630473732948 1.276367187500 -0.943992614746
-94.619987487793 -75.060035705566 -214.423477172852 -0.580047607422 1.113484144211 -0.607337951660 0.731117248535
-14.197596549988 -76.609825134277 -215.998519897461 0.640335083008 1.934778332710 -1.768651008606 0.453002929688
-96.620780944824 -73.215744018555 -215.081176757813 1.430740356445 2.253864526749 -1.436614990234 -0.984390258789
-97.942886352539 -72.381378173828 -216.044845581055 0.754348754883 0.786990404129 0.155738830566 0.161422729492
82.676963806152 -72.618179321289 -218.087936401367 -0.444137573242 2.351929664612 1.212219238281 -1.965919494629
-26.121170043945 -75.371170043945 -221.430816650391 0.939605712891 2.176397800446 1.344930648804 1.430038452148
-24.387529373169 -70.634277343750 -223.265487670898 0.045333862305 1.038228750229 -0.792463302612 0.669227600098
-25.043924331665 -73.151000976563 -218.455963134766 0.221206665039 1.535707712173 1.402898788452 -0.584243774414
-21.129955291748 -73.002700805664 -221.690246582031 -1.172241210938 1.773190855980 -1.326480865479 -0.102493286133
-20.601135253906 -73.185638427734 -220.412155151367 0.105850219727 0.853778600693 -0.797660827637 -0.285430908203
12.855684280396 -74.858428955078 -220.659332275391 2.013336181641 3.274864673615 -1.559364318848 -2.059028625488
-141.029022216797 -72.525581359863 -226.209426879883 -1.270996093750 1.677846550941 -0.799209594727 0.749000549316
74.614379882813 -74.963966369629 -223.281860351563 0.876907348633 3.657939195633 -3.081222534180 -1.765678405762
-5.927997112274 -75.289237976074 -227.546371459961 -0.622421264648 2.262591838837 2.155705928802 -0.291282653809
8.303383827209 -76.596168518066 -231.267135620117 1.438232421875 2.293272733688 0.219695091248 -1.772659301758
77.627761840820 -73.975418090820 -227.718841552734 -0.063827514648 1.653487324715 -0.288604736328 1.626853942871
-126.235061645508 -74.105979919434 -229.470947265625 0.902038574219 2.240684747696 2.007553100586 0.420387268066
-162.251739501953 -72.542297363281 -234.282836914063 0.613952636719 1.645408868790 -0.280807495117 1.500526428223
-137.795684814453 -74.295524597168 -230.426757812500 0.928298950195 1.973280191422 0.711334228516 -1.589370727539
12.471509933472 -76.593635559082 -229.039642333984 0.580810546875 2.767360210419 -1.285928726196 2.380615234375
5.837220191956 -73.567481994629 -229.508621215820 0.850219726563 1.220096230507 0.872556209564 -0.066383361816
-127.274169921875 -75.055503845215 -231.839904785156 0.438018798828 1.813058257103 -1.705352783203 0.432540893555
-3.534142017365 -76.432952880859 -235.271041870117 -2.472045898438 2.493918895721 -0.186527013779 0.271713256836
-149.003250122070 -71.566535949707 -234.956665039063 0.750900268555 2.977729082108 2.792098999023 0.712181091309
-5.578527927399 -78.629920959473 -233.088027954102 -0.829650878906 1.821232914925 -1.469645977020 0.684623718262
8.911787986755 -73.354057312012 -234.674697875977 -1.969329833984 2.592932224274 0.828099250793 1.469451904297
-5.049933910370 -73.894264221191 -234.630889892578 0.341491699219 1.713554263115 1.650291919708 0.310142517090
-5.335029125214 -76.214538574219 -240.905395507813 0.036285400391 2.937001705170 1.425054073334 -2.567855834961
5.080111980438 -77.533653259277 -236.393081665039 0.463592529297 0.807235538960 0.130994796753 0.647727966309
-164.031158447266 -75.585479736328 -240.057708740234 1.077331542969 2.868612766266 2.285095214844 -1.358909606934
-157.941146850586 -74.236236572266 -237.254943847656 2.293609619141 2.296866655350 -0.114974975586 -0.041618347168
17.571367263794 -72.991020202637 -240.525543212891 -0.479690551758 0.808424472809 0.243759155273 -0.603347778320
-4.357334136963 -76.050559997559 -237.822814941406 -0.047668457031 2.736279964447 -2.607746124268 0.827415466309
63.579261779785 -75.578208923340 -240.135986328125 0.878463745117 1.033739209175 0.537719726563 -0.088180541992
60.212188720703 -73.116683959961 -238.385803222656 2.106506347656 2.287599325180 -0.641555786133 -0.619796752930
-166.728393554688 -71.809333801270 -242.781585693359 0.752426147461 2.186830997467 -0.692382812500 -1.933052062988
-162.345779418945 -70.792373657227 -244.480224609375 0.850280761719 2.095064401627 -1.054702758789 -1.598098754883
-153.456497192383 -73.141700744629 -241.034866333008 -0.626220703125 3.361153364182 -2.766815185547 1.802757263184
-58.715824127197 -73.142196655273 -240.836807250977 3.703628540039 4.405564785004 1.636634826660 1.735961914063
-9.226406097412 -71.417121887207 -242.224365234375 -0.883346557617 1.254012227058 0.815356254578 -0.356986999512
-54.983421325684 -75.303245544434 -241.687561035156 0.877456665039 1.338072896004 -0.682235717773 -0.745025634766
-155.799423217773 -75.863189697266 -248.433944702148 0.429092407227 2.988279104233 -1.282974243164 -2.664520263672
-60.282840728760 -71.588592529297 -243.876190185547 0.614227294922 2.726303577423 1.643688201904 2.086563110352
14.842945098877 -70.446006774902 -245.447082519531 -1.134475708008 2.307675123215 1.976978302002 -0.360397338867
-11.746492385864 -74.832206726074 -245.098129272461 -1.531143188477 2.451051712036 -0.703867912292 -1.779838562012
-9.655652999878 -73.257392883301 -249.899459838867 -1.685699462891 1.799981236458 -0.387399673462 0.498268127441
-161.216659545898 -71.950096130371 -248.358261108398 -1.097259521484 2.000187635422 1.110763549805 1.250190734863
-166.665084838867 -72.597381591797 -249.255676269531 -0.992355346680 1.305870652199 -0.710998535156 -0.463691711426
-86.576377868652 -72.087257385254 -245.760147094727 3.548187255859 3.850773572922 -1.389823913574 0.554267883301
-165.743408203125 -73.949424743652 -251.268829345703 -1.324401855469 1.577594637871 0.553588867188 0.654449462891
-148.487350463867 -73.958442687988 -253.102859497070 -0.757720947266 1.795906901360 1.618316650391 0.179420471191
-75.697578430176 -72.741561889648 -252.223327636719 0.461837768555 1.283317327499 -0.576110839844 1.049621582031
-97.381362915039 -73.116157531738 -255.676666259766 -0.548492431641 1.154827117920 -0.864151000977 0.534812927246
-87.807762145996 -74.034736633301 -251.548019409180 0.835342407227 1.773020505905 -0.315048217773 1.531845092773
-136.295745849609 -74.166053771973 -256.195343017578 -1.002777099609 1.229773283005 -0.033309936523 -0.711105346680
20.041088104248 -74.498458862305 -253.211013793945 -2.023574829102 2.544167757034 -0.735351562500 -1.355430603027
-99.435371398926 -70.911361694336 -256.215698242188 -1.331848144531 1.823687553406 -0.884727478027 0.877082824707
-102.845680236816 -70.857635498047 -258.995178222656 1.400360107422 1.884116768837 -1.230247497559 -0.274551391602
-104.497085571289 -69.687477111816 -258.010192871094 -2.526016235352 3.099816083908 -0.864044189453 1.575286865234
-116.705940246582 -73.933944702148 -258.948638916016 -0.806152343750 2.104188203812 -1.941413879395 -0.092941284180
-110.961463928223 -74.248077392578 -260.065765380859 0.094787597656 0.681419730186 0.058387756348 -0.672264099121
-117.542785644531 -74.088851928711 -260.183410644531 1.530944824219 2.416435956955 1.347259521484 -1.296249389648
-146.223373413086 -75.505676269531 -263.647796630859 0.245758056641 2.653452396393 -1.689773559570 -2.031028747559
-132.452545166016 -73.081146240234 -262.018249511719 0.550262451172 1.875741243362 -0.100189208984 1.790412902832
-154.225509643555 -71.233345031738 -262.865020751953 -0.837463378906 1.622724413872 0.487823486328 -1.301506042480
-148.329330444336 -73.690971374512 -269.878204345703 -1.196533203125 2.961216449738 2.673797607422 0.433494567871
-168.140274047852 -73.634208679199 -274.981109619141 2.229095458984 2.410354137421 -0.664550781250 0.631912231445
-11.494921684265 -75.903060913086 -277.047424316406 -0.961486816406 1.257120132446 0.737599372864 -0.334426879883
-130.610763549805 -75.335021972656 -282.971191406250 0.673004150391 0.802632749081 -0.117370605469 -0.421318054199
-140.583221435547 -75.090805053711 -285.482513427734 1.272338867188 2.163692951202 1.693511962891 0.441291809082
-45.954673767090 -73.886108398438 -286.609466552734 2.533721923828 3.303671360016 0.963218688965 1.888572692871
-89.609458923340 -73.370895385742 -287.385711669922 -0.173004150391 1.313746571541 -1.037704467773 0.786872863770
-29.481428146362 -75.708290100098 -287.687347412109 -0.902923583984 2.164249181747 -1.947118759155 -0.278266906738
-35.065036773682 -73.337821960449 -288.291839599609 -0.089843750000 2.432480096817 2.212360382080 -1.007148742676
-119.225753784180 -76.375900268555 -284.386901855469 2.515594482422 3.061653375626 -1.741828918457 0.107414245605
-20.021482467651 -74.954597473145 -286.996002197266 2.189270019531 3.646965026855 -0.228086471558 2.907821655273
12.305986404419 -74.254379272461 -288.659759521484 -0.352813720703 1.878608703613 -1.824665069580 -0.274391174316
-54.564655303955 -74.004730224609 -286.083374023438 0.118774414063 0.857149183750 -0.617713928223 -0.582260131836
-119.093078613281 -73.332679748535 -292.162048339844 -0.364257812500 1.523735642433 1.457702636719 0.253356933594
-79.545555114746 -71.247619628906 -289.097595214844 -0.957427978516 1.773733615875 0.693916320801 -1.322097778320
-71.327079772949 -71.340705871582 -289.399169921875 1.171356201172 1.420529007912 0.503082275391 0.626686096191
-32.168109893799 -75.032165527344 -288.931091308594 -0.689392089844 2.439042806625 1.423019409180 1.857063293457
-102.070579528809 -73.682960510254 -289.279510498047 1.488128662109 1.501974940300 -0.115882873535 0.167251586914
-114.433883666992 -73.593444824219 -290.475677490234 0.515014648438 1.179480314255 -1.060882568359 0.021492004395
-12.313890457153 -72.379211425781 -294.625183105469 -1.620117187500 3.064328908920 2.457401275635 0.852355957031
-163.367309570313 -71.145439147949 -291.065795898438 0.748199462891 0.984479606152 0.614898681641 -0.176910400391
-153.082260131836 -75.791954040527 -299.439697265625 -0.788635253906 1.972380638123 -1.806549072266 -0.068702697754
-153.858428955078 -74.630416870117 -312.678039550781 -2.071472167969 2.216579198837 0.757125854492 0.221328735352
28.218700408936 -72.188255310059 -15.025939941406 0.016706466675 1.303223729134 -0.892299652100 -0.949691772461
23.279441833496 -72.938896179199 -16.169506072998 0.521268844604 1.849323749542 -1.563371658325 -0.839134216309
24.571939468384 -69.836441040039 -19.680648803711 0.172826766968 3.633757591248 3.621639251709 0.240943908691
19.843406677246 -68.844444274902 -24.718471527100 1.208379745483 1.333763360977 -0.027797698975 0.563888549805
21.926971435547 -72.035957336426 -31.462793350220 -0.042619705200 0.572264373302 -0.562580108643 -0.095779418945
29.804355621338 -69.017875671387 -37.020069122314 -2.087818145752 2.721584796906 -0.439069747925 1.689750671387
21.287073135376 -72.966636657715 -39.488677978516 -1.184856414795 3.883080959320 -3.149127960205 -1.938407897949
-58.310714721680 -70.656318664551 -50.146595001221 -0.727882385254 2.104179143906 -1.255615234375 -1.523544311523
-33.236621856689 -66.010536193848 -51.360328674316 0.324291229248 3.798599481583 -3.117986679077 2.145309448242
83.749847412109 -68.925170898438 -67.514297485352 -1.505920410156 3.102190971375 -2.619537353516 0.702720642090
-92.659553527832 -70.769752502441 -71.936996459961 -0.562164306641 2.096778154373 -1.714073181152 1.068832397461
69.674308776855 -71.854759216309 -73.617515563965 0.091384887695 1.616147875786 -1.312004089355 -0.939270019531
-40.990821838379 -74.369453430176 -79.274200439453 -0.431373596191 2.146280527115 -2.001361846924 -0.644195556641
-95.779426574707 -69.688690185547 -81.594055175781 -0.791542053223 1.009159684181 -0.335266113281 0.528640747070
-50.534095764160 -74.254211425781 -80.900688171387 4.240295410156 4.784886360168 -0.932220458984 -2.011466979980
99.129341125488 -73.249130249023 -87.090812683105 0.932334899902 1.161508560181 -0.656433105469 -0.221244812012
-95.628326416016 -70.976585388184 -90.794868469238 -0.172889709473 0.870564997196 -0.538467407227 0.661849975586
65.482643127441 -71.733299255371 -90.711883544922 -1.815338134766 2.840864181519 1.181266784668 -1.838386535645
-98.759193420410 -68.678436279297 -90.758590698242 -0.369094848633 2.625872135162 -2.562942504883 -0.436233520508
