# This PCD file was generated using the MATLAB® pcwrite function
# from Computer Vision Toolbox®.
# .PCD v.7 - Point Cloud Data file format
VERSION .7
FIELDS x y z
SIZE 4 4 4
TYPE F F F
COUNT 1 1 1
WIDTH 1425
HEIGHT 1
VIEWPOINT 0 0 0 1 0 0 0
POINTS 1425
DATA ascii
66.012924 -67.096573 -240.301346
16.305738 -51.229095 -242.876450
8.886503 -74.685837 -230.702484
99.864258 -70.627609 -200.160309
-146.816895 -83.249580 -195.404327
-53.135841 -71.033440 -290.304626
-69.870750 -70.471741 -142.826874
-146.965057 -62.442719 -227.064270
-106.528702 -68.278465 -168.709854
102.203842 -44.300186 -82.012352
39.403622 -70.545891 -17.464117
-148.130478 -64.282906 -294.705750
-62.717354 -74.691452 -159.356598
-34.215958 -75.527168 -289.278137
-56.671871 -80.806953 -178.352325
20.895599 -76.313484 -192.780106
105.521645 -70.776184 -190.310532
-146.712921 -64.137482 -182.080414
-124.097122 -63.251350 -198.135849
-30.045736 -74.015236 -217.272903
108.023376 -69.473595 -100.762512
1.385177 -78.582016 -235.407516
-63.555859 -54.934368 -113.413597
-71.566315 -72.503716 -147.531311
86.556480 -69.815933 -217.272934
-83.451462 -81.624954 -108.494370
-15.511725 -67.012222 -57.596294
58.873062 -70.850441 -96.778053
115.796257 -71.374512 -126.680428
-41.940365 -80.395462 -240.630249
-45.634937 -47.343624 -48.986053
-94.338440 -66.919655 -219.961945
4.690604 -70.685188 -227.614410
4.946171 -51.053299 -241.016541
-152.883652 -69.699051 -179.706177
50.329418 -63.784317 -94.559814
-2.137017 -51.878536 -284.413818
-81.480492 -70.242706 -111.568848
-142.076767 -80.115593 -262.558685
-109.921165 -71.848206 -261.846497
11.228669 -77.986061 -208.046921
27.785336 -70.593224 -149.632690
-83.876961 -24.357037 -60.910336
24.005495 -54.586212 -277.482391
3.559669 -77.592705 -246.805756
-160.128296 -70.730377 -281.538940
-15.164422 -70.929276 -251.760910
-65.940666 -30.941647 -101.604042
21.447462 -50.263149 -286.096161
-32.974819 -77.086143 -179.831100
18.460114 -53.817337 -279.319885
94.959923 -72.540031 -73.136032
88.274094 -47.480446 -62.138954
22.361050 -74.621323 -152.848892
-12.401889 -51.269073 -260.929443
-67.246101 -70.859848 -248.934265
-71.891869 -83.975533 -82.949585
-142.757141 -70.229477 -226.644653
-82.942085 -81.015198 -81.907097
-59.823811 -82.101166 -72.131546
-34.060944 -71.766335 -206.303406
-78.973450 -62.459202 -121.045563
-135.435410 -70.599052 -261.809082
27.536818 -49.948132 -270.154907
-136.178848 -77.021072 -196.045486
-5.005624 -49.807224 -253.166489
71.824257 -45.200417 -63.059841
109.428558 -71.655960 -112.788994
85.167656 -77.404007 -216.392029
-18.503246 -79.376579 -175.999878
-149.727890 -62.165730 -235.554840
-163.582062 -72.692146 -210.966095
-76.497742 -15.978106 -75.347878
-75.186523 -43.699726 -102.613739
-66.142578 -62.249313 -93.351082
-54.501125 -39.948250 -65.182106
-91.273415 -71.035843 -119.661247
-149.902100 -77.534248 -217.045486
-149.852112 -86.148323 -293.209930
-50.943798 -75.887688 -246.867996
-67.417542 -77.466965 -159.187531
-102.185364 -69.893440 -164.815659
61.151642 -66.634209 -246.205032
101.438622 -42.416084 -80.444511
97.267258 -43.057053 -58.327488
61.412636 -54.437401 -98.615349
-70.375107 -17.674263 -79.856781
-31.266335 -66.857498 -47.946980
-67.264587 -78.746277 -208.611832
-83.312584 -44.478363 -108.613060
-146.471527 -60.860317 -223.785782
-14.938090 -79.760841 -179.346725
-47.242722 -79.473221 -85.635628
-149.401825 -84.089966 -261.741272
-152.332321 -67.110130 -288.807098
89.557922 -74.318481 -216.758194
-9.692327 -79.593765 -169.672394
28.927414 -70.160286 -132.612381
-56.712471 -63.980377 -137.025253
27.694899 -51.577461 -246.420044
-92.452812 -66.785194 -122.908081
-159.434784 -67.437088 -220.134888
24.728224 -52.382195 -271.116119
4.646709 -52.967720 -240.588242
-139.292236 -81.102943 -199.648956
-144.833862 -84.907768 -260.279541
-56.118610 -60.214756 -135.160950
-108.313957 -70.273964 -193.874847
20.228428 -52.623394 -271.803284
7.082448 -72.402206 -153.695282
68.236649 -46.619617 -69.175964
111.265022 -73.028992 -132.414627
115.784172 -70.749763 -158.236130
-50.887180 -66.994888 -134.975922
2.221289 -77.786522 -230.835022
78.099762 -76.899544 -82.899170
15.757372 -67.760216 -196.662125
15.507972 -71.986809 -217.590240
-10.124896 -71.634781 -277.286285
-39.069347 -75.309532 -203.912247
23.952026 -75.365540 -260.654022
6.538542 -72.954178 -227.357239
26.023499 -67.305611 -151.889099
50.492573 -59.527107 -32.635242
0.820971 -75.752014 -288.761047
-140.697281 -63.648472 -198.021088
-118.109810 -69.174271 -292.293182
-64.037781 -61.062691 -126.793892
27.080774 -69.401253 -141.455811
-165.433365 -68.886871 -244.186584
97.209091 -74.501289 -212.078445
18.026703 -76.723206 -190.473633
38.357243 -51.652855 -17.901207
24.068048 -71.809998 -24.487135
-56.004654 -68.667526 -89.064545
-94.960022 -28.530270 -67.335075
45.045101 -60.921314 -113.659058
37.419033 -68.755447 -119.985847
110.391510 -74.699287 -172.980225
90.908546 -74.232704 -218.803711
-76.529999 -22.897539 -97.764053
7.006897 -73.472099 -293.672455
80.669212 -45.454941 -98.701569
-7.143116 -77.780525 -215.610092
-6.730799 -69.596321 -224.747620
22.115633 -52.342113 -249.570251
-152.827515 -74.901367 -290.221802
-22.764149 -66.867828 -194.067780
108.373604 -70.898148 -140.822006
-109.778519 -64.836662 -186.723969
-73.739197 -65.766914 -100.729630
28.509905 -76.934669 -162.621063
-60.027626 -45.949780 -54.954121
-48.407486 -67.435349 -148.151657
-126.197495 -73.888756 -226.829727
-9.786722 -49.147949 -245.370605
-55.163879 -78.171440 -173.410278
-20.304171 -77.952896 -197.442200
-50.988098 -82.197372 -73.689728
81.386368 -48.793343 -59.939335
-27.912239 -80.844078 -241.178345
14.935280 -75.825165 -219.295029
2.694680 -71.713226 -161.690186
-136.860733 -85.581642 -290.398590
-3.553039 -52.212559 -235.585129
-17.740210 -56.716640 -260.688538
-81.231903 -44.013084 -45.593296
-80.958656 -58.705063 -121.546837
-40.078350 -81.768341 -200.533615
96.920021 -73.094482 -76.349670
-10.759543 -71.663773 -232.812424
31.215570 -67.003952 -17.601522
-50.520687 -37.006226 -59.899818
-36.079567 -74.659042 -240.330475
56.772289 -71.869278 -96.183594
-47.899937 -84.386307 -81.845627
33.823845 -57.573315 -127.651070
33.471428 -60.000523 -11.538601
68.120842 -58.527466 -102.779610
-76.435020 -88.595963 -101.037346
-146.518997 -82.455017 -297.684204
-29.408300 -78.976852 -79.896889
-9.941424 -66.888290 -241.796295
-131.806274 -73.304367 -203.190491
-105.692383 -72.950211 -287.632416
-75.717621 -85.557632 -94.918129
-35.263641 -76.644341 -163.641647
93.608841 -54.275112 -89.706421
-93.193314 -25.302872 -70.312935
48.573437 -62.881908 -27.394285
22.918608 -69.840851 -193.622391
-146.646606 -61.756481 -259.005493
-164.874527 -75.584473 -276.630035
-55.452118 -58.455963 -119.721497
-140.193634 -71.964676 -203.616745
37.336246 -63.344906 -257.927338
-139.289505 -81.131348 -226.216934
-96.559441 -57.252197 -58.891109
-145.786530 -63.271427 -263.029968
-11.873690 -55.728737 -270.934784
-148.786163 -66.209007 -200.688980
-3.574547 -76.484268 -280.389832
63.558605 -57.839806 -80.440567
-153.509521 -61.143497 -196.187241
20.358416 -72.867363 -161.275284
-99.801231 -68.978508 -225.622437
-68.526253 -73.422241 -251.284134
-100.457756 -49.585026 -102.434906
-165.365585 -71.164581 -201.229874
-51.240841 -65.806702 -140.600845
98.098351 -47.192310 -61.401043
-78.132759 -70.126419 -125.687691
-62.483150 -75.093170 -160.635651
-92.414986 -68.402206 -65.282127
47.255905 -67.333206 -248.000061
-84.532288 -56.141739 -117.765274
29.423937 -52.393597 -248.977036
101.521103 -63.276524 -101.185364
94.125244 -55.519779 -94.436134
31.377024 -69.874245 -41.006504
-83.733139 -69.156197 -252.775345
-143.138168 -81.967667 -199.106552
-145.638336 -68.001884 -224.478912
-81.372093 -60.988255 -124.085640
-63.288296 -22.599335 -63.354256
-98.424469 -66.759102 -222.295486
11.192607 -71.369873 -201.151306
-9.084808 -46.474606 -55.903759
60.204308 -45.578156 -82.525230
-10.445225 -79.843979 -176.416290
53.972427 -62.396252 -89.232391
-149.425873 -78.456444 -239.822556
11.153255 -71.139229 -213.747910
-23.182640 -49.977852 -61.131111
27.787771 -71.244560 -32.702412
18.706297 -52.748013 -27.106804
30.536158 -72.825439 -152.801697
-151.703934 -78.050545 -276.693909
-59.735054 -68.594498 -126.692543
78.403481 -56.458973 -58.402393
89.268219 -67.534348 -107.080299
15.780123 -54.846256 -237.500137
32.437370 -67.583771 -255.656357
-148.286087 -61.610889 -252.916443
-146.275040 -61.986988 -234.124496
71.420227 -51.333553 -108.067108
-38.527451 -76.508202 -160.822037
-9.711467 -55.068916 -281.575256
-160.620834 -71.485458 -292.790710
110.970284 -76.194412 -157.969437
-162.274582 -75.049980 -264.783875
-122.893051 -65.860741 -198.859573
-76.421974 -18.317041 -84.030678
34.235832 -80.213379 -133.163834
29.005760 -80.887444 -142.531448
7.969673 -48.921104 -264.625305
-155.885773 -70.270668 -257.965302
-108.803612 -73.215240 -290.068542
-32.452568 -79.797005 -290.112793
-65.681648 -75.568336 -168.935074
-40.995872 -78.542938 -169.451019
-33.593525 -79.966507 -173.306732
96.216370 -73.809471 -92.438095
101.898865 -43.099403 -95.797134
27.300678 -69.823219 -21.470934
-103.772697 -67.825012 -220.900711
-66.881210 -50.880802 -42.422413
15.597619 -54.088318 -291.330750
118.637154 -73.758263 -153.453445
-126.677353 -70.166878 -222.961487
-147.727905 -77.409081 -243.011597
75.352959 -65.914223 -62.078949
-99.735329 -55.027035 -68.138550
-113.982986 -69.447823 -291.662872
-134.939529 -67.129234 -257.494476
59.912197 -47.687420 -89.080238
13.682578 -70.665863 -286.458618
-147.327438 -66.397408 -200.330170
-91.212082 -40.649063 -53.605591
-79.639900 -68.619820 -133.018143
52.501682 -69.267906 -247.127563
63.609901 -72.618713 -242.879349
85.406296 -55.360081 -59.018536
22.921740 -53.658730 -277.343506
-72.756645 -71.182968 -101.561432
-66.068748 -53.990257 -72.850494
11.232676 -52.952915 -237.788239
18.655243 -79.737633 -183.321075
-147.130447 -61.436710 -234.328110
22.873920 -51.828396 -23.707069
-78.997856 -64.208588 -120.109962
44.795044 -67.185272 -31.690094
-164.309601 -72.242195 -238.825165
-147.372955 -84.290787 -270.293976
11.482225 -81.353661 -272.134521
14.029354 -69.647949 -230.861206
-146.765945 -85.585922 -274.855408
-93.573151 -70.870316 -118.704193
-20.267719 -77.188385 -223.327087
68.166084 -48.621449 -103.996529
-57.683529 -37.978462 -88.164246
-28.080204 -77.759560 -187.970078
-147.418213 -67.979568 -258.300354
86.332474 -73.570999 -217.910263
-4.337745 -53.138050 -243.566483
-145.559525 -85.465942 -254.358215
18.891865 -53.757435 -286.518860
-5.692952 -79.110390 -218.369553
-100.307396 -74.374084 -257.140289
-48.204884 -36.099495 -66.139572
-91.313316 -73.206345 -291.490540
-3.684553 -77.287369 -222.200470
-135.622604 -64.893555 -263.166962
-146.616928 -78.562851 -211.186432
12.420508 -72.666351 -185.663193
23.079687 -55.342007 -270.232819
35.658852 -76.629089 -119.264099
-75.287933 -66.205070 -144.135818
-130.991470 -69.723793 -196.145966
-154.479187 -83.559212 -291.462677
-49.205311 -65.094292 -140.808594
85.657547 -59.858402 -60.191017
-24.188585 -52.681767 -59.701435
39.419769 -56.882156 -40.324482
49.414963 -57.596107 -112.990402
-94.710365 -61.649338 -59.330433
100.381065 -44.663834 -63.349819
-78.388748 -25.204418 -57.834351
-153.203812 -69.734482 -293.287903
-62.096237 -72.994110 -175.590744
-156.181488 -73.692841 -299.225800
-73.157799 -68.636406 -148.706070
-65.468277 -72.907356 -246.769424
-143.907135 -75.660500 -293.783051
37.125774 -78.029869 -132.599579
-68.526146 -77.723839 -206.732010
11.104148 -81.112358 -224.192017
9.081678 -52.210163 -238.948914
-45.952812 -78.666428 -199.255936
-16.464512 -77.634865 -226.088745
-59.417103 -74.399498 -56.388565
-97.236443 -52.333370 -118.516830
-144.595978 -63.097919 -183.331299
52.696899 -70.403641 -90.592140
16.488804 -81.414795 -247.376953
5.167490 -53.044361 -241.453659
-82.283852 -21.487179 -89.651321
90.482117 -76.551857 -215.454437
111.087021 -68.894547 -110.282143
-16.255577 -55.707695 -275.235229
29.091656 -71.968697 -14.156039
26.560432 -69.265022 -160.320145
-15.825951 -68.460014 -208.452805
24.349026 -70.965538 -36.259274
85.305923 -77.966408 -86.363579
-52.654068 -78.919151 -244.012161
75.693222 -53.657887 -77.986618
-65.111641 -77.896164 -60.831673
-12.308794 -50.806686 -242.083267
7.367849 -54.780693 -239.079987
-98.576187 -61.954456 -84.177727
-146.929153 -68.725754 -306.424652
4.365876 -53.471825 -288.055664
-6.495898 -53.320240 -282.307800
-75.809540 -57.540638 -111.651306
19.754288 -63.943413 -146.816193
-25.855700 -70.004440 -187.157135
-97.908989 -61.607403 -95.597252
-153.812897 -80.359596 -256.633789
-80.884369 -57.295349 -116.457191
-66.194725 -57.446274 -90.503532
-50.000683 -76.873253 -189.917084
99.477768 -74.109818 -81.065559
-57.601612 -71.243790 -127.825462
-8.877234 -82.664764 -254.383881
-124.400871 -73.742126 -230.292526
-62.367558 -55.890079 -66.817612
-21.708458 -80.537086 -194.281464
-63.926380 -62.395828 -122.850075
54.542995 -75.094696 -93.227898
-96.981247 -45.666031 -61.460941
-51.336025 -61.525852 -80.460892
-106.334488 -69.341682 -292.203308
10.542367 -81.185234 -243.616867
-56.254303 -51.152859 -84.524643
14.000887 -67.559799 -158.933426
-93.506653 -50.760273 -55.625591
-12.002646 -51.064415 -246.348190
-143.363953 -80.885590 -286.098083
83.999306 -42.700672 -54.238087
-145.413818 -77.615685 -300.530365
-4.274069 -70.582825 -228.465698
27.833349 -54.413040 -13.574365
1.481008 -51.960899 -240.577240
20.541321 -51.805374 -277.771576
25.593487 -62.646523 -24.119244
15.473734 -72.485237 -178.225281
-48.217155 -51.774456 -48.042828
-36.100166 -72.792542 -180.941849
12.837800 -52.028759 -238.374435
7.987050 -68.781258 -232.142319
-17.753092 -71.633629 -238.127014
-165.736969 -68.711052 -259.796509
112.493095 -67.232239 -139.010330
-148.141968 -71.935501 -176.012970
-150.770569 -66.927040 -207.217911
-34.127693 -80.132690 -242.064590
-76.440735 -87.042023 -98.182884
-70.044212 -70.531372 -156.749832
29.808075 -76.113792 -135.004471
-54.896610 -78.357895 -91.653488
25.000242 -51.278820 -29.701265
-4.627983 -84.756706 -266.710052
-23.951805 -73.892059 -243.306091
-12.125141 -69.505508 -233.276718
-84.543694 -65.724731 -118.533813
22.903299 -52.089344 -18.352531
38.990318 -67.861290 -122.859955
-50.841137 -84.690445 -80.381645
-152.834381 -84.658684 -300.863068
-46.444305 -79.239548 -189.214447
-68.071114 -74.972946 -163.410233
-44.217812 -77.031761 -145.615433
-56.811039 -34.821674 -62.096031
-148.631790 -61.226715 -198.033646
101.916061 -76.716393 -192.055878
-126.427246 -70.227852 -285.819153
112.243530 -77.201103 -167.328232
-138.388504 -77.257370 -291.717712
17.713629 -69.118401 -248.926132
89.386093 -71.300606 -69.179337
56.791931 -69.121429 -244.605850
12.090117 -52.766178 -290.267822
39.562504 -73.284943 -126.365997
93.453392 -73.861336 -208.868423
93.188957 -58.664894 -61.076694
-66.209160 -75.174210 -245.460831
-67.322746 -69.517715 -286.438080
-58.932880 -61.407318 -134.369125
-151.774963 -73.415428 -243.390823
-152.846069 -62.946194 -284.410370
-118.129982 -74.222977 -256.431213
-15.763488 -78.332802 -179.890747
-77.481583 -50.396629 -107.334526
50.069500 -69.390518 -31.084112
-143.472321 -83.017273 -197.266800
-86.953903 -68.378143 -117.033043
-4.279308 -53.567310 -237.604263
-53.461723 -72.989403 -137.625641
61.510872 -69.613167 -243.668152
-61.667900 -57.575802 -110.921303
12.966956 -54.653774 -245.715134
-5.406554 -49.136478 -242.080139
-146.342850 -78.010681 -303.462250
-11.848292 -52.034050 -253.892822
27.510365 -59.954506 -40.180065
84.257843 -70.319794 -101.623817
-78.261742 -79.120834 -76.794762
-34.657555 -81.221519 -202.711578
20.289803 -77.707527 -240.368729
-95.276787 -42.060448 -109.722122
18.690594 -77.621803 -256.251984
77.605019 -59.908695 -58.490345
25.158422 -51.028793 -21.055172
-48.209812 -79.115555 -152.198975
42.885185 -69.126007 -246.853119
-133.867981 -72.568871 -200.923737
-152.635895 -68.854683 -204.994156
55.050510 -60.518131 -95.781754
-114.573708 -69.054482 -289.853455
50.265587 -64.586235 -248.471313
20.639328 -69.380997 -195.086700
25.751614 -71.633026 -182.574066
-156.960999 -72.662910 -307.458130
21.359795 -81.250786 -247.055679
-79.048431 -58.657101 -112.960602
20.180653 -51.541473 -24.882345
-61.716293 -66.196136 -88.873535
-147.597198 -75.576172 -210.987259
-43.915237 -74.446442 -164.388504
-37.626945 -80.614517 -164.659973
25.506226 -74.945786 -147.574524
63.568104 -58.043560 -100.234634
-165.937866 -68.528595 -264.058014
-3.396762 -71.084953 -290.738403
-39.167690 -78.336502 -199.835556
26.397541 -54.487766 -255.227158
87.432732 -54.916637 -97.869614
6.904260 -77.717018 -226.664124
46.313999 -73.800301 -117.974388
17.980217 -53.976978 -240.977219
2.671625 -83.520042 -270.471252
-86.142342 -72.675194 -65.406578
-148.283829 -60.530834 -196.616760
20.119205 -52.401382 -244.179352
48.507629 -73.258026 -94.145493
-70.944901 -73.061554 -135.993088
14.008199 -80.406807 -203.958054
-71.057266 -24.295601 -98.722435
-21.395779 -56.049152 -62.484039
-110.606049 -71.262276 -194.087311
-77.198074 -59.253441 -42.823257
-1.629532 -69.548660 -233.299850
57.307476 -71.324974 -244.550446
-62.553326 -29.436321 -94.329208
-17.449213 -73.687126 -237.422943
50.068054 -69.362984 -28.727978
-151.235016 -85.362541 -290.187164
-73.256020 -32.121494 -52.239803
-12.002409 -50.547016 -253.979614
-84.591957 -59.922653 -48.627434
55.891033 -70.172089 -86.411453
46.752369 -54.349255 -111.574120
-12.515988 -49.408222 -253.825073
-4.460957 -74.693382 -235.436676
20.257612 -60.167801 -278.873199
28.692087 -54.250187 -39.471809
-161.359863 -68.337578 -223.528656
-93.989502 -53.300396 -52.749725
-148.677612 -60.116089 -223.913757
-75.360207 -68.312645 -286.990021
-1.737351 -62.418522 -244.338791
-6.701502 -77.194939 -225.267075
-32.570713 -71.469421 -176.893875
23.630901 -57.974308 -18.358940
-147.063171 -61.398926 -227.649353
-24.921295 -75.774796 -212.534286
20.108978 -69.404160 -28.961113
-65.832161 -25.332479 -58.620277
-150.628799 -81.588737 -223.783417
-99.824165 -70.992531 -287.648529
-81.918808 -61.796131 -117.965477
91.104973 -58.463146 -58.280209
5.329865 -75.833138 -240.230377
46.064491 -66.589844 -255.802933
86.706078 -49.786976 -110.692635
-144.640244 -63.568527 -236.162445
82.079514 -75.463028 -94.789879
-83.983604 -79.996384 -77.390663
-17.901499 -41.214226 -55.908707
14.250622 -75.064430 -292.003784
-163.761444 -70.527916 -291.205719
44.053013 -59.242451 -115.433075
29.229696 -53.273083 -262.986176
47.079048 -69.465805 -252.490677
5.620219 -75.195724 -215.713516
15.936504 -74.493660 -217.226273
-141.526443 -65.532928 -289.399994
-158.981537 -68.311638 -226.524109
-101.106949 -45.941769 -87.200264
39.853928 -52.132145 -18.053604
-8.276253 -75.632324 -169.242798
-150.465256 -80.856651 -286.037903
-41.943661 -76.683929 -83.943878
-62.971516 -77.609978 -246.101974
2.805208 -86.478310 -260.524506
-39.375675 -73.306633 -78.761452
-150.517715 -80.990311 -246.674042
-82.707664 -77.354156 -77.113037
88.206619 -45.563007 -58.860439
96.600182 -72.171989 -100.648750
82.277008 -78.090057 -79.004967
82.479919 -44.049282 -110.800896
11.562103 -74.618301 -191.508499
52.120434 -64.819679 -88.640587
-144.901978 -80.636948 -187.443924
83.549156 -49.620457 -69.084793
-46.702202 -81.854256 -195.014496
109.971039 -74.425331 -166.945221
-59.744858 -58.006889 -83.817383
-73.260468 -77.356377 -63.313877
106.555717 -71.688354 -182.075623
-15.321778 -71.056778 -230.494202
-146.162552 -83.964584 -246.008926
-57.743965 -73.774445 -176.330978
-88.430786 -36.023621 -109.140823
-162.215469 -74.288864 -237.076813
-0.849144 -82.654434 -273.122803
-160.855499 -74.262810 -261.203888
65.170662 -62.114407 -90.472343
14.197327 -77.150169 -248.980988
-38.369118 -54.387611 -48.241837
44.014400 -57.534306 -119.608765
-34.513603 -81.844688 -77.492935
-100.152496 -57.037403 -75.241135
-71.248520 -60.150429 -99.120483
-145.978851 -69.837402 -224.001999
13.113794 -50.875027 -294.163086
-30.753515 -84.501396 -186.431580
-128.165695 -76.375732 -228.851578
-78.376465 -74.176544 -291.537048
-17.136990 -78.073021 -212.821777
-146.481628 -78.334175 -263.761688
-112.344177 -68.828140 -186.963852
-12.313800 -53.355522 -249.574142
-149.279633 -82.310181 -193.619476
-66.400284 -74.235672 -147.008331
13.077155 -71.717064 -148.991211
87.306816 -44.891109 -57.690277
-96.971001 -74.228790 -220.413071
108.340591 -72.877968 -105.498215
-18.087358 -77.074577 -196.224152
14.954040 -66.901749 -191.060257
30.670301 -73.295158 -157.564728
78.989410 -67.200043 -64.916939
-150.856110 -83.893990 -271.750275
-13.489862 -55.948082 -260.211487
-163.308182 -73.369415 -292.029572
12.271062 -67.191383 -208.340546
-75.759521 -65.116699 -134.349197
41.476521 -49.725838 -19.006466
102.462128 -67.974541 -104.460670
-61.945770 -54.327492 -120.716957
-48.554016 -70.053276 -158.257843
65.785751 -69.357468 -83.453773
-149.697479 -66.749336 -282.654449
86.201118 -56.267086 -82.633926
-59.724571 -76.068657 -171.084702
22.879438 -55.381016 -276.123718
-105.970673 -71.593918 -254.848343
-68.941414 -74.903397 -151.262054
-111.925766 -71.623695 -224.457687
-7.816888 -54.065434 -237.638916
-21.072384 -76.049454 -214.995773
-49.444157 -75.331970 -155.887054
-99.571335 -60.515404 -79.095604
-25.315821 -78.761589 -186.710068
25.734867 -72.255920 -25.223442
-50.658714 -71.461029 -151.864929
36.701309 -79.986122 -122.657700
103.580635 -52.769859 -84.994507
104.600113 -45.152920 -89.439583
-5.847969 -66.734055 -223.905624
-11.090342 -53.849197 -244.962936
89.185402 -54.518482 -81.489693
-5.882848 -71.612396 -233.397873
-54.976238 -71.134972 -136.647507
-58.171329 -72.804916 -176.216476
-144.360138 -80.709442 -205.169800
-92.578651 -67.118599 -123.331871
-154.844727 -63.682720 -285.941986
-92.840454 -29.214956 -62.543587
7.873554 -49.734306 -247.163910
89.834633 -77.073586 -85.467163
73.146492 -52.384380 -71.753128
-86.512840 -69.597176 -133.602539
-53.181416 -76.077896 -140.286880
18.665195 -55.488571 -284.758301
-11.644551 -67.583832 -269.758575
42.640266 -70.987160 -253.686005
54.412842 -75.564865 -97.510933
-103.614174 -62.037865 -166.315323
116.864174 -73.673599 -157.155228
15.902778 -75.775757 -195.172913
104.412033 -44.115681 -81.262352
-80.037498 -85.494286 -103.380043
-54.930298 -67.613495 -139.733688
77.248169 -61.354488 -106.681114
-65.367561 -73.249649 -98.814171
-17.469511 -74.904778 -230.455536
-28.768538 -72.837471 -78.420166
20.742691 -75.927567 -175.043869
34.133751 -78.497726 -134.166046
39.842827 -65.728828 -249.572128
97.970184 -44.694778 -92.815544
-21.505110 -78.398041 -185.496750
27.366774 -60.852196 -132.228745
23.248671 -53.759197 -258.790009
-147.982986 -67.318695 -311.261444
12.721787 -79.193382 -220.896225
-130.543625 -68.841019 -283.994110
99.769295 -44.322842 -95.458435
-8.320951 -59.391949 -52.714211
-48.119560 -75.561584 -138.524033
81.343048 -70.735626 -226.858765
-56.725101 -59.857124 -115.230782
18.550941 -65.548363 -152.374405
103.623184 -71.976074 -184.935089
92.055077 -44.501553 -104.743729
-75.672783 -71.693459 -130.578537
-20.821901 -73.682159 -243.933228
80.312096 -47.475716 -87.764526
-144.852890 -73.094460 -273.694763
23.406679 -55.675182 -282.456390
52.824474 -64.430725 -93.247803
-86.664688 -79.898621 -106.253227
85.389610 -56.087021 -89.649384
-147.015121 -86.869820 -296.466003
-59.644455 -68.698395 -45.951431
-70.038589 -26.939863 -56.506157
99.219978 -68.691864 -204.146240
-42.400928 -65.253708 -46.787346
-86.695900 -72.028946 -110.578835
15.985737 -71.060814 -227.552765
-11.505944 -39.723427 -59.520916
18.838617 -66.878433 -196.426590
49.317688 -69.616112 -24.575382
29.983297 -65.483002 -258.788574
-118.734482 -77.254410 -288.919037
6.751814 -71.809998 -229.063065
14.487716 -70.151093 -212.612244
102.888901 -41.768547 -80.599709
24.573191 -50.813297 -28.163666
2.911697 -52.170082 -239.676376
23.210659 -76.788124 -168.577225
-145.020798 -84.628548 -230.169052
-90.349487 -69.888268 -139.673340
61.450352 -51.182453 -90.254745
-83.544823 -34.989998 -107.172058
84.190979 -49.020950 -107.889938
27.755825 -71.895409 -161.024933
85.263268 -75.164192 -78.642418
10.766967 -75.304047 -202.786758
-153.963470 -72.779228 -231.601807
-98.761169 -50.863937 -107.609375
-166.793610 -69.527519 -287.393524
94.379494 -71.646400 -203.009888
113.974762 -77.564003 -151.941788
113.867775 -73.553375 -156.383423
-146.589844 -83.485832 -189.866684
-20.049471 -72.015617 -189.478531
-12.468008 -50.255524 -251.755920
13.701715 -55.177002 -289.117004
-87.280701 -38.521770 -110.234886
-42.260815 -77.639923 -154.019714
-76.072884 -57.656063 -107.583275
35.024895 -62.938808 -123.007141
14.826685 -52.277245 -237.972168
-145.680298 -78.455696 -253.845993
100.677979 -66.246582 -74.714081
-18.291197 -74.993958 -293.523956
16.555729 -67.051659 -153.272552
-12.590441 -64.079117 -63.874718
63.924656 -74.963966 -239.389664
-149.349579 -62.084824 -280.805298
-123.202469 -73.187569 -232.072220
81.621994 -46.056339 -111.982597
-42.182743 -83.757729 -75.445900
19.193560 -78.056755 -172.332809
-160.231110 -73.630348 -293.391937
-65.682602 -77.931770 -207.933212
-43.107880 -76.981773 -200.910690
-10.478916 -78.936790 -207.822205
-165.903152 -69.194771 -221.448563
101.096275 -70.246414 -95.560966
-7.463263 -67.710007 -284.163177
-31.250387 -68.996559 -51.372139
-51.040718 -39.878384 -53.978333
17.065788 -77.548431 -205.802094
-80.727013 -62.102707 -116.806961
1.559787 -80.189453 -246.716156
-97.779053 -69.625328 -158.566071
74.863297 -44.303185 -82.614441
-69.220924 -55.343960 -115.252563
26.491480 -51.040134 -259.529297
113.482880 -74.332939 -173.670410
-76.560944 -18.931086 -88.506798
92.790520 -56.192616 -88.075058
-18.601841 -64.327461 -51.604115
-84.809753 -46.950245 -110.273270
42.272324 -63.936760 -32.192009
49.273556 -66.325790 -93.404655
85.372429 -57.829296 -97.766975
-60.542038 -68.454453 -47.212929
-151.923752 -75.962349 -193.119308
-65.839165 -61.283882 -114.494568
-145.791794 -63.899250 -218.250732
-148.527618 -80.238159 -204.665298
-55.114883 -64.275757 -128.650360
48.081501 -54.686642 -107.259621
104.330742 -43.359539 -75.057266
-59.650597 -48.926167 -89.761688
-2.900358 -66.587151 -237.211685
-142.303299 -68.260628 -175.082047
6.646723 -64.057770 -235.205322
18.383533 -52.992695 -287.288330
-27.248653 -53.363754 -61.230965
-5.393590 -76.287308 -231.622604
-52.953022 -75.978951 -58.853985
-84.399582 -68.859802 -103.611389
67.565521 -73.623161 -240.803116
-17.448927 -58.530193 -261.164612
79.228508 -75.809807 -77.212219
102.324028 -77.294853 -195.463898
-44.370232 -70.007004 -154.409836
-60.465691 -49.759151 -59.684830
33.638088 -77.004166 -154.503159
76.372459 -43.787174 -68.306808
-35.738464 -72.921310 -76.591568
95.500374 -48.419384 -57.895256
-142.754990 -79.100861 -254.101196
-23.343225 -78.681824 -182.084381
-162.189835 -66.105377 -198.873169
77.265808 -47.315025 -105.448746
-61.465744 -82.332344 -70.445473
-65.170525 -59.589603 -109.837547
75.979980 -72.870094 -70.607651
-16.079018 -51.977219 -241.885223
-72.525787 -33.860630 -103.587570
11.795868 -77.209122 -202.210205
-146.424072 -82.286171 -284.281769
-115.213303 -73.575310 -258.959351
-143.212051 -75.752541 -286.574463
-100.716644 -68.366035 -259.022156
-51.706478 -80.506485 -199.348694
-68.927399 -57.269424 -117.576469
98.704292 -42.390240 -80.629311
-144.672775 -79.123917 -240.090118
-112.573074 -73.261642 -258.415588
-35.412624 -75.310249 -240.249313
-52.202690 -78.655479 -91.322792
-9.471063 -73.725594 -231.857513
-23.565945 -80.169647 -238.836746
-64.383507 -61.355545 -97.538261
-63.966770 -45.157963 -47.514816
20.892849 -71.749535 -23.799809
-149.106842 -71.135933 -290.636078
-96.128754 -70.731575 -103.221733
-168.812408 -72.252693 -252.984665
-146.533188 -66.232002 -239.440536
-80.586983 -60.594635 -123.158752
101.445839 -60.400448 -67.797119
45.319687 -71.542160 -253.254242
73.715790 -45.924538 -76.107651
2.187223 -69.405899 -232.777771
-17.182222 -75.366135 -213.823456
-73.014648 -55.686619 -109.616219
-149.496292 -77.716347 -265.204132
-87.702660 -63.261032 -138.002075
-60.089825 -29.935596 -87.204147
4.744897 -57.187115 -239.362946
-52.827820 -75.479416 -287.804230
6.153154 -77.496307 -227.319275
-160.040573 -68.445923 -221.128082
-88.654549 -71.324333 -291.844574
-26.421841 -77.014404 -67.411949
-91.045944 -63.910881 -120.041901
22.039463 -62.870323 -18.790506
-85.606621 -36.675652 -109.284798
111.514877 -67.578239 -132.104462
98.789398 -74.901344 -200.086090
96.869179 -74.070847 -93.868835
-144.334503 -64.450394 -254.215012
-38.215328 -75.237312 -174.367828
-12.804602 -76.199242 -231.565048
-145.593414 -75.347916 -186.677795
73.041336 -50.763458 -57.712151
77.487938 -49.126244 -56.164543
24.372059 -52.297703 -246.866211
70.557678 -55.096176 -85.982239
-96.197136 -32.706474 -62.755291
-107.360062 -69.329193 -292.074249
33.553696 -57.367920 -41.475807
-48.860195 -36.297035 -64.729576
-22.445389 -68.640266 -190.303467
-75.524559 -75.709503 -213.741516
-12.433276 -54.339970 -270.853882
-82.106621 -77.242668 -216.583191
-150.160080 -75.195152 -282.813934
30.017683 -73.077286 -171.638535
28.740341 -81.104446 -140.341187
-92.533340 -53.458130 -120.515190
-10.846369 -71.636528 -234.184067
-168.045334 -68.356537 -263.336853
-158.543472 -69.477112 -249.078110
-76.029442 -79.198807 -100.330460
-58.160290 -69.043648 -128.772446
-9.694449 -73.443047 -229.644516
30.798038 -73.756813 -166.315445
-76.598877 -65.365074 -122.837784
101.198692 -70.959694 -191.918930
-25.496584 -60.268097 -47.300266
104.680626 -72.371086 -174.518097
74.874718 -77.984520 -87.555092
-19.447750 -76.112892 -218.949234
5.072659 -79.633385 -282.100739
-74.578590 -77.880463 -100.571487
2.505557 -83.384140 -251.878754
24.527798 -77.572876 -163.282364
99.588272 -42.998772 -72.946571
67.788994 -67.571175 -237.720779
87.007896 -72.632729 -219.744125
-143.988617 -60.217373 -204.877182
-26.920031 -78.132698 -177.051910
108.953682 -68.640701 -104.271484
96.476921 -55.826996 -97.923203
-90.510139 -75.936829 -85.647247
-147.325119 -75.021645 -288.288696
-139.741638 -84.777924 -260.297333
108.298218 -67.878357 -110.751396
-94.195099 -68.225769 -70.066360
-88.142708 -73.957016 -70.754814
-72.058235 -68.090912 -103.747299
-74.895134 -72.681229 -286.976318
-146.748749 -65.520538 -263.423248
22.407576 -53.780670 -282.829193
0.170397 -68.540985 -234.373291
-105.154961 -67.618477 -261.457764
92.675240 -50.165466 -58.274143
-124.986771 -66.718140 -258.829102
66.948540 -52.101566 -78.970558
-62.444393 -25.702358 -82.760101
-64.189507 -52.767597 -92.681801
83.989410 -45.195988 -110.134987
-150.321136 -70.668579 -174.808899
-12.968399 -68.551025 -258.378021
-125.553680 -75.316383 -262.289459
32.046318 -72.459038 -119.674805
38.407837 -74.893898 -104.100677
23.180819 -66.312325 -172.280731
44.378437 -68.415611 -104.207375
0.777353 -78.389542 -224.497620
-61.138962 -79.218857 -92.910385
-96.152328 -69.650993 -152.134903
4.320195 -52.276764 -236.477371
-152.883453 -79.569084 -230.910706
104.882164 -72.174980 -197.227890
58.621052 -59.223366 -91.280563
-66.364365 -59.953541 -105.312881
-37.591385 -77.434357 -173.715988
8.323777 -79.020752 -240.332947
9.746764 -71.844429 -195.339386
-103.087624 -68.778984 -171.448395
-46.497356 -78.568062 -199.645782
-125.953499 -65.052658 -204.083221
-47.262489 -78.887733 -196.562988
-52.625725 -78.620979 -204.593781
111.483673 -74.354286 -170.600403
-153.335876 -63.670792 -294.745697
-14.146957 -71.225990 -65.566902
-13.292508 -52.443386 -253.508026
-149.786591 -61.424137 -249.385406
-3.712070 -72.738899 -287.982452
32.868896 -77.313858 -151.658539
-152.483109 -83.017975 -254.968765
74.536186 -46.220684 -61.902649
5.967369 -73.846588 -211.677307
-37.693779 -71.935440 -291.263794
-56.219765 -81.118584 -67.345390
-29.796793 -76.084839 -217.580917
-53.894432 -75.628181 -91.425331
-8.261945 -81.504219 -267.373322
20.773720 -49.811176 -29.602903
103.241463 -53.172760 -92.869461
-0.244532 -50.715630 -266.173096
23.580936 -73.354019 -141.195053
-66.069344 -36.982708 -100.358116
48.061497 -51.950676 -32.154346
-153.401917 -75.084892 -247.690430
-58.850712 -76.650284 -170.272949
-153.914246 -62.402267 -232.950333
70.999809 -48.356544 -104.575790
71.351578 -74.303894 -87.491493
-62.687908 -53.569530 -107.175224
42.805676 -65.082954 -20.779924
3.835676 -65.172249 -293.001068
-67.673378 -72.305023 -155.653885
12.199795 -79.400002 -242.032211
-75.756683 -63.638836 -44.141216
67.897453 -66.648529 -99.798927
-17.738337 -76.036896 -241.986053
-161.362625 -68.738991 -240.810516
48.086544 -68.921013 -106.197769
-55.085354 -75.953812 -290.690308
57.190926 -53.824284 -105.505402
-29.963593 -79.541565 -178.617722
-25.047241 -72.010948 -287.903229
-149.558304 -77.863258 -196.706421
-148.309265 -79.751778 -228.858475
-133.634430 -80.850800 -199.502655
-47.606548 -75.564545 -158.692200
-134.326889 -72.411659 -225.496292
66.235031 -48.729816 -93.086006
-64.317429 -70.487961 -158.769318
-67.029755 -51.450970 -107.250992
-93.417473 -22.620131 -80.869087
-9.649908 -50.624439 -57.412045
6.237328 -73.875023 -213.196915
2.287318 -48.773865 -250.854858
-21.079935 -76.511131 -219.227356
-85.058311 -74.954575 -110.931953
-35.649998 -78.387650 -167.725800
6.598204 -57.551449 -238.030258
74.835205 -46.693485 -57.273006
-73.011215 -85.907585 -98.378616
79.028633 -58.246357 -98.123466
-36.197079 -46.394459 -65.321098
-52.618412 -69.568993 -288.821991
-166.690460 -74.689362 -271.529388
101.783813 -47.437016 -102.473366
-15.727774 -44.890434 -53.851040
-50.079567 -35.902554 -56.862244
-111.171669 -72.937721 -257.938690
0.945641 -63.039165 -238.095764
-24.199163 -79.539268 -181.531769
23.015949 -73.900673 -31.878977
76.577682 -44.928360 -65.339310
-4.832664 -69.546959 -238.910477
-48.703209 -84.495422 -88.117249
-166.676880 -69.281891 -203.174286
-123.989960 -70.285378 -256.888000
-15.691178 -55.826736 -262.488892
32.142513 -71.683739 -123.227531
10.909236 -84.237129 -268.227905
-86.866440 -74.695808 -287.906006
-27.550640 -74.108627 -170.830139
10.143549 -70.256500 -149.080795
104.563232 -56.173107 -70.940468
-108.152702 -69.373444 -261.488098
93.185684 -43.244522 -93.961937
-141.086411 -81.035614 -197.287155
-56.379440 -32.784782 -78.501167
-134.955734 -66.690224 -228.526764
16.610941 -77.661652 -239.929962
-75.326958 -75.646751 -287.165833
33.490322 -58.530926 -130.102493
23.900108 -67.295677 -143.568283
-161.354279 -69.403320 -263.286804
-62.363209 -74.745560 -166.044418
6.328234 -76.027931 -231.546036
-166.020462 -72.200073 -217.376144
-147.376205 -82.385948 -200.307510
-83.362877 -79.117783 -212.634140
-90.526627 -69.815704 -144.016220
-143.126434 -69.769936 -261.628754
-66.788612 -51.060947 -107.978699
-88.505684 -70.808197 -216.982376
-6.295861 -78.617287 -249.818924
110.436203 -73.379578 -162.077637
-75.773407 -53.203728 -107.472183
-79.675491 -68.652550 -130.996048
-140.894836 -62.766418 -200.514694
24.484671 -50.530304 -251.691620
103.173355 -52.912766 -97.199059
-4.086643 -74.781113 -231.405899
7.563221 -63.162357 -240.295944
-12.302063 -76.830711 -268.835724
-18.919922 -71.573608 -187.194412
9.067445 -76.493805 -218.566406
-149.095062 -72.138199 -197.794983
51.861095 -55.403477 -104.862099
-114.510132 -66.828018 -260.028412
-151.775894 -85.184372 -292.235962
23.025894 -52.127182 -267.498993
-15.083537 -53.508495 -248.481277
-81.221230 -21.067329 -65.019623
4.136332 -51.290295 -289.986908
-132.668747 -73.320908 -226.451767
-149.992493 -77.954094 -272.194336
-142.604874 -76.921417 -195.863083
-8.318068 -55.643848 -281.499359
18.031055 -81.245476 -240.007690
25.668140 -51.169041 -250.664047
-153.449341 -75.167458 -225.806274
-8.495535 -60.243004 -63.059673
-25.750790 -68.252342 -190.702972
-77.551521 -65.119171 -134.387497
-73.458099 -76.848450 -209.493759
20.903324 -79.568672 -243.474640
-90.888947 -79.719376 -105.345551
-37.310867 -73.394714 -159.047653
-144.188675 -67.334305 -218.031845
-35.933105 -78.235443 -159.488968
-23.851303 -72.308037 -77.564362
29.780123 -51.315651 -18.880934
48.304329 -66.613487 -99.138435
20.019266 -73.736687 -239.815201
23.715519 -62.616310 -274.283569
-155.622849 -81.664825 -292.348175
4.390050 -73.028893 -230.043671
-125.093376 -65.777565 -233.775604
-88.207802 -75.323380 -252.174103
27.166876 -70.347374 -166.481293
37.800175 -70.353432 -115.139465
-63.304329 -85.939194 -96.208900
-27.302439 -70.251534 -189.208313
49.212200 -70.573441 -22.008360
-38.652161 -40.333580 -59.698727
-84.849632 -45.752396 -112.585258
88.261436 -45.759182 -58.282974
-11.001495 -75.701988 -201.324661
39.844131 -71.816010 -104.622307
-149.680923 -75.582207 -221.956497
-148.642151 -79.841141 -204.728790
-156.588745 -69.594749 -292.252045
-145.472061 -63.265793 -254.365341
-77.283607 -76.707222 -288.587524
-133.248444 -69.697746 -233.877075
-14.821680 -68.262497 -252.582031
83.797134 -56.628181 -89.760689
100.905167 -57.109123 -103.132530
-22.616360 -72.603622 -216.466293
44.978817 -73.538124 -97.206520
35.393566 -55.938511 -128.895660
22.848181 -56.994678 -276.420532
25.728670 -73.905907 -143.684189
-132.449585 -67.061111 -225.627167
20.647942 -71.275215 -158.090424
-2.728084 -84.641724 -263.699524
-6.595637 -76.254135 -278.039795
-162.844116 -74.149376 -226.384750
47.504910 -70.056076 -111.766159
-40.618332 -64.294266 -78.355713
-48.174206 -70.268761 -151.621750
-99.300575 -40.879120 -64.133614
-81.007568 -75.128914 -216.763229
38.737633 -68.064453 -36.663506
-7.780458 -78.499413 -274.189301
105.365028 -44.414268 -84.446976
-150.855652 -85.588356 -296.008789
-57.725147 -81.012238 -201.065720
15.506509 -80.310562 -217.179108
-125.278664 -64.100334 -195.283020
18.761690 -76.217888 -219.374329
-54.768127 -73.956451 -248.444138
10.283275 -59.877178 -242.581436
104.631355 -75.044907 -183.214981
52.366367 -69.301773 -251.504135
-12.003901 -52.902866 -238.006180
20.904436 -78.458015 -168.267548
-88.698929 -69.122238 -129.070099
-47.735371 -76.790466 -139.377625
-75.798485 -68.450974 -126.437370
-60.320122 -65.480507 -137.294815
-145.391830 -78.869728 -229.312515
-82.325211 -76.348930 -253.808533
-33.347687 -48.373444 -64.443848
-30.048103 -71.934555 -290.732300
82.825699 -56.237877 -98.818695
-154.339615 -65.708458 -284.727417
-4.901108 -51.003807 -258.683075
62.776649 -62.943726 -83.270081
8.319101 -50.710266 -268.414368
8.494438 -85.216682 -261.882629
-20.982944 -68.734482 -53.630856
-141.154785 -66.175720 -187.247955
-97.118790 -26.811419 -69.146881
-5.041082 -52.331753 -272.222198
-91.715363 -63.659401 -122.104256
-68.489838 -87.637001 -98.444954
-132.850967 -75.188911 -231.304092
49.611126 -76.878914 -111.750801
-10.477089 -50.248734 -246.938889
-2.281806 -52.252594 -273.505951
-149.037277 -81.577507 -289.436981
-63.867752 -79.837219 -162.487320
-39.989738 -74.713844 -169.188828
-151.745575 -67.765320 -234.907349
-10.696951 -54.565872 -239.667557
-158.394333 -68.987473 -214.559311
75.315598 -74.199745 -93.200249
-11.900301 -46.543221 -57.371773
-85.188393 -20.983202 -92.852814
-32.505539 -73.747658 -212.699066
-62.468327 -32.598297 -52.954914
-159.219452 -71.384438 -278.081696
27.704029 -52.581478 -261.977844
80.200226 -54.154282 -57.188953
-52.462688 -78.164444 -181.339783
48.251621 -61.359859 -20.137691
-87.238251 -50.154167 -48.387386
-16.275734 -50.201836 -50.876705
15.134038 -70.216454 -232.396912
87.524704 -72.278664 -222.702087
30.046930 -73.704170 -17.231194
84.243729 -74.074493 -101.550774
114.613922 -69.615845 -128.100937
92.174362 -46.618996 -58.477787
25.733393 -62.990482 -30.603848
-93.723679 -64.206871 -144.535400
-76.988800 -81.698921 -210.926056
-55.554855 -35.601234 -66.782829
-31.646774 -76.061531 -217.109100
49.765415 -68.822975 -32.684219
-133.500290 -77.108109 -196.669556
-71.924858 -40.413761 -102.052170
47.480091 -54.054573 -114.482819
85.455887 -61.304676 -59.162804
-143.650650 -61.783047 -227.016556
-9.612746 -75.302956 -211.661682
-28.546873 -76.218559 -191.709824
19.655464 -77.648781 -240.182434
82.633202 -70.995132 -227.028702
-165.213333 -68.928246 -197.910980
-64.310371 -77.474190 -155.981903
-69.324608 -69.151360 -145.272079
1.676250 -52.660007 -235.136597
-75.694382 -75.829437 -58.514320
-106.669807 -72.691795 -293.488892
-26.024940 -80.343079 -188.940689
-142.110764 -65.246170 -229.980148
44.215050 -77.472610 -118.076607
-155.788208 -71.023544 -266.086609
-19.821028 -77.862366 -179.358261
-141.965622 -60.548946 -197.549911
-132.894394 -62.394028 -201.603302
-49.488605 -79.412781 -185.646973
110.806900 -68.964134 -158.971741
-99.469093 -46.208385 -103.042305
99.722366 -40.467911 -74.136688
81.721603 -49.512684 -106.975014
21.176081 -71.000298 -31.101847
-87.043800 -68.050644 -113.489571
4.640541 -74.408920 -163.651260
-4.993617 -53.459679 -289.914642
93.725479 -69.221092 -206.791504
-60.892319 -64.569916 -87.605652
-39.021385 -81.683144 -72.980835
-141.119232 -84.704414 -287.205292
-58.563328 -68.112228 -131.971741
36.350166 -70.207031 -145.664108
90.889160 -46.174023 -108.588577
89.963005 -43.252239 -75.995491
-52.423775 -69.010361 -149.487946
-89.055519 -69.014610 -252.957642
-13.194487 -56.985531 -269.275238
24.901699 -66.576241 -161.076553
22.534733 -70.269905 -189.472168
54.077805 -60.616135 -88.071373
61.304398 -47.428463 -77.256615
-93.603081 -40.893742 -110.895706
32.662395 -68.608665 -258.423370
-140.831375 -62.601154 -228.844360
-50.551899 -75.906883 -150.340317
77.090347 -65.455360 -62.291111
5.839242 -61.926540 -273.723724
-32.121674 -78.455299 -287.494995
91.816940 -77.645630 -93.233528
38.265438 -70.118439 -12.247841
73.378159 -45.861858 -69.007492
-45.310795 -70.341515 -49.974724
6.678812 -72.863037 -162.576401
63.746475 -61.449493 -83.871796
-37.257832 -77.858421 -202.868286
-87.289192 -71.241852 -256.344666
-159.117645 -68.425400 -245.918884
-156.626785 -71.038872 -294.576141
-0.290961 -49.809486 -264.772644
10.716283 -71.674690 -151.435760
-140.389114 -72.940742 -254.884338
-25.738871 -70.598732 -180.803360
-55.669193 -70.554306 -46.359661
-5.321778 -51.750660 -241.918304
-71.877518 -24.816444 -99.327385
-71.109192 -59.558918 -108.675392
-167.192764 -68.076080 -208.363937
-4.178445 -78.804260 -222.545181
25.973608 -59.129147 -132.767899
-51.752262 -76.890335 -59.963242
-149.561722 -79.956009 -287.413055
-144.800705 -65.840820 -293.915588
-77.935173 -80.165497 -213.049179
85.771790 -48.572781 -110.951416
83.508194 -45.274384 -108.049026
-144.388657 -66.901810 -176.494736
6.686259 -70.845520 -241.169266
-18.414700 -76.227631 -241.956558
-64.817436 -73.650864 -95.252533
12.188585 -51.188148 -237.139297
-53.962334 -68.269051 -130.385010
-2.312972 -80.230064 -275.559326
-69.982910 -64.515503 -45.138432
34.499146 -81.753914 -124.974365
29.839029 -59.391960 -126.988594
-99.909683 -59.870449 -98.515533
-35.279762 -79.807259 -82.225395
-114.797737 -65.095703 -200.813446
29.249701 -69.993576 -135.695831
-22.717039 -71.690826 -200.550018
114.945313 -75.079384 -161.168640
-0.150336 -81.127701 -249.784851
-36.494606 -79.975990 -191.052979
-71.265190 -66.048279 -143.090179
10.715162 -74.066711 -246.164200
47.107342 -70.109116 -38.158531
-41.712738 -76.953995 -196.241943
37.627697 -76.333328 -110.580467
55.904346 -68.729851 -240.433228
-31.439852 -77.162933 -67.288452
17.839088 -62.337509 -241.327957
6.449343 -48.800491 -267.297546
-153.711868 -69.441704 -177.537399
-145.436630 -65.686401 -241.609207
94.793571 -57.501568 -101.303673
-8.733582 -67.908539 -237.165482
26.613089 -55.417801 -273.310089
22.615654 -70.702026 -155.626968
81.552177 -48.654537 -68.168793
3.672035 -70.863281 -293.032471
79.382050 -51.731812 -71.598022
-69.942116 -83.699341 -82.996582
31.894053 -72.408737 -37.116283
-68.809837 -28.913536 -100.520782
-151.740799 -77.625237 -223.209320
-95.842064 -34.300934 -101.385338
-63.988583 -68.585709 -90.319221
-100.644562 -46.246143 -96.936829
10.114279 -52.596863 -262.543243
-95.393921 -24.903744 -78.299568
26.570366 -65.700859 -258.207153
-56.077023 -72.250954 -49.818386
-15.633878 -71.970093 -240.653214
32.059364 -51.993263 -17.514162
84.504990 -45.735332 -79.608246
78.152939 -77.099922 -90.764732
-8.923140 -66.941765 -234.060669
-151.975479 -85.733337 -299.966675
-149.989594 -62.017418 -233.699356
34.758820 -70.762573 -40.024387
-95.816803 -39.546234 -105.521141
19.031483 -52.477741 -21.469561
95.645782 -45.797127 -59.730667
-50.814507 -64.119026 -84.915131
-42.251598 -74.934509 -172.747833
-41.207973 -71.176056 -168.097473
-75.756676 -73.175591 -247.823486
-27.845551 -81.114777 -210.302597
-148.557388 -62.664070 -262.120911
-15.410859 -71.097809 -247.716003
-150.005630 -66.191818 -281.936890
-78.994675 -61.456688 -128.372025
-9.572102 -65.648598 -243.508713
-142.530273 -67.708961 -292.130951
94.259186 -45.592747 -94.046066
-65.354431 -50.799286 -55.247753
-113.907745 -73.891449 -260.787048
27.774590 -54.070084 -257.967041
-68.108154 -81.883476 -212.185059
70.439987 -60.030106 -62.882607
-48.171852 -81.623550 -75.562042
82.165581 -47.121658 -108.490364
3.197490 -86.221840 -267.799408
104.270401 -57.839577 -97.633484
-92.598511 -40.406624 -55.968643
76.302757 -45.946133 -81.189270
-1.715831 -64.759323 -286.000122
-63.762249 -55.316929 -124.576309
-145.188278 -73.612885 -217.242035
-155.300995 -67.153862 -228.297226
-57.509659 -60.132801 -111.955826
-13.530897 -67.157799 -204.453156
-144.302567 -65.813461 -293.993805
9.082322 -80.532181 -228.236847
24.569258 -67.484802 -271.270386
-154.631058 -84.867035 -285.263336
-147.302536 -83.763382 -230.940323
-38.209465 -76.399368 -209.621597
-144.802155 -75.404274 -187.975189
-135.399780 -84.199570 -256.043793
108.864449 -71.590240 -129.233337
-98.259315 -63.166889 -75.926430
66.386917 -45.708443 -61.501221
70.344009 -44.751396 -64.674988
72.222244 -56.640076 -100.725937
14.803539 -71.661812 -228.043579
66.802544 -72.722626 -241.725311
79.004776 -75.041557 -94.703979
-136.224045 -76.082687 -287.825592
9.446848 -79.835709 -219.005951
-2.267766 -69.216270 -223.677490
7.515324 -69.482269 -233.656082
-82.185432 -33.750832 -107.699211
-124.731003 -64.449722 -231.222366
24.672871 -62.317982 -273.123932
-98.227859 -54.488403 -61.125267
114.776726 -75.257889 -133.780792
28.281618 -61.506641 -136.927414
19.100698 -79.408615 -266.365204
-30.494602 -67.060776 -76.793274
3.351373 -48.949936 -258.038300
-3.417012 -65.268524 -280.843750
-110.249763 -71.783035 -256.908569
-17.181494 -74.751312 -224.739777
74.258240 -69.200989 -103.971947
-26.745256 -79.015739 -72.669975
40.288177 -73.947037 -108.901360
36.155373 -73.455338 -145.626358
-86.496941 -60.247509 -114.244675
25.287266 -75.978966 -183.914200
-77.396301 -70.911003 -143.128448
-105.880386 -68.065910 -290.324646
40.622883 -67.933983 -253.178116
1.925791 -68.810249 -229.426117
79.055984 -48.847492 -110.235596
-42.096569 -51.134918 -79.070084
-136.224640 -77.420601 -260.263367
22.699062 -70.501282 -188.465027
98.455254 -51.726551 -93.228912
-64.720367 -79.194557 -99.951675
-0.537172 -51.013386 -243.139221
-1.578244 -77.041824 -228.407120
-150.530762 -80.345337 -275.422211
-90.215973 -30.525234 -104.849678
-141.049942 -68.410118 -194.450623
45.417957 -50.334949 -25.870747
-76.398033 -67.558434 -128.445450
3.969131 -81.057220 -277.307251
52.983833 -66.790833 -91.125938
-61.652840 -75.669075 -163.907852
-8.227957 -75.301277 -225.492844
-161.975723 -68.589912 -237.175766
-30.365774 -41.578876 -61.184452
27.701225 -75.633720 -171.966766
-121.938316 -69.577736 -226.374100
77.107773 -57.105080 -104.255661
-89.230553 -67.337509 -130.201599
-40.280556 -79.523537 -155.231888
8.449846 -70.405380 -233.471649
-75.532661 -19.658018 -83.039772
-150.510132 -74.558594 -234.301666
104.207870 -69.839767 -109.136833
18.200918 -69.064903 -190.600616
67.977135 -67.231033 -237.134506
71.714302 -55.288902 -95.000839
79.699516 -48.567348 -69.366669
-16.350368 -57.477486 -260.383789
-48.780552 -70.040756 -85.560539
-78.993904 -68.373940 -100.256111
-148.021408 -60.836872 -196.177170
25.044796 -61.169960 -269.414307
-72.930664 -49.859261 -100.073433
-151.407410 -59.727161 -201.480774
66.045906 -66.936920 -83.444733
-144.877899 -78.116402 -211.589966
-11.453808 -52.948063 -261.277130
