# This PCD file was generated using the MATLAB® pcwrite function
# from Computer Vision Toolbox®.
# .PCD v.7 - Point Cloud Data file format
VERSION .7
FIELDS x y z
SIZE 8 8 8
TYPE F F F
COUNT 1 1 1
WIDTH 803
HEIGHT 1
VIEWPOINT 0 0 0 1 0 0 0
POINTS 803
DATA ascii
-136.129342682025964 263.025861170032613 -71.813662071012743
-123.356871740588403 261.263077608042579 -71.733081220326525
-166.740240491568755 262.597294650259926 -71.029649542352402
-141.388964117232291 261.702756365633206 -72.765067409073680
-123.582377554144500 262.679735260371331 -70.722304383596935
-117.926982061522864 261.705520502693730 -72.606968655492437
-115.628402182651428 262.260826187520593 -71.750007833326478
-140.324737363901107 262.099256606662664 -72.196209396040587
-137.644588465111582 262.807356060364100 -72.594324864883845
-155.390928146799126 264.039960648195404 -71.731032015469324
-142.033376036692005 262.604472344882538 -72.030754094208248
-15.313804147289394 262.971691368125335 -71.162246549969652
-135.044056035170087 263.358756995758654 -72.214826185746944
-157.418496398107891 263.278349797724843 -71.835913094997650
-153.979271173466657 264.742311576948794 -71.885393723082373
-143.077690484078943 264.300782479891041 -72.559244338354389
-14.207825651187175 264.708063395891145 -72.303638407450578
-144.277970327473753 265.037037622132118 -72.158537296045438
-153.406324976834810 265.332055195620512 -71.900328863422700
-145.472004859223830 265.737023748011779 -71.794357394772732
-146.531077166422108 266.029423756187725 -72.129774099788719
-13.986317052290161 266.851991151236177 -72.514211936109220
-166.857133925808483 267.178811204176668 -72.617371689122876
22.269374097733088 266.892360213313850 -71.916477637546265
22.341870335917477 267.477525976746676 -72.628705958669286
-13.988098849683244 269.028995457676103 -71.279789349561270
21.436811434226151 269.935321403048704 -72.195843101538884
-145.369192751650047 271.792009663132944 -72.294626603654862
-13.504154833018641 271.647014987445687 -71.679621102762354
-167.157643861876693 272.013878923128630 -71.316961924100966
-12.841764726715398 272.412014053133930 -72.233790046215915
-145.756991348872418 273.617251675819432 -72.956215358321543
-12.388378936064804 274.368648789663496 -71.652092870646825
20.871632109872845 273.626406798801042 -71.818878755122313
20.189676943322830 275.329835001573088 -71.458836039241788
-167.146882946516314 275.238260027977674 -72.754023202055805
-11.752357183754645 275.294377677743398 -72.051443388197583
-11.846762064843171 275.660590699921329 -71.911151279451971
-11.254084022604079 277.334803593442530 -71.951774550327244
19.595376307059958 276.275544458751142 -71.151605370712517
-9.635645185867677 277.284605083213023 -72.374099684350611
-146.248005564288036 277.961805190921950 -72.168375061634777
-167.206799632461127 277.800276398696212 -70.937283708285534
-9.346746343127531 278.910414170297884 -72.033397588999435
-166.750782756424144 278.631764515066379 -72.464662143334280
-9.139257832676030 280.899926144308495 -72.018509621515051
-145.154688467786400 281.625133062740304 -71.736493183890374
-8.074903274703976 282.513335873107735 -71.927223798047578
-167.637649320058472 282.700242220584869 -71.712742320052897
-144.858618620101254 283.925953769793637 -71.756496175086298
-133.893373071261067 285.132442603672246 -71.777733828537947
-128.320058901867952 285.731104518740437 -72.237826523391959
-143.571394224931822 285.365901994844307 -71.741257849722629
-134.956698837139015 286.394240158556727 -71.995788091013665
-143.046381238502164 286.107868211997925 -72.522585279519689
-141.285141243723388 286.576863860676212 -71.571060589996193
-125.506104774039414 285.078995343390943 -72.394581075419367
-29.411872076715582 286.996396783438456 -72.344879479611151
-28.667062291087230 287.328169187341359 -71.888702887282022
-28.434998879152698 286.276978174688509 -72.275009420977455
-167.908659692313307 287.145034954077687 -71.901319564293232
-142.121936554047863 287.058122302981417 -72.826285670574464
-136.966173283560067 287.678685642255630 -71.350249899264668
-63.827163209572809 285.628813351436463 -71.926134821342757
-60.074077166515394 286.902551386994560 -72.336736304331083
-49.567462328062703 286.148077681052541 -71.706954391281272
-43.900132962502184 287.088046713089284 -72.878358168641057
-125.001444965055001 287.049916363831926 -72.009424731036987
-76.764182956995811 287.325775815500947 -72.368345149549668
-72.847763225419556 286.549149631536807 -72.118079882306574
-39.915473608414914 286.499078131602630 -71.565044782088492
-33.518241058587421 287.648534042311667 -71.470671251975475
-26.708199254562924 287.134908202601935 -72.468893226052899
-124.166455941280219 288.018958414447184 -70.804389194498356
-121.247099476094576 287.612362322643492 -71.630481318495413
-90.124860069395865 287.136019831771307 -72.372818797126044
-85.771024697651953 287.064859357950638 -72.362499135734225
-39.768866476578530 287.632852879847633 -71.106218087323342
-36.167350221087283 287.556821702739910 -72.011432984263550
-31.502386122418212 287.298598011134629 -71.281760235403141
-25.961420573191621 286.910695738736649 -72.104341544144830
-22.995500183660834 287.005180546136387 -71.906641297641457
-12.106070126166657 288.252161026013823 -72.079427304128231
-10.850222508194822 288.019212071145887 -72.283747830575578
11.341732771914339 286.637188271712716 -71.817052690046722
-118.917838253480284 288.217545847442523 -71.938848904726385
-115.636613854533010 288.426260910584858 -71.034904230749589
-96.432355544432596 287.313268481426860 -71.741448380075653
-21.581882176745665 287.652809757948319 -70.803185041177116
-15.617658896558481 288.083915224016550 -71.329221131482910
-9.204230607647476 287.888062530435207 -73.274054683745959
-4.901166538873657 288.168800142730959 -72.170496464061458
-4.372692453250508 288.097918166402224 -72.118220026902122
-107.846557343894233 288.388429491943555 -72.339681308001474
-103.719729979905040 288.018869715263236 -71.814897578294392
-111.373450531538253 288.913534413557215 -72.323806974151168
8.627733498523952 288.584087353963127 -72.275211474394482
-166.162592200446653 289.256328959857342 -72.766077686424993
9.347567668703112 288.885289632613762 -72.537484568942489
13.028046734753008 288.875215864850873 -72.597018514841523
12.721762807358848 290.286139493597091 -70.768329740699045
15.030257037763809 290.247641049622246 -71.742229220499780
-166.282113457396377 290.712722810129492 -72.202730026786895
-166.160765130663719 290.589088603594632 -71.229506815230053
15.716138849445615 291.171906500479963 -70.897616728292164
16.576448592127676 291.526576593443451 -72.485035524243031
-113.956520736764560 291.970157099561277 -71.976649522518187
-112.151660934566152 291.588785205394913 -71.990800722592667
-44.926385613792192 291.768006228265676 -71.844032522214675
-163.543899252385444 291.770491886388641 -72.321500267855996
-122.478874751749160 291.985689169347609 -72.775275648838800
-107.298257620105701 292.491340879032862 -71.970076429791277
-101.255359645871565 292.257439562588445 -71.954884409244443
-87.453437057688262 291.916592293179860 -72.234587105500708
-82.622050282694332 291.789042600725509 -71.653532987296856
-75.674680996382293 292.176273917557012 -72.310651577003114
-66.556443099937823 292.087936894312577 -72.086079767293811
-41.066270521931216 292.012178586744369 -72.453413353946331
-36.361141790656973 292.491285172551216 -71.801618345282776
-115.723982253330121 292.243630388444842 -72.145382513868853
-98.303769706265157 292.019470017632443 -72.281915774669315
-93.421104935753576 291.948033881520473 -71.813385580345937
-87.192631284071979 292.319186698233466 -72.215282955622186
-33.007280847894648 291.680753941528849 -71.759310471922063
-30.181093832905695 291.770413814475035 -72.583044774592523
-25.119668229547120 292.579425327663387 -72.459401465817123
-121.420830373054841 293.271571875752556 -72.050286654818024
-115.356610542572469 292.007099515497202 -73.003811799308949
-112.793412235080595 292.848770151769997 -71.057621176397078
-112.451210111591848 292.310032125191981 -71.906342375014304
-105.352078170024384 292.172453285140421 -70.681375717799952
-101.206655740114954 292.571378945493052 -72.771457799646114
-96.936619547641314 292.099015980153581 -71.028421183607918
-18.787347554150251 292.558731646620743 -72.087999150877067
-17.267397299692647 292.483123738681343 -71.958946502249873
-15.808474594893775 291.785654377794060 -72.425210832297992
-13.355505498719568 292.507179155368021 -72.556711413684056
-14.051293609523130 292.067515200184062 -70.893043775492828
-6.692564711418788 294.189622698639596 -71.496268070990553
16.229485321944214 293.026179791756704 -72.259787077696302
-135.211883928242884 292.969337721105944 -72.808200396052655
-124.519551047389029 293.482199425420333 -71.046168516090162
-120.674050064218065 293.698269979484223 -71.211594667174822
-116.169939211804547 293.341843712667185 -71.062476227666693
-6.008863263966858 292.948066230910115 -71.783478370071578
-3.595078461425959 293.446890914428820 -72.070244889133619
1.551478952781455 292.818523384661717 -72.546021726110709
3.379403130099840 293.759922557878326 -71.847950921115341
4.420367591028485 293.501051435454031 -71.683892161404543
5.972993499495264 293.778961843906984 -72.092961340248365
8.215376143933330 292.713272008645504 -72.047369080278557
15.619365280202864 293.445057624504670 -72.715712103394409
15.337521696654546 293.834850441828848 -71.402536688496824
-135.073115536189533 294.140041355535686 -72.385411459380848
-126.298649077738418 293.848803029245403 -72.157254542433179
10.409723440875460 294.584687935077170 -71.463981637375568
11.479184274661959 293.801835481769672 -71.752503663684195
15.064222490451659 294.229928770601248 -70.840598226775569
-134.079971618402396 294.857204476531592 -71.573187846023870
-130.411153660820730 294.056962912720905 -71.786971029702769
-144.750903853020475 295.521532137097438 -72.277204647348398
-127.931223673720652 295.365467224181145 -71.197192106404216
-126.070389870621767 294.968304618797333 -71.882809252596616
-157.061470613516548 295.424417403606071 -71.819590418272412
-126.038768961072989 295.439937851817604 -70.949056800754590
-153.217523959834580 298.130905791124519 -72.345620540393995
-145.794543432482385 300.368603546083079 -71.567322753181998
-145.859075738443551 301.033264394378648 -71.627316085448498
-154.952616621709126 302.129099553033257 -71.917277364139721
-155.815398624021782 303.881989783943538 -73.013812827631909
-156.329787301818357 307.598044054509103 -72.444634054044442
-155.393465141621078 309.265677926195394 -72.507552008782014
-155.774554795044139 311.986774795785209 -72.383080208994244
-143.705029330825738 312.772950614387071 -71.783014397549096
-155.169910377869229 312.812600292109778 -72.033820265944527
-149.989155103553145 312.898906983275594 -71.329291040517973
-152.410562048437072 312.868096157976822 -70.834636742976215
-150.832710491449376 312.679590836369641 -71.847003678162523
-146.878719293397609 314.379942932600159 -72.630424551205337
31.129992652756080 15.315605120144768 -71.133031496258369
33.698454450496421 14.987596874262882 -70.380480819357160
27.369554129789254 15.529577153999538 -69.293854397930488
27.097662219401037 16.284133584798397 -69.855875040484079
27.419068431181664 16.572931536023553 -71.203160354168844
30.326072208954795 17.464238452387008 -70.049857959135281
30.508122684994749 17.037243494812305 -69.619103941541283
26.089838170753499 18.748500280261020 -70.213635638394408
30.833500899812400 18.034114407321059 -70.000326986059392
30.902721243958769 17.556790653486313 -69.933638203595152
24.798000513948171 18.790531045516452 -70.451037071770671
30.898984261818779 18.785724988100238 -70.571360276622514
23.762157697367858 18.739906941511538 -70.326866992218058
24.822837643451052 18.543853579866685 -71.223059003583913
27.892806691943523 18.900660978075493 -70.905305311882600
22.470798481566895 20.597034816892389 -70.411769239618593
23.940192458941688 20.460383798248870 -69.802307608440884
27.336376324408597 20.466797861107562 -70.460851072774162
26.080620612069602 20.547716100592545 -70.785724167042659
23.772999298037117 21.868892766323352 -70.008423741316832
26.388686710262345 21.840308371077789 -70.420774021681012
24.846055718907500 21.843053297019690 -69.740677285662969
21.868083305250170 22.045859988297902 -70.750232172624280
23.388050642441883 22.700841984301253 -70.159567512515736
26.221937382271015 22.413399391116592 -71.270675168604356
24.799698647939021 24.777096253203901 -70.438799233201820
25.725750372807727 25.399636431019687 -70.035784950167411
22.295733686946487 26.014266583470871 -70.484381814122244
23.877959859898265 26.502793965544718 -70.586916337923839
21.671463514542484 26.328364563708817 -70.444052277097725
24.365152962541352 27.754880472032138 -71.066763775547884
21.272156125965690 29.248542620477064 -70.477259101543666
21.803110059366187 30.034687950095211 -70.525619300134210
22.811968004763116 29.541154958690097 -70.401802155406429
22.347973835939268 30.408966586339830 -70.129741879239418
24.165095847454673 30.743167152519273 -71.210443129078755
26.085478637152214 30.995899386826807 -70.590429578176369
22.519996966869996 32.512512704541251 -70.279632438900819
22.338863728818801 33.248240259571169 -70.811256743937392
25.958583450017450 32.963399088655422 -69.315206601384830
22.687007926975227 34.068901353611366 -70.841322654373286
25.784151333459192 34.369232547840099 -70.917093261044329
27.176939949112494 35.225747304676972 -69.582059277092625
24.000864091053394 35.189832040325030 -71.766328764780667
27.295561053292726 34.533115280944806 -69.622530580941984
23.795448729385832 35.745136116619491 -70.616703470805192
24.874529625019427 36.437004070669154 -70.719080801328118
28.124678349684096 35.098630247753967 -70.476718020467857
29.510595813583034 36.465231707195478 -70.220728938609938
28.053247415700547 36.585084486314848 -70.060935495247364
29.227536734632341 36.458398007611251 -69.731655061747546
42.268998713923260 36.991124474443822 -70.574843697406024
24.128066625719207 37.532444853667862 -70.282509774010336
25.576180162241975 37.020731296736351 -70.718865140728212
29.457506141986723 37.261618681118819 -70.352571577471252
31.424466027165384 37.705770814872622 -70.134537628983395
32.484909090974909 37.484336646186506 -70.530838265150194
38.365447706524151 37.930021652996544 -70.122629665520989
25.564028449943265 38.633663384952655 -70.725448849984375
27.630872079383142 37.676111077256728 -70.093470837227926
38.754928284353284 38.366079121171609 -69.685485961639245
42.108463663899435 37.316843939896941 -70.762944769086204
26.377892674810944 37.727951247763137 -71.006781238749554
38.855890761197550 38.112916380045661 -70.332421843390222
31.830131543681759 38.626571728234815 -70.311061124784473
37.360248256831468 38.366294677842781 -69.752300789044568
28.294381697580331 39.015505291731081 -69.901078138385472
27.653371954276931 39.090998637084240 -70.455579236785979
31.556708618699670 39.550268577377679 -71.030535939779426
38.428330266863419 39.729057026438745 -70.341756291090661
30.380174897823370 40.431603968603824 -70.507390536730199
30.352156066178797 40.723610401932675 -70.615938457595931
36.751463110763979 41.191181830362005 -70.083131783250067
39.220095741666704 40.374317332435481 -70.777142950019979
32.706263761313913 40.653432208002123 -70.159550089446896
37.786568081567800 41.882651103085671 -70.072157723666834
-63.993127650031248 50.377233083944752 -69.890955552020969
-62.213980443322228 51.639033429465428 -70.448718334115128
-56.287397373364179 51.511122475432060 -69.792295506265205
-60.656941221243059 51.735940626300923 -70.322337214232050
-53.476844077276830 51.798915389072370 -69.861830831327424
-48.551657180579760 50.872555171898881 -70.327774362172022
-69.653113371614936 52.322689764956664 -70.644597221147862
-67.498286258739626 52.042516060934453 -71.056941844018340
-66.354132985315275 52.169410817774612 -70.552212741212927
-64.417063189121436 51.722163701962877 -71.572336031224140
-60.153653852424711 51.357409765206107 -70.598482668398631
-52.758732510022611 51.612524647379956 -71.336581698254605
-48.358822728641776 51.877117973357862 -69.661623825225661
-44.885349302403831 52.728000860229464 -70.450501201422298
-64.660279402961777 52.141824359977591 -71.553817180176395
-46.455592702766445 52.631171043051943 -71.504510488174944
-43.183173460891972 53.329595485158976 -70.896176425423207
-73.542691001561636 53.216132249687092 -70.267885790669339
-72.395911404925712 53.450136401591088 -70.708406030080511
-70.079417976526500 53.665274746846201 -70.984936530981258
-41.232549407169508 53.216321058438766 -70.204946045754539
-38.792456292791073 52.902658297203274 -69.917140310279748
-71.193180070595417 53.949950324638785 -71.894676799171265
-73.917805231627227 54.894758374644887 -70.360738755192671
-34.964410724086811 53.689761627807670 -69.697738175294305
-77.042937623021544 54.405401736471404 -70.170803845500558
-76.214469166877947 55.915867137676429 -70.761223646090912
-34.534219582551557 56.091828122880493 -71.004485980789383
-32.278563383957042 56.116226573657762 -70.982801310730380
-77.234463149690498 55.859308267814299 -70.493804567410280
-76.238055128390343 55.860399323159044 -71.354195788531669
-78.859100041650066 56.737707820177377 -70.783954114453238
-31.523976725787374 56.468987743313271 -71.169931873106492
-29.350484578641481 57.271764842151633 -70.961030944200445
-30.453941033799701 57.955612540330662 -71.049242770454612
-26.397231420699409 58.901282042660526 -69.838396299988062
-81.662759325341625 60.480666592094735 -70.583464921030370
-24.060266538943321 59.929065225012152 -70.037433174704958
-23.613967916242828 61.010653640734255 -69.963149923607219
-83.035222983968040 62.120808472152177 -70.846697216630730
-83.875556296255567 62.478804861255853 -70.675729699490503
-85.377976803293592 62.076730689634154 -71.526405900820407
-23.359300055820189 61.800646113532252 -71.021061350502279
-21.112062185588393 61.986881450236211 -70.132533681845658
-84.968068680127899 63.434337270858002 -70.611040107102539
-86.114636821489810 63.322538030499508 -70.683413980241852
-18.833211545891846 64.353216584747969 -71.346462315928477
-85.855774596260218 63.338138373974132 -70.958062264777240
-17.762124064276371 65.454052994133278 -71.021198717498464
-86.908893487114966 65.029823330636503 -70.022443551490909
-18.808284156638599 65.154119239889354 -71.404253016242464
-87.523999802555707 66.228760857473858 -70.962046229147347
-87.948377782609754 66.639032195946314 -70.638969981955128
-16.518643519651608 66.700776355421809 -71.313937582157777
-89.595844358863673 68.706861590455389 -70.442808734371781
-15.959942701480898 70.294031202868027 -71.666389675169057
82.172155254605940 69.498507761401427 -69.729169500132343
78.624389976691504 70.195121286318951 -69.823767088164317
86.809553647376902 70.390646341713676 -69.724425175081365
88.065539689406961 70.025017283161176 -70.330419467351746
79.897131732934682 70.327467779296043 -70.473750260192531
-90.473348112092495 70.503166908372620 -70.965435926494948
-16.574476072141863 72.069485544412174 -70.743961825595122
77.307914506589810 70.071813540146351 -69.950273879588735
91.421670538084669 70.346088880883570 -70.781167043983658
76.565422989721426 71.284499640807496 -69.802074562235802
83.685407470102973 71.891801331201776 -71.349955100307270
87.072312383312493 70.956908942079906 -70.176308884549670
88.623752491327579 70.985963808161642 -71.503205769879557
86.159881630987556 71.663862279633875 -71.094265762297766
-17.670635691470608 72.707737113493280 -70.923650245943364
92.161768164839486 72.177326601810151 -70.369944319765438
75.717942772607671 72.457340484171141 -70.470650140787328
-91.271244990594070 72.749427353941329 -71.070814497549989
-92.069400871870698 73.300277432569345 -70.187948433491584
-17.622756801987240 73.739857594897842 -70.395273416252195
92.904897800151701 73.089362419915162 -71.082850974962668
74.306869401746539 73.045856877535286 -70.137186885768799
73.001718978035228 74.387385937242740 -70.923139657481798
95.160098382860141 74.397479785725835 -70.667813483962959
-22.099051964675844 75.147799612189516 -70.686558614068062
72.422558005047520 75.975619541786202 -70.425823447954500
-91.592406185507272 76.134061863495702 -69.330563114058933
71.878376120336213 75.323327418988669 -70.543871724674773
-92.021012012163851 75.693067714901403 -71.136467237111120
72.113495827392526 76.984547128221223 -71.138534889860708
-92.411526576407013 77.977004460938232 -70.519361021869855
-33.699237677937546 78.124318713168336 -71.691115676729339
-24.787068532522014 77.940267979348718 -71.052698280954431
71.238832337785368 78.062299971070871 -70.803366634732384
-29.312829187688219 79.893217150755319 -71.203101519935089
-29.026872364098239 79.381425916692052 -71.256231862813678
70.836423145388480 78.708881778306178 -70.067929658153886
-92.222737696378346 80.586621246083894 -70.535346492699674
98.365799287020380 80.500799566208244 -71.073649233605465
70.571156949569087 81.075931735554917 -70.861624670384515
71.376525090442442 81.495763870940934 -71.200228816721491
98.591762160039053 82.266697997482709 -70.987145130031635
-43.504311321453891 83.563344710125918 -69.471765157828983
-94.125388997674193 83.567343579944861 -71.371897499327432
70.166175540203383 84.708078907470423 -70.362550331291033
-49.368499955462305 85.998706636820899 -71.521859214537983
-46.383289269484237 86.222061737039738 -70.806711088157755
97.617830798928992 86.496110039471262 -70.507038425994054
-49.453267801358599 86.931204484718748 -70.861559116878823
-50.230003481829982 86.646403704394075 -71.217898322014960
-50.458976388153246 87.402100337114845 -70.982179043325914
98.366612568451771 88.339147734274249 -70.777260392522095
-94.381711720928834 89.124102394425194 -69.811995875759962
-94.547405945233194 89.320836617859413 -71.138070631824732
-52.512060080221346 89.101279746542488 -70.947269959949935
56.455913246247960 89.390505278014729 -70.494867748237709
58.143651603223468 89.477192429791060 -71.007044973251311
60.578011800120173 89.709989933483669 -69.242016245646823
98.738585542403399 89.782957442736802 -70.853905802311075
54.438489858441891 90.778562522556911 -70.672932535651654
56.502528813992541 89.996853077101747 -71.071051889551924
60.296896859388703 91.039766481227971 -70.870921741461970
98.461985060810250 91.027008032480168 -71.448359572714708
-55.371627710976128 90.945751710920248 -69.979561926027159
-55.761734017361533 91.890826046268188 -70.148263658540856
52.297211223691242 91.413813043584071 -71.126850593652748
98.946003382237762 90.856226305538826 -71.866712643046355
61.303999348102124 91.962161239433897 -70.505412700862379
68.938946496816882 91.825084585602809 -71.004842583708424
70.074981073347985 92.923792868661522 -70.556304186135620
56.200136717131713 92.808835696501717 -70.976368178911031
-61.514263984704833 94.482102870059634 -69.975592474496665
-94.206758776520019 92.976266967168471 -71.317266027793679
48.017317580763134 95.096214965862629 -70.070689398843967
58.077762883915597 95.370703331936838 -70.422800435339184
99.942711566533063 95.356649267213072 -70.789610607927060
51.151783572420250 95.986542075316379 -70.516497297855082
60.106424262599575 96.014813753042802 -71.107531825487072
-64.701711543386892 96.063102944117901 -71.290931061771758
98.202533358993307 96.954444312004895 -71.153184367932056
49.841707236677486 96.381182064800797 -70.515417704491284
59.195021556376417 97.475622608025773 -70.560920748928410
-94.337539133571681 97.675488250076924 -70.544766522871697
95.781817546569911 97.882293236642255 -70.210729422627736
105.228046213148005 98.091708666770558 -71.945460159660954
105.822476344550211 98.414483946644125 -69.726134068258204
56.318312641730884 98.447587088981066 -71.279739817172370
47.496827091239147 99.020575227141833 -70.888174273424511
-66.624777801386855 100.745403802593131 -70.756422312326293
56.419440621802160 99.007159058230258 -71.445691670723178
95.769357678373680 99.872416346146707 -70.636785321590196
96.611955609407786 98.849670393636615 -70.050208219229134
55.584637593560601 99.429195065820579 -71.220665903928406
74.306800058733174 100.392539339468385 -70.953204800756950
-77.183234122874964 100.264755400499780 -71.596036236797048
95.189640841228353 99.426927125707380 -71.800617272412140
-78.087539701486349 101.759984608618311 -71.339887383323557
-76.571482567944216 100.750241074788789 -71.495287940639642
-68.174484492066782 101.049524096055478 -70.272129958397102
57.842135760728382 100.701021698790271 -70.743220905458813
95.624208069082769 101.495052411016232 -69.966043697576879
80.579039552913244 100.610093796118292 -70.733470734034043
82.241034197118452 101.671788514508592 -71.372524841973387
86.147746941081593 101.727847351152207 -70.730983677044591
-69.396487880570163 100.505289771225875 -70.634797245784355
103.007568764908598 100.880509201847985 -70.187913264829803
-76.412543157019869 101.677808010417195 -70.471407466515643
42.744765019297894 101.501292364073961 -70.947871050567130
84.418431240184731 101.781131816138398 -70.695164391775663
92.799013029984849 101.458236220533706 -70.753944626861397
-73.944591500108899 103.272501478425752 -69.998874210468301
-73.457394521055193 102.563550825471069 -70.616392748439310
55.555027880795002 102.145628341306875 -70.518269932075839
76.320562791154288 102.421662695903819 -70.917011147886797
53.962864262842338 102.105991662969188 -70.561127220861863
86.343166400879312 102.791136777351227 -70.946183172244204
92.789480510184319 103.120351611246221 -70.414195953686544
79.948014869729448 103.142419163391367 -70.521622924880447
91.328516686201837 103.408866900130462 -69.688060459083161
-82.558415088178450 104.105598116755189 -70.931159212145715
43.021597566929543 104.010446896169256 -70.095481739119847
90.841397310549667 104.330136243097115 -71.034082302391624
108.411489098823353 103.928550121726772 -70.847502615874149
41.378204932810746 105.214035010532214 -71.331827367994705
53.108598083610907 104.324951587609149 -71.041267747469774
43.086601562958336 104.468437359651574 -71.252717330130380
108.656275193581209 104.266949920130060 -71.020703071996621
40.800778401265013 105.601463138705043 -71.027292468139223
-82.457083780871287 105.524913613063632 -71.747997400699219
51.289067676844773 106.579094007456590 -70.429244900786230
-94.929189884890491 106.665267929165793 -70.941703587608771
104.320139154763595 108.395651355656454 -70.995582792115442
38.857127952484724 107.887880688532363 -70.999124319956465
41.509703982665222 107.944201061821573 -70.221939940601558
50.768711150721657 108.122663115612696 -71.716540011650395
107.798639605162165 108.176310041842044 -69.644414385341634
110.551646175223226 108.099063397523707 -70.067345496400250
-83.508347497376647 108.637445490142511 -71.095386638761653
38.043652793307118 108.640943660560708 -71.395552548935783
104.903617400727114 109.249962502867504 -71.074395835740589
111.480209972454887 108.591452145400510 -70.920542011598954
39.882795954669085 111.254296285194727 -71.084895991607141
51.423648593806199 110.400557778567858 -70.751398304484383
111.434200031945934 110.103316552064499 -70.362876405650852
109.128062227578738 111.421420258391962 -70.025105734364914
37.154289296372049 111.413943393840739 -71.376252305509908
38.837233714554024 110.995729485046255 -71.230215504538478
51.441611552850723 110.956575413950588 -71.797451899097837
108.143757552073438 111.246986855934296 -69.112739141838560
111.373399501381911 111.878987043146935 -71.333541122045418
105.753316890236107 112.003825080495901 -70.854887940533203
48.917563220372507 113.048433504711937 -70.904090623033895
109.035387618617278 113.412113927488463 -70.506492288408751
111.922590513660481 112.824337960203636 -71.366209892537881
36.057416248134800 113.356126805126280 -72.303016910801816
109.736134691426329 113.511443733542976 -70.243796622503282
-86.242683229425936 114.106269553107651 -70.626620577180134
38.133889571948217 113.338774251667814 -70.306001986844976
106.095589575271063 113.935091395385982 -70.446167799590114
48.840514795443120 115.176881284764292 -71.397379434502980
113.373372980294690 115.475941192668330 -71.346551026761333
34.547517454717493 115.128477053561951 -71.150119103502632
-94.445358464886411 115.625053373725493 -71.132983379508659
108.415760217709916 116.125710482396002 -69.685542901495708
109.430808642015180 115.424374229568585 -69.720063422813752
47.319856889997041 116.105123904437747 -70.650246920933739
105.271957187033351 116.023190671567363 -69.310191390909921
112.614272372966226 115.523990996962283 -70.861685562537374
-87.310262626885063 116.214028365152600 -71.565036866877108
37.162514478840677 116.802239182978326 -69.828415524228788
111.307118646420705 116.500467364809339 -70.326421077567360
-89.304830288892276 116.935987429229442 -71.028716236655612
109.571278311065257 116.658778510790114 -71.104257045397347
33.808094298676089 116.663422737986920 -71.179752510010374
-93.544338462146683 117.967374103055235 -71.143676510822203
112.888751392606736 117.765935114522151 -71.386943442368505
43.349179470880877 118.162347511286370 -70.336090160865169
106.397904107314190 117.856183594165401 -70.115081978186822
34.365090385571229 119.012437459374013 -70.513753314998468
36.313436081048231 118.669592020827054 -71.471326093764716
36.387597229037077 118.833843852470579 -70.140947996638801
110.358066658578622 117.921497724665869 -70.125051386138665
-93.190845797908437 119.752917307721773 -71.166775794357818
44.311614691910414 118.872264027346546 -71.947150398951308
46.086068551016496 119.644330256839325 -70.432324800178108
109.540952822087533 119.238991348835810 -70.049631827905131
-91.445498636534197 119.398930619202474 -70.381545020496063
-91.529311179095657 119.351398339946059 -70.260601458044917
34.559998447551045 119.903789668061094 -70.181227599973624
114.158409169338782 120.429983020737026 -70.890626168935739
109.556366839813407 120.870750875066335 -70.437320742387513
110.473320387117482 121.492345293024016 -70.749274030457286
111.434874697941495 120.055831764927504 -70.041290368135350
107.413996802375223 121.614712619942267 -71.400014847674100
31.735529702606307 121.357352141020968 -70.986497532235489
112.088760516714970 122.082875417997798 -70.985187359739925
44.823784537197540 122.031425658319677 -71.386704158655647
43.858657521805725 122.514516758071125 -70.088242423160438
34.377622598076563 122.614642146644854 -70.830618121877365
32.279455055605716 124.744473230545424 -70.722894865174524
43.398448002422434 123.596897845836367 -69.949641691829811
107.367967390734890 124.477387079372733 -70.641630145866969
115.128778855642182 125.007876748491142 -70.227411089409273
40.002062906127712 125.631065654890136 -70.593946724412461
107.034463371451466 126.200592175169277 -70.143033381028062
110.496910180268870 125.759806921429615 -71.776971706769615
111.921434306155092 125.233132452600358 -71.412093774712972
111.786236352558106 125.161727525907509 -70.646662401380325
32.653453610574147 126.295032342861248 -71.008523881920354
42.931421233780661 126.052919633968713 -70.570228157466147
40.191738239050053 127.176059021860667 -70.411468289912492
107.430495355231599 126.685847412541676 -70.190877535145873
112.721139642322257 126.441003559065493 -70.785128249643520
111.729034657283492 126.942485262017826 -72.086196305471844
38.754953296306688 127.614460206290218 -70.451993331679546
38.931446147475910 128.967660060271271 -69.878613842474508
115.770944635612324 128.993444421081847 -70.857252627963433
107.780228464009681 129.270527980545239 -70.666851737387773
112.725289715321892 130.268859834840555 -70.853491911831583
41.559867862412865 129.294543290288487 -70.683805093339487
115.823250330557400 130.030289937242287 -71.218260801971255
31.647572661129775 129.864441970413452 -71.144441135849647
111.225088732557268 129.805390486079034 -71.204591284180424
-54.688022007711346 132.249808239736893 -69.795156492641169
38.468008661546179 131.788656307703633 -70.719981288116159
-54.516234378031008 131.561003040498463 -70.597765699445134
28.649113293218068 130.856554228381697 -70.853850694924233
-51.917810266962768 132.202242654457223 -70.179815214040929
108.960557462211170 132.209018333845194 -71.004317773796203
-55.989408035621025 132.172759294119203 -70.170950749470933
-54.447195005425399 132.422058310883443 -70.247453772092584
30.788754450295240 132.375494769284245 -70.792936968919179
-57.468949980190715 133.437202763012550 -69.733919395012819
-76.127079930293363 134.014522285184427 -69.637774358604645
37.631038309744220 134.276944450108658 -71.347562908780631
40.586212008154952 134.256234941484536 -70.894209481606538
113.928331891505707 133.268773260276788 -71.172177651559025
116.448770214056964 133.365675852286699 -70.889451725963966
-58.953622626797838 134.208732506059334 -70.495262384704631
-50.636456268420297 134.155341565734346 -70.605793510766645
111.497829190505314 133.672658359937913 -71.478905344649846
-74.685028925103381 135.458634951539437 -70.497372819710762
-73.418591685887534 134.323967827046289 -70.535475361172715
-58.845041819406937 134.540627182848255 -70.216276257221239
-77.201715203048693 135.939062012069400 -70.624872665483181
-53.258515129622545 135.940978002025020 -70.652768817716023
-75.183641437345813 136.841349246704340 -71.279995555637512
28.959709442599848 135.691770217463898 -71.572579328486398
37.702889659313321 136.915322938750478 -70.357333806118618
39.413697323043763 135.496837304634511 -70.856294463271354
116.489186333195775 135.923138708556394 -70.874367265052939
-73.527785444495834 136.795014986630434 -69.345148518704150
29.329026044721573 136.523202095022924 -68.972871928736140
-58.965901801563255 136.364911053550316 -70.255062723777854
-56.505192632277200 136.095835317566241 -69.745430067543651
-54.140638606049677 137.341006739021509 -70.150452537531550
-48.588074660384059 136.934328918241988 -70.852637106010476
-48.712467790274474 137.147216174012016 -71.399061844547873
111.850573131018194 136.055774501370308 -71.098812373325984
-77.677502647895125 137.228458974178494 -71.143488072352099
27.307462598689199 137.569793165283727 -71.527952559637370
108.856595414098365 137.226282724182937 -71.381827415362011
-75.872699919967587 137.205136909072394 -71.443801805062293
-47.976133205529109 138.477144111571761 -71.752620584477413
28.196308086729648 136.809412755231818 -70.962160693458216
113.723640333200819 138.311660429751413 -70.300024172213639
-49.368787148122202 138.907913880042798 -70.579870557415092
35.429591511718705 139.015163631782400 -70.344096495592893
116.575316146845196 138.130575556642498 -70.566637570178045
-48.327334361034119 139.799130411365326 -70.921490478452355
27.585955454695736 139.793439921852126 -70.629365677624506
38.040624048154172 139.540724647583062 -71.290530772360896
110.232768736753940 139.855532239254671 -70.633568352686936
113.805340864960925 140.574570545582219 -70.771606880018126
-55.255990754392862 140.370326162287341 -71.293367266845252
-45.536290304798726 139.951239038901321 -70.588609647343873
-58.461657002205641 141.456922361378474 -70.593093496702252
109.332040881635592 140.773110913907601 -71.499507263356335
-56.025651392416350 142.291324776684007 -70.543880043562780
27.270787611871679 143.231079833843836 -70.369061429392090
-70.792067706157226 142.257996699759758 -69.729636433918643
-44.379388278669360 142.637512259264327 -71.293630417398347
35.180123229844547 142.535001131010148 -71.262790071882549
111.705382777310888 142.916073734844701 -71.331767641279328
37.378648397359463 141.967575023355323 -71.220617799254171
-73.297080585573568 143.180993142213850 -70.253943212871761
-58.026620617148986 143.221019156515268 -70.897287531917357
-56.070149745518385 143.548787040579356 -71.710491800410267
-43.539313613232032 142.512132834872375 -70.968401794268573
111.357904804398245 142.977409852773889 -71.072887135779098
114.304406268650965 143.336768920334237 -71.382687455745810
34.794377300893174 143.409071665050107 -71.057616769932309
36.406674352733461 143.006203119685352 -72.010981357313199
-73.711512259044113 144.750095359928082 -70.810118958295405
-69.477127005314486 143.878429631061294 -70.640047648637164
-43.956209460692257 143.542741274386572 -71.081852836387554
25.757499253557580 144.243395724694693 -71.595614670149331
-76.092908311434201 144.899176600388785 -71.145368379121734
112.809319523785618 144.606842868951986 -70.399778864065254
114.471689700167076 144.080904843657152 -70.778167383155832
116.962465676862251 143.807538792758834 -70.758133145713145
-73.655525146148705 144.102537600951649 -69.977967683486980
-72.823934027861938 144.879099720295159 -70.359697560647859
-57.771040664314341 144.814526188926521 -70.587546058151759
24.403818020143213 145.116048415524034 -71.172861328507324
113.225085868432160 145.393707167092515 -71.037832575120746
-45.148055575556093 145.397175546628830 -71.225588852043884
35.439742089435633 145.740212875913585 -70.651462342245651
-71.304009514126676 145.698567067681097 -70.540316460765467
-54.321349222411747 146.170762694801226 -71.901150623064652
112.532985836408585 145.992580464026361 -69.491758671362660
114.200545486748766 146.534772172413710 -70.772748424309512
-70.795292212668144 146.538179835626636 -70.430547181845697
-56.168494105089970 146.006247712057046 -71.594079559026937
-76.130047984863424 147.194654834525494 -71.128632558560412
-71.672780366578650 146.573685487419112 -70.763938526126054
-68.739037300488434 146.171085077347726 -70.415088998934195
25.394985321990788 146.951119759641017 -70.729041695376452
109.821932023493162 146.478942491676548 -70.873698335785747
-71.240229348878472 146.759900272458395 -70.871714846427452
-55.995404710883037 147.107823644442448 -71.512594572010656
-54.938188661331317 146.801619494606882 -70.584956261516439
-70.160602948674949 148.068129802225172 -70.270025064926017
32.197574794788252 147.686401081925226 -71.933881668065268
-74.811737903627531 148.141048661048188 -71.201658959587164
-72.376249305342256 147.406313644156768 -70.019012952682132
-44.019231838579408 148.909391970487945 -71.564473121860885
112.391892109805980 148.123121821206723 -70.611784683863121
-55.823073521862142 148.425780593886316 -70.875669370309879
-67.492171391063295 148.698911435212125 -71.327209161892696
-54.411347705240367 148.730601616529555 -70.837976233366831
23.052189050352670 149.820222096117334 -71.253708260347878
32.488904211414706 149.281109623477562 -70.508115459918770
-75.178486302258662 149.046238055553886 -71.476476879084132
-71.590838809711840 149.627072808131089 -71.918326845763204
117.380031703105388 149.458443478514198 -71.305417120467467
-52.260005607688718 150.703827950663566 -70.935198056851391
-40.840842636696998 149.582363512361638 -70.525121692296679
24.929685462922997 149.221697618478913 -71.131340943971523
34.681826129926144 149.709627954607384 -70.940437924694663
112.381103822545455 150.022129372016735 -71.475811317108906
113.572913378319967 149.910873023528183 -70.574603700945545
-42.565368103057700 149.747333587772630 -70.794207002934243
22.196091159199689 150.655453196117463 -71.584826332757814
109.823710699115381 150.011524610254952 -70.349983866148449
113.394570614518898 150.107075562770063 -70.046358781056654
-68.979800066544982 150.331523014971793 -70.794344389730867
-54.262668972464063 151.322608384879715 -70.570989806401812
-52.076603511054230 151.115561699192625 -71.395667280619392
-70.679535039664998 151.726743976259627 -70.918448876563090
-39.682215507108708 150.854047986438161 -71.259244519469334
109.040173070675735 151.179088720476415 -70.856027005691956
-42.990487385644876 151.528448853918860 -71.185002017212284
-69.156038703636341 151.928771750534082 -71.031933869091787
-65.789439922274468 151.268854889241823 -70.383806753029376
-39.499210614380011 152.118384199130389 -71.179075964903888
22.608748577840771 152.864267287622567 -71.694470063367405
24.449187304748808 151.783125803752938 -71.143960276546593
31.447731287480611 152.283188567274351 -70.836672580337535
109.709685821890844 152.816303578739905 -69.737152281725500
112.966233988147081 152.397537519168537 -71.741601881351357
117.359726850220810 151.911070262348403 -70.526573193317745
-65.558383220316486 152.034740301771052 -71.197119817390728
11.465422863134995 152.359405501405860 -70.900344224012869
-70.060321927950639 153.221415434984294 -70.866964500353689
-69.540265784630975 153.082389059363663 -70.551295024236140
13.505546483164981 153.290990631818090 -70.562317437383982
21.452597389594402 153.269719896005341 -71.324161408509823
114.547281934548678 153.509244570108791 -71.275330604004921
113.817748189209510 152.963799786832311 -70.606844022939995
-73.337513259185428 154.527700823065345 -71.091246621792408
9.814183429878389 153.410716350498063 -70.124550106705172
12.202869116957141 153.155497982579107 -69.540753090274634
-66.670603155715085 154.040542213228974 -70.983956648785650
14.708713749481847 154.332003301610939 -69.688405086532043
108.435727225740166 153.958635948359131 -70.482127683327278
-40.199334955535882 154.049466429561392 -71.438126800783877
-68.477089548627745 154.102861019437853 -70.007672962049696
-49.629069126820255 154.153650337217670 -70.713068854442469
13.027430270509432 154.416345525046125 -69.684564328480832
31.875375186442952 154.466984228654439 -70.650133109232300
34.206283717213665 154.546185294867115 -71.619152206060619
111.855779022044601 154.436305516164822 -71.018499069594199
-71.977729930329133 155.620898615933612 -71.236454427992882
-70.071073179685897 154.473386406224620 -70.927769575260911
-65.354788346487268 155.918830344706919 -70.870489921949655
-36.618625231261916 154.929239074611360 -70.787836249920687
112.259569987836244 154.775662899669385 -69.867664314814576
-51.529058032169516 154.915668300661167 -69.271661799960455
6.982675962171459 154.972799011168917 -70.845987415200497
114.238109191102481 155.723484870354071 -70.746538051133484
117.374732596667982 155.645333880595501 -70.926109145173527
-67.012557683005284 155.983704190836590 -71.200617426994057
-39.681188389362525 156.177873201131888 -70.755272995479515
-68.205546473089157 156.285138230776539 -70.692536667571460
-36.468063301470693 155.951722657331800 -71.466487511273399
6.912600173738300 156.599052714533315 -70.854368339565369
21.254200081742820 155.952801227594307 -70.506969832072215
-72.125727146154887 157.103653374517734 -70.768874148497872
-48.030654826677576 156.022413520979995 -71.269550708251629
33.043748650333107 157.066673281902183 -70.768907681399725
113.877127145468535 156.203514082652333 -70.514329505942783
-67.892661887808075 157.217728914804752 -70.938153700868256
-64.349210871506799 157.408914519208167 -70.629948096338282
-50.323531662034213 158.085223140508020 -71.075298679322842
4.445435604972469 156.706962767573714 -70.554511608246244
15.077892560729882 157.636708368727284 -71.076265868788610
11.459654140839071 157.452875762336504 -71.281444296899579
12.751152468307991 157.936864075590449 -69.895801928994402
20.498711737052375 158.468433474691977 -71.494413093129552
31.061952153893007 157.167799792121286 -70.933177423790170
32.612800935382118 157.612951140016690 -71.231983812938509
116.720594373270302 157.797864579518290 -70.767141359653394
-71.196093214329139 157.451832346213365 -70.450348693776249
-47.173174319568787 158.845769743938177 -71.528240954185861
-38.075918766859978 158.524209922997329 -70.689920154847812
-35.903901349307603 157.414462710083967 -71.519632518515991
4.076815713153066 159.056547242789748 -70.911735269676186
13.336403589127036 158.534703082696609 -70.357591172616267
111.451474267601213 159.011692976901514 -70.267026260888528
-63.152171113897886 157.803666648651841 -70.679547547819652
12.437114949808645 157.959318650071879 -71.687835562647535
12.156179444458697 158.770860036134820 -70.860310466011924
14.965590990875393 158.642751630945071 -69.705075125697562
113.565638250274944 158.838313880176344 -70.728264470112819
31.918168790264581 159.074577872516642 -71.052246675446725
108.392164716292285 158.472121285568363 -71.417482851560180
111.838822703154008 158.730829112767339 -70.988279090404546
111.782038759069707 159.307429672523284 -70.924144375529863
-48.858370842122824 159.432922322728444 -71.603736018025828
-47.240464299416686 158.774431955063676 -70.916113730309391
-35.695024913050680 159.137396780488302 -71.174395677540488
11.793545021747795 158.594036088164444 -70.655524122296868
13.948550917670548 159.767409801617447 -70.646648351470773
16.048421842388450 160.736330566890018 -71.248332892622258
-70.607030999130089 159.827594423484072 -71.071728904895409
14.220590292638093 159.781130618319196 -71.394075835451190
30.897725597974517 160.594860127910550 -70.398281988750355
-37.217647165138004 161.379548626727711 -71.526195067586528
10.312750545774076 161.179233274419659 -71.243131795052136
112.535910797618314 160.658764439160393 -71.319494758297395
112.223575847422453 161.298688200923635 -70.290130825301702
-45.613651444861453 161.458519215704570 -71.034802211832059
22.171061777721111 160.522903658292648 -71.948672503823161
-63.004356117367784 160.867619280039293 -70.934388480384897
19.637129633164761 160.853851566235676 -71.538884565176147
22.002302108561302 160.807815327806935 -70.891734266396483
-69.670025690198713 161.899438779810964 -71.120047524337238
-34.015662097552223 161.709085459019747 -71.176328273265099
0.646547963122473 162.343936774812533 -71.696873581107994
108.319093052281602 161.242164996993239 -71.117712091775758
-47.317820737441217 161.861324670406276 -71.149938971693743
112.022750269477115 162.935862346525937 -70.482175329585743
115.659885211766451 162.087245401489270 -71.471901952105071
-45.028253703912412 162.223206257341758 -70.384768738051577
-0.090490513211152 162.256061271670234 -71.015140492857952
-47.036249531470908 161.979321965920803 -71.026637150932103
1.368480602288312 163.067283432114436 -70.052407779871473
31.474123814828580 162.525503989974254 -71.419915486175498
6.521882076125990 163.519764610644188 -70.835358147540944
111.509294777867382 163.158367867638503 -70.798427442495651
-67.501312979384139 163.788796853820543 -69.836423889058551
-32.344589988459681 163.777403183876743 -71.129075633040770
0.363533138286561 164.156173363144120 -70.361460348279891
1.371693259498252 164.497888430418953 -70.863315053697733
111.776896785270438 164.118234466169440 -70.230590202307638
-62.110744915470221 164.471031619401515 -70.248670888377504
6.066748090334461 164.777131787647335 -71.640122915401307
4.445623481210200 164.240993431156312 -70.084444016484724
112.333806168751579 164.680037742051468 -70.662934179078633
114.669907322396980 164.049711230212694 -71.749693898753705
19.309315565630222 164.824750687237582 -70.850861621813820
110.165808896105460 165.222635366818594 -72.030629697190946
-67.053025121851491 164.708170211027920 -70.043030304595376
-61.799547177194363 164.490049448231218 -70.673624150805864
-31.714338188855717 165.307007890874587 -71.345834992697135
0.629082922649855 164.668806286762020 -69.844429828436873
4.123432028664442 165.151297244552438 -70.690548133016208
21.199958129482244 164.526300625620621 -71.351840557452007
-65.850077958291337 165.539138323458332 -70.573896747871146
-63.103217018622651 165.925206574908913 -70.235400648231348
-42.446977587404021 165.593869122848730 -70.401010053542237
111.923559812608644 165.376457966891309 -70.319918258838172
-60.659459184873242 165.917083930239812 -70.634734633351854
0.350296790431302 164.609896430786847 -69.977488289902595
2.000330591469379 165.747147263417929 -71.303666840074101
107.604615436009126 165.276441288158168 -71.434889432916577
0.230087210327806 166.195882191469423 -71.049266990174388
111.170316282858138 166.858986454923496 -70.860335873017306
-65.983803985995380 166.097372101306092 -70.559812535604834
-64.114244251706680 166.098235618234241 -69.817906739372333
-45.322556302131282 167.476587681762197 -71.326354341692863
