# This PCD file was generated using the MATLAB® pcwrite function
# from Computer Vision Toolbox®.
# .PCD v.7 - Point Cloud Data file format
VERSION .7
FIELDS x y z
SIZE 8 8 8
TYPE F F F
COUNT 1 1 1
WIDTH 797
HEIGHT 1
VIEWPOINT 0 0 0 1 0 0 0
POINTS 797
DATA ascii
-51.949954287502699 147.462635773755352 -76.654978083944684
28.588532708272485 148.378410050208686 -77.270155323736645
-44.912467268333984 146.859421731701985 -75.687636341348352
-52.249963575294167 149.319332405036135 -76.098842742449449
24.481157250729311 147.961519748547772 -76.265784504411457
-41.568811883758450 149.646084009553874 -76.815505573852661
26.346750232620007 149.199832705340611 -76.139307679111923
32.016715453780790 150.072131431774693 -77.997822107091338
25.546465795987981 151.201418059102309 -74.483563971467220
-51.842505510470801 152.955125348557601 -77.481304797762689
-47.358463078887290 151.718457880521385 -77.603077982226935
-45.137765822575517 151.930515478657867 -75.061948007567210
33.203246486811665 151.991010727650945 -77.863256133087560
-44.100380748624829 153.063909540591595 -76.302736201476719
24.204959702694758 153.995130491093448 -76.319095383741313
31.221932085249687 154.316324791473846 -74.686351485475740
-50.287576313694636 153.138260009946180 -74.885678740611311
30.928321663133872 153.024090409054878 -75.736119861824051
-47.019209391669364 153.807304899352886 -76.287768146623208
26.964613952421885 153.121878697017365 -75.887314629640926
-42.270820764822545 155.048283096101130 -75.916373123909139
29.629045118133128 153.263334444258419 -76.558680104494385
-42.920059861494003 154.526243228756471 -76.571812618953587
24.547606871357559 157.614173081666650 -75.378728100131724
26.978681454127123 155.771213947145952 -77.275616781067569
-41.389390294627951 156.774787760147518 -75.178729492236087
-65.531707478461001 155.658881929411820 -76.264236596331230
-66.490255860141900 156.043046215712366 -76.218433785134565
-46.326032216553010 156.016841704873855 -76.364350029802381
-43.110504071047217 159.342055006771119 -76.851121809762589
27.123957053527736 157.026098117477886 -76.448218412791334
-65.469664559530486 156.704471340386931 -76.767683257980465
-43.721841910075369 158.888550037292532 -76.221131272884094
-44.904984488131177 157.617530774110804 -75.875087474049224
24.428771168377125 158.194547709304970 -75.649000466186976
-65.381058461953600 158.632164606875165 -76.599195597573342
-63.356396196614185 157.757456749335063 -76.807592931996211
-36.181802793567741 158.890644118495032 -76.058112281004526
25.875949463937996 158.963998154975570 -75.610520206719983
29.511549324203486 158.673621084763425 -75.432122340961314
27.064623766841379 158.410666294491250 -76.102360953693662
-41.401099284976333 159.209586671187111 -76.287798398325521
-66.850243468562070 158.951748533253351 -77.379720596587632
-64.730260132297133 160.024341902189491 -75.167478979873366
-41.583633209356371 161.226521285752682 -76.430916983395605
-42.898871933492799 161.412539090427373 -75.378012496567479
-39.376017032893593 160.699457897845804 -76.370889767380177
27.725855640956372 160.378049684268916 -76.605322275750083
-63.033911370499169 160.269130123667196 -75.420829254957525
26.075731461464034 162.806158466237463 -76.255284212913537
-62.669498713619397 161.362598255881352 -76.450959608681259
-43.263791051531669 162.578035403923735 -74.620113643399577
-40.470467196360687 163.085320380800823 -77.535274863549560
27.726485351756143 163.610584488563262 -75.549746068737605
26.812484425087810 161.521566049692950 -75.409065966687791
-38.043337256612134 163.006789641837543 -75.491043474304433
-66.496007780214441 162.809404622554979 -74.636165984605952
-38.149675742319310 162.798631528870970 -76.407461818356865
3.104316832244947 164.269840017052729 -77.117075805044664
-38.332939480501118 162.955557752533508 -75.260286933819415
-42.278562884731564 163.417604239601758 -76.847353261543972
-67.638045167101836 164.405353185874503 -76.505606030301195
-40.945209794904883 165.421676510324488 -76.625387760697137
-39.447536750228217 162.752616348216719 -76.130037037774514
-1.060695439828732 164.649811323412564 -74.898173572291427
-0.062365943635293 164.542146452218390 -77.615287966849408
0.176566003359441 164.203650783452133 -76.954431539891701
21.707863353347726 162.296594198696909 -77.405354979030108
25.783093712556539 165.222391030248133 -75.562207076734509
-36.901818084193543 164.749430182521252 -76.547127551747806
19.824864274240802 165.379709270709327 -74.867242296394934
25.649583873532787 164.039517371064079 -76.415960450386663
-0.545549354962313 164.653763638896123 -76.927286533884498
29.919205053781578 164.874077261720288 -76.774460944030480
0.852921696548304 164.230978767526835 -76.617495351547689
-39.286988026671551 166.759531702438323 -76.491028739089700
-38.750623813966058 165.852930380171443 -77.407628559596432
-35.506531588084684 165.939541540891923 -75.369047605916109
-0.544594480896711 166.739398820837380 -75.639918096936015
2.824865973916573 166.055982432137398 -75.451421864903764
-40.109341032984382 166.236355463058402 -76.639420948161884
0.683815929802620 166.169063146748584 -77.171759508038562
-37.770392638138674 166.350160009825061 -76.925560973927745
24.421364074213610 169.077144827289715 -75.977567300070675
26.804349867619635 167.240518305015087 -76.521106026504967
-35.288938972766914 168.171182293497679 -76.951408147352197
-31.156302618761536 166.333928393162211 -76.790847461884312
-7.911952141929746 167.677554079985896 -77.841042593071961
0.339041720603736 167.796185250779303 -76.319779909629759
-58.722990233823374 167.984708828821681 -78.235163028985809
-40.027958639409150 168.622026792806452 -74.970246484934393
-37.320024688359950 168.903117669046253 -77.177593654632645
-32.052007075473519 169.203944301575120 -76.375556487340575
19.706330773869979 168.588097630063544 -77.476091845355526
-35.660846666013413 168.969139221072368 -77.054448032381131
25.166814444929116 169.475459214612954 -76.664827043234141
25.107026632261203 170.135006116593985 -75.488155486284157
-9.286705990092656 168.598405317618557 -75.894440285079313
-37.525076343627703 170.391428613099492 -76.554048007817897
-10.217328644960562 170.120810937816941 -77.445415277451971
-35.393436961884134 171.704731216683115 -78.065205386898811
-2.627375453368265 170.114242858640893 -77.434131947669840
19.912864193528375 169.886751868015068 -76.968232326448657
26.184481974455121 169.612070337537546 -75.380462553427819
-54.831458666360881 170.537772200026012 -76.473396438061144
-40.185029405325928 171.839082437858025 -75.898231118106040
-31.694740539035031 170.738007380613084 -74.842050126787157
-33.356127040331650 170.855915442391932 -75.785759109621196
-3.051930502555892 171.230020492246467 -78.188814375220133
-62.378561857336472 172.139780490738161 -78.642584541424782
-56.681048030999428 172.045918630238958 -75.499365667286867
-36.870613453936848 170.666842129851318 -76.775385676782818
-36.417146720984675 172.375139489397071 -75.890509164372887
23.375175138363574 173.517082632186685 -75.900724966715998
-60.070784361478694 170.910731087649623 -76.576058794980554
-61.119437902649025 173.590992052299526 -76.192475907935048
-57.371550698193971 171.870058728543654 -76.337831202373394
-34.478031851399187 173.401506185632059 -77.056968759470024
-33.013872473695237 172.152503535912302 -76.116332989382329
-13.448873066100319 172.541046915631057 -76.668193913085020
22.136955154333322 173.723596935926594 -75.109147370888422
-30.594170149849855 173.137911136453909 -76.064457551640871
-5.024699351328899 172.001522165001575 -77.410680452608773
28.497470659870725 175.200001749064853 -75.458525292427780
-57.369526847095258 176.715711180319460 -76.597706581469353
-27.491229388440633 175.556024995105929 -77.263909811200890
-7.668304711858676 174.411004970249650 -74.546502335963368
25.347372168141217 173.509334863873050 -74.412274807639747
-62.622027400408818 174.679765839823546 -75.880313388211775
-59.872756335429074 174.679984035873503 -74.658015671234566
-57.527366812499224 175.214831590297791 -76.126962882329792
-31.560785755232143 174.767704871141774 -76.127548180309518
-14.475564319177769 176.483542673901553 -76.798955726639306
-58.559711384957502 176.693227089548259 -77.513040934412388
-33.663754449976786 175.075981222712301 -76.058155253461777
19.703618367079056 175.384530558767807 -76.666307232991130
-33.646656890319989 178.543207813467092 -76.858291362577162
-17.503746179588294 176.711093035966400 -77.541447699370181
-61.080469612444226 177.572545023061110 -78.190633056422300
-35.819925771917930 176.774509812855200 -75.831613812986220
-32.013042359794838 176.073161801967956 -75.765782839928946
-31.105688346283678 177.112235232721787 -77.408843081031236
-56.997175029732880 176.922935046052373 -75.704981397025307
-16.380727182854397 177.221688787311621 -77.391330304416087
-7.681703109177663 176.287461810124285 -76.898285676566601
-28.364513351801229 177.667685133288188 -75.458578040432400
-53.272882418542224 177.189722656167078 -77.200952053599636
-29.551233101936489 175.562295418242059 -78.675010421787263
-59.292208706174833 178.124312761347511 -76.227075077136703
-56.357533566450869 176.861106684191867 -75.819289565379520
-17.442723519189958 178.256012422331764 -76.295147656476516
-10.166356973387343 178.167196457603524 -75.246631018496515
-55.156070914696059 177.038355974329590 -76.639734519978191
-18.686542495394448 178.976248547703079 -74.508629474116518
-11.533593572391693 179.594870385938208 -77.264159163341773
18.419825829198242 178.563181375318436 -77.269353882523575
-51.054730589545841 179.712149927990083 -76.922611091148426
-18.445830120299473 179.590582926801204 -76.494584217720103
-59.017111038377031 179.558662210634424 -76.575792354387985
-33.056889301563736 179.639338474543706 -75.953809767315988
-28.302287788860440 180.782419334658726 -77.093523622483715
-28.182890039780002 177.975216627939801 -76.504997323417427
-24.069531315668435 180.123662692637623 -75.414209633357743
25.428583614760779 179.293124233193168 -75.277243062729212
-22.146505158101476 180.925304772936300 -76.049620455392301
-12.625132240402861 178.109308959482576 -76.875589546805074
-18.924560941159747 178.935094027116122 -75.824516692224606
-51.702836804670952 180.759322793655059 -74.809796680360634
-31.722659743970528 178.528664236351716 -75.203742925935003
-30.887380725629505 179.810964947796720 -77.818855248907639
-28.751000759693270 180.972167089645012 -75.299102051319181
-16.857520289221881 181.361054469887932 -77.206234200430401
-20.597315754258592 179.951741190594390 -76.258146090797425
-21.115533395467498 180.656935471017391 -76.799523218571920
-21.821068758057045 181.000727704384474 -77.221612413043758
-14.325146895799186 181.063394538639471 -77.250800297405874
-14.475380972102881 182.270705547164681 -76.986681051328816
-56.501051832198854 181.929569144378860 -76.132899968006612
-50.477000704118261 181.224463741287622 -78.350707154272925
-29.832763532212407 180.940645260209862 -76.334933916993080
-23.395680727967743 180.340621173971840 -76.646878262216632
-22.966014514087085 182.173876139659569 -76.751294985265986
14.975547202650249 181.604110953555363 -75.111596209537865
-31.445173433313006 180.681693685453240 -76.823644741182591
-55.789963642634788 183.533206946475815 -75.724123107648524
-30.555000896966853 183.398123507548064 -74.463989861122812
-21.855974979410878 181.047578368341249 -77.141592336898796
-18.059462284838887 182.177286479968728 -73.982004560913865
-18.225661060124249 183.174280289059823 -75.868435376685099
-51.350952218200383 182.953329580790466 -75.926377974545318
-27.914616768640489 183.203938145756467 -76.575640331461756
-28.342012014421517 180.316099417643301 -76.795105047341877
-26.060235545967334 184.167310745964159 -75.729832558815090
18.581313984576017 183.446700625714072 -76.649980461662238
24.739490527050915 183.527050493042907 -77.988235221875883
-48.655017544874994 182.256505196839527 -77.196415718012574
-30.956596205034369 184.446247356989289 -76.704441091807823
-20.672266970447197 183.021291336274743 -78.017267242575244
-55.825184361177605 184.485121166492661 -78.012414934194879
-30.276290328205430 183.809575057732417 -76.010157745169067
-27.119390560784815 184.381627202846573 -76.355917964553427
-25.749265696362148 183.586775993618829 -77.430603072604228
-48.937229672434022 183.539418012275178 -75.902121805589530
-47.314344510678026 183.574454407942710 -77.709762490946360
-20.486180481967914 184.864872324270749 -76.580606018141438
-56.867510406010780 183.906365401727044 -76.282133342625656
-30.725932862769092 184.433402550223349 -76.104503205461867
-28.999241600111368 185.882752580295630 -76.767908601329665
-26.053009606957392 183.972479906157076 -75.307213197410874
-21.550090595516405 185.799228946644206 -76.120917912498498
16.376034027370807 185.467471048807568 -75.709762875955249
24.473024944411030 183.963020948462201 -74.665811248794668
-24.754292988666975 185.699325533481868 -75.835811459079011
-56.326942634412497 186.158427397158164 -76.389907085115524
-28.570273371428279 187.645307649215084 -74.850237695010208
-21.203385736591816 186.759669024116590 -76.751674238315488
21.166611545722670 184.740101336320521 -75.324180294195358
-51.396173901205103 187.536079015262146 -75.799130499104479
-49.248342111856999 186.178405434911781 -76.558243396314879
-27.954049870475473 186.519271472953278 -76.563363089681175
-27.278005102275070 186.763785472507152 -76.433665963355395
-146.968897935555844 187.682682857389182 -78.888201068817096
-146.445523170165700 186.405133061274995 -77.036228179864480
15.554006830802027 186.649114472489657 -76.307381994568686
23.338963939892544 185.495312514875366 -74.708295805377560
-44.591986771008365 188.159142758591685 -76.180135334336299
-149.628429352290084 188.793100251545781 -78.398577356481198
-30.595936744343852 189.271319385003494 -77.151429775542027
-28.180801610901518 187.072153212154831 -74.969607745116832
-22.424324142590304 186.710520298918652 -77.940127585950691
-27.071201468363896 187.495617632414309 -75.396317972290618
-26.077531045568019 188.157391045577953 -76.156823871293327
-23.320894590437398 188.352606688612838 -75.085761927595087
-19.867928561220126 188.924310664318057 -75.508667234652933
13.339179343721659 187.474831330427691 -74.862020153967563
-49.170997990539952 190.228101193897089 -76.039806466472385
-44.419884690394923 190.543479794494431 -76.652306670561558
-22.088146780200237 187.601645219352832 -75.644469704086305
-44.956940806819787 190.893916251148028 -76.276685338766725
20.853514866394590 190.174800389912235 -76.431179104247008
-52.627142012813025 190.228330971277046 -74.918464764063174
-50.358176242236993 188.828393274770093 -76.738931516147602
15.012533632701500 189.414210850648516 -75.629144542560013
-47.590776317698634 191.490385821728296 -77.520769394080347
-24.375453451352683 191.409908472612841 -76.664693756360762
-47.057987514638398 190.936284692723291 -76.319747500557682
-20.288511205777233 190.749836353148282 -75.720909289696024
-52.984299255469701 190.327878898301975 -77.724223068241216
-27.251539361761154 192.190307899808488 -76.089759366293848
-25.252594826013400 191.940305419570734 -76.697770208444808
-16.617121967610238 191.531607595636160 -77.132881107545060
22.724604633556481 192.621272263218259 -76.626672916841244
-43.923515592401174 193.566677273848967 -76.429639660108506
-41.166226673929856 192.411201066333348 -75.764810812225576
-22.346129418642530 193.725008053312621 -75.611955399000806
15.582671610534517 193.598957904431273 -76.105185053538975
14.610442737703920 192.194757772118010 -75.987419986593324
-50.595231995152609 193.705762954456929 -76.843646680317576
-24.503041373934042 192.402918577835152 -77.966820732590719
20.980193540111468 193.349339807977685 -75.295499601853962
-46.722121044263375 193.378207437338915 -78.276687306403744
-41.142362224343309 194.467757119339041 -77.906080037856384
-150.644241206614822 194.253310186141078 -77.055794274093103
-50.137262003343814 194.923989660841755 -77.298810670641700
-21.372381883300442 195.126341586442834 -75.850812553012261
19.950117908307487 194.201277706430716 -75.652427419200535
-46.350955443142517 195.628180521943932 -76.045705692147351
-26.003006954679051 194.046707798291010 -77.218419649976923
-21.375297796801171 194.667101871110845 -76.339753357791778
-49.368018759707624 195.579806030470280 -77.549262046558042
-48.426708771593191 196.553749656201461 -77.850187381492404
-16.289644570813653 195.910981318476814 -77.845417215832484
12.505616693557386 197.873511663356737 -75.709603234908229
20.701991827232344 196.599475564793352 -75.198044056459537
-142.130173044741014 196.327559906041046 -76.902854597885366
-39.672575267804291 196.129689223621710 -77.009247079274928
-48.329119945674570 197.554882056789552 -76.337234513297659
-22.525309962865062 195.564249793611936 -76.573356701849818
-141.564198962120088 197.192839120685221 -76.699220140383673
-36.981932784578767 196.937608386323717 -77.724202151263768
-21.408369436292499 197.948249200274688 -75.759310763678371
-18.220858333219390 196.993564420721782 -75.741064275325655
12.041401738393924 198.651718318663427 -77.411410554842448
-39.495413356165329 198.892828889355997 -78.504441294713061
-22.449536414351204 197.981706734901451 -76.852857473013302
20.848544010331867 197.102430687569637 -75.193902488071089
-133.818946400247569 197.432502431628905 -77.764375756414836
-37.814594903084547 198.999266627984184 -76.040800570337439
-20.103329659269509 199.461647519387185 -76.552609957490361
-18.625370752355025 201.164929277046838 -74.049047655634524
13.043490019944045 198.265866301550318 -76.045252328129379
-149.228539106096207 199.677334025323944 -76.434090859323490
-148.988495053252336 199.120129575661707 -77.603863002041848
-132.748787180435102 199.267761894893539 -75.469326637403768
19.739237534806833 199.567072294207094 -77.170085271148110
-43.999646318127049 199.471181325025753 -76.979630894138168
-39.164444831852506 201.152900815457031 -75.530076167002534
-20.254544230601848 199.968330108622041 -76.887391654973300
-148.524537373597070 200.927777355900417 -76.733073177928020
-18.267871298349526 201.843802076646256 -76.803463848511527
12.382654633317578 201.796520016269454 -75.599002149812065
-44.118969735121510 200.966233897995636 -76.675670511962267
-152.043491701827207 200.745058696401514 -78.391421231459034
-148.203147886542837 202.692239886079449 -77.491845337703282
-39.035742322326925 201.881871118055045 -76.633778018695637
-14.723446192009099 202.200978725036947 -74.764128288370969
-36.884299170220316 202.165579392919369 -76.839591368749851
-39.998800377803171 203.024235847338531 -73.718088835590990
-39.841695162914618 202.021369190651427 -75.159379764800590
-17.597802597569210 201.737453169478300 -75.984043435840704
-14.470121954288894 204.748459156650654 -75.285639402636264
18.055942230508400 204.868105178900294 -76.964593144079103
19.691469710686327 202.489102883745915 -78.539970931379045
-35.914390628927869 201.867824417948782 -78.421565884845933
-43.004752912318864 204.579121355320041 -77.868731785634495
-41.043988632639667 203.702007651156805 -76.967268330982691
-15.960212503562737 203.711092284971784 -77.087536701047668
-34.950549830936197 204.619441639709464 -75.843244589367359
-31.625949654795996 204.134517737555399 -77.347549465850364
-14.627327693257802 202.894114912974402 -75.500795283766777
10.515140084217352 205.372740520466039 -77.045791493685996
-35.866220466724606 206.151788070816764 -76.082610684126109
-19.751431139520658 204.472592001735194 -77.435885265179621
-36.169513777776359 207.704141045632099 -77.110112240595171
16.995662663239383 204.432397983635070 -74.728106166396500
-39.833011611381067 206.961218689787103 -77.131110998433428
-31.525423837706825 204.549319273420394 -75.779629145437170
-18.181678499839386 207.170848716325565 -76.475405948224875
-63.480538731698054 208.832365620852045 -77.139117571349033
-14.027454499166984 206.911670545719602 -76.047460502981338
12.696166425603016 207.781786158053706 -75.442176134391104
13.983377845544144 206.451687495443309 -74.344134043081553
-63.044255277833102 207.394907960712345 -76.227318330213564
-60.667098515557619 206.476659255846414 -76.947678218405784
-33.304320102041338 206.646982660115782 -76.388493524721099
-12.917457732676297 207.365569761420858 -76.431750880448476
-63.077186701916723 207.637669349898999 -75.932262624919161
-64.794139945048883 208.414614745066984 -76.473610430226614
-61.448597950919563 208.821094301802333 -75.228495495878420
-28.209596223863933 208.549082335021467 -77.015572135580626
-70.408695180731996 208.529329665941333 -75.359720473201392
-68.857696009489459 207.813358995612560 -77.038713539020975
-33.936198002212507 208.110490400034507 -75.754528531874470
-11.352382573198364 209.021421589396056 -76.649281640675738
-65.223694555150772 208.437716381924162 -76.565864665415106
-63.088946508629824 208.786632829041224 -75.954212189682821
-39.648127724840414 207.980134392874248 -77.342444269626057
-35.065651183891340 208.519690453389842 -76.609591029345935
-71.762933150556506 208.970951961769941 -77.639336618144270
-70.779818035820000 209.217052916579917 -75.269085073594013
-67.439830211278363 211.003077719397112 -74.255676771675041
-62.848008193151756 208.815496979334796 -77.270717571929424
-61.342227890983516 209.348768959311030 -76.515278719270171
-59.607771876805018 207.564594095989833 -75.177691926198236
-13.762540636968348 208.712113041650042 -75.558914645248748
-74.695374833891037 210.268496453354771 -76.231894219383705
-70.805243794155885 210.325348294615054 -77.149552883775542
-28.899055589831320 208.676897619543922 -78.013827743315758
15.023292086821861 209.248630615809560 -75.729154297250190
12.067060331001610 209.457586642193434 -75.489813899484517
-15.620696689240846 209.208615803250296 -77.996452006373516
-12.531064027822307 208.909989446606176 -76.109757942118378
15.672137127391975 211.793456849736685 -75.289538999696305
16.347508781762588 209.184292155090134 -76.340725918399471
-64.766941469649282 211.743826750625914 -76.192245417026385
-64.682402465992510 210.168211051646551 -76.721333023878060
-30.361380380861586 209.934528174669140 -77.553508263061673
11.666316905865209 210.677382530402383 -77.031541273099677
-149.861309993593466 209.521092077440557 -77.953074984641617
-77.707438901299511 209.876995907410389 -77.478023198976203
-36.946126810270862 209.823848352763150 -75.301698960684746
-28.632565491953297 210.720960593848304 -77.858682304634598
-19.568245140258789 210.980358305127680 -75.723618560354822
-13.543587383102485 210.722600646587949 -74.656706175408999
-143.950182494300179 211.847212376797330 -75.380319022907130
-79.326515218329789 209.571561470951593 -77.010498439621585
-65.164925240870858 212.033080156031531 -76.319503108287662
-13.191587650261614 210.103865536585658 -75.277210410366251
-13.292019943586279 210.737136525960466 -75.440611573981727
-69.264731908092330 212.907024600350525 -75.256677036216558
-30.992215991135176 211.728206445784821 -76.947431701964916
-31.381556274601117 212.957390153992606 -75.266351013610773
-9.901188892934046 211.097023770409919 -74.594721638137869
12.634788459616519 211.188313629998305 -78.040322924886411
-67.031848212514731 213.079506060324121 -78.213660293303448
-34.807469814228448 210.747762021519407 -77.095929397677978
8.693605748549960 212.187142915179948 -76.557735639055934
-145.035116084194954 213.835109258303220 -78.021367998307326
-145.818522884869367 210.311747978357346 -77.500100813031807
-25.844164395338971 212.431437692993484 -77.371734952470703
-12.367701351718072 213.162597816404116 -74.990650686255989
10.445408472976819 213.067791361836385 -77.917518491294089
-84.040347139273990 213.203475186407474 -75.819149526329895
-28.571296962007654 213.869434769238012 -75.250291774128129
-13.091201502517508 212.146989048343784 -75.475375922905499
-14.071179391277054 213.516162487210380 -75.970635524701308
9.601550530522735 213.343063081146198 -75.326643127484132
17.564847157159218 212.451901006942222 -75.447449702328996
-86.808882627370508 213.119427014715200 -76.102305377262965
-69.301868766408063 213.473179411837918 -76.310324352603573
-26.247425042618058 213.519038523363719 -76.003489298910637
-86.953275939760431 214.719024337259441 -76.702582793138475
-5.908321343490055 213.687629757622375 -76.294848220078450
14.467717738006872 214.666362806565900 -75.271493650105270
12.483970525497128 214.156244308266764 -76.720568968406383
-75.883758018579016 215.501102526900581 -77.417183182034947
-75.758502745345467 215.922686427914158 -76.941193446914795
-16.125767839077938 215.973270202325267 -76.928908055381584
11.469286989073028 214.738404138096683 -77.057665310363959
-85.731490552177988 217.207120237506530 -77.279295023465664
-32.687987513369166 214.864273011367999 -76.753700232006651
-9.641283681480910 215.627786503660559 -75.789976033656629
-9.458568853792833 215.353718238205005 -77.298285761669575
-79.626220656221236 215.372081969350802 -76.116268020730885
-78.864625680720820 218.392741628637253 -76.483035005984803
-11.127791597123526 215.807642596111606 -76.044723945239340
9.922407819077224 215.393720982796026 -75.119453602318430
-148.218894627189485 216.503173849562103 -77.611000842228961
-146.136188026540395 215.479737656193691 -77.775817059622838
-85.999382156247052 216.945751546450026 -77.025596501851183
-30.301324890575039 218.308634994596190 -77.155882416120320
-10.417113052574344 217.450392764061974 -76.503700961580222
-9.979526063806816 216.115155184603509 -77.062750167608840
15.835508243390278 217.059258387807688 -76.670897049003131
-146.327263662269871 216.532138213417653 -78.205171327429767
-84.569365492297365 218.160926558521908 -76.919780322144121
-148.975668044259834 218.880024536691707 -77.109664295398105
-146.424550879937215 217.850941738108986 -76.395195853651060
-10.053730164066108 217.289706537938031 -76.222006847462055
-6.671364540802391 219.001461122986228 -77.232137863812113
13.986512483139721 215.841184971077439 -75.576376278212479
-145.502498963115755 218.631578457739039 -76.527346718071257
-27.444996755046077 219.841063001494348 -78.423433544156651
-20.323043164957078 218.270115124046555 -76.655725406930600
9.071249236041080 219.402021935590426 -78.212239220124047
14.746206804529624 219.770677148370510 -76.311815937028115
-150.842044931402341 220.333343289594325 -78.775930349582865
-27.832038863811828 218.863941586946396 -76.723514820915952
-3.129455164081917 217.797623171615101 -75.644062922755055
9.522602584387275 218.432700831458902 -76.724821091911906
-21.158909972309456 219.116018612701282 -77.299518517750613
-10.411981668028028 219.298165756176616 -77.385163096980648
-8.865311534341011 218.086092715348144 -76.338459267047270
16.134498503551193 218.347680039241652 -74.869080754417851
-145.342085157601417 218.823405321283786 -78.321032283507890
-26.392164838470741 220.089358033304165 -76.712565540270617
-9.809942202097275 220.972020427116462 -74.412577036331626
-2.727790369453801 218.629077083632410 -76.649390937634806
7.483445263909807 220.846285068900613 -77.740417749864605
-19.174957501172482 220.286065653874203 -76.571418672724150
-17.873979982990033 221.694279389582363 -74.946653242112333
-5.466941370093719 220.898163854321496 -76.676037174298557
12.493003970495163 221.746227428877631 -76.636884571205968
-22.298717423766874 221.564242317511429 -77.068623380895133
7.033738605460728 222.351595212709952 -77.779261720485010
-19.210378473327971 221.925218998980654 -76.501020547650256
-0.791063247529425 221.413231725297550 -77.240465784029141
8.609341439274630 221.990297801241013 -75.958164585594403
17.104627698234527 220.656767920878451 -77.093499527388957
-22.836672544822093 221.517372308980441 -75.796009170960431
-7.047507932719361 221.287471378313825 -75.821853281689954
-5.274223798490949 222.643619733098262 -76.081021586366631
-3.928077869433058 222.636104516010050 -77.593837722856463
-149.976974303243992 222.542562575107752 -76.809527724119249
-144.640462506235878 222.310600278753498 -77.318971636736350
15.558353940561890 221.091677523136156 -74.326081378499850
-22.809634045906162 222.293101168380247 -77.152926138327146
-19.382769418307426 224.006799449837303 -74.896163722751481
16.082100810969518 221.574855146431503 -74.755426860508493
5.442097203092610 223.551719125545418 -77.897383204673091
-144.864070689603523 224.101104693028589 -76.470214332050318
-19.695642096367404 225.102070035712956 -76.333720194721309
-6.579718796217021 223.680976992917380 -77.208426148975377
17.765575838200519 223.292370476476918 -77.538020026177776
-150.363534049708136 222.933268427416124 -77.464516300818602
-21.850734105009817 225.050370600041589 -76.399622099507852
-7.633789244480720 224.802254934656730 -75.834362412262507
-3.420772491986568 223.319512156249488 -76.307666081245870
-2.186637583846717 224.803493538712729 -76.113951055454805
-1.648206312508602 226.141713923229844 -76.563239658335775
1.140674707240033 224.719108899571438 -76.565690475876423
-152.973954107647074 225.593555924805571 -78.495159582398045
-151.992501305477305 225.837388211872792 -78.393246854056031
-143.362411088629983 225.786650438203850 -75.458266705605027
-3.340619384797089 226.303508885699841 -76.513738151968838
-152.065947429325689 225.730367782529527 -76.109532817286762
-142.068714488823019 226.349731263144719 -77.252825552352860
17.206616982953303 224.785037786414591 -75.513777734937250
-3.405175474694285 226.770981111293622 -76.445676208833220
-140.979725845904369 226.907927517586131 -77.190277239200654
-138.404033117608350 227.682143380099262 -78.065973027751767
-4.054282109246858 227.699197044518826 -75.185070467329552
-3.064230529247213 227.297629131335583 -76.635592081679306
16.257761696484867 227.051713857986130 -77.954909103740889
8.057676079717083 228.628227402512039 -75.287392512924683
-154.011591605143281 228.317787925389467 -76.658024838287091
-147.004762138151335 227.186567191391646 -76.868592975572213
9.617988756370634 226.766266517265706 -76.800796899731040
18.086964686766660 227.254173931590088 -77.976936084282784
-135.286093912789113 228.367518072508091 -77.487064702776934
2.527266138747044 227.995615199888618 -77.947281847006096
15.400127346778326 228.331237208536209 -77.883906716129175
-147.431259634167645 227.678851859467812 -76.987969331225727
-135.717851051807969 229.714778846591315 -75.999883664571271
-154.871066104216737 229.800738537331483 -76.471764583597249
-3.499945380026536 229.001683844307934 -76.962391807438408
-1.232476053021367 230.001171050398483 -76.010904630513593
9.731448568594438 228.613347614042027 -77.147235930068973
17.297641320764715 228.876930809083319 -77.382485944442976
-145.391512630012187 229.089780313718506 -76.740281638708794
-134.092773990974479 229.754570808715215 -77.286411142197764
-6.647205912539483 228.739413725697801 -75.675857677746919
-153.809261933301855 229.754401451308524 -76.407458180904300
-145.572309842148456 230.146394258768652 -76.389675957594491
-135.041788622142889 230.719525740392982 -76.460325226103791
15.466781068073370 230.687275534288091 -77.149454250497584
-145.681833976222151 232.415448579268798 -76.570364860588612
8.229568667744097 231.358392927951513 -77.516519724753039
8.889049709248100 229.880287545437966 -78.589705146108201
-133.165848977917420 232.192160722559237 -76.448170690067855
-153.903533522682608 231.185410507719070 -76.344830800389346
-148.538167725077614 230.870034439292766 -76.761280622629315
-141.497113419917980 232.519668007875850 -75.345928520192047
-136.912973039119407 232.061979950922279 -76.931362062951806
0.067642041610099 232.750897657721680 -75.296406633145395
-0.693962620350398 232.624021073771672 -74.646212854531498
3.597444845821029 231.838171416102597 -76.299578416445442
18.038319088984089 232.473328807212852 -77.889714391672527
-140.433248171081260 232.782079830619324 -78.068691153011727
-141.974755711723759 233.298366943950157 -76.604691171789028
16.134846813563325 232.860740000262155 -75.714688575943597
-142.299948227135758 234.565784219333779 -77.269378375732899
6.283525385089314 233.033229837472902 -76.885112085996568
11.108016145781638 232.905274852039156 -75.602987995631835
-152.011287167704666 234.349651239743025 -77.048876714926180
14.492489833754746 235.664387079122605 -77.550617107574979
18.590178609988019 233.734614960543553 -75.700569097645598
6.680682740043170 234.864782133881533 -77.463922838227745
-2.396021873674324 233.918667281609316 -74.835511616111049
-151.556841422141815 235.980826958607338 -76.159642757409500
-142.374839343203206 235.062981326756329 -76.250481113406536
-150.442571696504444 235.855929376394414 -76.216863291083271
9.105648514035673 235.771077033140870 -77.118009727694599
0.294965922055384 236.076380624215432 -75.516492198004457
5.689105303692937 235.798320187882013 -77.207614190628206
7.865429640686362 236.493928987385516 -75.775455117626450
-152.794937396049306 236.619965723848509 -76.214923352733081
-144.283249239924629 238.286055065470720 -76.325074776216240
16.870162999355493 236.386124236056531 -76.090592925110187
19.453236741644186 234.278006009824765 -77.249992378649878
-0.594575089411943 238.411911866320963 -75.922618663388789
10.779464044860596 237.504156837804061 -76.032105571960344
19.188027489711349 237.243702680409541 -76.623476064112566
0.643546598313240 237.990052527619014 -75.564379058073484
3.308501616161390 236.755845682062784 -77.209930759952712
-145.111584446230722 238.554172217852482 -77.753368025974339
-152.514412504593025 239.148639725674769 -75.725335258904337
-25.312220664517490 239.479893861753396 -74.889266680394599
18.579676711914836 238.580610220839986 -76.028206021163300
-27.828012026662513 238.256295543741743 -76.346398510135771
-23.787848057461936 239.675877715318506 -77.385965128496366
-23.136347047521554 239.833704182311038 -76.331615945490242
4.430887686560760 239.856350528491703 -77.227039245842263
3.396198042754647 240.988960174450057 -76.174551639737658
5.005980987242455 238.375532225315084 -75.327749492523495
-32.418692456458743 239.251687294765418 -76.519583034119023
-24.246756620183099 239.752064147091318 -76.369990435770248
9.657860471135240 240.494778730466294 -77.915194883456522
18.818650558643224 241.064074807332133 -78.043313656423564
-33.947653127148904 242.305348482747434 -77.811224934164585
-39.453868853942360 241.740082140223450 -76.197319318557206
-22.297149993147272 238.910525286073039 -76.197627672330356
-18.798575929161920 241.559643106898591 -76.270325274976514
-152.656723516182836 240.110517410387359 -77.909664239433923
-20.035008666980115 241.454694704483757 -78.187491163429911
-149.034334065822691 241.788123230813454 -77.211878543393311
-144.821109234619996 241.826534354482959 -76.945436339729099
7.949132028157872 239.406003600218668 -76.484234399017183
18.986950765699405 242.058718072678118 -77.134683180587601
-19.781553090022783 241.651555099195946 -75.292403637338325
-148.536384076755269 242.599326914830414 -77.033280632135998
-22.327882091897926 242.999130052120876 -76.443142407421860
-23.109323404730652 243.960064827598814 -76.481240727921161
6.859653648339474 241.584975278848503 -77.014378492059251
-51.399495679791272 242.998598593429108 -75.952191600243523
-25.782354490708766 243.805668837375350 -77.956665224947216
-23.285802951726779 245.936285660750798 -74.807346615119812
10.833298470636752 242.947759857459516 -75.694975597099344
19.137706726419232 242.349947376337298 -76.907837701563864
-51.511720681013166 244.573859509148150 -76.729155936300586
-53.976245956347235 243.989250824545309 -74.331098180899531
-56.295961790932765 246.106012516041602 -76.380772150317583
-33.198716744882368 244.341106506426428 -76.879629424645756
-54.761190152420490 247.085130699233332 -77.787968879662728
23.166334329212226 246.480599258837316 -75.079113743633613
-38.486990178741166 245.772275826767753 -77.721622963118648
-58.112945976710556 246.329418461299667 -76.599861954306974
10.640872520525642 245.084135691860411 -77.355263788564969
-149.645296403576140 247.325690671444619 -77.698044934099286
-59.026793630219728 247.621959380268379 -75.680757290592211
-58.162292165005994 246.028381348722604 -77.319079719239994
-56.994397109118424 245.570336189536306 -76.026801619735352
4.377724888257669 246.219632078761265 -76.990007770605843
4.655241777294455 244.970926342277465 -76.059048955161870
10.475521612447483 245.768315527965768 -77.055122675942926
19.531345139441903 247.067179483112341 -75.712302766916039
-148.532729678496082 245.990979729966625 -77.176271664646677
-146.877073227556110 248.632932362735176 -77.644164918188707
-49.604259231202164 246.979599524396832 -78.106179081480917
1.941472741607759 246.186378559513400 -76.516408169179954
5.521283101003766 247.526337977712444 -76.321654766769768
8.593752535236975 247.471330991836908 -77.873976944001456
11.477962906105747 247.430956009411773 -76.267101451410554
9.578529823624283 245.802226898820606 -74.811521730824396
22.518410741279030 246.434455414503390 -76.065285562767997
-146.082390546071906 247.479625242139576 -75.854263300657024
-52.716675912299642 247.544457671053607 -76.525084889993877
-49.286323042379010 246.884163961689922 -76.423669004542134
10.490144224466629 246.223462181697727 -76.912732495621981
-61.139878979773449 247.745220914995940 -74.489160350326131
-61.660329493499873 247.855754562157330 -75.655400421422542
-57.753625459974934 246.009191035398629 -74.828914156312209
-51.811370422692598 248.382307791918322 -77.393639112360560
-1.817791745751847 248.654470988964448 -75.844401819328468
-1.260956996766796 247.986577051040229 -75.836159153223633
12.094341815099927 247.820183912923000 -76.676436879205127
-151.556000240733567 247.782359841093182 -77.658733592692940
-55.343914402780264 248.383048842027137 -76.117769427845602
-52.946607668096412 246.363998665288818 -77.405452169438817
-61.215850785159994 248.751620978953667 -74.900549438955977
-59.195037259644586 247.251669485921610 -74.899296589823308
-4.279603801011116 249.129307748229962 -75.080063795440196
10.751431345473765 249.509275100645254 -76.458474330692511
22.408148940277556 249.004835696980166 -76.610866524782779
-61.944302849340559 249.361692056523282 -76.911770415949405
-60.106334433936887 250.625546427410370 -76.736316420229656
-56.499533980512965 248.393852917906685 -75.814659658617970
15.622644372675481 250.240780850731227 -77.087616772616911
-150.882323010721819 250.836431318812345 -77.355453361071085
-144.361135930722810 249.486157967465800 -75.453419728275065
14.307872989123403 250.592111388960205 -76.821789952355445
15.578568019687705 251.369098596461100 -75.317698605962121
-5.209522763035414 252.890700053758337 -77.691912031729430
15.731961844502781 251.679761252718407 -73.980949437820797
-8.305305549762995 252.340601444944724 -75.730420507266885
17.137475566237974 253.359437364849668 -76.612368037663828
-152.078828368638597 252.359561649676579 -77.669568114593901
-8.856721808379142 254.095814150655286 -76.830514843574306
-149.983848553872690 254.831316316504427 -76.645349465129229
-143.484822927689464 255.673478588714175 -77.748849287270858
-152.844131390094390 254.540457793717451 -77.126754882439158
-11.754682506810527 254.338925402864135 -76.409281044830863
17.300275489980695 256.041320289864302 -75.268739664121469
-155.480233809633177 256.422862659097859 -76.410236026739142
-10.958522149406244 254.896687462593491 -76.467591988326205
-11.612227719589876 256.516646580735710 -74.629640238121752
17.829089629706502 255.057159972484612 -76.881195061347768
-143.529624783152400 258.118148136291438 -75.519908552115893
-137.144869442904394 258.908310392942667 -77.976269213570959
-135.057036815730498 258.085909476928578 -76.573980294532063
-135.126456074152202 259.002212397822120 -76.569265827185205
-134.077800138507826 260.509676007574797 -76.895884897768823
-149.825443151056447 260.518188079726826 -75.718356792289896
-148.948710823341116 261.558692248925468 -77.560852080543285
-11.810328921166919 259.922989813178845 -76.505729496436814
-135.993231847007564 260.820912372938380 -77.109912945712139
-154.169614891215303 260.414944983209466 -75.550026805229464
-140.899736223794093 261.781202073296868 -77.698013564288445
-141.988028819538869 262.693252922885392 -77.065095011255792
-138.729130726438598 261.969685114111769 -78.147575300191122
-138.074620847909017 261.439866911706360 -77.388008681842834
-153.826080816223964 265.165427986400402 -75.591246026895220
-12.944526753924304 263.802100850432737 -77.526624872833935
-153.127179613720017 264.763893605928160 -76.323024047834750
20.756538809726742 264.713515208231968 -76.144779301081527
-150.865504829541749 267.420491470085324 -77.626470856629851
17.939589201237247 267.602229703583475 -77.759963528769532
-146.256807940070161 267.604847888239419 -77.410486651081683
-13.073286452241843 266.329395559381680 -77.521796711804456
21.045728258345534 267.169825607210612 -77.461428444695258
-11.614368846756769 268.874875585777204 -76.673213842279523
18.660248974702551 265.949574123860828 -77.603986703285713
-149.397926676689821 269.190614334413453 -76.680358016812576
-10.130963539690796 268.548922852822898 -77.087257922779870
17.608684216729319 271.293405319985368 -75.647467547754601
18.357244040191805 271.913177305304600 -77.410106153530080
-145.404629686382435 271.003051851120745 -77.794602389930034
-9.702817415654634 271.329506215720983 -77.360240997835874
-148.848176697029402 272.517008281393203 -77.752141463317074
-147.360222939205698 271.407974978587276 -77.612078455329041
-147.577205976789855 273.556840049735513 -76.535936510544516
-150.275832414669225 273.367881560979015 -77.011196109370758
18.718280477677141 272.371542299948317 -78.413232179672448
-148.407523968372345 276.386000026685451 -75.922348433360057
-149.420531774553865 276.439610062419547 -75.906178102689495
-148.556246741503401 275.620716571484706 -75.350577946984302
-148.502576064821909 276.130978578865438 -76.987036900644924
14.030319016324988 277.914840089727250 -75.679977608521583
16.491232518256790 277.067498958250212 -75.413703663469462
-146.626389236118655 278.405583336452480 -76.536551505113422
-150.247264942009224 278.160895306233954 -75.932531471114842
-147.750298196640642 277.703825351629860 -75.197216916949714
-5.464360548994448 277.945339402714239 -75.046762831944747
-146.976429564875019 278.752839987395589 -78.673518651589262
16.706156965345329 279.389628736991085 -75.807982603091332
-146.056349423551382 279.453279949308182 -77.544557789974178
14.473000488426297 280.761617660380068 -76.498171321424849
-150.538968313256703 279.634488523968855 -76.662652247537437
-148.570333442898686 280.329949588973363 -76.235510026287145
15.668126238916383 281.522414371259345 -77.569146293482973
12.080319605754022 280.337614328345808 -76.148225738742212
-0.485109536935962 281.846244512029898 -76.624498696766608
-1.799222342685826 280.284534940466870 -78.804551560763400
-0.184054637026221 282.291241543867159 -77.177051605702943
-148.946419520553036 283.054977237622154 -76.807804935854904
-0.572100380630333 283.109946006929988 -76.684994353876419
7.935593811142114 283.445403156894201 -75.641158264974266
9.894465834453678 281.942546752377382 -75.142174357337808
-149.813740100431829 281.249442640212919 -75.635038216137815
2.322771129162502 282.754251243362091 -76.389372040039135
-150.178209724092909 283.189119724874615 -76.304438005326176
-145.976156453472782 283.341374383547986 -75.490575270411043
1.921981552343732 285.842457429392653 -76.065687316908068
5.669120031632971 282.507282944474980 -77.040162333426309
-144.814319210538940 283.312752583386043 -77.629336440509462
4.703835663503241 285.089461962279188 -76.676653171416262
6.349794599819612 285.559614236180266 -77.532624792995094
-153.756453990233439 284.523505119529830 -78.888998364204170
-144.260071883394403 285.020167604948028 -77.708626045556329
6.726585401933333 285.451026323379267 -76.211944011615046
-153.691934030029302 285.746734398060596 -74.881708130831967
4.675282983222835 286.310871188253373 -76.078055643138057
-156.057021949171968 287.441559834968587 -78.649472114090941
-141.943120366055894 286.873864444134938 -77.083290759533142
-149.442690335626509 288.160845805297242 -76.553941952926309
-142.479253094368602 286.836003981780095 -77.885921686745405
-140.909640693127727 287.847843364648440 -76.349123088829998
-138.039045356237494 288.682157817434756 -76.095278513875684
-31.542674639030942 291.336530710928002 -77.004619989640290
-36.536556969545451 289.094514574131551 -75.944740625771189
-30.885384034127991 289.354670325050449 -75.011146392391581
-22.354609011278512 289.728616619020329 -77.786662024564848
-17.896280192750179 289.834312583001861 -76.564017096703992
-141.916782001392932 289.415135668334869 -74.913262271487611
-139.587301600246661 288.454982561396662 -77.106301605168795
-137.707234884618657 289.661816857590225 -77.447506154154880
-39.753321561806359 290.095475122842572 -74.788406443853077
-34.841841783838994 289.667024938477198 -76.480008868806081
-27.574697223265947 291.381038473174783 -77.301567133595483
-19.952803895884962 290.829021871541556 -76.459333412524472
-16.715251952564280 290.397215154554544 -75.946844863401068
-149.088190223669415 290.671415651544464 -76.948367078791875
-141.434792731143517 288.516061734716970 -76.315593895103078
-38.758900844419571 289.464656658578974 -75.216717270027019
-30.782512608609519 289.352860947210388 -76.510900504353700
-155.784353630689651 290.065248522740490 -78.502431347305674
-149.263819433612213 290.575341131192772 -76.967560794356430
-139.596454631186305 292.694717830100672 -77.310582242485836
-32.321082487915909 290.064006560862538 -76.790903375313547
-25.232487859894309 289.685055685918144 -77.852838384791383
-19.064053786812963 291.373408692721682 -75.708824982635036
-15.512984026803464 289.939056658004347 -76.598610842140161
-11.272751783156140 289.410965421265075 -77.652260427166794
-149.076185856989412 290.031177742701971 -76.218458927359492
-147.051256617945199 289.544053700045993 -77.063679272670043
-139.762785341709815 292.081158436607495 -76.166627815529097
-141.334113588831599 291.006901891700977 -77.212216806707502
-29.503422603845557 290.864951381368428 -75.216258309837144
12.972967224819454 292.970884567454561 -75.640925345277324
14.414350072787187 292.662206385715990 -76.990688595823556
-142.940790071823159 292.724725407217136 -76.255691178439790
10.159512393005363 291.617607429277371 -76.936108176801355
10.170585169420956 293.581753098568868 -75.040373762500721
13.756006442259295 292.347910349174299 -75.497698841197902
15.054537228496754 293.255869653906018 -76.810803279764855
13.837121830427751 292.570058758390019 -75.997043116474771
-152.975407610942369 293.407096532532933 -76.870850669875836
-153.186006871708571 295.418586195354635 -76.477236647760975
-152.968110484856822 295.564773428954140 -75.840792379625029
-149.479819579995620 294.282481429099732 -76.549023591097423
-148.628752302869145 297.829498169823069 -77.512790823929379
-145.527384815204869 296.995160363547598 -76.376524144350284
-148.752377466342921 300.515364729259716 -75.386616326718382
-147.499461311720495 300.604457342821888 -75.959118250126707
-150.718209272887066 302.213143985767999 -77.057004862970231
-148.412950504355820 301.440899682958275 -75.351632300682965
-149.604083378322002 303.942212791730924 -76.395407397770100
-147.864983555614458 304.542499725377638 -74.942770701021217
-150.481881546556281 305.327644690692466 -75.484191030747283
-149.059725917427443 304.668380485687123 -78.301270337712324
-150.582889056809563 306.208959909407554 -78.316978387082941
-148.996424731648773 307.199152501945434 -78.505314102841595
-146.714272848036529 306.004041822652482 -75.784395120727098
-152.440701482050940 307.398911063843286 -77.330789411636047
-150.313125386367147 307.239569387655479 -75.509525461653766
-150.154727173003295 308.194784485631942 -76.794932588695360
-148.189735688067032 308.800003292778285 -77.336533919163742
