# This PCD file was generated using the MATLAB® pcwrite function
# from Computer Vision Toolbox®.
# .PCD v.7 - Point Cloud Data file format
VERSION .7
FIELDS x y z
SIZE 8 8 8
TYPE F F F
COUNT 1 1 1
WIDTH 804
HEIGHT 1
VIEWPOINT 0 0 0 1 0 0 0
POINTS 804
DATA ascii
20.569383676153915 24.757044493242152 -70.061295270465138
45.541742385368821 26.397160572849781 -68.592701591172315
23.970583323725322 26.243700848228578 -68.567798942047332
47.308634164384813 30.025480958841396 -68.876492583466714
49.035336261270253 29.431493628158897 -69.781705006041591
20.559591406534842 28.521513361412826 -69.117299582972294
49.195495989034441 27.989392890870828 -70.610796452148890
24.620365112775286 27.825119638426795 -69.631029742083953
44.925180432889796 30.626533611093407 -70.150549873807407
47.670190229036862 29.482100249911188 -70.149871821810606
26.456542860803047 31.166719602000040 -69.924101595796913
44.359549327760682 32.720172085666007 -68.443068916047068
44.494747179874594 32.901738224870385 -67.962522229169792
21.824035100784254 32.981520592759210 -68.434914124617066
44.707596728791749 34.077934189721248 -67.646497484863687
49.553703751030838 32.880257381617341 -70.284648869695857
20.901335351137305 32.288719336258850 -67.148771451154730
43.706193204540128 34.800461622190973 -71.287799489126783
42.953401772205908 33.058689225516581 -68.254650119197208
26.573267081322030 33.119518641417869 -68.544893251862234
47.849576960260308 32.712697275887592 -68.407284642058599
21.610166810462704 33.478749797255240 -68.900967776843629
41.225029306324394 33.345623926494454 -66.789731252156471
44.206188469793190 34.310830455014354 -69.897796364310167
43.273064026947772 34.983326113133977 -70.071665708727991
47.363890581743910 34.036642375952972 -70.231048203750191
42.130822092762124 35.103577711229818 -71.178166597257146
20.822256339878685 35.123883791788465 -68.225718264910398
42.649904939768980 34.698882047292209 -70.078186880540912
45.749665078734452 36.929840665348436 -68.754697780140503
31.501389433206963 36.852240328180692 -68.662237956650785
40.464698497498169 37.252922828117860 -68.886720881626857
41.168465205597499 37.570998113071276 -70.341754777907866
45.214986169555061 33.503188414066514 -69.691611069250101
22.118684417643195 37.833566541754507 -68.786110179554612
39.989169103095449 39.461648918905965 -70.312025530706734
46.114534584394022 38.969944575873441 -69.773448961037886
37.223560186502127 36.057377194470938 -70.176083490606544
44.405772605669938 36.234665672762993 -67.876641434477023
22.673999173496760 37.567878020981517 -71.139893960917661
41.041797321853920 37.587802385215639 -70.032770087866766
37.023172680236186 38.967118825945811 -70.277607318107030
44.198273383855508 38.591520792643287 -69.668231565783572
28.113414643568312 37.240914183386288 -69.711900377745536
33.305944450403025 39.863288137062952 -69.515340587106181
45.353932133491753 40.816185965531048 -68.756802970637892
25.849241026827851 39.466723198765486 -69.545623203565555
41.355050266488114 39.120212845428448 -70.689270954430270
44.034013943738621 37.668581586681682 -69.132964576244333
35.969559907297096 38.551327057992566 -70.417444154830790
44.120711652228508 39.565404498049880 -69.915131747367468
39.109210468376325 38.946236093146872 -70.468467849584329
29.037743182031246 39.366893926317466 -70.506760253484231
43.106277314405034 40.694945548683449 -68.103943436037270
39.376897789597038 39.809366208571852 -68.224071743258278
31.571451119264243 40.711337074102204 -69.721422511123421
35.742294717202348 41.718717207741065 -69.494866438759658
-61.831126740957160 51.194735858845291 -69.658773039741746
-61.851775751000226 50.787505902016399 -68.084171436295065
-56.372849580309207 50.268558729655325 -69.843264866774476
-54.478455998826519 49.545430136303892 -68.033806447334229
-68.662642111129173 49.372063855947083 -69.006596446212470
-64.841540745729645 52.260793974781549 -70.054917707740358
-53.102899782447139 51.997640429342972 -69.530410214626514
-46.608274845661981 50.216165434203987 -70.896450339956388
-69.500840576562979 50.046560907399076 -70.095829319939838
-41.953976920694245 47.733914123536593 -68.682417102889701
-69.585034487491185 52.424177112928135 -69.368073326109965
-43.804388966888659 49.884573829282260 -70.290244531962841
-72.630680596964211 52.209428132512095 -70.274391473827009
-41.601502299542858 49.542792426543571 -70.953603794201044
-71.426195053614748 53.145959315680855 -67.675485530477317
-39.369226436436193 52.588846849233448 -73.311574898523247
-36.149846080557566 51.690805239193651 -70.150388302279111
-75.126368180726075 53.366009125979005 -71.329784496928355
-37.223818851510870 54.066445697088852 -68.303526046867603
-75.523335688657539 56.103243781939746 -70.710930330842515
-72.963540228465789 54.345085351708306 -70.118670853622262
-34.627145954227394 54.275418318936460 -69.596616954062654
-75.073338893160113 58.592232787534378 -69.801111462814191
-30.524532606673667 55.203840006609092 -70.017848034082860
-78.033281111795191 54.967756736691854 -71.164455053713326
-30.064721530090452 56.456801284002353 -69.741553700948060
-79.226952325338203 56.191034151321126 -70.967726409436921
-27.596105037185620 58.302725049637907 -69.421372445752823
-28.031006022768057 59.375357694657382 -70.738556852567015
-81.504040022927668 59.767621450466109 -71.159643737144577
-24.327210686962054 58.965410811967892 -69.041706357374409
-23.314669552334486 58.070299969124910 -69.702785089716869
-22.106016416994006 61.088189792440012 -70.806711528353347
-83.495343795411941 62.077730717159717 -70.094378979788331
-19.142146832029724 61.037593651795156 -70.304895066333401
-87.819934882670594 62.764548678853963 -69.481283747896484
-19.375745255855534 62.854393119835130 -71.217806850314048
-14.293928406569520 64.713637595855715 -67.661485513122670
-87.934450424378269 67.297330325056947 -68.065682792739111
-15.609317214720743 70.033488911856978 -68.365955193296415
-16.428719603043128 65.733891944130306 -70.539421522448436
-14.162823252861692 66.832558655718941 -70.649743917135154
83.298037163901952 67.892524356810100 -68.318985313958180
80.966754727929171 71.844373302200012 -67.172781071843616
87.519276186990453 68.643873514973052 -69.629682203707517
88.230813491817884 70.125127752213459 -71.634684473317449
81.301729065560167 66.070521923889245 -70.283092115206202
88.495564385018824 68.021064188822876 -67.961325879519606
79.104541508233879 70.877007596772032 -72.093718989444326
84.689345948230908 68.702878904316378 -70.512329903133804
-91.014867957074330 70.451106129982691 -69.433358963685691
77.109735701472189 68.669064738550645 -70.269499825315748
89.351648730115315 71.488302911755312 -71.505996363758229
84.972225540373216 71.603911857578922 -69.687873823859277
-15.197765056419051 70.525491306169158 -67.814897437847463
77.062563118852040 72.949933195343306 -69.161248672371386
93.008738608315767 72.750756654129560 -70.630176646599878
94.735482548318146 72.765864472182940 -69.067727804525944
-92.019129301994766 69.955368725786258 -71.233705830978366
-19.563074666288273 73.357493239261672 -71.409221834945555
-91.650047108889282 72.740485053638096 -70.015442405237181
-17.319871162493303 75.927983548779480 -69.994751611964787
74.371727574121039 73.461750387964997 -69.157199676954178
97.176320252446544 76.379187306338281 -70.307782296418139
96.493704683641170 76.489549845732967 -69.854758324644223
98.344741288881792 73.919546815379121 -70.147656650098341
-21.383766314302832 74.997517489122686 -69.742177917501380
98.536115473220747 75.245981570637326 -71.454966640620228
-39.693939502205239 78.343247758159393 -70.873065807094363
100.944389612910811 76.511685571653928 -68.144737308552095
-35.216276018399959 77.937290208844786 -69.387543333846750
-41.539625927289222 79.347880655855008 -68.431515681709925
-32.546805438007695 77.930567165285794 -73.376298261993298
-23.523386819134501 78.501854429120840 -69.904901315286281
-30.690689148005077 78.072507675008382 -67.760492966793294
-28.075810454435167 79.169226591083245 -69.118478093411795
-31.234953207720995 79.436281256184600 -70.049822053030184
-39.449570890363525 78.593399943824849 -68.524505444681679
-43.020217022856819 80.105998560581398 -71.820686498883930
69.318244191068970 78.972691543814875 -67.992499765167395
-43.011207406499970 82.176597293650033 -68.862415167614714
71.812987958731810 79.447190803456195 -69.601562282381138
97.212485320535038 82.428132770214347 -67.145268359089187
70.430679100930234 82.418735790476120 -70.191020853533175
-93.170102011410350 83.738298043102077 -69.363532451449757
-43.649274153365120 83.537279758828035 -70.671554133051458
71.427238336738512 85.153774566376910 -70.854447574345059
100.508798132941621 85.369136745875878 -70.610271318845804
-45.673936664424296 86.016952807197470 -70.078979971483463
98.445355926932592 83.502204425961267 -68.616048767868278
68.189747209858581 86.673523440828120 -69.318138276883175
97.978624846871625 86.695076063365732 -67.308860974488056
99.832773984416434 86.620902549443386 -69.416005143198902
69.495567009477611 87.909166441374836 -69.186654874568561
59.035749092966661 87.759406098310251 -71.784268506941729
103.085138383281560 87.194029892014910 -71.262571484273508
-49.332445112083114 87.921284997363273 -71.664388067953411
58.733627677733999 88.848596296390454 -69.679575871186771
61.412155101233807 89.650116899986003 -68.557334549350188
59.623547836189402 89.770717755575802 -69.529601840757863
-93.011497803006435 86.862486100799316 -70.176788659067213
57.668101492922368 89.353136023186011 -69.047806643491967
53.783137892191007 88.601103717912750 -66.208223846755601
60.424090800685505 89.196791440189799 -69.268699131161469
70.057100298469038 89.969533185700271 -70.916791723448242
61.276896182840581 91.423449880569905 -68.852631065103012
100.909471165143231 89.130247615818263 -70.320193636086117
-92.259292891599543 93.173151545889795 -71.283968985530521
-59.189766040421539 90.641576324617233 -70.342164724959460
51.076256768961407 93.426613640024911 -72.424450547020868
53.796606812116458 88.803709497234252 -68.139367219635275
56.244056828523384 91.625799811027107 -71.719662022430043
57.128447327505363 89.563890224969796 -68.776673455558637
61.730548293876446 93.657599115863576 -69.845101595811599
-60.005714449180338 93.445584998701591 -71.189933779591755
51.508970730825283 91.394272821048801 -69.916386922001109
62.729376390310712 94.452206885447737 -68.822589175390931
53.468889165904351 94.352395853570670 -71.112357970104128
59.004909522023972 92.677691679347788 -69.902325627833264
-65.805436330272002 95.929457097294573 -70.272746407530903
-65.720237428118125 96.451975735473553 -69.490587679038839
98.757850047828015 94.370682953059372 -69.150313752387049
-96.219467997378402 91.933495213956661 -70.670472859643610
48.309230954936908 93.959005271891854 -69.992439500664574
60.107405836550257 93.216325859528169 -70.865963085286310
70.552326062580889 93.438404231759435 -67.311691943833210
-66.581410801674721 95.475284002275387 -68.524230095648676
51.609571953274141 96.277024469593101 -71.951719137286318
69.881043243673744 93.317043121065836 -68.343562162492262
-95.065238240175290 95.411627998021260 -69.167102278641735
44.990380673835816 93.709440038346244 -69.707079038482675
60.810416759912975 94.258432553993885 -67.938729034157831
-94.892577394018488 96.592585720569289 -70.664331224832452
46.607591055983491 99.278090492784898 -70.410768188682880
58.178500935155483 95.766127331229569 -73.384883646892007
56.289994074898559 98.352295851596253 -70.260601186345028
104.568120703198261 99.052486940263094 -72.190202842094919
-66.226663872949871 97.602478793266854 -69.161268653609525
71.063601375058084 98.288732928751628 -71.159931174976947
-65.398867866147739 99.234940265211250 -71.669873256736764
44.269025222854573 97.789122638451403 -71.470170693998384
47.371733225618840 97.819296206154107 -69.981531927920699
58.303578604971918 97.172966902915135 -69.885435245400004
97.151969996906729 98.601984462096851 -66.544000800815738
103.082989496545466 97.351844856109210 -68.228470945989230
105.923830170697670 98.164381734277555 -72.349593795383015
58.069890735958040 96.709616456115000 -70.573808125893024
71.779690714884694 100.248217824681660 -68.551882873762636
102.410162664913770 99.622465835024741 -68.401590267160131
-65.337861804632411 99.113816897406878 -71.144494741296512
44.108841614390762 100.745361124670637 -69.855238860255056
46.386962779793443 100.195135279761374 -72.786390050767906
97.520978393044714 98.168555597447153 -71.280483564876377
100.552911796095614 101.099167964770146 -71.995061618912175
100.713485546061037 99.594540831911473 -66.511587117428391
-95.599664373619731 100.011054909160265 -69.966517265685439
45.614375858588311 100.233813668385181 -69.660132070453855
55.686318607381942 99.227675568573900 -68.913476291445150
72.659319708294063 101.884706435059627 -69.726124190163418
75.969784526703222 100.518016333106772 -68.894844188590312
95.445110402591709 101.168085907589770 -68.192999207850832
110.598441369297007 99.803236375783527 -69.351567954866155
103.230797160492145 99.326501518647120 -70.755311607304506
104.025416647069136 102.905411218553041 -68.795139244355198
-82.496103931520224 101.198657164915900 -69.623423011188962
-73.442189650220740 102.031898034566538 -69.622371422088136
53.116125978056573 102.787200837060368 -70.238877441290541
44.584880783360539 103.119411140920562 -70.994490830969355
45.644877480969114 101.509110731217206 -70.850539634174766
96.501282242121334 99.945170955065322 -67.073464170443216
103.114227414256916 101.633688095210061 -72.494765552673456
75.917133485886865 102.058616068559331 -69.889341012000983
54.116137992658722 101.566043432686314 -70.371844286463556
56.095060621630140 103.452406823127930 -71.909747362540529
81.934989525498395 101.229756510803170 -69.896653402259503
87.417403809927549 103.437858401751072 -68.327403352717695
109.390269076427913 103.419336157669647 -70.991938082122019
105.766747806234889 105.437994807252210 -70.119616914466278
39.614054796215285 103.505446889706548 -68.907278706098651
74.817508362028406 102.474899060512854 -69.635713869230543
79.111866065065868 103.065272860770477 -69.402538056247636
88.510137024063070 102.716404611998271 -71.933990420271385
94.196869132353342 104.004006196037906 -72.300160134189852
78.756133405473733 105.434240228688239 -71.296796548858921
85.731178509919090 103.286434737473385 -70.855627883396551
89.780053216654466 105.161272736088932 -70.331023188034763
53.838411906387961 105.531387900483637 -69.592844357815494
92.743037617255226 105.349695440722385 -70.442601901045720
103.573316331772148 105.480878196482593 -70.247941875736387
101.191709878696386 103.172430654641474 -69.807672430101732
105.915882704303144 101.192176173641045 -69.366365533336420
109.630565755359669 104.283136126048220 -69.479655283008853
87.352768783448738 103.429162935067822 -70.370458979839142
90.392958897557648 106.475514854759311 -69.776383615436657
-81.521553360372891 106.286151389623285 -68.126985355924631
-83.919715567562037 104.286416122823425 -69.700066794321501
42.507131612635497 103.098625814187102 -71.675984841418128
-94.973183345787561 104.890495028737561 -68.148951006382944
51.041851748815020 106.389242278318378 -71.383473276467186
39.304694771568819 107.111198273165471 -68.511947814202330
106.894632523636986 107.764883211478391 -70.177725648348954
53.585840852006960 106.129397969827835 -69.865405225672433
-85.025459305032371 109.242199570154938 -68.111945292525292
-83.441494780293866 107.170256157994288 -70.239794015669275
40.534040732339186 107.200351156803436 -71.883234807264188
103.618976684203759 106.361077781733286 -70.751319909238418
111.924506103875856 105.866736133428802 -72.414873884673156
55.450386330669637 106.156181291925009 -71.507940386773527
106.111378530169674 108.396536580979785 -68.363100982120315
42.144249218931350 108.019528966118614 -68.947070827554995
-95.011063217756941 109.667362003958644 -70.445177918513636
47.487801387080211 109.858271013538214 -69.552450663234197
51.276639854955143 108.277240271551136 -72.152638870837833
106.610305115394183 108.281593741736785 -72.409420382794451
111.195109234946727 109.839971342943144 -69.331360920447835
41.060206663934501 109.762609987763412 -69.497307953279403
106.122124147124879 108.572206362624513 -72.132595141831302
-86.277762881265048 110.320876437894228 -71.287122774461082
52.118401858206205 109.718543643716217 -68.764837694857334
51.998763254575707 109.842123722860990 -70.476166260477115
109.067290490149006 109.441637190413502 -68.191401640386985
107.485227588400576 107.674161312878482 -66.244587040262331
41.250898664827730 110.229921539927375 -73.745785061294796
46.925076110340164 108.981480510250520 -67.036685191233232
35.242158011097771 108.037559314319878 -71.582022752411305
46.257044142570649 110.896059208270628 -71.551559862911546
-87.188688328126730 108.417542000690105 -70.525390308291591
103.608836673258736 111.938245798393865 -72.810784892590760
36.391755777542421 110.464869729816343 -70.731398961075811
39.400297973322992 111.750606965183053 -71.171637508197549
47.178852677251143 111.445144813490899 -68.508182383271645
109.039506235448997 112.035237208955934 -72.688563197230536
36.155437175842962 109.305829135031033 -69.385703500757458
104.781955810125226 114.248260557455112 -68.606568388109807
108.433490249792968 112.143259724564217 -67.097248077544862
-96.466436967468610 111.210433836000263 -68.172522376317673
-85.209752897889445 112.077158158389665 -68.484473591756299
48.018446512103353 112.319172715426717 -69.249100954294377
106.251489524673588 114.502551664754108 -72.110262117375754
-94.208490054605960 112.994945614910534 -68.868033524020575
39.118790089542017 113.821576749378195 -69.909417520356740
38.170951441631786 114.155034882817262 -69.499162186439108
104.187379435542368 117.339279126362911 -69.718839000406831
46.127446750384820 114.686091108417102 -70.863562618072734
114.242426556036733 116.127861481788273 -70.934490031612924
-90.564857991501682 115.656362128014337 -70.086754423021546
36.060757713983676 113.866310150109840 -68.563328854864707
108.861228054540661 115.641999945799867 -68.836072184517491
45.390415929860289 115.890795581585138 -70.363745106896232
-94.272307194729919 116.904933894280489 -70.692724136676404
109.797072858594646 117.276724863820519 -70.427161068898386
112.078465639448169 118.123050955763105 -67.845463549627681
108.732322775758135 116.426601923489116 -68.885862406269908
-93.152763473063487 117.212213743834653 -71.737715134646862
32.991994862664107 117.557226910822337 -68.412638208930829
45.483852850557611 117.622096915275705 -69.339408658244096
113.089952803779539 118.367940541179777 -70.277188431067245
-90.335083896474245 118.417909351831213 -68.560798570674734
42.819068723976379 122.170329648338509 -69.682776721678721
46.467760989550797 120.419843741094141 -68.420309413454774
107.480806706287694 117.363278072309726 -68.657344273018850
113.056436290309975 119.370419837946145 -69.622826459124255
33.086195964944473 119.217670940884858 -70.790074673296999
-83.083062856119582 119.525865342524796 -67.429497593687771
36.050182078325221 121.263674975992458 -71.568532289406363
42.356917410725622 121.949748335061969 -71.435887177704956
109.071655172237826 121.425758187388354 -70.743213577273337
40.692001896094190 120.059082876773218 -68.620698445965402
-83.246117124451729 120.130756233283009 -67.199842381269121
107.632712870231956 120.655639884360056 -69.737444355084421
114.471591286958926 121.553950829650972 -70.857077142427073
32.039226123674368 123.561062124297294 -71.125530924835957
35.803288278799826 126.368592701605593 -67.580062348305262
42.208650164987361 124.211014490602352 -69.252521724667517
104.486227382505731 123.581031522452378 -71.232260894967297
112.382330954898762 124.306564614134814 -70.360636647323034
36.421687277779313 123.285767374074041 -69.507774126986632
41.183681054934631 123.826152186154815 -67.717501776085328
41.150409088678018 125.684237068311077 -69.563431563511756
110.342971261332465 123.308136503753943 -68.923020108306730
31.898156861752611 122.136053545056740 -71.218814388885775
38.361623538152749 123.754446718738322 -69.975840024249337
111.071686083516042 125.366850199665762 -72.572251661204319
115.642268930682306 124.850242177386022 -69.086094128096917
33.344144028201313 122.399484877691862 -68.270591202179077
35.152442261688989 128.857336406434683 -72.351660079678425
40.028900576477540 127.010841078086870 -68.691373276623878
37.183215171145086 127.042925550081662 -68.210082515167088
111.221481020490089 126.653411368096215 -68.611598055351749
112.672127901803179 128.308165226835911 -68.382076484200837
29.252751566367344 128.345638799759286 -68.657553082219295
110.828212228647331 128.123584502460375 -67.737063581726829
39.008210283871080 128.217259985407992 -70.000070219355635
115.866362145306027 127.774415549165070 -68.694151749945803
41.780918582784551 129.536054333440291 -71.935663660391924
113.459300908335010 129.895656713988473 -69.852538618572552
115.702406631865074 127.804091302702787 -69.707075835757820
-55.042024123215590 127.805044685075430 -68.414997043471871
31.633703157285417 128.857739407997030 -67.676037894211987
-57.160564709353302 129.999813962128911 -69.729991304126983
29.317711446961813 131.197856518301478 -68.891489471151544
114.962464746366322 131.480485204630810 -70.412830309569287
113.524668627389090 128.815988524805562 -70.311996649438129
-76.461485195538643 131.058882120844856 -71.279692150635839
-57.204753329948936 131.522130774368463 -67.391745731650190
-55.594447747885290 130.902245408338644 -72.183253668637178
28.885449230696430 131.322846137172519 -71.300613959447006
110.707884585835430 130.353740742440408 -70.659738059425223
-60.418854595542513 131.204142645296315 -68.939224466137489
109.449900227438860 129.175270386807370 -67.817384396929953
107.426669731031225 129.061939503362709 -69.091825787174898
107.854318946381198 129.839412304698413 -68.271425875508484
-55.918929026330680 129.366541215686851 -70.540460276828867
39.197090056179292 132.506861723854371 -69.336523459230150
38.338694808577394 131.849858094968084 -69.665486564180569
-60.529176834982508 133.790666816693260 -69.293532781003009
-51.514112358509422 133.692890209429322 -70.459524488593118
31.320097609793585 131.116875310907574 -73.086531402604550
108.937665351516287 131.450753838260511 -71.744785285374121
-77.306967887068510 128.504342239894015 -71.838220835043046
-77.116571434545790 130.972560617270716 -69.257401609049367
-60.868653421650066 131.834048901761577 -69.697449514806095
115.106958781473352 132.588703705634259 -69.218434362255792
114.461027184659372 132.161807341615770 -71.154582347926819
-74.997888214681353 134.178578463582795 -69.924897518708434
28.297688721465946 133.419837298528932 -67.122691102079287
36.018415611843061 131.941890685701765 -68.720722309686280
-78.240945232206926 134.316997955446851 -70.482293623684797
-58.152267538131397 132.916501461492714 -70.059637373806865
-57.301831775942361 131.533021689661155 -67.783272790049082
38.941598435827025 133.790506287749821 -69.517701300987085
41.248588525993348 131.213220948692680 -68.500036083188874
111.683788224611916 133.896643194740363 -71.451819189591589
-78.708314357534690 133.611880651550308 -70.917412136500971
-50.676759774235848 133.380077057303083 -68.991737965243786
34.046840940292398 132.628561718385214 -70.966545386253856
-73.335824248835280 133.963367082980113 -69.791319129380781
-55.838560003916371 134.220314546664724 -69.042912082426668
111.947055035854902 132.299809932694387 -70.887013701808385
-55.597440697503124 136.919134692706621 -71.951264149039318
116.019711314727488 134.693111378878882 -68.277347564731443
-49.546839190703324 135.920504212122239 -73.333200773764574
108.957183499654192 136.108815374168501 -70.500504387904215
111.752858544837054 133.680751831359032 -69.443622640732343
-77.816055125657627 136.626700875773366 -70.180471494538338
-55.500639341712400 137.459563815691268 -68.058232572046606
-52.362606756864849 134.431523496876395 -68.597753175927593
29.058930780710160 136.531232055639663 -71.621285226326862
116.541476352121762 133.771057867440874 -69.582459935922728
-52.018467797723666 133.828876046393987 -69.789271526155062
36.416942433419642 137.353159188852402 -70.945072547183813
-48.645523113584801 137.764084440801781 -70.510575984393739
34.349647441089495 135.637763339802518 -67.212522867917116
-52.440017822080527 136.198376658863538 -70.491645731380700
111.489839095611103 138.611273540626115 -70.436085689636755
115.944855835944225 137.414459197943131 -70.909132394995709
-60.411341628716002 137.869493314955264 -70.064638470584299
38.661692083326010 135.223258166757262 -69.990286888888036
110.342226346662500 137.151511011489418 -67.439416106559833
112.330738836963349 137.958393015507738 -67.839515063993034
-70.851760848188675 137.474974001869214 -69.265156227747340
-49.662766840639982 137.403271820115293 -68.968686235496278
27.246266842149588 140.481159626792589 -69.554229119470037
110.178739225311020 141.718417368046346 -69.636960204023012
112.409975505868431 137.417539943460298 -68.895950471420235
-48.430177235441121 138.926016815811749 -69.368963530379816
-59.547736197388488 138.300426774958083 -68.399737813760382
-47.275360613651564 138.499210327465221 -72.815303625001121
34.180143951727977 140.919771823577435 -67.240384997784986
-76.518179335901351 138.825277116969374 -69.458943483399580
-72.161288691168508 137.207087331298737 -68.837589928961251
-55.432838273161629 140.680198618068289 -67.889409158418388
28.754757461290012 140.558180307530620 -71.613083753467080
-72.917808015893357 139.155400650918494 -70.358368079798083
110.406350362312807 140.776829341073238 -69.617289691659465
-73.957688572723058 140.133687258678748 -66.769619466505858
-69.648799701864093 139.336742393356616 -68.820385500395872
108.825019057304857 141.300311027814757 -69.744981816468240
-78.498128958762450 138.453477343413653 -70.061717729966674
-48.008408621624717 143.840667179634693 -69.321952191459175
-45.270188197974932 141.050179524499327 -71.906373858736359
26.227185104964207 140.898621706247553 -69.546857277138486
37.403075840163666 144.341965294881931 -69.261270026452394
112.510530860577376 143.567337771570521 -71.192809879995252
-72.130250579674708 140.453098986908373 -69.427521689995856
-70.029186754119365 142.620614574985296 -69.375204170101270
-57.863225014500699 142.794073985500347 -68.784321801788650
-56.642096003100349 142.980128293842029 -68.530703754678399
26.025160225667040 141.005953408995623 -69.350948396522710
35.023307450574656 140.310839786001736 -70.950590737882308
110.244775686283447 139.082328000872593 -68.196361962685160
-78.249041722170560 141.579535366403178 -69.575910317032381
-44.792812224608682 142.411708267699737 -68.396841658319943
112.150634849148759 141.294258597312563 -70.109686177925568
116.910610209920378 141.669837368718674 -70.686407497978124
-73.003879600831482 142.550326074407138 -72.266864699426080
-44.621285383010154 143.460170912048568 -69.688521301849534
-55.676179105061749 144.630896097978763 -72.015201568941805
23.333078873006421 144.196327041746741 -70.950081055419275
37.789695590343086 143.798550555937481 -67.496852001710522
-43.202605288145371 142.036427214122227 -68.339362644413399
-78.333020939724662 145.325558611767548 -71.373976322651600
-68.969567782067244 144.004852154226711 -71.357415992252271
23.518166116415831 146.254386780639976 -70.084271270702615
-53.982117018289721 145.051151956950463 -70.560773696585343
32.197563857119668 145.803525423686750 -70.955532226649765
114.141038084477827 144.474459599881556 -69.284035715005530
-72.434625268960062 144.450256492836729 -68.785434173946499
-46.259292892782931 144.630882683570945 -70.315351971639060
-43.319332434876408 145.018827600934486 -70.246426646154561
-55.598072499173739 144.955539713199613 -69.591471228895983
-54.141074145181832 144.870186649708472 -69.903554819147359
28.971271144070801 143.864730008253986 -69.736996165507620
111.488010998400824 146.193766652934755 -71.113652971155986
-77.514964764846354 144.475672512010505 -70.831488939889667
35.266025891806791 145.178827967592554 -69.633573469281401
-66.705684930042437 147.390602199146542 -69.806071911748504
24.699773065323097 147.680847949269378 -69.818216670687846
109.854612300765197 146.942822837818511 -70.426227960108278
-44.464029763773858 147.290918315834801 -70.822276306990901
-53.735325989080373 148.792365153697062 -69.229376804655772
-42.745600108813960 146.641513976396539 -69.762758783065138
-75.184026703855181 147.705264592974601 -69.736399304419763
-71.643972962016790 149.476182835877466 -69.243856689324133
-54.401392650656831 149.026542846963167 -69.856223735249444
28.137964211381714 149.326349738342628 -68.476108321710342
34.724942371499949 146.770358831644955 -69.125216348849847
113.506169519036860 147.855139255723174 -70.639670203391560
116.565357083759125 148.711997318648855 -69.530415249704390
32.667508696753281 148.866586806358669 -69.345167795385066
-72.692510699540264 148.674083731114024 -70.584517911457397
-71.778983395394746 147.516187989268161 -69.641979217223508
-66.487325599537854 150.537630357034402 -72.041585123901129
-42.126456546575831 145.677900669367261 -70.799514297289633
22.174729244047136 149.679580171089498 -65.753703076792419
35.264293073699086 149.923319063267058 -69.809523117692024
-71.130017482469384 148.792190335111599 -69.318609887067311
-53.507053940740278 147.948777390244999 -66.523405927919242
-69.967792007961492 148.260428418198984 -68.022681117688720
-68.469619897101964 150.937540522424058 -68.905202522130793
-56.541726269921519 148.628271043371029 -68.423785533486793
-43.132672118508260 149.290638737433653 -72.384528642037779
25.770137674080470 151.157488176200843 -72.027207698819765
-69.893817853103485 151.521836467014197 -71.078501033413986
-75.321029162227731 151.861200238571087 -69.502881205341225
-53.398769252399646 150.977642565333383 -68.988723073126494
-53.713343779334814 149.420992362101828 -69.716033980792744
-43.262572586461275 152.333050766051116 -69.354509998426465
-39.701323522147312 152.155816096304648 -70.557781423516289
14.163042271911159 152.417701654920364 -69.190610134502620
-68.913102081882400 150.656387542886705 -69.158973905459845
-63.833486165657568 151.029618577784078 -69.731008833929394
-43.411187918321566 151.561272841137452 -70.767823122919069
13.541244120092276 147.453845905658028 -71.104976988256496
32.133128038865578 149.928395593769295 -67.847771375959923
117.113977450871616 151.029768756471299 -73.135468615087007
-70.338458541938309 151.836659194887119 -69.843541804986415
12.660610394488662 151.872931289158089 -70.314797988763672
25.935648579860590 150.368594798653930 -71.818953657408159
35.255651303926037 149.268159966932586 -68.685567273165319
-77.003091765570090 153.448972549669008 -71.968188187882220
-69.281018849041970 152.609918252892356 -69.337289801387172
-67.759316706639837 152.070054449023019 -71.085252140400470
-53.344121569263855 151.881994496755510 -70.597226044339962
18.166349074226389 150.679992693323527 -68.529744018878390
11.166269444765238 150.750018247858947 -70.282382499742369
14.181520557130941 153.013061521249995 -72.381695578206532
25.229364512877890 154.949902091614149 -68.999789922066171
-65.605911490273826 151.726868382235352 -68.119163238813115
-52.543875350940304 149.537419725616559 -71.661111980546281
-50.142642569479136 151.680473796547091 -69.539643167370784
-39.738201172832284 154.536316056682864 -69.626780345535366
14.113910321412099 152.192857864718917 -68.854546992727336
23.639489466182290 155.376936128961773 -69.600093089307094
-67.814103056506681 153.729523512776410 -70.967698660291148
-73.500256588405506 151.935853970095394 -71.281401040132650
-72.124196951530109 153.487145438991519 -68.633282367580051
30.003995422363193 155.312882607515661 -68.996244285886391
106.233639087610158 154.060336163107337 -71.906926930690474
118.437888624597406 155.653129179110408 -70.619856097573702
-41.435155928866514 155.826807030594921 -70.167220894927326
-37.554805959390805 152.759983564874489 -72.144314956671977
8.627213337692218 158.046241609164269 -72.975658169569897
-47.211513842717807 155.342581141961745 -68.570586093182015
16.788235764880504 154.447901099025671 -70.434422965256871
20.304538580824648 154.854288524849125 -72.047404788502178
24.457392090915590 153.613890510771341 -69.888840838598327
31.531194898605165 156.344920770512545 -70.196806357007233
31.792359181710381 157.919512210979690 -69.871573308344765
116.185595816426641 155.575076659107310 -69.474716047316647
-45.735388099190779 155.254999724591158 -68.325664660079198
-38.510911447310271 154.313138763331551 -69.183228718612796
5.148479904361861 157.068376624708975 -69.983411858964942
-72.163201136652702 158.692116212502867 -72.496945438915205
-65.328136550266862 158.602086728974797 -71.939857640350851
-51.774846025543106 158.302664132689273 -69.071571152566349
14.383415611059334 154.337699789013470 -69.350881169596335
30.344473377202508 157.392869918369598 -70.126751650825241
-38.059839607337501 157.140821498216951 -70.439913747590751
14.638951486429606 158.282067717891010 -68.865924498918247
114.979294333135485 157.124871673241870 -69.149434916086463
-64.108589126453609 155.464507879525229 -67.620273988128872
-38.744282773849136 158.076291421664706 -70.755813045927994
-68.431634569576630 157.410903502758345 -70.308801301429739
-46.141646745789124 157.707101131901254 -69.211899897217236
4.405578708656966 160.947587497974240 -69.946961250945321
19.582440885632394 158.458454896398706 -71.352019431963768
108.495285315553730 155.504583266623428 -68.709104393977640
-50.384740928781270 159.456917695846926 -69.643880948852697
-46.452706842266451 155.168053385446626 -68.685550860506467
-38.239070904441000 157.876253573772175 -69.954081117643639
19.211565451349472 157.516444652727102 -70.495927825199402
21.765135899525124 157.161232833710955 -70.711642158612136
-72.692392023966434 158.228349330894218 -69.102811080991870
4.303362607412575 156.968657684446839 -71.488579562178415
-69.076582365126853 158.077260531490282 -68.433683815713763
-65.080476543758479 157.490488996515751 -66.861965720365319
-45.945965249868458 161.472318450713203 -69.791968587469384
1.712362902985201 159.805695307468483 -70.892594997138204
-38.181110894566991 160.624865394290708 -71.662611681280012
12.132042434764804 159.995275980185482 -70.464093359010434
-50.911847441294405 161.627553310587814 -71.584031012022066
-34.362669363357270 158.269187778130600 -70.046072568479346
21.870162325744396 161.371287739402362 -69.199241161287574
28.973576740352414 160.492684228612205 -69.625051080175979
-67.894313851573600 163.018695652822998 -69.262318015942398
0.157787406359928 161.158780667308548 -66.839918115673029
11.805268565144983 158.054516160193884 -70.165667473120209
20.646100367110982 161.435125331582014 -68.950303634109559
28.665192874978786 161.490672217873680 -67.017616946146518
-64.598529799731409 159.984529150009138 -68.478350945538025
-38.401429868598285 160.114397090673890 -70.859477523880699
109.501790741866174 157.951695703310435 -70.942222928600373
114.383279863581350 161.813454952021885 -70.302214558141074
-66.025654233093903 161.099052174077059 -67.623287547548145
-63.513682056559091 162.390093139921106 -72.602707190141047
-44.849645202562563 163.448357290364669 -70.870517157760645
-37.331492408520752 162.351366259430677 -68.836757500586927
4.108176708834270 162.015916079439734 -67.301445454156550
9.294957298310484 161.756821205029382 -69.743598445768527
29.069250049659303 160.663243164715311 -71.051358828121124
31.461070660697192 160.705415529200820 -69.825196528948723
4.871820920426336 164.685247066183763 -72.077574631935477
4.939869756310086 160.249309441190690 -67.939398607699573
-66.401274694109063 162.405857550733032 -69.939653485149620
-45.494691397454730 159.564250411252431 -71.541074109706173
-31.402396871318530 162.029946397826222 -69.100559885157963
108.422872263322049 162.118730560951633 -70.247592258912391
-64.116486507800190 163.161113978868315 -69.219149260394587
-45.498861638052993 163.713017758867920 -71.029640364531090
2.490181935323388 163.847131792408987 -69.223394661430390
112.772588111395194 164.029175065842708 -69.323568959554606
-65.513781286996448 165.018147910121911 -69.977657052307450
-47.967954310124576 165.390514465465344 -69.067782877636517
2.216741741819942 162.776262123778196 -72.024828277237532
-63.621175079461452 167.525147555656844 -68.443672954606370
-62.725169847872316 165.762583242613601 -69.330961932559262
23.430669340330322 162.968847803225202 -69.745306012880405
27.776198056490355 165.328543948968644 -69.652160033881913
33.435122254851393 161.580362025852764 -70.183993554904617
-31.912922057049300 163.601063259356778 -69.833553912138669
-44.925981123358845 166.064592302557884 -71.328893011979446
-33.262734795437474 166.515513443068784 -70.681024064907916
112.088062614557316 167.313514383767881 -69.268086951565564
-43.166668471398971 166.312069410399744 -68.082644430940903
26.655498397999388 166.383895512577482 -69.054006787995306
108.115308090342410 165.493315336688198 -71.064329564956495
25.804089548472582 167.388314747026243 -67.993483456011191
108.655203213004981 168.537138325721685 -68.927575362518397
-42.381137422547020 168.799004414253062 -69.563353586536849
30.454831049386520 167.950063723339184 -71.486453670231512
115.824629671520029 168.741671570102767 -69.384678330162473
-40.086264075030883 168.157944977589949 -68.484295664825567
16.911495535807887 169.701321696499321 -69.667692503138412
21.805019271845723 168.500139377488779 -69.654429713142079
-32.342965235812720 168.551731311027936 -71.399920718959947
-42.858148867494272 170.104047749769876 -70.728299508405030
-27.436855907892330 170.047354613010214 -71.256082528543416
18.179128350516159 170.362473785977159 -68.822758890512603
20.638075949228526 167.395806215627005 -71.040565503041734
-37.019597004398932 170.409809247483707 -68.552375416527624
-40.492832349543569 169.216477219917437 -73.731932584953782
29.154151464385173 171.308804981001316 -69.289384549106430
-31.668415984228609 172.242277265874435 -69.055795357574041
108.063594192843141 171.493189018704868 -71.059862760530606
-39.371412499746285 171.531168859471109 -69.741911982373281
16.569705947819454 171.446820148122782 -71.305920240341393
114.044717320181007 170.713353695372092 -71.514000178235506
-29.219087058871615 172.464518653179056 -68.455885303513355
104.549484305862279 173.818366549864834 -70.507789763223528
19.151945521052028 173.537376046915313 -70.231054934055209
25.444734823487103 174.343828189987875 -68.949366561075990
31.434174216206863 174.445492185819575 -68.614353405103671
-29.386665157939010 172.023990491443357 -70.238972134975327
17.882041330310702 173.668526792439621 -70.085134324343116
-37.103777659465550 173.213382964068984 -70.305996047278327
105.717778306878898 174.251077096507771 -70.932856807826823
-39.014647674167449 175.181138318573488 -69.915606215548081
-34.118170073888443 177.055726470940357 -70.405208736778178
17.745405697950456 172.860496746528327 -72.020671658629624
112.651128103956410 179.245327896139798 -70.962800363312525
-148.757836862861183 177.238077554406971 -71.080654831959620
-27.467880131956829 177.163412565364212 -69.293657859557314
-24.953500293847085 177.596204320271511 -67.907295083535246
14.585393806662079 176.778130155918063 -69.448860330346861
27.176120198358937 176.883471387522263 -70.571306098748195
101.873129561624197 175.217192733309133 -68.719632707024402
16.644609271213668 175.223807023549767 -70.300531842903609
-25.819640116802365 176.933681311181289 -69.814699135494521
28.056180986727828 178.367316903877736 -70.115637009948017
111.555984375481103 178.264581786535160 -71.563510913004052
-142.999313619115753 177.391295239440154 -70.318591909562997
-26.717059707898514 176.554779313805568 -67.997211499780434
-33.061938102004177 182.889085844510589 -73.814906687273719
110.368937621652748 178.434012707318914 -70.573457022469015
-23.338083021474471 176.618234804256787 -68.201169197585017
105.062689859255357 176.905594890199183 -70.094369476389915
-150.867407966247868 178.745184964974527 -69.904856837704031
16.334722077209371 179.465882507960998 -67.961461275141517
-141.117592087668015 180.208588232240686 -74.605464495292409
-37.405505739425827 180.981755648594998 -70.970599600029885
-36.784827739658255 179.734481023100415 -68.380599314573388
-25.912153650697491 180.112422209327264 -70.888536042697254
23.988987825600397 178.207003411106399 -71.350859965825904
103.556395068392803 180.817207687836088 -68.829719954781751
110.578907370839829 180.733642857810736 -70.675201984600406
-24.270580490526598 182.333481362955666 -68.534085725929771
25.065496578575857 181.823140754290193 -68.412800542916557
104.609782411617928 181.745962452640583 -67.864492540294250
110.907463646787249 183.906649950762443 -70.260862393910386
-141.877314328582059 182.371185117738634 -69.221463989069022
104.699245385303570 181.065271290587958 -72.474981399219018
-23.903777071274114 181.920633000626509 -68.493619873812435
27.877215351478551 181.299483310052608 -70.411943222682510
-142.902048119699231 182.653553071478143 -69.907966172931197
-36.912208738453828 183.066918186999800 -70.381994615476430
-31.977881965215520 180.129966426754152 -72.031804667065899
104.305001695413068 182.431851242003376 -68.760435107348812
109.110860147606388 182.890339681529923 -70.836068627371802
-143.273178237094072 183.357882656692766 -70.575639080272566
-34.980474560596249 185.316920806000695 -69.471945763231659
-31.673190886506138 182.413602943199237 -72.321277863787003
13.654638506514090 182.061516799287745 -69.218335313576745
23.622758183801611 183.059239195340979 -70.362203706485104
-35.034463562219315 184.858806178841490 -69.430702174188681
-141.661419746871815 185.332187603603899 -69.933605725280557
-21.260945168547529 185.331385230429959 -70.421818481616114
15.141762598924858 181.111375466648582 -69.929095202214754
107.391556523975495 184.037666099867693 -69.465084357013922
-32.780972127731445 182.758298886740846 -68.505250717597406
-23.185094206321317 184.625142878659062 -68.458406798596897
101.675752221020119 186.259751922960731 -70.452379614385151
-28.927004364065915 184.662481934494537 -70.590856915269796
108.776116299106491 187.026489129789439 -70.635895329032621
-33.223914341050175 185.921452207706437 -68.848899671642542
11.736092535673874 184.981417832192307 -68.306154393550912
17.497322205748727 182.738992319722769 -68.985798797696305
23.830289352860326 184.835487708206585 -71.241552223028165
-30.401963044138974 186.758531619468670 -68.229916130079673
-30.382874652805373 187.151898426614963 -68.946239795636941
101.497297298182346 188.676116358797259 -71.192259630264928
104.245079856005489 189.198006684105508 -67.569519120923644
26.242611205445797 186.117651025358128 -72.418931816956785
110.263673524868793 186.819639094057351 -70.845673902818774
-140.995100888722533 186.196909545666784 -71.560916464901581
-23.768594842711021 187.624380565626893 -68.123221821605853
-32.360990397529648 186.621749979090339 -68.455810195773452
-33.404078413924758 188.431646399928070 -67.592410374062382
-21.602068614476018 186.470075101823340 -69.920873010392341
101.439497428176679 187.715172620269044 -70.148545297813072
-144.574590291393747 189.097332965804327 -68.607360069843509
-143.773154103900339 188.544460935988695 -67.612436375385087
108.738800498887699 187.986747336919677 -68.335932690517097
-144.757145101061127 188.005688373592022 -68.082630158329238
-33.434257237376102 190.045953713818875 -74.015940793314925
-16.870986646634368 190.293217024005116 -70.861966395438827
13.640686475160473 190.245007917351813 -68.559567002170340
24.837344082600019 189.947610672855717 -70.761161784913142
25.227907603577631 189.363288501250167 -69.049429385610836
102.143110979955694 192.368248007509038 -69.850401133608145
-151.842178535090085 190.679204246048016 -68.228119064950079
-21.025608257347884 189.243621991266764 -69.119601480169706
-19.587882601537675 192.559711050039823 -66.043479174745869
-28.535696173346157 190.153484251975243 -71.191445982783662
25.058678001462773 191.921314756360260 -68.727516323025995
100.499779312491412 190.391009948936841 -71.512138216167216
-142.725035648112680 189.662479042622692 -73.920318207658198
-20.804156294468303 190.494579259386512 -70.387237402761272
-27.913469915995027 191.073931315712770 -70.040618979567896
-19.074201828714063 190.677210007513821 -70.025963368477164
-16.596263422993783 193.206684095945377 -71.316879286396514
-25.802285917878919 193.590202507645301 -69.714584357401890
108.391844736462374 190.864332767247248 -68.537760009060435
100.930637845790017 191.536286075534377 -69.204363778868000
-29.829251581618614 190.992755563991722 -68.688796214051607
-27.701024746719153 191.945148099734752 -69.884041555894157
14.255033745460368 192.851773265566493 -72.692818318387268
23.783403934591821 194.431332389775918 -70.896609840118089
-24.746869431205155 192.645919690079040 -68.101290803487572
9.651691174225254 192.567870135383089 -70.332272414843374
99.759759358771674 191.814588470574165 -70.111728027486365
-18.242795105155526 192.915270676969698 -72.062424455378164
-148.889623721190247 194.586040860147790 -73.873426619472156
-26.646972635244488 193.379954207159585 -70.603791712485886
22.652885158014591 192.758917820461448 -71.480587969946640
107.134745613257309 192.941386669046636 -69.291996928559215
-146.249701587936158 194.998148738516903 -70.200387198520730
-16.783129073774376 192.612426814230218 -70.716342373004906
10.530403686817518 193.787293731786320 -70.583570400458967
12.307704800468358 193.134268287421094 -69.653126477725323
-150.686803234475747 194.985442263127766 -69.966110358443970
-143.911848962135110 192.134849799757490 -71.325887785135151
-151.525043476041020 193.295089341632092 -68.718889909112832
-16.340743677598088 195.579881779990160 -70.689245769522486
-154.625499561054284 194.881268001029127 -69.826366468266258
-28.629056135698264 194.254756032194450 -72.032985259654154
-25.070263593758675 195.737503043725411 -71.044586589101897
-17.215007192476520 196.836847986975584 -71.043145751953432
-155.433525173271164 196.755769828522801 -70.300777454826175
20.742663101247615 197.434667079952561 -69.008174158242426
24.247630501241421 196.303183082328047 -69.451459009618858
-157.227132736360147 195.222384456373391 -68.087985779700062
-152.970083608668659 199.202601800946582 -71.308532880411860
-132.211659214041589 197.494962479023485 -68.433576602238659
-17.860865961670704 195.560644553897362 -69.331141512704463
97.116593066129923 197.854920018916289 -68.792513916952657
-156.471941547385001 194.384490680933482 -69.981842048433634
-159.061971958485714 198.103294063719801 -71.881790324856979
-153.690466453717903 197.779744356443132 -71.039601229519818
-153.141758279901239 195.925481627230624 -69.338020174195080
-131.532508861737170 194.174477161421692 -69.381328429679357
-123.347642791786157 198.490580747500189 -70.093511954161130
-119.593116014824218 194.607158561650863 -72.075766066860140
-116.934011544164349 196.265185529207400 -72.366690506134077
-28.850311906166660 194.618740722786157 -70.026372441958756
23.058062070617176 195.623174447393581 -70.910712412439068
-140.811506614007158 194.716862194886687 -68.040012365236407
-123.359322314684960 194.512512934988649 -70.534270293618917
-120.261840385698463 196.607365601093534 -71.363626165283335
-119.098870230297592 195.865137665321555 -69.470685676113945
12.090050904048926 197.678899032265548 -70.132718360037856
-159.103269954698391 199.023832960698201 -65.607046425146223
-156.970074351445589 195.520091328863828 -70.357554433898514
-154.258417671739721 197.798515546100617 -69.507930441410210
-153.316254709290888 195.379844244230981 -71.838298090065919
-139.175501289371937 195.221182607041101 -69.946677525995099
-133.177648617261895 196.883236366035078 -70.726787007344669
