# This PCD file was generated using the MATLAB® pcwrite function
# from Computer Vision Toolbox®.
# .PCD v.7 - Point Cloud Data file format
VERSION .7
FIELDS x y z
SIZE 8 8 8
TYPE F F F
COUNT 1 1 1
WIDTH 809
HEIGHT 1
VIEWPOINT 0 0 0 1 0 0 0
POINTS 809
DATA ascii
-64.985856090660448 109.006430563406340 -57.440376373867721
86.659277863930683 108.226870795979252 -57.414666024277032
89.598623538785588 110.485241878661370 -59.937870958812525
92.915384549114378 109.720293911688188 -57.013889988600354
-98.061395291702496 109.482691797710814 -56.888502678966155
-58.354999337920049 109.299821472657499 -56.795088363602567
48.159491596651492 107.882539019124138 -54.298606112889708
48.520440487993433 110.523299319093312 -56.323089655868280
-71.536808544662563 109.114134821603088 -56.817045883683143
51.166122851618368 108.701935536710579 -55.514434334419306
-98.576971371746311 110.690258816399037 -57.753436002864163
-63.812181509403111 111.111227682593039 -58.079368966602836
47.995713663276874 110.597487154903476 -55.990635565139264
53.483946927688756 112.391618648330194 -58.401677127640276
-73.598519659888936 111.013720019468792 -54.810282787418387
47.756648615616342 110.176101509178139 -57.881823987513194
-76.451323049364206 111.548458921787883 -58.446871903619893
-63.561025758618186 113.276055129135955 -59.280823142485680
49.781456607355707 113.079070481652153 -54.734890750222085
-58.923697668794162 112.540679095141584 -56.811118042166207
45.277500490989738 112.622113767733239 -59.255990306397713
-76.988575560095171 113.433132388963955 -55.304604027097071
-60.301052190465391 112.513765509229032 -57.322584757510135
45.185699443624216 112.955159526555917 -57.551603338066762
49.647576258665588 112.650039572772343 -58.159129624187273
50.904337675221626 114.028134580622790 -55.358115908818164
-80.663991194537516 115.391813603124348 -55.131845252826075
-73.462184212864940 113.116380774476255 -57.197683974821238
-66.997589332435737 112.534942432597177 -57.155694522487302
-58.805594563958437 115.709234294380295 -58.145359402138503
50.713463983632742 114.949314398536941 -57.676476743842763
-80.933442063940461 115.452427954843102 -57.130421564534394
43.384243234485524 118.049809278242989 -56.149747826036375
48.171040754700080 117.599314383620083 -56.754634710731672
-69.331550834429606 115.306240937874534 -57.074435862665666
-56.622489339718371 115.740499158118212 -58.033165215783775
49.126205664007593 114.809871927970562 -57.279918173434403
-71.195624434658896 114.206954459731918 -57.711116934280341
-79.741574646814982 115.959270910181687 -58.678857378184894
46.733074693576725 115.056911270803781 -56.968029520342668
-83.216181308813461 118.266081626499570 -59.779831388440705
-85.155203092549058 118.776048971358875 -58.798863481385133
-84.029631584971270 117.838254208272517 -58.398098230861443
-61.076456546236180 116.583736415678899 -56.291417690583799
-86.512463991220983 119.217353671077348 -58.614138232774650
-80.519448123831964 120.689225125252619 -59.282136498325301
-84.091687966696128 117.676812410372733 -56.106005682122642
-82.217759746901208 118.296933548368685 -55.884147328140784
-70.412517187004767 119.034518782113480 -57.406390072384305
36.733129586086640 119.994804360898371 -57.998345605142347
-55.900440535426341 121.205548201375066 -56.150648084383540
-86.595898969305921 121.391433873693757 -57.525795625286875
-79.934371840120036 120.418915912286948 -58.463242510881940
-80.819886968945724 121.623988164488708 -56.894214581426240
-80.807710742321348 119.442978499148495 -57.150959797909437
-59.006376712479096 123.009433215701605 -59.101479617598692
-81.126835344588216 120.982770208920755 -56.873076679066223
-66.099741665095451 121.952908202113576 -59.899781850905534
35.468523484955483 122.628530528168753 -58.573694820998895
-88.085082671312279 123.600393848581362 -58.854516985673207
-89.820680058022830 121.794741601905059 -56.907705685520277
41.160235916957681 124.512961023343635 -59.520528696249606
-92.859378351346010 121.504787714861081 -57.680943526118064
35.252843413197319 122.829966355395356 -57.001141410999885
-94.363388044697572 126.019858038998336 -57.947463030496415
-65.476341851615160 120.754834329292763 -57.709451844391189
-53.512041779998398 124.478700686353079 -56.898284981603588
32.498049562027838 122.413494332518809 -56.885179477602094
-53.127693186945947 125.810445263779343 -57.681380513080619
-67.521121569328784 124.796183547645796 -57.418440586467625
-64.578422255584172 124.408876272559056 -60.024594850119556
34.855144881937534 127.334676830540019 -56.778170701624475
39.126371616127201 124.343997827934658 -56.382140684551693
-56.721769773385901 123.951390716201260 -59.263981587121286
30.572026477767015 127.156610892598763 -57.579635863791005
-64.201504395694869 128.664979190611973 -59.595130508940350
-56.919807746428695 126.592154599773480 -57.124045587275596
40.600346446205684 127.101808783180346 -57.937991485504376
-62.295994944183199 128.186446689692730 -55.592726112305996
-58.209515917535683 130.846487357322275 -55.539972439107899
29.516556009336362 126.044405729282445 -58.687457376141992
37.580397370230443 131.148937710227841 -56.785123328697942
-57.262938861834343 131.033842218375895 -58.398308837112793
29.334313740718436 129.396625222289828 -59.395374731908490
-60.838142931588735 129.889540681900087 -57.619786078822266
-53.237647571328068 129.839975520604867 -56.427572823530127
-61.925707454891771 130.114236577915790 -55.468330773645505
28.802649263980285 131.230627434195355 -56.719778993528969
-64.111312834166213 131.748079539717395 -56.150649697863777
-59.657475712867893 133.253836724762380 -57.282806790179492
-56.766460450498073 130.433700222153277 -55.963040663005792
-57.011689844559093 132.925827095806284 -59.968075216089666
31.145879388867126 131.906666225960606 -59.000369970178838
34.961038427784111 130.604679936515254 -55.986412711467494
-54.949574473642755 133.075056644879766 -55.341799479918308
-61.968904329703633 131.870399064623086 -57.014058719640289
27.878750994495491 135.417864092757242 -57.605114426868418
-60.475900390061710 135.117817491281869 -55.366629802201054
34.447525860938669 134.227164266416253 -56.588789732213939
-55.140982123314934 134.475451819403418 -55.935013942048847
32.159905175661990 134.420328836893589 -58.480882642595752
-59.385101467827234 134.102722881544679 -57.934667237017649
26.236907204909741 134.681214639018151 -54.950390306265604
26.404890607587909 134.896802095506899 -57.854845684142056
23.171319596047592 137.777045992367107 -57.618703848320365
28.468818551755728 135.890638036146129 -56.666656311699505
28.435360460635113 135.259436922586445 -57.308696732981097
30.751911897943437 136.577333645921755 -58.099602733261207
31.357395128038050 136.391067614983058 -57.718633091109780
27.582146665775241 138.159624568666203 -58.551409463251289
27.218684813981678 136.941948527815384 -57.498718470380737
26.936269089047677 138.580696859027228 -57.111644051746900
26.467295733735469 139.241552635916833 -56.470217095648465
26.522312625246165 137.556890831676640 -58.811322627752389
0.892428350453992 239.766473874239523 -56.698719179349432
-0.407778138207567 240.459372373834810 -57.226261113309647
3.416680045328494 239.296653650771049 -56.590824064747096
5.222827712495090 241.732733735963762 -56.994823720709022
15.323862059469356 241.127324299541897 -57.064351771049459
-1.167384340324833 241.581571702452862 -58.033421513896648
3.686492184548750 244.186017761693108 -57.773753218018726
22.494299549214620 242.728658568098666 -58.203887635672722
3.972659277499486 244.619493677210613 -59.958892732004266
4.762252159529473 243.469560659127865 -58.433760692455827
13.602630672590655 244.986077381693178 -56.764750844741435
7.175418269858205 242.603274860134434 -57.969126096169667
6.434245220714995 246.585184278118049 -57.526855317128927
21.937669983462897 247.038417535408911 -59.460448474890022
2.441866596696300 246.083689526966594 -54.695621826861135
-0.350105362508388 246.414922750248650 -56.979246137566427
1.168795303936539 244.074124366392510 -54.992940403550094
2.532445991568705 245.813359215218640 -55.971200443651455
7.171486499804404 247.817587965419960 -57.185571409725156
-1.716589002725042 249.194296872858786 -56.015230525757580
0.834505013139237 247.416461498757172 -59.432496989226820
0.605392830324121 246.574710136978325 -58.561102122690592
0.804653231706206 249.310533236094983 -56.996525843078260
4.086436185947617 248.755658785223147 -56.418682825383925
0.909127702771433 251.223309810320728 -57.092621785076446
-0.610332881539543 250.487041771064838 -56.368326628014337
18.922063665942908 252.366716267965415 -57.465209266323448
0.245857787210477 249.674472614812260 -55.831572877307039
21.505345116564662 250.399784731261491 -57.516767250306970
21.537433238218618 253.613844350904458 -57.222869524214865
2.733811345191143 254.136176851131523 -57.092225278628419
6.053114909674668 254.890944264406698 -57.845512807897975
24.743152421990708 256.428731706521603 -56.016574831538300
6.863378059341130 256.284106475773342 -57.980133569411869
25.208676149587404 258.257660921039303 -56.902907038125285
7.932983816880684 260.292296417922842 -57.597162779505439
26.409637285587714 258.013411880246110 -56.389153020815101
26.461122587093694 262.280289588583798 -56.413453556378116
-16.298031659964543 263.629726977613018 -56.751775523177436
25.322423469253557 264.884749371297573 -54.680944768727223
26.760977801205161 264.469565790685181 -58.162317698227945
-18.046919544127231 264.679203651816806 -58.320942592165181
-15.640947676855635 265.971905299668094 -59.827782431939212
-15.608441933686253 267.838409190719517 -57.919228967873067
-13.929850463469895 266.106556432708942 -56.125468715784756
-12.539172699015893 268.229390146524906 -57.804291388378630
24.573903633803148 268.210643582594855 -57.851380562171869
10.251278318120665 270.372911294706910 -59.352677546501567
-17.459824239225998 270.507075895590276 -57.747694091685368
-16.799697269930441 269.113528429433586 -57.808011153069103
-16.754552890302097 270.968600115039294 -57.723048739061163
25.257559129621182 269.743693448012777 -58.115684572546670
-15.186828918627345 270.640156776744732 -55.944988896420107
11.093099802163312 270.952407796897603 -57.114104602830295
-14.696540604675985 272.018117879615033 -57.632372436033002
-11.881057958358166 271.409033342758789 -56.882950491646938
-11.525482694137207 274.478196991876530 -56.551770698402287
-13.810800143069496 274.375517937527377 -58.350028390211257
-12.717401261265309 274.233886068709751 -59.200733406274530
-11.381173958402785 275.628516317797221 -56.483010818297856
8.452379857800924 277.964341615076023 -57.078721211517319
19.119493957024432 279.141182891377184 -57.723782518875637
18.821806215849499 282.537141515873543 -58.840815310421270
7.577580374027945 284.047718294673643 -55.860656669806204
8.138762757448699 289.139607730104785 -56.264637110015421
19.244599990376202 284.487894889660481 -57.507481000333520
18.007728894828897 285.551917572711147 -58.403605029421826
17.707036631462167 283.754818122108986 -58.322685199456316
16.476808462243987 286.024622615190026 -57.705383165218720
6.555641829673267 287.198327317855046 -59.521974969090977
6.475794267629411 289.091777545898310 -57.709757867602896
13.282807022328921 288.793989848411286 -59.970735173583584
3.504325069078118 291.560811329586215 -55.652092638964973
7.647428321626482 290.293148443169230 -57.897882588246802
7.245551648872675 291.712314683077125 -55.833665627230545
11.165758823100942 292.433673712457050 -57.232534542344318
8.587587104878947 289.236953462857571 -56.228348327382264
9.409967281781388 289.585830697117615 -59.486932056053128
10.776461356841542 292.667652979425327 -58.148341564402912
31.616329925775077 16.107222652905229 -56.773333215554771
41.984466179550815 15.209871233985711 -56.365760054738821
33.837889100383336 17.031959669773503 -59.691217881887056
24.365099278680784 16.958506737647035 -57.449633991487815
46.643778232004436 17.997093304217941 -55.066536064666273
32.762136180309994 19.675633659704680 -56.766722823921548
47.531210276034514 19.219139966772158 -57.734996874124015
37.115997033761332 19.038457262999248 -55.431401388625858
22.346350323027124 19.448334659033254 -57.689141906143107
43.311295990236459 23.510653462932520 -56.140889571533585
47.756794820588077 22.420962781775351 -56.568119740107598
26.296370418867884 22.629074506248738 -59.060507270334817
42.928754974511222 23.225292274342241 -60.326591886396180
19.484521572766404 23.512790638950491 -56.632358860176652
42.246116426100741 24.687765794957066 -55.760052949630690
18.396503490587850 27.664200238593946 -58.311417823707686
24.357264839202120 28.690833033668444 -55.546179207092074
20.959136599461772 31.514349415136117 -57.237920644584662
23.995678736867234 36.816249312544038 -55.910975412841069
26.975384708939615 33.949347709370379 -55.328002918536185
49.265810456471797 33.644021250587116 -55.490280132982065
48.293858102333509 33.160360425907818 -55.700910246237036
22.852201024335209 35.560575221096755 -56.804757969774272
20.878367593948905 35.840882062006322 -55.734750341448787
29.368421954116158 38.159677824121843 -58.646231940438206
30.899413556558230 36.812748517998763 -56.376654472276428
36.506019289318999 37.719666166997754 -56.782456557063746
46.246049611191268 39.877595926544863 -55.894024637721806
45.698581566410702 41.609550642379119 -56.584602096697679
33.160705917291217 37.341832128764601 -56.015245376978470
27.316000887172915 41.779511265152010 -57.364248793340494
33.683315978364284 42.312728206602550 -55.435627926634396
27.022868117060632 39.602157180037288 -54.555675228594808
33.048939850709850 40.670135543067573 -56.043985280074722
32.438912567720557 42.185373411524431 -55.350619576930839
35.512343232415397 38.869104129311047 -57.772965232002171
36.423835624008895 43.386236796339325 -56.466884918855811
37.096354436181464 40.033490268790544 -57.978789879927000
-62.743921608546209 41.549918649005676 -57.067134807927580
-53.144120948233166 44.566259101437893 -56.679397219366493
-72.550122665338648 44.249310886353605 -55.712934242050444
-72.635694123777725 45.119820304261488 -53.755483861675714
-47.804260693637048 42.246983411323441 -56.611064965430209
-77.441951942978420 45.466237676582459 -55.544457093265876
-49.950272707259401 45.937874318904186 -58.867138452059130
-44.361640145301557 45.915204797150651 -58.960130469381845
-43.072733474893631 47.911568351657181 -56.237736706900009
-81.383700261743442 48.327158952772550 -57.336736657293898
-29.657797533694378 49.060050861636206 -55.670917489781722
-84.840486497682988 50.485895982628023 -56.248433364648044
-28.025232798938188 48.322821392322254 -57.608564023902616
-85.953040569330483 51.830159529652938 -55.467859347374741
-86.367269159910293 48.907157576090484 -56.313557006978435
-89.236503284440673 50.405211758538847 -57.877686461084991
-11.074199515629150 53.598710671342282 -55.268442667222310
-11.229433893565199 52.948817021233403 -55.514118308404676
-92.371528165606861 55.372281932002451 -54.764205034384325
-94.166315037942823 56.576822836874854 -53.950562715699654
-92.422021454570782 57.983349032059500 -57.846008245759293
-94.662776169279908 59.704383521407451 -55.466453050549681
-96.392366989561623 59.471230616607279 -57.449661998721616
74.980709663124983 59.779228288863514 -55.779584848526035
80.945257485301681 58.372572564760709 -58.018121432217953
84.390154595055236 57.771620845278534 -58.727197981935035
74.845320173088851 60.205650378653331 -55.855023027525085
81.007939232957881 61.644420452725612 -56.717710143999398
-93.793299512585818 60.221498402098199 -57.808081159217160
89.476540817734289 60.875911911273064 -54.424823641701110
91.286286667001946 60.470257520999056 -56.351372941917191
72.811807865598666 60.448629434201862 -56.919419074663004
89.509791184610464 60.428220494558495 -54.980371739741877
-96.295810435987150 61.321021427138945 -55.476365400818771
73.208495157838101 62.998769847030779 -55.646784819224834
94.390519515836516 61.769216241402759 -55.791297351478271
70.702607534979435 58.039564249429759 -56.601073039191874
-95.484352013894508 64.372010323872104 -56.776430008328575
-20.209224562214594 62.515853093725262 -56.224132245655589
-23.240212206016444 63.973562745225614 -57.778479393473077
-18.106149789160899 64.261771702932421 -57.311580595084806
-12.073571048557133 64.561646833203525 -56.904492217739268
-95.170656101493094 64.253142457721836 -54.373008628352757
-25.907053863575833 63.715763764230893 -56.527692190328416
100.319740801485068 65.147495056958249 -54.332080882532189
-96.016657841596427 65.080481355983849 -57.443747056792787
-28.421089703149562 66.177958886693787 -55.085195612243851
-27.925764239919243 66.592045611806114 -55.361217952776393
-30.392555190350929 68.215766837977753 -55.214445082747574
66.027220970446834 67.416059475602424 -57.518202179774526
-99.928653593617952 68.070755268495716 -57.280435461299454
-30.438351103632534 69.658687370302886 -55.744421365623282
66.916128807119051 67.950057621980335 -57.496220114499451
101.517736172527520 66.556281261861074 -57.504406809245040
-32.734878867650565 65.444017195343193 -55.011208059841053
-32.846812762211094 68.345735315322926 -55.418086691825955
-96.471806795848892 70.030343797330929 -55.595029438580951
102.397520935967975 67.403664356707068 -57.231598439656182
66.413291646689117 70.309092204019748 -56.418990472999091
-66.133865306121933 70.652923003533260 -55.380382484297542
-64.401881471197683 71.528770512211082 -56.516766873423030
102.234057910861026 74.625250929816076 -57.354085450007261
64.443568170733101 72.991032241073157 -56.713497388647049
-99.031694540169767 72.766938434920334 -56.940221458735202
-37.385083622892616 74.782560456957583 -56.797948821308935
63.919848304676613 75.855560587317754 -57.155037825709151
-34.284335394266684 77.569535287690385 -56.826351650644135
63.125860245089299 78.699007036053501 -55.064905809720152
-51.284921869900387 77.851386122872185 -56.483153854631979
-49.753239323089055 81.236856148137733 -55.923457876319318
104.899334426438870 79.723535944844542 -56.278137407328146
-55.332393875902255 79.365695283103932 -56.503372551454859
-100.441810033630460 80.114612909531886 -58.160053416073247
-49.090957590319697 80.058870193964324 -57.691801654128675
-50.042859237374671 81.595799671760759 -56.275871488099959
-37.072486774269294 81.957939042352848 -56.789917083634847
-41.613438579974478 81.024545907490307 -58.537101189685117
-54.720479739019368 79.659143984429292 -54.154295992511663
65.437834593970422 82.288900489593914 -57.636387535429684
-57.192385869646813 83.022248333915428 -57.924087325760588
104.741206447070610 81.201779701122945 -57.928961968398703
64.575207440526867 81.304960545810161 -56.047276975541500
61.682502112089814 84.221551002025919 -59.217332733917793
-99.420532502801322 83.563156415726596 -58.059550169119063
-59.096423185942641 84.155016329674453 -55.207906200213280
61.728464639944086 85.578371288277026 -55.476513239558123
63.576355906736310 85.347175377548183 -56.780578351516944
64.541746761928820 86.201498912158527 -57.661528942313311
62.798031042302043 85.434139739060072 -55.058873776396680
59.947335113197859 86.719722349754491 -58.601435378200605
65.563315165405655 87.371443720476705 -57.247189049794187
106.730240918684444 91.076929204850586 -54.684182780134066
62.975443222505774 90.062465489248382 -56.693996761962914
61.395507333431134 91.321252235323215 -57.248512753823903
-64.292901057575094 90.496264698553475 -56.435663835826993
59.124035490351218 91.732524226595785 -56.570125363154297
105.879684594219256 90.657349309978770 -55.552985810613492
-64.349603484045431 89.835547441393814 -58.689852756734219
60.503332571507563 90.533343034044577 -56.758031317113719
58.525783180594438 91.435617994198182 -53.299976134078619
58.690484481435895 93.659316374128736 -52.951520815430023
63.161533730591138 93.201276906756050 -53.240933496301679
65.789544760426111 92.007348704477764 -57.553898673530647
64.157377115868087 94.428753516173643 -58.317952602400077
-100.887910024764224 93.549526555896520 -56.326072749712871
105.548665569413302 95.789326040252774 -56.566909687073611
-69.591249833143664 96.781975201610507 -59.126013137347194
-70.636208968662430 97.617581259988071 -57.170499097894492
-72.168195684997485 99.124231478028946 -56.291123954059607
-72.282084614891048 98.580525829232329 -59.336690852778439
64.190547742342630 100.268447935397504 -56.558700253118154
77.569383240707026 100.153619755735818 -57.422116145385097
-98.518783074140330 100.404136187032904 -57.074787442453179
65.147795826118127 99.898803257478917 -55.839079453887983
79.238553684583323 98.866181824535971 -57.695585084144852
65.823920701432073 100.558573023985076 -56.067769502254123
80.830362140950783 102.003378177866296 -57.594987291512773
66.022995863016945 102.037109772180955 -55.180124537948309
79.962822400088939 99.904845990497392 -55.634665687816856
61.113620018850376 100.639138785310223 -57.873833000387307
67.206673119885977 101.802776547384951 -56.527627430118173
59.370094667646747 101.663348700030951 -57.403664134200518
68.356018664357322 104.237760117432600 -56.905229197436988
81.618594942214870 102.479778887942587 -54.968210903858228
102.809943630993914 102.904837356596005 -59.532785190085029
61.222397125814062 102.812475212521178 -55.376079236344353
65.826020636842358 99.862268586685218 -58.404557137117116
68.746544440463509 103.513987925906534 -56.445307742872465
57.844806079594512 103.166864646660770 -55.799618335763746
81.173486838697940 102.368628692480513 -56.693816966588997
-100.198121425291760 103.920246806875767 -57.308539581303393
63.466473313390040 102.317191743632719 -56.253758397716503
66.291731162730883 104.447048570651305 -55.619927701711141
-74.646142811592668 102.754689824988787 -56.183875872947780
64.203162052195580 105.531070216579764 -53.553084561376487
78.659595158840062 103.889243528011335 -55.974318876308665
101.601459848656617 105.158869684684078 -56.324271063129807
55.341533222010803 102.524852395836731 -55.693535103187827
77.681335377032269 102.359628742296266 -54.659958202807523
75.344400337250718 103.326918764749323 -54.423091435282664
82.399480505517587 104.587636556586205 -57.623237938635192
61.644388630386551 105.376188591887441 -56.757580915227869
62.135313446849977 101.793164778500213 -58.550583744401777
54.117622644194896 103.236311636246086 -57.915523020014902
61.865305117898444 107.335817425062160 -53.528018468281722
71.346780937767036 105.274253176773954 -58.597526156669481
76.900524964149454 103.566414097314521 -56.003263196380942
79.551711112118028 106.051922533836603 -56.126620665307470
83.789750484589362 105.418162331941787 -55.272840492751534
100.013439778036485 105.123269083068720 -55.984938115101031
-74.252829122733047 106.286385091980861 -55.833729742698068
54.737718556916093 104.710411274611687 -56.226192391960353
81.991020553686297 103.784791988649090 -59.257251141470135
98.096426212058176 102.550291755498421 -59.485974807077660
-64.541508238271220 105.851169934322797 -57.698173385407586
58.893620251727690 106.172982157438327 -54.136188237359036
-66.264804066591736 105.603613101349325 -58.779052373075686
-67.928171228944393 106.782649017279823 -55.817396789149051
60.029786237545963 105.848590450086718 -55.585824809391632
70.872326569438215 105.947034939833088 -57.421471957919231
100.198604880408809 106.594399597476325 -56.816908813574948
-66.169221398569746 105.791974999274828 -55.181888919260480
58.279452147797720 106.017889570001500 -57.108049807081898
74.150750163273514 107.564729729821593 -56.891164243147230
76.358931110058109 107.486315443995537 -56.814363124827842
53.040145130920607 108.190182193371669 -56.940056962995122
-68.525888569562696 105.921962108977752 -54.519932735967174
-99.201277927088313 110.020170502548993 -54.802094933759875
-75.206359292948648 108.932287866824979 -56.528737203070250
-66.232701992408110 108.614242057989330 -58.334822618938958
-66.182826046206301 109.184902136208621 -55.975306312765412
56.017333117088548 108.666805598536641 -56.705875734049961
-63.304147416408391 108.780615666671608 -54.840325394865609
-63.095688364969320 109.756724599700917 -58.139206323309701
57.166726335351029 109.524505237718941 -57.868730788845028
83.236887665070952 107.101474162223354 -56.070958221534632
-76.112165696844613 109.256042968704179 -58.456168188623742
48.682746809363366 109.152517571043973 -57.825290249506487
56.051109147956431 108.116566044611716 -56.538717459396416
-70.544967040964096 109.719800572351190 -56.297707078826569
82.671227347819894 110.028024181006444 -55.966954495501533
-72.233096175094360 108.667061720241392 -57.983697410576532
85.165471894000959 109.537562262273624 -58.240433422425632
-63.285950826122793 109.687634014432973 -56.793402560301388
-73.245628367593227 110.685143082193093 -56.517865692414126
-70.414500194770440 112.867182175368058 -55.429219692088836
-63.135515233018410 111.353745174053245 -55.234417853342229
-77.766101760427688 110.642241148964374 -57.177789178882854
-72.629363431235603 110.347035987595419 -55.134494171542492
-76.850162054920915 109.924353030622754 -55.407578210357670
-59.508690223645601 110.719463980567724 -56.619391125592941
-71.324827954527933 111.863325293889233 -58.000886602534194
-71.759901749515038 110.143492755938183 -58.240175375170409
-72.430908194793673 114.205961793998156 -56.399600150144906
-58.579465252383315 112.262918762674033 -57.080652293978801
-62.180386334540444 114.388167889093921 -56.077749481173115
-82.168934162363996 112.113052195471084 -59.139868574643941
-69.491009708628027 116.969873255194898 -56.842550125390964
50.807983088883013 115.984234406663077 -56.302010443948468
-78.112754166480855 112.614484463784663 -56.385757575691187
-72.101261368253958 116.927644733114747 -54.349042891005780
42.790992623585971 114.886698087721427 -56.033048863823247
-56.522576119003787 115.590574805907167 -56.101885693051500
-97.515299739555118 116.031746646834833 -55.470310313644980
42.755749189507426 116.136555611580292 -57.949532573656981
-79.015188529479488 114.545894041698517 -55.667247263578503
-58.515901493045902 118.114462056418091 -56.605660519629616
46.480722709717156 115.431287666411450 -56.530345086684640
-81.750860411369345 117.173787009360197 -59.759209342503532
-94.811813362795519 119.004538307173235 -54.913763085632283
-83.892606463006359 119.370524189234047 -56.167013038172243
-77.884978518407991 117.509747642037738 -56.927069913843290
-57.695008714264290 119.104899665551741 -56.226350817873382
38.940484930849451 116.317916339130733 -55.299701110795034
47.908966701161788 116.803964332959396 -57.248673325440585
-80.942826463118266 122.516957377338088 -60.615535188093901
-67.366150569332063 118.330807695819828 -58.173808155739877
-56.599881797896927 116.747626471556373 -56.339146531404452
-76.806688140290007 117.866836640752780 -55.553428166462211
-86.406227603689857 117.886368792543678 -58.331904070070770
-72.867594704361679 117.361782329767436 -56.953674141888783
-60.571240815646810 118.692174406900222 -56.523193455591276
47.189559497371405 120.766204168355586 -60.252182883711669
-95.549853569281964 118.342323432242495 -57.229425724110207
-82.408160956198998 119.759211952012720 -54.717350658395191
-81.290246600110308 120.112266349372021 -55.294921127996318
-78.351333490943702 119.513189088377672 -54.535600128738473
39.845356001080447 120.583674990980469 -55.853681007140274
-87.660676311477843 117.464551111102708 -58.428879644858576
-68.286788705551942 118.457442706266704 -55.791814387753220
37.398530932407951 120.007651845272292 -56.221080818783641
45.530823001936419 120.193031292484150 -56.678380950104476
46.537761551345731 122.937472367139662 -55.966757803603251
-90.162347582239406 121.669645125404315 -58.160161354010306
-54.559537462662846 120.651065279836232 -55.968541997758997
-54.489823812316331 123.222906847154121 -57.965865022393110
-66.612239838907215 122.834999513406402 -57.080074189874090
-67.361237603035704 120.437723728134841 -55.320090304423594
-88.887982492157477 122.457755945633735 -58.353810459782160
36.274830225182441 122.253307821751704 -56.470851047878462
42.276993427996338 123.493794222181521 -57.766827840955941
-97.096316399071199 123.797047562630837 -57.191761122894754
-68.865653143875292 121.856404434967288 -55.679884125133015
-58.555079267957716 122.959082001379784 -58.491491661699214
-68.127492778572559 122.985864676347646 -57.262335511242185
-64.204251739340108 123.490951090653013 -57.286265106726944
34.571816248129565 121.113370320593432 -57.811021506827458
41.059265523755315 125.831915202367071 -58.749655965533499
-56.536372596911761 123.540489345378674 -58.006877193600111
-66.218365469434076 126.109730571903697 -56.718891905208622
40.337774816047407 126.177204294850995 -56.774728045742854
-64.523523944996768 125.452292019883927 -57.589885953340968
-56.439837013342760 127.019878775174803 -57.974706440398940
32.646301728631251 123.544799373572374 -58.874999914206811
-66.205932047879017 125.579444485103153 -57.196585092407240
-60.752488887577776 125.846011875759288 -54.609346150446548
32.382126375992783 127.637611294981753 -57.369093123328071
-66.874484773992933 126.984730977117565 -58.252981943271074
-63.853333048265824 127.997554444146175 -57.287363178050938
-59.813480886591975 127.072929573583693 -58.376679638139436
-60.779138907778844 126.755372528241111 -56.385076830728586
-62.436369028790928 128.459261008224473 -55.959787372179683
-61.338340101849312 128.276886283173155 -54.085291029723230
37.380697070614083 128.653277801437213 -58.030651326320431
-62.240222859305121 128.463983486082668 -57.139895101589616
-53.405332912984441 128.489231522149709 -57.843727017163452
-62.493950034986604 128.998550399367844 -55.974244059576009
30.619024982781525 127.836853925787011 -58.148986891092449
-55.318791901727664 131.227394983972346 -54.160624638613974
31.853256509701815 131.448645013313325 -56.202730978362943
-63.595337258043919 129.712306053673842 -56.285510983227674
29.520781886813648 134.351025555817472 -55.684495754972382
36.194702220851852 131.328527296781942 -56.813241660910897
-63.164430359391972 131.207203399719617 -56.048360815648728
-55.638698382562005 130.401135991348582 -54.971125557309335
-58.348406987671353 132.024088390062957 -54.028585021449395
-57.706860708725593 133.133995609619831 -57.222612588376926
29.127748980754209 131.929118893005011 -57.474620803273588
35.657804201081213 133.770061639782455 -58.096330737026250
-57.916418076827938 131.980696405705459 -56.733300991876057
34.629979682776167 132.385088166850409 -55.994649798295974
26.723231362098485 134.948077449547441 -55.372215017259279
28.799075597085537 134.683816655663207 -55.476075698580409
32.141122332524461 132.565826636122551 -56.601648550421608
30.589270868316476 135.341291759860724 -56.811274048941371
28.902510584417339 135.500820402880407 -59.664228845571195
29.525564896092284 137.034571004462350 -57.233165552781102
26.806247108600662 137.391241662153988 -56.799527268653691
1.780719255555705 239.213532115434361 -57.038908536595436
-2.229730136717145 240.146958770603277 -56.344403757450507
4.704092252894419 241.006269547192659 -56.307506014205067
0.928038586752786 240.750960552038606 -56.565473576208916
0.985746187460509 241.992246297263620 -56.143729675133166
17.779561522269848 242.837257983597340 -57.927574206849350
17.390013679183248 242.964115028370117 -54.508352860915231
3.117706829103752 242.785663086981714 -57.066559229327162
2.037338351382822 243.562704302303217 -55.871088643572314
6.691695451647915 243.640763990907146 -57.620925173608292
21.708157743315549 243.243572687820347 -56.836443295735343
10.668257573191152 246.009528324275351 -57.471538658507768
12.195878763823814 244.338587017967257 -55.094402786904134
12.245273241329363 245.187183012506551 -55.463557006500523
8.489773783818212 246.741812403416674 -56.984966800072421
13.156263727408730 245.064892827475063 -57.033384786844216
8.265547078439230 244.934749992024962 -54.931440938339136
23.245838991482408 245.999616191628832 -55.606158805049724
0.646504345846732 246.716072745508143 -56.248717851863319
4.332674335528255 247.318383642455188 -56.774593746736095
14.410842682652595 246.525238405874120 -55.787880101064744
22.228863258856617 248.716058860871840 -57.453196953722774
1.542037255903036 249.218675262897250 -57.969572261448022
21.832561942555817 249.822658187601377 -57.862919382751969
20.289468128569464 248.937301984251548 -55.625885287133507
3.677775184083321 251.757707642535848 -56.077498483544083
5.086866938308056 253.216530485543018 -57.339555219022571
21.688670314100499 251.456602518339679 -58.496390697849328
7.811055862125136 253.725325963872848 -57.733974381840341
24.291314552441172 251.512985306608044 -55.641789484651682
22.479256048611568 254.971852581416556 -56.504950922746801
7.191580059605992 254.097116409057890 -55.064530960020946
6.430502074700166 255.156268902394032 -56.745167477026676
25.479466638095193 255.765165819102066 -59.265333230888139
6.232747675771440 259.505944506585251 -56.181311540714823
26.912202972578388 259.680423728801827 -54.186485166711627
-17.092103213846048 258.012278164464362 -56.082009587456987
-15.629885856404719 259.652836700500075 -56.088145453544435
8.650293741468435 257.720829882982173 -57.734617932832094
-14.468312652645741 262.197451913808663 -57.306446976283794
-15.295923642337225 261.092443912236376 -58.566561316048492
8.638941978839616 262.513584647812650 -54.814080025850132
25.891124246794931 262.670648169974640 -56.135596942351981
26.620858188397470 262.449314179095040 -55.730786436751963
-15.702522975436230 264.960352023236624 -56.413799094397881
-16.099890436891176 266.558341722657360 -56.929587169748579
-20.007676933437740 266.283046128213925 -56.256622559435328
-16.074178387587285 266.251838785334428 -54.569657966482133
10.748070802084671 265.556228798032294 -58.079000680901295
-15.608886929187207 266.823829905002924 -56.864214061368905
-17.758697216694252 267.472067369500223 -57.249807573119064
-16.540473746200295 265.987357833310455 -56.601590847225950
12.783360393298505 267.664219708553560 -56.534513376845879
-19.066657494021591 269.568807333612142 -56.224901870976673
10.532563737763663 270.212715644549746 -58.724810115799237
-18.224140207886695 270.304644359235738 -53.264188809737661
8.254159544304329 274.127085607440051 -57.269363728728173
-10.852833293803496 274.898080340521233 -56.569731017028900
22.755084819181942 276.145957872740212 -57.071032340151653
-8.620317936996139 275.520312389490130 -56.915826732073860
-14.103943407697544 274.629431086808324 -55.575004822109697
6.584731988205307 274.509115215251711 -56.038513225686643
-10.087126863537787 277.088378519689400 -56.816038573987079
-11.469577200457941 278.105651864739173 -58.258076587916577
-12.061260582664911 277.774054845062267 -57.905450783975091
-12.382012284319000 278.554141714218247 -57.057671223928061
8.034119680509390 278.465586557397955 -57.699379822178521
-8.820785801784639 278.267481728337600 -55.434116255579461
-12.093562767234369 279.469123092275424 -57.716441989177966
-9.282756991337530 281.578947213702179 -56.526981859113107
-7.966502497708181 282.160202719437109 -57.398993411336470
-8.329600821555994 281.670614179853146 -54.674480769196734
-8.005722012161042 281.587596577357374 -58.020545303291676
-8.999464835743895 282.381555147910944 -54.804535611233419
8.367982502812890 283.969804596667643 -55.555077353262369
17.181007518892585 281.880266155142692 -57.902526390058561
16.788460560335178 283.352216305437935 -56.980988594922600
-4.164788851593459 285.746694640646979 -54.199915764815408
-7.090400274713414 284.803042155334708 -55.448177841392820
-7.345818620950112 284.840271386810173 -56.055682932477815
7.756580066937847 282.813247236850884 -56.397422851792356
8.710025587335002 288.655187242055547 -55.722988797620857
14.920292378104392 290.267543158448063 -55.322540360468302
13.552278082465811 289.524496499448105 -57.860392986429233
8.980587946181931 291.135910508384313 -54.963750752517832
11.992489912925635 293.864586108978642 -53.301255672415600
9.811743509637020 288.275202246365268 -56.514149459307795
13.205636657215555 291.842450316421491 -57.669636691602911
34.763322463674584 13.380200916622361 -56.168834677145114
36.160920344644083 14.416314199417917 -54.785437938601184
29.410582937198402 13.031130928822598 -55.007366981317787
42.189375695696015 13.901222417275891 -57.522136054818205
27.615520567755766 13.017830297529045 -56.593897330687575
24.992298528408426 14.364155767536904 -56.083971531497070
34.025761199234871 18.562442660292415 -54.182742439782572
40.363539765515725 19.650846469479397 -54.592318293113308
29.916682552733533 18.728729594685561 -55.125580564634163
31.287904010343027 19.644538468387896 -55.129149353755970
28.839848871916399 21.950842800346841 -56.325787905319181
24.663595697620071 21.540397887964531 -55.891252572225540
40.852979160587203 19.646866966054525 -55.432429086847264
19.409696816063210 23.052080868087309 -55.190612417855853
42.844137825952046 24.848897578013176 -55.602338294961001
52.636350308560189 25.992815883788559 -55.543451490132085
22.093704394589068 27.812379929882290 -56.414269334406185
21.344382106089494 27.788081001082400 -56.189057905150641
49.735425543665961 27.731762814297575 -53.903084056896262
25.957814089867068 28.843955145790229 -54.974333673588255
48.601115659235994 26.011388798586470 -57.502758733232596
50.657092272524174 28.464099180984174 -56.298138415775313
19.727827882457809 29.540364238472833 -56.642489507501679
26.184626782971701 30.386353351144781 -56.442464212400857
24.857886914788107 32.123058017554001 -56.101074312894724
50.695546918512655 30.798670545689596 -56.000923268922136
22.744925238277443 35.766313222526669 -54.610246304307950
39.113508377122727 35.510166027095579 -56.736002332635671
22.631159203719243 36.706097798951483 -56.722013881664594
33.276292218867752 38.333497043925590 -55.979200529907615
48.721818041335908 36.556372505583710 -54.405025971735824
33.926745436677727 35.707137369362869 -55.742749338351047
35.329257205783286 36.151701027461826 -54.462217564089805
32.779458487932800 38.313285907688929 -54.185705028791901
24.856487342817584 37.517551887861693 -55.197685460918841
34.039812850527966 39.258314518009009 -54.917474761754661
24.311260519201397 38.929511200558977 -56.178051545924191
33.538985828599223 39.015178118959874 -54.840052507955477
28.476131560934782 40.196848861806139 -56.935303572043061
32.269071313952537 40.988124934521736 -54.888032822032294
-65.834233825756058 43.155969204747620 -55.618423481234380
-60.730643678214420 45.988039052429237 -54.247383001281705
-57.443095141751783 41.598152709329838 -56.524434851729190
-69.737244396241067 44.006632213205975 -54.865325125205565
-68.143400245400983 45.839303179884119 -55.016976772878444
-67.243953544789704 41.764499141778543 -56.316544624447218
-54.019251934201272 44.487169983866039 -53.491330602884446
-54.077816371982244 44.293286368692030 -56.381296677073848
-50.000290028725097 45.428856598244657 -53.925950684892243
-81.464601855649249 46.844120425150940 -54.238848970987064
-44.891641558417867 47.467912429205668 -54.999465176473414
-42.503373929892923 47.498554745504578 -56.399579841538888
-83.206040225181056 49.329903853683483 -54.945959398377532
-42.477647848799947 47.129277448298879 -54.826091732116240
-36.864710749397545 48.682914757653684 -53.920752203782413
-42.250570021969693 48.256706304986857 -55.287734056246855
-33.072356889687185 47.433866523716489 -55.083165753174555
-32.623609655463923 50.172428548539493 -54.859933064565972
-25.495086677012171 49.261424538015646 -59.103894854232259
-22.613823456031142 51.745875390260736 -57.061035437141378
-22.273273316302035 50.468775112338790 -54.076454595299715
-17.197648368489716 51.802578719945906 -56.589118542161543
-15.589229762095403 54.257076744148044 -54.564727758029207
-91.903832856614855 53.259721166737684 -54.985487417147787
-92.795064914618067 53.764320196705455 -55.037673086043576
-11.058241159385284 55.003991624363103 -56.959894870068204
-10.211009288896278 54.420133221511499 -57.771340011894232
-94.451173593062421 59.232815617542357 -55.078941734906024
-8.700980686065556 60.106494966356983 -56.332007619830868
77.792749798764433 57.769524242889759 -55.510963006021399
77.333850104427086 60.478450967348110 -57.254725544265362
-7.482897470753170 60.099842284085959 -58.499624233988676
-93.455776308564651 59.094501928070059 -54.837175289181012
-10.036315127769116 57.374691392638816 -55.718541096288348
85.388049763739431 58.607941680512290 -55.135210317399114
91.381234076579304 60.261624794071459 -55.418739354928555
71.694009642131149 61.388984883268897 -54.654668209901985
93.699235523431597 59.541097513053842 -56.915910843299521
72.058715608656925 62.358826879506040 -54.107345157650109
95.417785189427462 61.572685880570816 -54.653370614740588
-8.947442489998856 63.222176455076053 -53.965027721324418
-16.906590050642276 61.711402912157418 -54.852109602696558
-9.200985421179508 62.921629298047961 -55.723094433922959
-13.460986024296130 64.301332119137214 -55.961257637894704
-10.761650442237688 64.521409948116627 -55.113665470033375
69.625508015036061 64.326860908730112 -54.451651171627404
-25.013600328329904 64.312731235663563 -55.909618613645307
99.677643996186404 65.502680727734656 -55.297983374443881
67.058299843895753 64.945535027080879 -53.944024149305903
-97.507290136066032 66.483631853606383 -58.115609892052866
98.980007177283383 68.220567735487208 -54.882151043395524
-98.949943326192340 68.357988584526780 -55.672064954085826
66.407539058850020 68.178704025557678 -56.379460001296010
98.602469230498514 69.149090057026683 -56.906301652843219
-65.667239781571169 70.166469716139900 -54.764079513552502
-62.911101956883989 71.793894216652831 -55.755214028939278
63.975049500119844 69.260005148175736 -55.859793445347499
-97.880759920409886 68.979968127996273 -54.440505575632514
-64.168081197804895 71.539696761183237 -57.803996640300220
102.674028545808440 69.992968834480862 -55.315963473951797
-65.886043687359077 71.336882504441490 -57.702679634191526
-62.792947574647563 72.833080957883681 -55.014292059411467
63.154960549757376 73.120651064224830 -53.526350225298359
101.742629147172366 72.651149429027612 -56.140429837083822
63.674559204515006 73.335559413359334 -56.000623644025538
64.587887848491178 73.578951081391921 -56.509997915035747
-99.308997718643639 76.058378646305528 -56.577632493736658
-37.334086004253358 76.403216664269550 -55.015986058007456
-99.836295442345730 75.579233367730239 -56.234147104259243
63.743629926722811 78.853562433448943 -55.954333290767231
-99.042441332743621 78.343661055958961 -53.958081886375638
-49.288215172748778 79.331120966227473 -55.670096451775471
105.380428083295712 77.327761056816627 -55.170224453126139
-38.240329337784544 78.441212820309275 -54.812641700816421
-98.039919883530402 81.279654583114237 -56.584815015008452
63.855358862799655 81.933250265126091 -53.868759856121940
-52.032183440383918 80.238027655754649 -55.987746786783838
-35.063374561953751 78.748750359380267 -55.889380957170786
-39.138888100908410 79.078045350844135 -56.598804262650667
63.187355983673385 79.322205644682214 -55.848235629744543
-55.466827767722144 79.817144381903816 -55.246629617528704
-40.243867214838126 78.953939808368375 -57.053467751006288
-43.743024603951483 82.301577659161083 -56.704519903160914
106.035188421327092 80.769083035596552 -53.175310257687940
63.551428314866584 83.584304242269113 -53.785846009549395
-55.763548089737213 80.374401759310032 -55.341519109027097
-99.505879532127679 82.507748401798210 -58.346481486198108
-56.527079624731442 81.529307491193237 -56.308241562005890
62.724303376576167 83.657671050123128 -55.744418240592360
-57.805038495260845 82.888294813680844 -55.008968972498757
-53.432292206132516 85.718420284985598 -51.643742429583874
105.439473727246920 86.562522824869504 -54.447622816863564
60.252615599010120 83.937917522311622 -53.938576494888466
-60.805124798019612 83.922737577536481 -56.985070663284326
-59.244734669742748 85.289985198219256 -54.946136392216069
103.931671625873634 85.435638807728594 -54.523881799268821
61.379855771764724 85.605062453863638 -56.487278183000349
-59.094093265676783 87.659353912240263 -53.918347977791313
105.279346215992533 88.612975346198127 -54.143730910531936
58.423998757239744 89.926245577131851 -55.370058623066519
103.685711120900507 88.123147499311642 -55.199194440415752
58.216720439393512 88.639800091981598 -54.434436098955921
-99.746195731026262 90.198229000987297 -56.692008623681339
81.898180383257937 91.017300982159725 -55.053907803633336
60.816911856438622 89.190099492277753 -56.842812291739698
61.499164908337924 88.701360580201168 -52.556845141240906
63.893463295732978 91.782142406730287 -54.715864592911579
104.387308303287227 89.111850895861622 -54.594467845330058
63.456909084311405 91.676283606828605 -53.998433307289417
79.390639397136880 92.586128308103937 -53.555577067752871
84.729297665084644 92.495908654437827 -53.389436459108239
80.652328637546049 91.665748782183698 -56.483529280943074
84.279512295190770 93.674405366582818 -54.362805231014704
-65.100521581879718 90.897375017578455 -55.623658564714397
84.347835694045017 92.951304959319231 -54.241060070956607
104.720861993921915 95.411318867553661 -57.109271191487309
77.959047747239381 92.608110506870133 -54.283275523762761
79.288232765335692 93.281457227482832 -54.759402298774681
82.396753134634253 94.768854591100038 -54.907618699944869
80.100754911914635 91.410135526671311 -52.970472993470011
105.421832458389162 93.994294367383063 -54.208690077381121
-99.394329649318280 94.737336854512705 -55.371262372387385
80.837068651879150 92.705304264445616 -55.175388336361294
88.426018516182481 95.964507314439359 -57.491580938210575
81.602357041574010 96.138630040660871 -56.820913522261009
83.814226767205668 95.473129723829615 -55.327133117589199
78.170523627555781 93.242418385770179 -54.511856236882871
80.424053791212941 93.664539242232209 -54.712697677832843
65.366042426159282 96.372494943691208 -54.062831951918596
72.660103650557076 97.896550968581607 -54.136901672579334
75.856912691171672 95.424042498310996 -55.788824237096982
79.789864740220523 94.696465375688319 -56.432149996010295
103.984395561029743 95.579742181696716 -54.694365159394522
76.523662485121037 95.917585933480169 -54.428311753078411
104.037930625557919 97.201326321159385 -56.162623756304789
63.978839764164825 97.991808369771178 -53.786341904026237
102.902032288906213 98.586822288015966 -56.493800214664610
64.386171248244565 98.461530455949287 -55.129128480605559
63.991065356233364 99.011540404710331 -54.713150406797574
76.635967040581178 99.340538739485950 -55.767739706619373
79.631338605330029 100.006322713060428 -58.548287605122482
83.070650913021510 100.717666928622293 -56.089296950500902
85.355392544934020 99.515052323757800 -56.819660482757286
62.498248879979798 98.860749872722522 -53.893561482237949
74.041329571698924 98.736802171700575 -55.103872628542675
84.298630623321287 100.495833053260867 -55.030847428381350
87.511442220205979 101.987227657773261 -53.600433955347057
103.608192798504675 100.133658420606793 -56.476094523051657
60.703622548159792 101.437466826484325 -53.591883017417025
76.891747825225067 101.972843991741442 -56.388462521821722
75.593601785557084 101.194455442861695 -54.830717005705516
83.780080731404041 101.702140596203293 -53.762901512116173
88.474732294333208 100.215330660929794 -53.676422729561324
94.232911455800917 102.571201092625785 -53.046544604764989
93.038179172178062 99.369317705427022 -53.663620079692052
-71.236067314618666 104.206793725603703 -55.682667278781565
75.860931438254212 100.596064674424198 -54.847393208576470
73.408106255374904 101.400078704008095 -56.248917694758852
-71.822049820696520 102.211442680923511 -58.118891438567509
70.713375368517461 101.827268622282205 -55.058701864429636
83.544016859912759 98.853212289383990 -55.006381005884457
86.676372975298221 99.840651274021766 -55.937533361403688
