# This PCD file was generated using the MATLAB® pcwrite function
# from Computer Vision Toolbox®.
# .PCD v.7 - Point Cloud Data file format
VERSION .7
FIELDS x y z
SIZE 8 8 8
TYPE F F F
COUNT 1 1 1
WIDTH 806
HEIGHT 1
VIEWPOINT 0 0 0 1 0 0 0
POINTS 806
DATA ascii
-151.090329781220419 202.096740107584083 -58.099590282217314
-146.107646515654267 202.590338711396043 -59.633622677584356
-151.358893229414605 201.800746176628621 -59.345415690057209
-149.916117075970703 202.491581572529952 -59.165571965305681
-146.568116336882156 202.199254679072226 -60.054123600523049
-143.841702151661934 202.875384176438217 -59.985806925372010
-147.484365640591761 202.073864969623941 -59.752271082185068
-153.012554594185332 202.541372969716122 -59.277924441273754
-148.077380685168777 202.851873584373919 -59.032554430003934
-145.294809336393172 202.469428808637787 -59.843545554117718
-144.006983585477798 203.139659229111260 -59.210996052979077
-154.431246703092711 203.672260784481409 -60.368076947430495
-152.058894895503926 203.845872457207236 -58.589187484768935
-149.743426283207725 203.879175653114061 -58.778512138753527
-141.306528093526595 202.539939963397359 -59.799596161154177
-141.381631964779018 204.269719264855695 -59.192166654274672
-152.367545217964903 204.428732509894132 -58.324275512933674
-149.704076399116218 203.980895631297017 -58.491404945709071
-150.753345606372250 204.402701117437402 -59.377804204347974
-148.458319446976134 204.353072827172099 -59.267014177659988
-145.413385804356437 204.254531231370237 -58.939905067363043
-153.267996520314369 203.848975691762035 -60.282686447497049
-151.667397724002484 204.260065247922313 -58.619735054753797
-150.163618094789683 204.701011725175249 -59.677252011082146
-145.351888667071279 204.110747109252486 -58.963056049059368
-150.483700045177670 204.292412372851999 -58.950944387449937
-150.026054047439004 205.268143208900256 -59.784200527082866
-145.418233984344226 205.043519513811077 -58.531883743901211
-151.909023333658922 205.089405438427434 -59.661753537102406
-142.766921224341502 205.180823123173411 -59.355416295008034
-143.804901944332443 205.993841005854421 -58.474455476587970
-150.143728057371533 205.673198633764002 -59.827731283215606
-148.949799177693251 206.700469924015891 -60.328450667946406
-149.886595756849118 206.721448631083661 -59.972452397328752
-146.363530376181416 207.318520091607638 -60.034601668211316
-147.024789824299546 207.187189573985449 -58.491471773304553
-146.838877734521532 209.626567158321166 -60.248910264711398
-150.166890218471394 210.027956647512269 -59.706111724825909
-147.140390582863176 212.034945711941162 -59.283392722688014
-148.542373483841828 212.056664063456850 -60.216249805239812
-145.668096305479310 214.773942978182561 -59.744050723623708
-146.561957367202268 214.542265671507749 -59.218182499885899
-148.220665865342824 214.863960208902085 -58.840855407334146
-149.606238799403343 216.534058807571057 -58.432068874383191
-147.961304009823408 217.894173265351782 -58.717597844063945
-145.879910609674170 217.204937410645073 -59.598645880215194
-150.194591890507951 217.545333000133041 -59.490611666907441
-146.688163265627196 218.045266840516234 -59.281393141246575
-148.079413739033924 219.120427406250514 -58.869204614300983
-148.615943745993718 220.512353022517118 -59.209230602050724
-149.082532103555536 224.184964265041543 -58.434944528833022
-150.230806003902813 223.750942535966885 -59.894199173790057
-147.677717629310223 224.557335200600306 -58.747486537754796
-149.079539643458389 225.200604155997610 -58.821662892437146
-147.160888428121041 224.850644799681589 -58.703413127979879
-150.400852947606126 225.430728043393202 -59.117508940105701
-149.406290748015806 224.842000417755742 -58.790704995975879
-146.093880873085567 225.318003008603995 -59.373393217388568
-146.041398832887722 225.054612807171765 -58.244006093410121
-145.124083312105995 226.020968967314104 -59.471206293333346
-152.750698472704272 225.876444233088876 -59.423196659927008
-145.666262359735214 226.231371871798501 -59.442669545299779
-143.669855635760484 226.639150772133945 -59.430269654366235
-149.149965603073696 227.071861466403249 -59.656676274745955
-147.585840900782955 227.133067944058809 -59.663219253994512
-143.398883522063585 227.701849891651875 -59.955559770006445
-145.566889089802544 227.463789888868462 -58.977433413370250
-147.385391932275525 228.449782328114935 -59.450101373206287
-143.499890790248060 227.799245586130269 -59.698081104996049
-145.078391907518807 228.825323684360171 -60.380988060078174
-145.581426580293737 228.854608307753665 -59.563357754935126
-143.247690149964200 229.685453537012734 -58.760887272163878
-143.187310357307041 230.686660728177088 -59.026734629473374
-142.780452701083135 231.886692568006310 -59.234687803890552
-144.568742048013746 233.280773110337577 -59.502867953488156
-144.908296130357826 234.607939489774452 -58.726895433145792
-147.979733017256876 235.453446154899012 -59.287004993267367
-148.580127850027452 236.164317110469767 -59.630991507033634
-0.085786111439205 237.673667228768039 -59.460611313854969
0.688996117205800 238.257556338278988 -59.395579314919480
-149.044729447422128 239.488542542040847 -58.942915581264181
-5.134437129115513 239.082319174120471 -59.672908274821388
3.407727552445910 240.000676566531780 -59.300845285442200
-148.826615001474892 241.180642246225915 -59.859947033309950
-5.321214599332714 240.734067356405461 -59.899632400542195
5.142562378436785 241.204395699252757 -58.884109743561282
16.726776196828990 240.131166881425287 -59.719785109712305
16.380680339428377 241.754978900572468 -60.357040520315465
-3.744851303793523 241.571378019092009 -58.971656076668111
15.904738784103781 241.982492476754175 -58.374913305906098
6.186223379214034 242.552422214414662 -59.401606340095732
18.349696684631581 242.156302536259034 -59.259050419706185
-2.512322033918608 243.649850155730178 -59.871322059479049
5.363106935518836 244.020166084239264 -59.156543760330088
19.725685556079306 244.070486259827561 -60.179709927614788
11.353524584437331 244.229783990908373 -59.928607027944494
-2.115572325183077 244.548294954789725 -60.373546253337743
5.863491084658275 245.694922687294678 -59.310549813483924
7.320853949566239 245.192175374101652 -59.847029005251073
6.211914972675004 245.850907065297974 -59.884806724396178
-2.828687509193320 246.333476209357798 -59.415515914051312
-3.932614467289604 246.551121567126870 -59.760395816068112
-4.767317985217264 247.717444851387597 -59.710426528368281
-0.514590354673614 252.541843614273034 -59.404736546116311
22.153032400539388 252.022045204399546 -58.936687922261790
0.477680904369458 253.066537919616081 -59.467512775712251
1.297913884716920 253.496080634923487 -58.819619712268867
22.197007630176422 253.746573800863672 -58.603288539025968
23.743292290251880 253.880380581613849 -59.284205254426254
2.941805876326125 255.285751360162038 -59.538153705735546
4.255226397381276 255.459584944182353 -58.701663147858682
24.438527615903837 255.884534180674819 -59.174743015139605
3.589741789065849 255.847433751548067 -58.489117065176259
24.803409389160326 256.628930628326884 -59.917891656177211
24.471861141298280 257.993289889591381 -58.817812894059045
4.250542493118625 258.316429014492769 -59.498693865561272
5.517164302528185 261.362052433851773 -59.573190510673079
6.628071712361502 266.452342984862923 -59.702626394855109
26.801633911543274 265.775202132620052 -59.575608345457240
6.362026073028853 268.792416900446256 -59.677578108743312
6.866244351495729 270.546522314356480 -59.690119124220907
24.194585078884199 271.517178554014663 -59.766155306387937
7.940655404031139 272.395378143918151 -58.682953121078945
23.941213549017014 272.392036311097115 -59.214353124187973
5.536731705592113 273.695503403914756 -59.362987191063574
22.965404634906335 273.640776051996454 -60.308219028168004
5.331879897728267 279.852235532481131 -59.226290192740073
20.751133861373525 280.112734087148908 -60.025418467286464
20.312006296404917 281.684383231997288 -58.984422295942764
19.767149238645967 281.710557990169491 -60.298237144480431
19.980715172446917 283.163127538892525 -59.477653752102434
4.338547222091893 284.681249150202916 -59.571333516258456
2.990935049117859 288.437069345186842 -59.596210241374429
14.129102105778550 288.320902874368130 -60.175633141771726
3.088031885342074 289.854551603143875 -60.143825837681369
4.306684336792034 291.906677492939366 -59.730291878524739
5.907758670273091 291.858271608547568 -59.077968092595810
40.854058228652832 14.169124902278286 -58.449511662492014
42.208208293242755 14.814671899464262 -58.288531779836099
24.701421159993394 16.826209930540458 -58.883963769931931
24.212820497594087 17.511280884577122 -58.520788676899507
45.812023829874938 17.879216404440413 -58.236994240971143
47.331359708132204 18.925812096017758 -58.351505040329336
21.467267846176306 21.032289868936935 -58.754563251055089
47.643411059934522 20.680191192261582 -58.826513617454665
26.124132390740623 23.169138223942856 -58.724401389230664
27.083729896246126 22.921242249257798 -58.990302258108876
49.520637600220233 23.395134081622075 -58.558539720373339
49.431841268291173 24.157082073884006 -58.186331731602671
49.404289688261443 25.221152253885084 -58.182632138784435
20.755386056959786 25.317995195091317 -58.717536902521687
26.436324270535934 26.155105176397690 -57.531577462115614
49.069097671078175 26.100421873892174 -58.591471953886867
26.521517499141854 25.754343340239711 -58.388954705932079
20.947633944205950 28.100827434960955 -57.750088388780185
19.678303282378018 27.469204076668596 -58.402402287546835
44.041770706983826 28.827272207508237 -58.404217460404077
26.130588553924945 30.159112812582801 -57.980716082954082
50.030564879210679 30.549402426264482 -58.611198810889448
26.219431540399938 31.350558414100302 -58.468336257614659
26.455498742990002 32.408993038418799 -58.607678444210670
20.378893178509546 32.988434050151454 -57.573689552257179
26.524318161797016 32.154105197216197 -58.848625760935839
43.025709302759289 32.784135309683272 -58.218138762511025
27.863522983263081 33.651984389793213 -58.778143240567076
42.318782718478481 33.745201267308474 -58.161524396327920
41.378336884906709 33.697543596129790 -58.556348979569464
28.980449775211646 35.154341084182619 -57.500687343733318
48.002495539094689 34.821820880916661 -58.787462443514833
39.990855630218213 35.533260933175626 -58.594068945445827
22.521049573434571 36.567257846595481 -58.204602421906969
38.804721347245611 35.473851310456247 -58.983603900058121
38.726649509972596 36.600803733496790 -58.049738092012454
46.766982193472884 36.277575648438756 -58.257453324199254
45.632723621499551 38.067974743569991 -58.251349000810961
25.359295531250346 37.827012534631393 -57.904303563457191
27.359483210458492 40.371312425038276 -58.227471028287795
43.190858486649539 39.806409474953242 -58.860494059158668
43.241322742342078 39.892992603277584 -58.142897326142752
27.002086836799588 40.713328442759448 -59.340567094122669
41.613868554991789 40.644509156713198 -58.142469803208570
32.986642529101886 40.000232205383682 -59.152042987343734
40.462226562232487 41.253917492778235 -59.038300808489886
30.550473725892651 41.849919837215509 -58.020240932597098
31.034990766271008 42.070478254802083 -58.622498437316430
32.823349536304683 42.028433549652860 -57.803488646595589
-64.775408963263644 42.862534408978881 -58.804059367545989
-68.122269842689221 44.409647126078582 -58.219738706213597
-52.778133518490925 43.661729499403265 -58.253068554143638
-70.437733386190700 43.982106297517198 -58.214603915426380
-49.810238982398722 44.530231294708237 -59.030311984362676
-73.744226183714730 44.949614951690101 -58.734178988710035
-76.863270500298285 44.567361646734994 -58.436766126179080
-46.424428487686342 45.220244185300444 -59.043581327327892
-44.713936789169061 46.750678037310529 -57.740029184650844
-80.283557206586110 46.621692429798145 -58.301230342887351
-83.007371370337339 47.938050762044881 -59.138936374833314
-35.528198233184185 47.888411877970142 -59.032071573603474
-83.081037436545188 49.167232749657913 -57.495105602602841
-84.347589827088328 48.779879469978624 -58.404752975058805
-85.916788407963509 50.618593481444172 -58.305422787983304
-25.376764605344963 49.783620466760873 -59.132321850504255
-15.663240511260966 52.563311571898723 -57.027749244929147
-11.452540289758106 56.067678744834517 -57.895579969909328
-92.061537025545434 56.297912387300741 -58.113769729533509
-10.008999894496663 56.829990762077955 -58.954062496098807
-94.268961759819049 58.469425421232273 -59.020111206992503
-8.189859878138506 59.790372104819589 -57.679932491690792
82.856597245889418 60.092689532782110 -58.474292713205791
-94.695655601657748 60.110939018421774 -59.321751382983024
87.675901595689055 60.447528695036198 -57.870926017949614
85.654352476985252 60.520564119031860 -58.363515984905234
-9.216938752468209 61.242931805180142 -59.463495996345095
89.880599196849317 60.774364464849398 -58.728532184425745
90.881881160728796 61.321467005357938 -58.358001456782141
91.878550473475073 60.660438068261698 -58.061709044625950
-95.417647738520017 61.819273804614433 -58.973628996960876
-9.747330523543507 62.214356133619020 -58.187954282990908
71.154562252542007 62.079797339500956 -58.784785696124679
96.018764747857347 62.426939789158638 -59.038545463794001
-10.240407553936780 63.917812059187888 -59.092280052869533
98.015537814034943 64.292299950027044 -58.789547049559538
-96.509641750796433 65.309374658676575 -58.071045577157108
-20.713646547262748 65.358091888052371 -58.486288235893085
-17.996672889870883 65.813138228810928 -58.150834328865010
-97.696717309816066 64.491827230583567 -58.703371200525034
-21.893683558833981 65.803904846679714 -58.726979070534775
-22.635303130814762 65.555308536544203 -58.871599732448779
-22.072413508657604 65.492512769250169 -58.960220521406328
-25.148982693785211 66.679239640563239 -57.637019451307943
-26.538076459883413 67.263231157168349 -58.683815416349674
-97.825904917086902 67.836867007102853 -58.476783485827212
-29.070835187161745 68.509699898489316 -58.980267994469919
-97.925773205063138 68.336413513807429 -57.220511088777769
66.212475840301551 68.140559319514622 -58.607675562407806
101.461004753433116 70.030201206434796 -57.991903320310286
65.773408718791870 69.997792834417425 -57.507039937156733
102.008801000206716 70.831403022205095 -58.299872859809653
103.811838363508002 73.851528943923000 -58.969411182728010
-33.510837884095395 73.874063196514058 -58.240492852470020
103.676674788377412 74.363422459703429 -58.305436558503700
-33.896334692541998 75.136668680470194 -57.917623402627392
-34.194307377263598 75.279354949513930 -57.893969424967921
104.192131920393209 75.987473145826300 -58.338161711698412
-34.729691115199309 77.767914903651743 -58.616248253077551
104.279955535419731 77.095944793641067 -58.093585115402256
63.913854786222480 78.062505598556854 -58.067325967717949
-34.110881118110733 78.325110063584674 -58.352349718240959
-51.468746457862025 79.417706304538058 -58.465082811026392
-35.712958789960645 79.484441833695172 -57.609745434237652
-55.482864783376741 79.218801792055757 -58.313837132010306
-37.790805173256999 79.618917771744137 -58.909915113342677
63.382173937688115 79.590437379264529 -57.874232152597997
104.726538393197217 79.547969311059745 -59.165377866313648
-98.410347799332484 80.102148424710904 -57.894184535771927
-57.711666708557701 81.226227988399032 -58.144323356722197
-41.709338316125248 81.697121227149665 -59.179655390316725
-40.072679921030826 80.895422994506220 -57.702259521938664
63.530890138784898 80.788486457251310 -58.736051661722527
-43.810823810066132 81.835510414493129 -58.272990476541381
105.151656844987727 82.155264010322995 -58.873455338330459
-46.758890256424841 81.599607833722033 -57.413155607574041
-46.129970189218270 81.951836992913684 -58.628674998407710
-46.209236049336106 81.790344529252209 -58.732326670826815
-58.588678598997390 82.771167608026815 -58.894728587916994
61.381143962089645 82.459660845249843 -58.858248478165251
62.755038474062410 82.977245282986516 -58.520141784122451
104.721177856677429 82.285559422552083 -58.151177801233899
61.000543009386043 82.548041327521162 -58.316978320094464
63.208050436564008 83.474978830128208 -58.383948299442082
-60.472193727524392 83.700422382452501 -58.669137109193024
58.216816677993620 83.679188703989936 -58.565779034850564
61.926389996566279 84.245114337461430 -58.410526374906567
62.289651644935688 84.960050143267338 -57.109095670680233
63.931074249254564 84.522468075414793 -58.845364007409302
105.649473499004515 84.778505984574466 -58.839608684063471
-62.367745789278899 84.727056013383333 -58.736556576577463
64.428175765946236 85.965409528756197 -58.303973469536245
62.658299748378198 86.178819548919861 -59.372525907081311
-62.684096805593690 87.730606966006704 -58.343206600476911
60.410810430599682 87.109783895845638 -57.739272218900020
-100.048187900975151 87.871076195601489 -58.974628384752954
58.636243478465474 87.337259973246290 -57.938833243138681
-63.261627805460790 89.319720309255857 -57.966527699671772
55.000718133137504 87.841990335297581 -58.655726927348567
-64.234150894913427 89.355619182013612 -58.996499394281543
58.371092725203987 89.276092566095556 -58.452371720403157
54.265417833446783 89.303080444880180 -58.835224746985695
58.071595870401929 90.962491301929248 -58.551710359503659
59.899973878837102 89.984708433149862 -57.940298598163174
64.690655852507788 90.547934525569971 -57.310276727557230
64.377045640504235 90.169722787947748 -57.665821626479335
57.359070233612400 91.858300050665406 -59.189647622719065
59.537471805528476 90.823702998854230 -57.250848733810258
65.199336968219683 91.494394551654040 -58.605452617850190
105.035704399247223 90.837918132111838 -58.796005001191595
-99.864192444653185 91.424579249563664 -58.964332719031290
60.169666273421043 91.140518904645930 -58.487746049539460
60.921448073609987 91.638812643794850 -59.312007063504154
54.530038919144729 92.432496079105803 -58.408530801801760
62.195981345917851 92.660250965019486 -57.523691739282178
-99.337480867281315 93.490748735273073 -58.681997896802066
55.114422719356533 93.087821511871610 -57.528310812299978
62.435938960737921 94.385130633722525 -58.756895201857219
65.018059297534464 94.105556037201339 -58.743550240064899
-67.297248537862885 93.981980356685753 -59.510865900435562
56.274972913039825 93.696937047813464 -58.943402726513618
58.686521159703190 95.022598637945919 -57.190261137891021
65.209729232850421 94.304382184649270 -59.033320315052755
-99.279382213970294 94.890759367711638 -59.120823046297474
-69.298504057166269 96.597618619936057 -58.449430165448675
-69.280255780487025 97.438516855291525 -58.455213706207942
-66.420919657962699 96.692774449735410 -59.389268485805488
65.092140347644801 96.746667973910860 -57.392156930359995
-66.790708083780331 97.840883588296336 -58.042113493585219
103.206652713830906 98.155058581391600 -58.283914175586013
-66.012271022288758 98.837337814538174 -58.670512029660806
-99.530898260650972 98.920213293852086 -58.421040152379632
-69.094622680679109 99.812413686806593 -58.172647779751451
-67.513252416470451 99.126992933612755 -58.333259103718241
-71.554241149499219 100.276483652301351 -57.735431458904607
-69.763949351100905 100.668470432764266 -58.068643467980074
-71.526977244452368 101.076470818629602 -58.680008686944120
-70.331785200090408 101.540381774816041 -57.974911593772759
-72.802251748061551 102.603431894493696 -58.441684162695154
-99.221514834239372 102.613470114637053 -58.388530853037963
68.485639275489149 103.137991366600417 -58.095107213835142
-73.664128316624115 103.544891735095547 -59.032201303412421
69.463111360795466 104.332928226457980 -58.295247756823962
-74.921778770721730 105.732270375610796 -58.226125461613215
-98.982789011371679 105.945913956104107 -57.749914136995670
-66.138392266545651 105.815849458434315 -58.298002164439211
-64.201387325171311 105.930758020810714 -57.969833614437619
-67.587996793551952 107.090788515312454 -58.212633259333792
97.621638876099311 107.547410605738733 -59.060320695110669
96.659533682691418 108.489974215812083 -58.506694187520793
-76.057667332288773 108.223921730695409 -57.873407317337225
-62.422694661061321 108.253130515999729 -59.007207994234548
75.283929032365933 108.484039778363382 -58.141496254566860
75.979445374155688 108.296793077381196 -58.543837756274058
76.292891482929889 108.696569650256720 -57.711314520043416
79.385418212141929 108.148839752807874 -58.402981041813014
96.381097494995814 109.140905521707211 -59.057986991508514
80.453891662547449 108.869884403770754 -58.456760112416852
81.654338912933852 108.563112395691377 -58.837803878451552
81.717145910251276 110.045253859192101 -58.358993439489254
83.154232481776404 109.009477638235325 -57.756124707813562
95.977418379051841 108.227210751278179 -58.684037246578924
95.167021541060407 109.682987395614774 -58.717844339579862
-70.022320532922450 108.804134800005670 -58.844108885927504
93.039385949172569 110.753525626598574 -58.511599605018979
94.503427540568836 109.393096137557990 -58.302486912569378
-79.013251267100927 109.493218801184341 -59.456284917204258
-67.112529680516005 110.105209711703097 -57.697292882817472
86.164623091122564 110.219959766451041 -58.605559575311759
89.936505164369862 110.422945149787623 -58.627805950201484
-71.395593783459745 109.942123088989945 -58.155621748155951
-79.008680405831996 110.013603530263794 -57.897825963022683
-68.079132070412797 110.644540711313709 -58.387845831118362
-66.186620198916728 111.187703611936058 -58.448801169699522
-59.952425283009532 111.179073018099828 -58.512974216168907
-68.433532871105513 112.436445521418932 -58.069127743028055
-81.158155093166684 112.501598420071304 -58.244455818252561
-70.530751869268272 112.187060803464334 -58.346493179234756
-68.437297084980386 113.010356664221447 -57.795804011181005
48.314772134372546 113.024432926273576 -57.129989222402486
-82.507835963194069 113.099542725105024 -59.067091109288263
-59.090188116813515 113.586786401819808 -59.000041467436176
46.826173689496351 113.061540218507773 -58.262892604848275
48.481599558952780 113.150851785078913 -58.459140301139321
-82.445553161887858 113.471877018648030 -57.663443089798619
-82.626357507709727 114.171247070814118 -57.622042017987866
-79.885263015245314 114.204840904124467 -58.012018996215183
-78.158949315146245 114.465772219675259 -58.602749504729857
-78.699678239359486 114.206051487399222 -57.291720030664031
-68.786244910297370 113.830301361505363 -57.426598840603376
45.379885110329880 114.067268254000069 -57.312479981778495
47.067913738071958 113.958052233176431 -58.349511703668007
-80.710790116895666 114.197094845095592 -58.267126725089327
-81.601229637000145 115.253175710470401 -58.590721815230943
-77.689130786808093 114.593103824361890 -58.192101031646267
-97.962894378474800 115.648492120452957 -58.449861443927276
-85.141884508250669 115.930257801169901 -58.813230357017375
44.982065749117325 115.191291858088192 -58.857759567515060
46.002765325674773 115.728691837058037 -58.599332079111775
46.365500788369182 115.359992949071810 -57.472617146739942
43.419999388753233 115.266262624988855 -58.579358512639239
-57.325101914693818 116.692760973747426 -58.848329395477613
-97.629869276845128 115.907451074112288 -59.322829860933417
-80.901559372630246 117.101253428122646 -57.780950379911381
43.019111149964203 117.123598674283201 -57.774541205627571
45.117382651284281 116.355975601965085 -58.186762017305078
-56.406872013515716 117.556548727879445 -58.118812751835236
41.466395432668335 117.051334309102813 -57.222084243874143
-57.144619680624814 117.794985775949840 -58.950770640790331
46.563177858109178 118.018557774250738 -57.925319790556308
-77.557306374418218 117.982912616333948 -59.107227078503477
-70.376786024951826 116.985098260681781 -58.092935752465294
-67.484296872129846 117.766273910032595 -57.882075510464034
43.129723054903465 117.773606336284956 -58.866395378923251
-84.580719382955166 118.136183192589044 -58.208520315565380
-87.561961700913230 119.207258988824989 -57.995045304814155
-55.880455635722406 119.149117392136546 -58.009642298431757
43.843427427260835 119.137945497140166 -57.773796612760776
44.405802247762253 118.311609277593192 -58.039691663438241
40.366488742335605 119.530747372736528 -58.280205251800204
41.182914560917816 118.863196923632373 -58.555680471319370
-83.494678102433596 118.814785458323954 -58.738777982766464
-77.628442939153317 119.791922654930943 -58.340510547697647
-67.653666561425808 119.032242763330842 -57.763915872175666
-82.499544405559064 119.752743136628681 -57.546027760929640
-69.374322097113136 120.065952224940077 -58.602677030838038
-57.648261294733040 120.027431214487976 -58.598101315081145
40.136688990140321 119.824710495035859 -58.945148381732466
38.091554110158064 120.219409888682335 -57.729888507395671
44.103607988824827 120.172328986226589 -57.252653674939239
-97.287380185259281 120.905924469610696 -58.639406376192397
-78.338077924612861 121.277528363476179 -58.215902723057219
43.211698788807261 121.136600207167248 -57.968547069728402
-88.630083470548072 121.405407903790987 -58.896628939252594
-78.828254722754068 121.816821647145247 -57.860825914864101
-77.178481054517647 121.437614098404694 -58.670629293800140
-68.775592622419467 121.501984878133754 -58.484284707367721
-95.617948412124250 121.484393648306622 -58.207196299572921
-55.268996085473027 121.187889879501199 -58.747180587764561
-81.453418441908099 122.613693695974177 -57.763303458880870
41.274049918396358 121.891962408632438 -58.680855844540922
-89.375288915430289 123.107865520279844 -58.928336621873456
-80.193123171508489 122.628017271616983 -57.950286328693920
-54.347725008620429 123.123850314040538 -58.288537383161895
-67.520086532578858 123.565064188470160 -58.258264387902834
-65.112783038188553 122.632514889031256 -58.341224859620539
-56.783866556308112 122.624224188963652 -58.892051115669908
-78.938298131906279 123.248895235347575 -58.420185452768671
-95.462607590820696 123.988244280955186 -58.234106015890724
-80.437530187482139 124.126644834199809 -57.657255542004528
-57.303795687659402 123.703806875481845 -57.676725658260366
-54.872412236702878 123.717771829301014 -58.570107218708856
-93.686625157663570 124.834341934089394 -58.543628497010054
-79.276252418558045 124.546233963277700 -58.258389947398740
-64.856766422900847 125.689234490046488 -58.748733732548033
32.874409483961408 125.684208536631971 -59.062820495289053
-66.343316635258915 127.271553914647924 -58.471478498875122
31.590786195156380 127.226456814712407 -58.049456619817917
38.229873977837727 127.141008898129115 -59.048594426503328
-65.122196612810740 128.251419476598414 -58.473306484677366
37.734969460891115 127.922220655891678 -58.022131652485413
-53.716513477794862 128.866990812938980 -58.780947078334336
30.507566978448715 129.310672589699379 -59.030188956762132
38.066710846786719 129.363219363974082 -59.042839629511022
-56.497534315198493 129.197685856301490 -58.834583137251613
-62.095356485742712 129.759103640663966 -58.409843851461908
35.657933472991019 129.639642659068443 -58.556378520088423
-64.868877230568586 130.422344176959399 -59.144356400578438
28.805854787984540 130.420912101865213 -59.075477801313738
-60.304667431978686 130.780798488807051 -58.432629682882222
36.109853886659295 131.161796601676713 -58.387547875363623
-56.291872295423588 132.414196254920171 -58.111679435079580
35.035359082634365 131.684915367835373 -58.489255156270275
-53.166739409677156 132.348722533096833 -58.898647456400724
28.222867821785080 131.941612471308162 -59.253830570662608
-63.274261949248285 132.755015656991333 -58.772166300069024
35.010533750561478 132.703208118210540 -59.019140246503405
-57.719751273493536 132.322541680027228 -58.111639665644645
-57.779027039806707 133.138089075796387 -58.162738311979389
-54.571284744965986 132.812778304833017 -57.570309196392579
-63.604604708288598 132.833970307442115 -58.021921528265054
25.333181758274016 133.674636041484547 -57.941272447302609
26.376800285858291 134.349042042159880 -58.200973951546359
-61.056698348473219 133.895877005126835 -58.902460137109195
-54.812994776944876 134.181866244941091 -58.406041691452764
32.784726399201624 135.087206161832086 -58.152376852253433
-59.562695079385222 134.747069543189610 -58.327028746741505
-54.715893485579848 135.504405674720857 -57.939637055669778
24.694113098427660 134.845645329099739 -59.302806794485804
-59.523406782761455 136.346254895377228 -57.820800113773053
24.680364629931326 135.109596801816281 -59.273310456951982
31.245410394897164 135.902316895408632 -58.671253646857885
-55.940178582550445 136.239699770866793 -58.813344010495854
24.086734173443624 136.820042479985176 -58.978378482115382
31.409303861249416 137.453425456147698 -58.469513356253621
24.704736063327708 137.757370622812459 -58.002055598164716
30.534664611880014 137.683506727823186 -58.941676404388126
29.410309701967879 138.482097213823408 -58.929644632908129
23.785784839477106 138.345043531780249 -58.061938345644315
26.488102916491982 140.301521818699030 -56.858710417727963
24.370812517423371 138.449775713804172 -57.646646118461724
27.561761364728774 140.408202458180398 -58.226156329825550
24.530394208911343 141.088774835286017 -58.883826674595724
25.891131392608884 140.985815848276616 -58.280939437205781
22.443626799392995 141.386996967328827 -59.154984680900540
-147.853233437927628 194.112797634800188 -58.808443111520525
-149.691348118969472 195.175806121588323 -59.220403197023792
-149.249433905340737 195.016824109652561 -57.974759334554527
-144.939454867974604 195.561860371042627 -58.906678839198001
-143.980760431862933 195.609055329151971 -58.482430402809797
-145.358383146338809 195.087157069587789 -58.040007063663076
-149.200068031371814 195.133237363088227 -57.800887485031645
-147.039198661570566 195.568002411470218 -57.948936025095485
-145.076754311446564 195.268942922614116 -57.454756708550413
-152.468979644748174 196.060605798747787 -59.168361862075869
-152.412297143879016 196.125418513402565 -57.992592172056924
-150.398985352526097 196.684716879586603 -57.784370278639848
-144.825641033849450 196.217819399235452 -58.955563134042265
-143.502198466040056 196.748923121267893 -57.520556657992536
-143.077458163612761 196.521638362181221 -58.643870459358560
-152.618979792597742 196.709867182284995 -57.631850853482540
-151.537480153168957 196.667046105710739 -58.332344581559234
-148.905470070255916 197.057749721378400 -57.410964103438197
-147.973302788650699 198.247924457938808 -58.285198838588563
-145.739886132146751 197.735737575796719 -59.263977654531359
-143.860185920966273 197.382399138061714 -57.713177551999458
-149.807724261680249 197.722534792177584 -58.428078862661664
-145.221299185411311 198.191122948901551 -58.033749810193072
-142.772739695982295 198.254059094639388 -58.327775043029888
-141.544305994756542 197.927733904143480 -58.669313560129304
-149.451990258422427 197.970762723311907 -58.847208728771072
-146.177741396940462 197.716554374261875 -59.360928330766853
-154.229278014366997 198.368961549300479 -58.884347016388190
-152.849643400141559 198.286463855842072 -58.881243110399467
-149.333481609799577 198.988142662929448 -58.333519062471716
-144.785079803477856 198.706896682052673 -58.118518407723300
-142.693760097024125 199.041455481703480 -58.087231930626970
-150.331407984916069 199.656860966939320 -58.645800216473624
-141.306353737141762 199.497875089584113 -58.792919942209572
-150.921230302475237 199.996487832834873 -58.445177006233564
-145.428285750087070 200.096045178149069 -59.319200967312121
-142.837484767635544 199.776161994914901 -57.358134566122693
-153.321736311128660 200.619299748357236 -58.478643376526811
-144.704633479051125 200.969318199802160 -59.436121659513873
-153.209647587725271 203.043460677318848 -58.338369141605085
-144.765924569866144 202.221332302288459 -58.572818242177881
-143.710058501254849 202.257894538078602 -58.263268418077899
-141.694691489052815 202.181515121705502 -58.450537351606933
-149.967310021028396 203.258779695529483 -58.886025522490669
-145.953020082306068 203.176682082805485 -58.432302282881665
-152.303857808451909 203.363968129485215 -58.422727733935666
-145.693765353537344 202.878085043022793 -58.298737622692975
-144.342830372780469 203.218507471326092 -58.577512765827663
-143.015109186288555 203.592107130508708 -57.835837762842814
-146.658193889264112 203.650027873323523 -58.338509965803823
-143.099233116674668 203.695318443574166 -58.200373910919438
-143.702724646763613 205.175435404746537 -59.197972669045285
-144.690865098923723 205.317894217819884 -58.728811066504512
-150.843987760839838 206.311618236295544 -58.217836605527793
-149.595625221476865 206.567467791053275 -58.138475972473053
-148.876466118241723 205.443848038078556 -58.060834253884281
-145.221773375256788 206.188759376631339 -57.376529240961510
-147.391186001110185 206.253559994242408 -58.559297799699969
-145.872653269493242 206.438735136544352 -58.743936731693502
-148.676548002604648 206.631912934620601 -57.979568348173316
-149.305364873071426 207.322664540750310 -58.072262216763100
-147.388022300347842 209.940374490026471 -57.924552026761667
-149.858798039359954 210.749498707283834 -58.812048741847221
-148.785273763847414 211.566818259693008 -59.151246301405791
-147.756673557740754 212.214708153688491 -59.008233856917137
-148.918200819626065 212.598398014087678 -59.052523634938311
-147.219972501743371 214.676466716826127 -58.808519219131838
-1.610468855306134 238.868448682460127 -58.515975465250612
-2.240990024042156 238.950559217768614 -58.575733006037588
3.405494733015643 239.242239205763525 -58.477946301915367
4.804677032354880 240.304045542769188 -58.600682244275156
-2.815658563968521 241.655944404182037 -58.418021064685348
4.437846361004802 242.325447473655117 -58.727474867450326
16.560770676317031 241.232449055426684 -58.033389227239383
-1.024339232261187 242.572368591097842 -57.709318452955515
14.781279655737581 242.599254475180089 -59.253829562700652
13.753656306502448 242.790069431765971 -58.830597868089249
0.343355548238880 243.525520898152081 -58.388657845951933
8.685207467781991 243.942642385794613 -58.389813418117598
10.470762113498326 243.966208489424787 -59.230845214422658
13.398240222613220 243.080548776659583 -58.621363055649546
0.149011033822735 244.108650626727893 -58.263123058700828
12.856264417837208 244.233346479856465 -58.611766714309546
4.485016411285820 244.254904282719934 -57.763396501383987
6.831701508087184 244.360853694436486 -58.454473861818400
-0.830573763428653 244.060366109846285 -58.476638644136969
5.743396049382007 246.080520721464495 -59.140998234167022
6.994167080517769 245.403338515609960 -58.411906598756076
-1.635183617867152 246.111305680008059 -58.449574422008148
22.684858345224125 248.643357266319100 -58.322731824848290
20.669873406754029 249.749967272729634 -58.232509422995605
-2.439569256120000 249.488118895281673 -58.249478826325102
-1.548758484879803 249.901593453335437 -58.645488290939575
20.571096807637353 250.398537659819624 -59.132421636139021
0.165199054138642 250.819245822014807 -58.051446015581874
20.847852436635073 251.360784103834447 -58.861398164795268
1.900546819262102 252.526708151769014 -57.712426975853127
3.124817112991091 252.880444128357567 -58.075803757033363
4.204380796328706 255.276576438039712 -58.701962203191655
24.148883966827022 256.038446262195578 -58.039553554907258
5.383668037863703 256.559194139076055 -58.510947143648870
24.939389917068951 257.345492425425675 -58.389647000278408
5.198680894845108 257.333210994124613 -58.299956586093096
6.793628175814138 259.483989391090290 -57.881000770266404
25.794928343032517 259.268217589818164 -59.257496426699916
6.904264807596481 261.832124445856323 -58.559800598368618
7.854103062871095 262.854651993785296 -59.331864013683365
7.548295589106592 264.173365021031600 -58.689312879370853
26.393547914282795 267.102117842154939 -58.679240243218970
26.883244776674243 269.645595816218190 -58.849472368693959
7.536763590737591 272.738485516256787 -58.801258026057425
23.525971342402897 273.775873118915797 -59.750010613035982
7.313393146931174 274.171190657839588 -59.034652485998379
23.409982121722454 275.527604106562762 -59.380892004303703
6.823192500975599 275.830174248267667 -59.078440887675676
21.959752422117525 278.192598270401788 -58.687318085609135
6.987762219970112 278.424752619670073 -59.213820212020195
21.150832570181205 279.424846597672854 -58.639542749089792
21.166729916896895 279.161616313346940 -58.252499043650481
6.309433957308334 279.453992884602371 -58.541164786009567
21.222055354412479 279.574236342610220 -57.962963104174605
6.104383774914960 281.748859809556336 -59.493055601650447
5.464469631405430 283.995378787819675 -58.546929040648017
5.049223054723451 286.955853430077866 -57.875983294843223
15.397637932175682 287.521976393451951 -58.741163248249372
5.209566717460327 288.899094758153410 -57.949564650106858
14.423850806664278 287.958817404200374 -58.537671837885185
4.996127353803890 290.256028541708133 -58.997260066418242
5.804693095274927 290.119323699479992 -57.649872929053778
13.227141288716405 291.045576157091432 -58.599279473037221
11.404438244120779 291.220035660838448 -59.344620396828958
7.015187142542437 292.517086700040011 -58.560068902496383
9.948590328468896 292.065685437070044 -59.462786583085972
10.487222537155203 292.516622297289700 -58.909524706904151
9.003064124949107 291.697108998617750 -58.082185805078332
44.467231638496521 15.999438658846929 -57.400153740268131
44.565211078611803 16.746043311319767 -56.816862367533837
45.313637110697854 17.386721158641514 -57.640900455075958
35.345394197302411 18.623958319734427 -57.487241437126762
23.027552864284008 18.863345863389519 -57.285817437314925
30.494949568429238 18.469935776651319 -56.856183643346824
21.875227030755834 19.764383279397489 -57.236988016483174
28.509237233960985 20.868372899991236 -57.426978989661677
28.056068171562575 20.944980984355034 -56.513935698633802
21.786773607806047 21.023709211247780 -56.719322759254553
41.679114166750068 21.398113439228954 -57.617970521290196
27.113593384620028 22.033174503910033 -57.473994510153112
49.013361999782916 23.093035682669768 -57.214984978213096
27.618068121004978 22.296677099465381 -57.816283220861109
26.047507945231576 25.098037995798144 -57.872014371466854
43.811568253575437 25.751425240717019 -57.671181441638119
49.035881370405043 25.898004296308393 -57.205112752430331
49.729080875868569 27.250718299854899 -57.816079039073806
20.478754000649570 29.219793155741389 -57.131814665158934
25.083279258358193 29.202321380692275 -58.859266451700876
43.636642531240959 30.470407002581339 -56.960471655190325
26.074259383553049 30.733346775069563 -55.773631375196743
49.052825587026355 30.615283353721953 -57.230046014563904
43.463851785050487 31.213189026210230 -57.661880778767120
49.227608747181932 32.356786827658254 -57.883525383463954
48.117134811532161 32.590676489036724 -57.793244049843594
27.649975365374146 33.440151955722612 -57.026746083587028
20.104139149502654 34.138581829404842 -57.400968486343587
28.219235129520239 34.658357419519440 -57.296083481715918
40.913654179821741 34.817500597368372 -57.270931994486361
22.218288116217099 34.987625912699755 -57.136849737970010
40.267929019077329 35.143137932450266 -57.652221845201453
47.795166467718950 36.090482991394680 -57.817833723844238
31.047292119557810 36.907361777440308 -57.183353457448014
34.506623625001446 37.992942736529422 -57.086029294494679
34.912037736846557 42.477041248154499 -57.526638655884334
35.754469410006060 42.378796827482688 -57.039000231159974
37.005769188172337 42.542341810786937 -56.815111254941669
-59.236118949196005 43.538024007897057 -57.651233775703282
-57.026848384163877 42.606677047723821 -57.064759548148551
-66.680245232611426 43.407745629590934 -58.651239874343730
-54.746386637351797 44.215919403142045 -57.825887308444955
-70.518815379532882 44.102031940069004 -57.366218566833219
-52.159925521123341 44.139062541065677 -57.732162288679710
-51.347539729602971 44.427497113910484 -57.406852519503168
-46.589701137038176 45.601646796384841 -57.823866960643322
-43.722545759421585 46.756629629572949 -57.971703437802816
-81.615897973798440 47.210303851555892 -58.161013626208238
-41.814886500136019 47.259261153796032 -57.535991706291682
-38.412496046582866 47.440903763387333 -57.192069254444753
-34.601794185675161 48.482049565790760 -56.888769311612457
-30.005526152345674 49.633298753814714 -58.252643635933481
-26.199713805922546 49.516568963432263 -58.112181576064152
-23.411591523040755 49.199522015147053 -57.751489643231778
-21.429131713849245 50.419916468608818 -58.002757461024792
-87.721382761426327 51.805304604050413 -57.325632656402902
-19.761931131433414 50.656264703867890 -58.209249621899794
-88.275729270323552 51.984692863937042 -57.276541292435333
-17.552960514704392 52.033823174818430 -57.471069574978493
-89.696778185686625 52.656067118155413 -58.235346158355178
-90.985043727829904 55.179301176867590 -57.024557208436121
-91.840288900199312 55.587601874219914 -57.184236927593076
-10.085421921605938 55.615943680229101 -58.097714119821156
-9.530643923869578 55.862714299240359 -58.210078407669982
-91.725114958409733 56.683139868742138 -57.859755427296911
-9.525008708467229 57.822350515005937 -58.134567192141127
-8.592503453833757 59.222694611982291 -57.847238307971033
-94.368581667258411 58.583596871930681 -57.793325720248525
78.247228941657909 58.665596406812277 -57.694495927331282
80.564621627282762 59.030511782423268 -57.331083734380115
76.620455253625153 59.950574343565194 -57.850293261367383
-94.588541243899527 59.886537323008788 -57.497141790245578
74.258464334295184 59.980991131627277 -56.825837303746837
83.857204382321001 60.576793255470079 -58.236923395424888
86.848804618462310 60.600029703540123 -58.545124681610346
-95.602517601915963 61.624618140643179 -57.498034163350972
72.363418755364577 61.487926188398866 -57.787072124111383
95.202954305613375 62.008113872919402 -57.891989850695460
-96.532701456289715 62.663807407915350 -57.198077118831591
-8.449537810877205 62.735506182053285 -57.601497900846631
-10.188989436915122 62.750086833838459 -57.736658153954018
96.938912924618606 63.738614687594456 -58.278041368955407
69.845669540022030 64.031872192740309 -57.549567350203219
-20.087411248727978 64.506227029219559 -56.904049266653843
-17.826164125554108 64.419550675308088 -56.713806451529017
-11.144621138943275 64.746979458457616 -57.449516873772822
69.014494642199082 64.025895892110441 -57.135355804378733
-18.867680075443122 65.001796932428519 -58.075041874020741
-12.824366998512293 65.459210151589915 -57.677683566382420
-11.841240497364335 64.717488341892164 -57.733385761437532
68.779820439981464 64.360626515006899 -57.604002098285697
-24.829491781939655 65.476469004160890 -57.408278757781453
68.774613991139191 65.936015214860774 -58.239963791534173
99.733384923201712 65.404636659125998 -57.180087645164626
-27.712711727207616 66.490699182666489 -57.194930358919777
67.569978068107346 66.338998817204157 -58.228802477341659
101.127404929924822 67.135115012747448 -57.704041773657408
-29.879308582085553 68.653423373435686 -57.188584960986496
-32.564019377904486 69.291227540562673 -57.021104941513940
-98.511353906949353 72.046244004682165 -57.193435493987749
103.152801025889360 71.268532558770943 -57.075470874219342
102.504416279019580 72.589589212112472 -57.472592241026611
-98.529053477658152 72.680799730898229 -58.261977619543451
-34.145398621180362 72.357788480845059 -57.681335598719258
104.259111771677667 75.211921228282478 -57.571474368361265
104.350592716714857 76.644927551859055 -58.027664207407327
-35.218292693407591 76.492331481203024 -57.679588732809648
-99.456369826428826 77.354997942869673 -56.592358994762776
-35.581886846329525 76.310391404760111 -56.885332706162437
-99.258328876715538 77.513592328760723 -57.930707317487169
104.134273360985702 78.200570182887773 -57.823412306510384
-49.805025105288976 78.826796586987854 -56.584960934763032
-35.633424708117111 78.443635807374932 -57.867226956062275
-52.996872095249159 79.167611752575041 -58.199677328645933
-50.548101466630811 79.002899195137189 -58.316988965772225
-48.947082288117372 80.363880733592708 -57.547340670024028
-38.753680005876618 80.459670898965243 -58.202460149645852
105.529995829677290 80.243300321536566 -57.610937291734970
-57.378204259051500 81.543729909465085 -57.809824493356444
-48.321859973525370 81.513780161613880 -58.064616812070661
-44.197743111138848 81.507643415858936 -57.483587914047249
-99.626880253842231 81.407412872681093 -57.196063572204501
-58.904417849466746 82.368959888677168 -58.024697562175483
61.785347926251752 82.160973929219423 -57.928701089649984
63.371772050605585 83.631212848428831 -58.253664434376219
105.397661629265684 83.815792849768940 -57.069297044522266
-60.063767328290801 83.554872167134818 -57.447140657159416
105.574323408428143 83.182227932899934 -58.214549963626446
-61.222924234704664 85.552865496951000 -57.536587089511137
62.334310723957181 85.320758610833508 -58.409785984402220
62.988699880318215 84.905125058638006 -57.277286897520959
-100.455751487256109 84.979207167007189 -57.491438973097324
-61.582574260618294 86.149894671578124 -57.576088094199910
57.050744548896198 86.372471619217691 -57.286974206042437
60.748958215213946 86.135371695921961 -57.777337663721319
-61.296269274906990 87.147441870026213 -57.440827918647230
105.983397345574616 86.729361060420956 -57.455165926683293
-99.949269979056695 87.706934736569323 -56.969051562410556
56.642752861625240 87.720838315906292 -57.272654791344188
-63.148216948022835 88.261319244177230 -56.287029128561542
64.096097776664237 88.459895354241183 -58.037652077641077
-98.667328842997648 88.186383829227111 -57.009862444184719
59.910739849911835 88.583587554283241 -57.838137818360764
64.109073824395992 89.111184423712004 -57.875719984012939
-64.597121505647138 90.333689208166035 -57.613827981918163
56.530064271980379 90.018225983848595 -56.760676483576177
60.085519272029117 89.323345810739610 -57.552603364525943
-65.110492927970412 91.406895340826267 -57.631780879901875
57.355696007056963 91.763820065858141 -56.861822672486475
63.562131976653170 92.825617550864294 -57.649725483745179
64.997276563061959 92.385346634653658 -57.309901014472615
57.703272128408145 93.836143481170566 -57.128836552999260
59.116588585389117 92.484316368667749 -58.177339588400670
103.778909053701497 93.826054610335035 -58.417796668850158
104.477846046211141 94.689051505213669 -57.690507543387781
-67.486605999949859 95.863512327802226 -57.450690434976025
65.179938992397751 95.005947529464791 -57.462774642173073
-99.271355787500582 96.615039187074800 -57.653671950273221
-68.755013463859669 96.586299205232777 -58.104614301242783
-69.364868871526951 97.011784400198934 -55.976965680094935
-99.924234552711582 97.686719665174039 -56.831323876308282
-69.464887116573493 98.997801778563883 -56.885366756704748
-68.206995581895697 98.260114239871470 -57.587417074387780
-69.967348113139096 99.307683969806831 -57.492330727971513
65.933654429122612 98.915450787781268 -56.965730174344650
-71.421616226663005 99.530222682830058 -57.023282501761166
103.098722297916595 99.980507468660392 -57.400236720385109
66.248179708479626 100.252899486928328 -57.779383581199546
-71.483129933725351 99.854312341920789 -56.643559293289513
67.178292660361379 101.289199502576352 -57.581702465492512
103.275693952590757 101.088459899901224 -57.684974423521020
102.974572245933032 101.291476009300894 -57.983512836655841
-71.581179217601616 101.368896444542102 -56.969232128457449
67.454211347888815 102.301863770834331 -58.702910537928908
58.636454795760969 104.272360334257954 -56.965652605129790
-75.077469121291074 105.032542444761077 -57.245687451701123
55.795989093338981 105.484110422955396 -57.539740440178271
57.345330969308684 105.140979644036165 -57.182410643943101
-67.300011871551092 106.444140212630415 -57.853997674735162
-63.993021702349530 106.012376488027670 -58.011021029476794
