-35.881629943848 -68.031814575195 -177.345993041992 1.761133074760
-41.901470184326 -73.109756469727 -178.597763061523 4.619486808777
14.814908027649 -75.834648132324 -176.185073852539 2.186316490173
99.632812500000 -72.134330749512 -182.391281127930 3.530935764313
-31.785074234009 -71.619369506836 -181.908721923828 1.179959774017
-32.747928619385 -65.004180908203 -173.416107177734 3.361357450485
-25.100492477417 -75.904457092285 -186.612014770508 2.615523576736
-148.583267211914 -75.292930603027 -182.707473754883 1.402075886726
9.356774330139 -76.801010131836 -183.237289428711 5.124794006348
103.163146972656 -73.690132141113 -199.465301513672 2.329991817474
-162.718048095703 -68.689895629883 -188.480590820313 7.481363296509
-28.873760223389 -72.852493286133 -189.687240600586 1.845238327980
-118.175483703613 -66.834167480469 -190.403579711914 5.001595973969
-133.531738281250 -70.182441711426 -193.064498901367 2.379921913147
-110.428375244141 -67.350624084473 -199.224868774414 1.903943181038
-113.294700622559 -64.606292724609 -195.634902954102 1.523678779602
-19.996427536011 -67.894592285156 -200.020828247070 2.236391067505
14.874136924744 -75.495872497559 -199.493896484375 1.985467195511
-26.419536590576 -62.825313568115 -199.982284545898 6.219292640686
-129.485382080078 -66.361259460449 -197.862762451172 3.345995426178
-31.155811309814 -69.742210388184 -206.996582031250 4.784951686859
-132.792297363281 -74.109260559082 -198.769454956055 1.746739983559
-14.312950134277 -67.198417663574 -200.806457519531 0.771465182304
-147.881240844727 -69.002716064453 -197.884216308594 2.515231132507
86.006309509277 -74.033302307129 -214.290466308594 1.988071203232
-168.765197753906 -68.466018676758 -198.372924804688 4.163551807404
-3.471575975418 -73.908393859863 -214.086853027344 1.148995280266
10.216894149780 -64.736404418945 -213.807037353516 3.569555759430
4.358874797821 -66.934013366699 -217.120361328125 5.883689880371
78.829582214355 -73.787994384766 -222.408569335938 0.685741066933
-1.596035957336 -67.028106689453 -218.105346679688 3.449045181274
11.393748283386 -73.366516113281 -214.561523437500 2.900295972824
-18.091886520386 -77.935752868652 -210.974594116211 1.122511029243
-92.194862365723 -70.634429931641 -210.797912597656 4.092621326447
-107.007141113281 -71.919990539551 -214.556320190430 6.715088367462
-7.212111949921 -71.175384521484 -221.497238159180 2.458206892014
-174.449157714844 -68.223930358887 -226.832458496094 8.351777076721
7.172838211060 -69.314888000488 -219.424758911133 3.483607530594
-146.718917846680 -70.645454406738 -217.969406127930 2.456281900406
7.676508903503 -68.536270141602 -227.059127807617 2.586585760117
-138.908950805664 -69.915977478027 -215.926483154297 5.511949539185
-119.970878601074 -68.014793395996 -225.379333496094 3.294507741928
16.294364929199 -65.415794372559 -226.744262695313 5.243302822113
68.947235107422 -72.762481689453 -234.268127441406 2.144501209259
-1.983752965927 -68.918479919434 -226.940505981445 0.534000694752
-120.396003723145 -72.118713378906 -214.764221191406 10.421079635620
68.531692504883 -72.602905273438 -229.677810668945 2.421584367752
73.506225585938 -76.149398803711 -235.475204467773 1.937258362770
-126.578239440918 -69.766548156738 -225.722991943359 1.997609853745
-126.399551391602 -71.888702392578 -228.659149169922 2.977448463440
-15.909206390381 -70.962303161621 -231.616653442383 1.263016939163
63.864955902100 -77.076850891113 -231.346527099609 6.500477313995
62.829864501953 -70.899307250977 -239.330139160156 1.172443509102
66.782363891602 -72.102149963379 -237.481338500977 1.338705778122
-138.857482910156 -72.084136962891 -234.351715087891 2.742733478546
63.037338256836 -80.071998596191 -236.823776245117 6.422623634338
58.890579223633 -77.906974792480 -238.285308837891 5.642558097839
-172.478164672852 -71.596679687500 -220.993240356445 6.140711307526
-6.371197223663 -74.025314331055 -243.112716674805 1.424743413925
9.295960426331 -70.737693786621 -247.612243652344 4.104803562164
-8.107959747314 -74.903289794922 -244.173828125000 3.055767059326
9.312322616577 -76.912330627441 -246.052276611328 1.771121978760
64.849281311035 -75.474365234375 -244.190872192383 3.048434495926
4.515931129456 -77.546653747559 -240.467926025391 1.687920093536
-12.186025619507 -68.632522583008 -245.252151489258 1.637412905693
-11.617284774780 -73.775924682617 -247.892181396484 2.079207897186
61.164508819580 -72.360893249512 -249.023925781250 3.627096176147
0.846388995647 -75.260833740234 -247.784286499023 2.770897150040
-15.606214523315 -71.692214965820 -239.074340820313 2.220578908920
9.729917526245 -75.176803588867 -248.746307373047 3.899904251099
-169.917114257813 -61.450881958008 -235.062408447266 8.098717689514
56.198493957520 -71.152801513672 -253.428436279297 4.444281101227
47.080272674561 -72.333259582520 -255.428604125977 3.081130743027
51.622825622559 -78.034812927246 -244.192459106445 6.677762031555
-20.617406845093 -70.174156188965 -253.807296752930 5.452454566956
47.595287322998 -77.367141723633 -247.685714721680 5.483864784241
-79.859497070313 -73.013290405273 -246.640213012695 2.451250314713
45.905975341797 -75.246383666992 -254.404251098633 4.118916988373
-94.102111816406 -72.505424499512 -253.165084838867 1.118778228760
-134.549087524414 -71.805320739746 -249.259719848633 5.154441356659
-140.845245361328 -62.229621887207 -246.607360839844 6.455678462982
47.357891082764 -70.743743896484 -261.083099365234 7.058794021606
-144.183761596680 -64.483383178711 -252.446533203125 1.949764966965
-110.500625610352 -78.638267517090 -247.760253906250 11.292481422424
-116.906669616699 -68.192657470703 -254.581665039063 2.209261417389
-90.706306457520 -70.683395385742 -247.328353881836 4.280610084534
-118.915931701660 -71.028602600098 -260.237609863281 2.505445241928
-131.327865600586 -64.081245422363 -262.692779541016 2.448986291885
-150.366897583008 -68.114990234375 -260.735839843750 1.016517639160
-17.560338973999 -73.712112426758 -260.040740966797 3.497189283371
-180.079864501953 -65.792961120605 -261.946441650391 13.402325630188
-14.550821304321 -75.794235229492 -271.381347656250 2.849776029587
-163.636825561523 -60.948154449463 -259.366333007813 7.729926586151
-161.391128540039 -62.992843627930 -265.791107177734 6.150258541107
-175.545928955078 -59.425361633301 -266.451782226563 13.506667137146
-18.932004928589 -67.724655151367 -276.782470703125 7.336828708649
-140.279373168945 -68.021835327148 -278.479675292969 6.428136825562
-163.439117431641 -62.681442260742 -283.360107421875 7.278838157654
-149.221496582031 -66.817817687988 -276.951019287109 2.706446886063
-143.768936157227 -70.275024414063 -279.696289062500 2.956330776215
-16.226139068604 -72.116432189941 -280.380157470703 6.010657310486
-130.588012695313 -73.401054382324 -278.075927734375 6.332956790924
-148.841201782227 -68.341850280762 -280.951141357422 2.341814041138
-120.264709472656 -65.904754638672 -281.209442138672 6.930093288422
-85.827796936035 -65.844512939453 -288.650543212891 3.273574590683
-68.468910217285 -70.599853515625 -280.086395263672 6.789610385895
-12.412451744080 -72.181060791016 -288.751495361328 1.283545732498
-56.162590026855 -72.020362854004 -289.078979492188 1.343379735947
-70.346206665039 -72.468757629395 -285.030975341797 2.254363775253
-76.829849243164 -66.989974975586 -289.213867187500 2.557585239410
-94.600448608398 -70.079032897949 -294.643127441406 3.334875822067
-113.603813171387 -61.455715179443 -284.144287109375 7.389682292938
-165.790634155273 -66.905471801758 -284.770660400391 2.930641889572
-160.842437744141 -65.254455566406 -282.209930419922 4.676027774811
-134.609100341797 -70.431083679199 -293.242584228516 1.364284276962
-152.172973632813 -66.818786621094 -287.222869873047 1.976620793343
-165.325668334961 -64.124252319336 -292.701599121094 6.953529834747
-155.139846801758 -67.343833923340 -313.070953369141 2.132106065750
49.388893127441 -75.067863464355 -23.939470291138 3.750758647919
22.493453979492 -85.824172973633 -27.085023880005 13.701673507690
49.206886291504 -77.908691406250 -40.886394500732 8.643647193909
-18.237874984741 -76.025680541992 -65.491928100586 2.608350992203
81.699813842773 -75.569961547852 -70.776435852051 2.033515930176
86.774391174316 -69.371147155762 -77.247940063477 5.514975547791
77.312927246094 -74.515380859375 -78.577720642090 2.184321880341
80.088249206543 -76.204956054688 -71.718589782715 3.030683517456
99.501159667969 -77.928756713867 -78.840270996094 5.129257202148
-95.714492797852 -75.497711181641 -71.262428283691 5.387422561646
69.386383056641 -78.786590576172 -82.526473999023 5.185148239136
-33.897789001465 -70.293670654297 -76.016052246094 2.503302574158
99.370475769043 -77.947807312012 -91.855476379395 4.574244976044
66.756317138672 -83.780509948730 -92.176635742188 10.746207237244
112.080421447754 -75.822723388672 -94.730857849121 6.785107612610
106.713264465332 -80.991195678711 -103.379211425781 7.002587318420
72.445281982422 -79.227348327637 -99.992515563965 6.384942054749
-78.300437927246 -73.169647216797 -96.731285095215 2.774392127991
56.267803192139 -77.302787780762 -113.831558227539 6.965760707855
108.695846557617 -78.705909729004 -111.196281433105 4.359359741211
48.556869506836 -82.161483764648 -118.540557861328 5.183830738068
86.752113342285 -77.505233764648 -105.577568054199 5.906393527985
43.663070678711 -81.884536743164 -114.252906799316 1.858599066734
106.630844116211 -74.347885131836 -103.915145874023 1.847566366196
48.787445068359 -74.066749572754 -110.312973022461 1.047689795494
112.308181762695 -80.824806213379 -118.551208496094 5.634168148041
107.020385742188 -76.265502929688 -121.845619201660 3.002817630768
-78.705253601074 -61.789691925049 -111.394950866699 0.890679597855
-74.821472167969 -71.185203552246 -112.047050476074 2.760807752609
42.006706237793 -74.720451354980 -119.975082397461 3.287743568420
116.652648925781 -71.239807128906 -122.507667541504 2.735154390335
116.154861450195 -73.460525512695 -126.820503234863 1.230247735977
-79.923583984375 -71.328109741211 -123.516975402832 1.946915984154
108.344680786133 -75.356109619141 -126.463554382324 1.695462584496
-68.404365539551 -71.816505432129 -134.238571166992 4.180518627167
-89.793380737305 -67.523384094238 -124.632087707520 2.948787212372
-74.729942321777 -69.535194396973 -127.054428100586 0.715811192989
-57.398471832275 -65.343711853027 -122.706359863281 1.064545989037
36.371570587158 -73.495811462402 -132.962753295898 2.952116250992
42.793460845947 -72.861022949219 -137.138290405273 4.716770172119
-75.469863891602 -72.893112182617 -132.342117309570 2.427151203156
27.828033447266 -71.046775817871 -131.363098144531 1.262474775314
103.176147460938 -79.156875610352 -139.290725708008 8.276009559631
-39.022026062012 -72.888427734375 -148.918548583984 2.207843780518
24.285305023193 -73.037658691406 -146.863815307617 1.497998714447
108.269950866699 -68.221702575684 -151.681289672852 3.151902675629
34.338748931885 -76.719299316406 -146.659011840820 1.256448864937
109.796714782715 -78.341934204102 -149.318557739258 3.094973564148
-57.017463684082 -71.913314819336 -145.749145507813 1.145286083221
-68.023200988770 -74.860000610352 -147.817108154297 0.958032131195
-55.761867523193 -75.295783996582 -153.163909912109 3.533395051956
-48.380821228027 -69.939605712891 -168.712387084961 5.519994258881
-1.283252954483 -70.488754272461 -153.587921142578 6.802611351013
108.159057617188 -69.498794555664 -159.662155151367 2.690752983093
105.287094116211 -73.264183044434 -167.214523315430 1.978422522545
7.791395187378 -66.393699645996 -161.550308227539 4.137974739075
-1.898759007454 -71.144439697266 -160.335556030273 3.699910640717
12.980519294739 -68.650466918945 -161.629089355469 2.958689451218
18.178384780884 -71.989631652832 -148.858093261719 2.123036861420
114.288215637207 -80.879196166992 -170.929397583008 5.276692390442
103.886039733887 -77.588989257813 -179.268829345703 2.199959039688
24.915637969971 -72.066085815430 -175.783554077148 2.687392950058
25.351831436157 -71.727752685547 -166.901351928711 2.082529067993
113.836174011230 -75.666694641113 -167.820816040039 1.074331879616
-34.526958465576 -69.262870788574 -173.014541625977 1.167471647263
110.904220581055 -73.174461364746 -176.909790039063 1.926213145256
18.802593231201 -66.544898986816 -181.718429565430 2.846522808075
12.442661285400 -76.366386413574 -166.578048706055 6.206404209137
105.626075744629 -73.593719482422 -184.229766845703 1.657677173615
20.597801208496 -73.385711669922 -171.567672729492 2.882347106934
107.284439086914 -70.740821838379 -186.127578735352 0.979512810707
-43.525123596191 -68.432334899902 -176.500396728516 5.687889099121
25.085683822632 -68.961494445801 -173.282150268555 1.678213000298
105.374488830566 -74.016700744629 -191.646163940430 1.447118878365
21.795070648193 -69.811569213867 -177.724929809570 1.641125202179
-155.979904174805 -63.125141143799 -173.711502075195 4.763870716095
-36.477024078369 -71.760070800781 -187.632034301758 4.059700965881
21.979824066162 -75.026695251465 -187.945114135742 2.312876224518
-116.447525024414 -68.616310119629 -191.900588989258 3.483202934265
-116.988311767578 -70.923202514648 -185.945358276367 5.398534297943
18.077463150024 -67.843635559082 -195.070175170898 1.250730037689
8.917662620544 -73.487564086914 -188.283706665039 3.456436157227
-29.728675842285 -74.707191467285 -192.267517089844 2.397548437119
-30.801378250122 -71.695297241211 -185.924285888672 1.616102695465
-28.016805648804 -73.646987915039 -185.509384155273 2.412315368652
18.982229232788 -76.874977111816 -180.122711181641 2.075678586960
-156.923171997070 -66.931602478027 -187.568130493164 3.992647409439
-150.617172241211 -70.380195617676 -196.565048217773 2.790972709656
-144.813171386719 -67.507354736328 -187.098922729492 2.116276979446
-20.635560989380 -66.739128112793 -191.844497680664 2.192054033279
12.821383476257 -71.738449096680 -200.227966308594 1.806843280792
95.107955932617 -76.055725097656 -201.516464233398 1.668508887291
-120.029266357422 -67.759590148926 -200.531494140625 3.460080862045
12.221959114075 -69.058586120605 -204.272796630859 1.021726965904
-19.348432540894 -69.498085021973 -195.123580932617 2.174014329910
-22.136623382568 -69.880592346191 -194.756454467773 1.593693971634
91.904281616211 -73.460906982422 -206.807403564453 1.716387510300
4.143895149231 -74.807228088379 -199.404052734375 4.945929050446
-31.442802429199 -70.159271240234 -193.788391113281 3.731906175613
-125.135093688965 -70.148986816406 -198.816925048828 3.126157760620
-138.033767700195 -65.934730529785 -193.875106811523 3.744284629822
-112.430969238281 -65.447761535645 -204.983215332031 1.880083680153
-150.664703369141 -67.815002441406 -199.108413696289 2.560594558716
17.972743988037 -74.200973510742 -199.039855957031 2.151134014130
91.594314575195 -77.474868774414 -213.232177734375 1.381881952286
-170.499862670898 -65.848510742188 -200.537124633789 5.530468463898
97.866897583008 -74.707992553711 -208.241210937500 2.666322946548
-19.386167526245 -70.533691406250 -211.636337280273 1.587776660919
85.914299011230 -81.678672790527 -219.298995971680 5.496539592743
87.329063415527 -70.368072509766 -223.695022583008 2.031949758530
6.031116962433 -69.932250976563 -212.986816406250 1.652858853340
10.090556144714 -72.318031311035 -211.854339599609 2.028957843781
5.090827941895 -72.055412292480 -214.774948120117 1.787468075752
-13.162160873413 -69.357666015625 -218.734741210938 2.031405687332
-103.739326477051 -67.518867492676 -215.981796264648 4.496614933014
-11.502799034119 -73.539291381836 -221.901870727539 2.517318964005
87.540229797363 -72.352676391602 -218.447418212891 0.863333880901
-96.653488159180 -72.100318908691 -219.159866333008 2.692356348038
-106.233207702637 -71.721382141113 -218.035095214844 3.574149847031
-100.308738708496 -66.183860778809 -216.299499511719 4.069634437561
84.850692749023 -78.528213500977 -226.523559570313 3.671569585800
-139.253463745117 -71.432083129883 -222.836929321289 3.519447803497
-137.124130249023 -57.860683441162 -228.375564575195 6.256186962128
-125.349990844727 -67.059371948242 -224.162521362305 1.606046319008
-117.485153198242 -65.447608947754 -221.598114013672 5.470359802246
-136.089096069336 -64.043334960938 -215.106369018555 8.975335121155
-111.157325744629 -76.918083190918 -224.146667480469 5.688303947449
-119.046783447266 -63.355491638184 -224.755508422852 5.324255943298
-17.759862899780 -67.338996887207 -223.983093261719 3.035872220993
-26.141765594482 -73.807914733887 -227.150161743164 4.299489974976
-6.031433105469 -71.577033996582 -234.178375244141 0.824194967747
-13.111841201782 -68.424858093262 -230.260650634766 1.355506181717
10.873954772949 -73.969902038574 -233.203567504883 2.147848844528
-23.836687088013 -72.293884277344 -226.989074707031 3.297146558762
-164.274627685547 -67.994636535645 -217.800125122070 1.797155499458
-7.184113979340 -69.823890686035 -230.508438110352 1.414826631546
77.840545654297 -74.473480224609 -232.874298095703 1.930725216866
2.254519939423 -69.177848815918 -238.484756469727 1.315873861313
-15.698114395142 -69.670669555664 -227.229751586914 2.003327131271
-159.344207763672 -61.389461517334 -226.222412109375 5.177398681641
-142.664382934570 -69.781227111816 -229.048675537109 3.589311838150
65.585266113281 -67.734840393066 -240.326980590820 1.506554603577
-13.044063568115 -69.535629272461 -233.549377441406 1.417574882507
-4.549129962921 -69.220237731934 -236.483444213867 1.463900327682
68.773002624512 -72.392677307129 -243.831253051758 2.805002212524
72.184898376465 -74.063354492188 -240.963424682617 3.087141752243
60.447467803955 -77.054855346680 -238.883728027344 4.622691631317
-8.419189453125 -67.057228088379 -236.042846679688 1.244660139084
48.671325683594 -72.476577758789 -240.972885131836 4.919552326202
-20.348661422729 -69.461364746094 -238.636047363281 2.199763298035
-20.513626098633 -67.903335571289 -239.877487182617 3.855156421661
3.920196056366 -71.686798095703 -239.836791992188 1.960751652718
60.678588867188 -71.968414306641 -250.630249023438 4.077952384949
53.553588867188 -73.119308471680 -242.354782104492 2.605736732483
48.362396240234 -67.314132690430 -250.026428222656 0.882076799870
56.392425537109 -75.842041015625 -248.188751220703 4.496731758118
-22.742361068726 -66.160919189453 -245.592391967773 7.513259410858
-89.698654174805 -64.864120483398 -244.130081176758 8.970914840698
-83.279319763184 -62.862411499023 -251.307922363281 5.929473400116
35.324554443359 -71.034278869629 -253.542709350586 1.598196744919
-148.177215576172 -61.949829101563 -243.235534667969 1.909250974655
35.085075378418 -72.018943786621 -261.976959228516 4.237603187561
-89.533889770508 -68.880500793457 -249.486465454102 2.606602907181
-159.422943115234 -67.359580993652 -251.028976440430 1.127264142036
-150.196762084961 -65.099113464355 -250.842346191406 2.462663412094
42.408729553223 -73.581077575684 -254.402954101563 2.138339042664
-133.590423583984 -65.240638732910 -246.561996459961 8.557523727417
-124.022949218750 -66.998214721680 -252.390853881836 3.118443727493
-102.039039611816 -67.295356750488 -249.830230712891 5.179364681244
-24.107547760010 -77.051574707031 -254.653198242188 10.640051841736
26.019645690918 -71.841941833496 -262.271697998047 2.027114152908
14.218445777893 -75.561851501465 -263.481536865234 5.789800643921
-161.145385742188 -65.293945312500 -249.285186767578 2.689969301224
-119.115798950195 -66.747406005859 -260.396850585938 2.786493778229
-17.844457626343 -71.667228698730 -258.575469970703 3.906115055084
-141.007278442383 -64.997360229492 -261.142120361328 1.943770289421
-18.602403640747 -67.459495544434 -273.340637207031 5.946158885956
-168.274642944336 -65.210418701172 -274.348754882813 4.634720325470
-16.423423767090 -64.485748291016 -275.324279785156 6.546414375305
-170.728668212891 -62.468269348145 -285.198486328125 8.363076210022
-163.608917236328 -65.207221984863 -271.573760986328 4.619126796722
-159.140823364258 -63.363586425781 -280.026428222656 6.644007205963
-176.780838012695 -63.979919433594 -277.090423583984 11.466773986816
13.611715316772 -64.357070922852 -289.773468017578 0.794883191586
-112.716567993164 -72.066307067871 -282.953399658203 4.275610446930
-96.008331298828 -65.017387390137 -282.426940917969 6.794849395752
-178.047195434570 -64.168716430664 -277.685363769531 12.440037727356
-96.227722167969 -69.363967895508 -287.393981933594 1.563497185707
-165.426879882813 -71.076652526855 -283.948974609375 1.945570230484
-83.698043823242 -69.887168884277 -290.480377197266 0.782325327396
-74.350074768066 -68.015830993652 -288.475128173828 1.463987946510
-89.199333190918 -65.508636474609 -287.822082519531 3.549669265747
-9.839419364929 -64.090049743652 -287.920745849609 4.742330551147
-92.142036437988 -68.622650146484 -289.856414794922 2.522710561752
-104.418754577637 -67.641838073730 -288.074859619141 1.750147461891
-126.078399658203 -64.966667175293 -289.390533447266 1.038968682289
-123.815963745117 -63.826831817627 -291.873229980469 3.029336929321
-147.352844238281 -60.005176544189 -287.449707031250 3.626360654831
-149.537628173828 -73.739356994629 -294.912200927734 3.011487483978
-153.786666870117 -71.260490417480 -305.700103759766 2.360961198807
29.486667633057 -75.365081787109 -19.996358871460 3.673906803131
32.667697906494 -71.397430419922 -27.173391342163 6.736167430878
33.567867279053 -79.333671569824 -19.119367599487 7.876476287842
50.079391479492 -77.503654479980 -30.565364837646 6.118670463562
23.172866821289 -77.422111511230 -33.598918914795 5.201614856720
-78.868759155273 -70.216224670410 -49.071113586426 2.977360486984
85.473106384277 -75.371292114258 -69.498649597168 3.087532520294
-10.622204780579 -72.046829223633 -67.895294189453 4.328197479248
102.793876647949 -78.940124511719 -77.030349731445 8.037470817566
95.951713562012 -70.968025207520 -84.442481994629 2.626011610031
74.709922790527 -81.524230957031 -87.093025207520 5.093267917633
68.751770019531 -72.387092590332 -91.237770080566 0.547414660454
-49.356971740723 -70.359901428223 -80.899360656738 4.323296546936
59.502376556396 -74.877372741699 -84.181144714355 4.670153141022
-99.722373962402 -70.645698547363 -86.012176513672 4.273028850555
-47.739227294922 -72.364723205566 -88.011352539063 2.753968000412
-56.258090972900 -75.327293395996 -82.314109802246 8.101164817810
94.970886230469 -76.036094665527 -101.847984313965 4.411005496979
55.953392028809 -75.179244995117 -106.086158752441 3.447637319565
61.439476013184 -71.001243591309 -94.906303405762 0.365433126688
-94.080551147461 -69.118125915527 -91.873764038086 3.320650100708
109.596450805664 -71.652847290039 -99.001617431641 2.780121564865
48.010097503662 -73.747917175293 -96.150009155273 1.309848427773
101.758689880371 -72.908813476563 -102.137870788574 2.675330638885
105.903778076172 -74.708847045898 -112.517478942871 1.184975624084
99.769676208496 -73.538780212402 -108.548873901367 4.520671367645
75.032569885254 -73.463157653809 -108.926666259766 6.271735668182
84.861053466797 -73.804077148438 -112.402153015137 8.777594566345
45.423542022705 -76.851127624512 -112.999114990234 1.111133813858
106.886695861816 -72.383026123047 -113.460624694824 1.493917226791
46.681617736816 -74.419349670410 -112.749221801758 2.028342485428
47.035907745361 -70.858093261719 -104.368186950684 2.796945333481
105.013824462891 -78.213676452637 -122.926727294922 5.813202857971
-79.507598876953 -66.239456176758 -104.828453063965 2.101805448532
47.228359222412 -70.973243713379 -117.647018432617 2.135792970657
34.651226043701 -74.197814941406 -113.663635253906 1.141235947609
106.825950622559 -76.817527770996 -113.158706665039 2.639664411545
42.729675292969 -72.647651672363 -116.396476745605 1.662304639816
-90.458633422852 -68.328025817871 -116.963996887207 1.098483204842
-98.514823913574 -68.333450317383 -113.591491699219 4.048991680145
108.378730773926 -71.815849304199 -128.558731079102 1.656630158424
-92.314933776855 -74.275115966797 -113.069168090820 1.232804179192
38.860572814941 -72.106147766113 -126.312896728516 2.708786010742
36.119976043701 -72.753440856934 -119.464401245117 2.891920566559
-78.789215087891 -71.698875427246 -120.613418579102 2.222443342209
27.001142501831 -68.926155090332 -129.710144042969 3.439113140106
107.883796691895 -74.406768798828 -139.872848510742 2.057183265686
-48.566497802734 -71.301322937012 -138.392288208008 1.573514699936
-90.527160644531 -71.150283813477 -128.969512939453 2.810507774353
33.001728057861 -73.258666992188 -141.289367675781 1.840499281883
-87.269523620605 -70.108703613281 -133.056243896484 0.761124730110
-92.211105346680 -72.649116516113 -131.515853881836 4.288815021515
-48.787528991699 -73.441673278809 -134.373016357422 0.843175947666
-74.639289855957 -71.221244812012 -136.344558715820 1.822035193443
-51.204513549805 -70.407440185547 -138.180496215820 2.415566921234
112.790557861328 -72.024345397949 -143.738845825195 1.041526913643
-76.558258056641 -64.072502136230 -138.765014648438 2.451149225235
34.909389495850 -74.629028320313 -131.165100097656 4.013844013214
-76.167961120605 -64.509185791016 -136.448562622070 1.941333055496
-80.621726989746 -68.493972778320 -129.252075195313 1.341529369354
-88.195144653320 -70.903961181641 -132.879333496094 1.579394698143
-60.509094238281 -68.747879028320 -150.851455688477 6.387360572815
29.376188278198 -69.917541503906 -154.137634277344 1.719216823578
32.178127288818 -72.441658020020 -155.064941406250 1.056634545326
18.884778976440 -70.397514343262 -146.955535888672 1.855006933212
111.087348937988 -78.605575561523 -156.633819580078 2.459120273590
-100.422271728516 -76.867340087891 -153.828918457031 8.372816085815
15.935695648193 -72.335807800293 -146.639785766602 2.660506963730
-70.570518493652 -73.281471252441 -143.691329956055 1.889889001846
21.219570159912 -70.332763671875 -150.513931274414 2.123136043549
-45.420242309570 -68.041534423828 -152.239151000977 2.419427156448
4.667160987854 -67.501220703125 -148.761184692383 6.109467506409
3.755218029022 -70.004882812500 -156.903656005859 1.525055408478
13.986424446106 -70.315460205078 -163.125640869141 3.684310913086
-49.255027770996 -71.443397521973 -164.469375610352 3.502814531326
-43.186977386475 -63.184104919434 -151.628097534180 5.743855476379
-49.729839324951 -68.395652770996 -154.522979736328 0.677049458027
-102.464424133301 -67.009124755859 -166.208023071289 2.059915542603
13.423257827759 -66.558448791504 -172.666305541992 5.373394012451
-40.947170257568 -72.626525878906 -173.696853637695 1.484896063805
9.199720382690 -61.614025115967 -179.390457153320 10.022406578064
-149.774414062500 -72.708160400391 -165.435623168945 10.006732940674
-38.347888946533 -64.271896362305 -175.180923461914 5.112811565399
-154.198440551758 -62.691555023193 -170.744064331055 6.387996673584
14.682489395142 -72.976013183594 -182.435058593750 0.698323607445
-36.875633239746 -76.103706359863 -170.471618652344 1.868922829628
-111.882110595703 -71.553672790527 -179.869094848633 3.744177103043
-106.958580017090 -68.042350769043 -179.021423339844 1.896578431129
-38.419929504395 -67.391937255859 -179.127487182617 3.896572589874
-20.260738372803 -70.029197692871 -190.074813842773 1.505464196205
9.602386474609 -72.016883850098 -190.629180908203 2.238950252533
16.617958068848 -70.741149902344 -198.093627929688 2.236978054047
14.884148597717 -63.826580047607 -189.596481323242 3.210977315903
-142.131881713867 -66.981895446777 -179.444137573242 2.735335826874
12.293895721436 -70.746421813965 -196.568862915039 1.762603640556
6.255508899689 -71.478538513184 -199.501327514648 3.167508125305
-144.331985473633 -63.511024475098 -191.678253173828 2.227296829224
-122.705177307129 -68.837646484375 -196.410995483398 0.969560623169
11.742593765259 -67.604866027832 -200.067398071289 0.532835543156
-115.552528381348 -71.055297851563 -187.494064331055 4.426834583282
-112.865440368652 -70.228027343750 -188.388183593750 2.545917034149
-166.848358154297 -70.020439147949 -196.041946411133 3.575957536697
-19.650663375854 -76.369834899902 -205.167510986328 1.671234726906
11.886642456055 -65.618682861328 -204.066085815430 3.486787080765
-141.398361206055 -62.574928283691 -193.236495971680 3.190663814545
-138.837722778320 -68.333595275879 -204.255065917969 2.065907716751
-23.735158920288 -67.662139892578 -206.777313232422 3.947191715240
-16.474952697754 -66.629844665527 -204.836013793945 1.738534450531
-18.899456024170 -71.954872131348 -211.250183105469 0.897780299187
-150.936096191406 -70.184654235840 -203.307891845703 2.217375516891
-25.720123291016 -72.460075378418 -201.073501586914 2.383358955383
-16.658641815186 -66.322341918945 -209.133407592773 0.874157905579
10.922537803650 -69.225425720215 -210.010696411133 1.813155055046
-15.076682090759 -70.129035949707 -207.722244262695 2.067476034164
6.571293830872 -65.346649169922 -213.831268310547 4.591706275940
-11.696754455566 -73.159088134766 -217.954925537109 2.402159452438
-19.061958312988 -73.394943237305 -211.108001708984 1.878734946251
4.542934894562 -69.886024475098 -227.239562988281 1.683068633080
-10.187658309937 -70.178665161133 -219.328475952148 1.497920274734
8.062020301819 -68.393829345703 -223.165679931641 1.428061723709
-9.353734970093 -72.669677734375 -223.845413208008 1.567001104355
-164.217514038086 -66.860229492188 -214.658142089844 1.643023133278
80.359931945801 -73.119079589844 -226.334655761719 1.076449990273
-139.136413574219 -65.892692565918 -215.953277587891 5.694656848907
-139.071716308594 -65.946716308594 -219.612991333008 6.085957527161
-13.282174110413 -69.216438293457 -229.333236694336 1.569323897362
8.350034713745 -72.874397277832 -236.453262329102 2.280256032944
-154.401794433594 -64.043083190918 -215.202850341797 4.641528606415
80.058807373047 -68.162124633789 -226.496459960938 1.071527361870
-13.808192253113 -70.053848266602 -224.311065673828 1.733168482780
-1.327999949455 -71.779441833496 -228.636520385742 2.507663488388
65.762802124023 -70.382179260254 -232.217636108398 1.644685864449
-0.053323999047 -72.370307922363 -233.443496704102 1.489508509636
-23.246417999268 -65.569091796875 -231.016891479492 8.272720336914
-125.478767395020 -71.145355224609 -233.306716918945 1.751204967499
-11.019256591797 -69.432014465332 -238.994445800781 2.196092844009
-6.771551132202 -71.386215209961 -233.520675659180 0.776572346687
63.515922546387 -73.249603271484 -238.813613891602 1.789522409439
-168.417434692383 -65.174430847168 -232.471847534180 4.470021247864
-14.864222526550 -67.407630920410 -247.946990966797 1.862566351891
-171.306335449219 -67.300178527832 -233.664245605469 5.561518669128
2.479841947556 -71.069747924805 -246.278137207031 3.876971006393
-172.499389648438 -65.079666137695 -231.802230834961 7.778284549713
-160.324523925781 -61.532665252686 -236.499572753906 5.974995136261
47.859294891357 -76.139083862305 -256.825225830078 6.496877193451
57.690517425537 -68.537773132324 -247.437301635742 1.603343605995
48.146259307861 -70.078407287598 -246.460983276367 2.159315824509
43.390071868896 -75.206230163574 -251.258285522461 4.076877593994
-166.461318969727 -64.571121215820 -240.153793334961 3.966745376587
-157.019271850586 -66.433837890625 -244.677291870117 2.623211383820
-21.640655517578 -68.427490234375 -246.718688964844 6.498859405518
-160.311981201172 -63.705032348633 -241.936660766602 4.765316963196
14.025351524353 -72.384666442871 -258.776062011719 8.172801971436
-170.987472534180 -63.749668121338 -245.220184326172 7.083893299103
-175.447158813477 -58.600242614746 -236.711700439453 13.620085716248
-85.895988464355 -64.794799804688 -249.444519042969 5.095685958862
-178.594253540039 -65.865119934082 -259.670837402344 11.872032165527
-92.616180419922 -68.859382629395 -258.315093994141 1.245019674301
29.949441909790 -63.892871856689 -251.019760131836 5.098642826080
18.423040390015 -73.703430175781 -258.079498291016 3.736606597900
-163.476867675781 -61.469539642334 -252.767700195313 6.824201583862
-108.814956665039 -62.336067199707 -257.715637207031 4.911372661591
33.051925659180 -68.921615600586 -261.168518066406 1.654439091682
-107.335845947266 -66.588783264160 -255.196578979492 2.705143451691
-157.130874633789 -62.852413177490 -252.063232421875 4.354899406433
-112.708358764648 -62.911525726318 -253.663482666016 6.154054641724
-168.331420898438 -65.099548339844 -252.161529541016 4.402269840240
-119.787086486816 -67.362792968750 -257.968872070313 3.421465873718
-161.621032714844 -66.257095336914 -263.490509033203 2.295246124268
-163.869415283203 -67.754722595215 -257.229522705078 2.574663639069
-173.781539916992 -68.905693054199 -258.999023437500 6.441252708435
-165.724243164063 -65.402801513672 -259.752105712891 3.467369556427
-172.265518188477 -60.639476776123 -262.294525146484 10.362633705139
-170.588882446289 -58.270587921143 -261.033081054688 11.628652572632
17.320407867432 -70.704322814941 -265.407104492188 6.483337402344
-154.945053100586 -63.090377807617 -262.796264648438 1.058867573738
-156.032043457031 -62.628566741943 -282.931182861328 3.140951156616
10.273720741272 -76.971176147461 -281.768615722656 2.381512165070
-14.420552253723 -67.376846313477 -276.461242675781 3.943341732025
-133.735916137695 -69.784301757813 -280.515533447266 3.630244731903
-145.167068481445 -72.549674987793 -284.449005126953 1.535073041916
-145.644134521484 -66.305229187012 -281.315765380859 2.500028133392
-137.172821044922 -60.978618621826 -279.894409179688 9.134412765503
-123.452072143555 -64.981628417969 -284.984924316406 3.480621576309
-115.766311645508 -68.816497802734 -283.422363281250 3.221807241440
4.772021770477 -67.168869018555 -293.856231689453 1.922866702080
-98.239570617676 -64.647048950195 -281.285552978516 7.900066375732
-153.114273071289 -66.630989074707 -290.426910400391 2.323432683945
-106.546669006348 -63.370307922363 -284.787597656250 5.862644672394
-137.497512817383 -64.645530700684 -287.465148925781 3.426552295685
4.602613925934 -75.819923400879 -289.844299316406 1.893395423889
-123.475807189941 -69.214950561523 -290.672363281250 1.505672216415
-5.977302074432 -69.288047790527 -288.968017578125 1.345486760139
-150.031707763672 -67.883651733398 -283.542755126953 1.801486611366
-164.970275878906 -67.460227966309 -297.098541259766 6.912507534027
-173.904098510742 -65.149871826172 -301.251190185547 15.698698043823
-160.913208007813 -65.491142272949 -305.182678222656 6.956454277039
52.030799865723 -80.890861511230 -28.425931930542 10.124941825867
22.284431457520 -74.821578979492 -32.963661193848 2.511370182037
37.833885192871 -76.352928161621 -40.552139282227 4.161320209503
-48.589416503906 -70.395484924316 -51.167636871338 3.558098077774
-11.121625900269 -69.930503845215 -62.239139556885 3.150655746460
94.966018676758 -81.284378051758 -80.810943603516 5.542943477631
67.503448486328 -71.913887023926 -70.373161315918 3.861661672592
-18.423664093018 -73.577339172363 -74.450706481934 2.388716697693
-91.886703491211 -68.593460083008 -77.959083557129 3.365830659866
-36.811378479004 -72.194389343262 -79.616897583008 2.849200725555
64.245910644531 -75.583595275879 -83.460235595703 5.978934288025
56.175136566162 -81.321563720703 -86.022445678711 9.586606025696
57.914405822754 -76.481636047363 -90.193267822266 3.735423564911
-55.026012420654 -74.327819824219 -82.588104248047 6.752492904663
69.296936035156 -72.620323181152 -90.999557495117 0.415410786867
45.068454742432 -79.007896423340 -98.671897888184 3.216073989868
67.000663757324 -78.405570983887 -93.105903625488 6.888005256653
-62.300601959229 -69.075241088867 -95.736175537109 3.113680124283
55.458766937256 -68.619140625000 -100.238632202148 1.436381697655
47.291484832764 -75.913825988770 -100.378585815430 1.114351153374
103.949867248535 -79.642257690430 -99.127845764160 6.368881225586
-70.338935852051 -78.385063171387 -97.331665039063 3.884913921356
110.689460754395 -77.317474365234 -107.148658752441 4.286966800690
-80.013191223145 -67.973937988281 -90.842117309570 9.332739830017
56.204772949219 -75.454208374023 -110.861419677734 5.588318347931
50.426944732666 -71.762481689453 -105.021453857422 1.380478620529
96.408294677734 -74.351539611816 -103.021476745605 3.517923355103
87.941940307617 -64.958503723145 -119.331924438477 10.614300727844
56.687286376953 -78.015991210938 -107.327934265137 5.522979736328
-68.990043640137 -72.067817687988 -102.655281066895 3.005960226059
-81.026367187500 -71.371505737305 -106.635765075684 2.741168975830
-85.839759826660 -73.242835998535 -117.689788818359 3.410337924957
-95.604072570801 -79.698944091797 -112.407417297363 5.384738445282
100.459976196289 -77.014343261719 -119.293098449707 7.867681026459
-86.900825500488 -65.942459106445 -117.056999206543 2.985318660736
-80.367622375488 -66.517333984375 -116.956001281738 2.549561977386
110.677101135254 -72.479370117188 -121.932014465332 0.595157027245
-63.477615356445 -64.327606201172 -115.364234924316 2.438215255737
110.662208557129 -78.506042480469 -136.738403320313 2.971857786179
106.315177917480 -74.042655944824 -135.674880981445 3.821976423264
112.261451721191 -74.453521728516 -121.699661254883 1.861758947372
-95.173156738281 -66.485862731934 -129.810028076172 4.826438426971
-54.997413635254 -64.671829223633 -136.914428710938 0.950178861618
-77.730545043945 -72.434555053711 -144.197647094727 1.504135131836
-70.344947814941 -65.898849487305 -148.761199951172 2.593449115753
-75.409576416016 -67.567977905273 -141.134292602539 1.259330391884
-54.751800537109 -64.759597778320 -146.605911254883 2.687860965729
-49.530704498291 -66.809150695801 -151.530334472656 1.754463315010
18.081781387329 -74.335105895996 -146.449371337891 4.286827564240
-96.695831298828 -62.174205780029 -153.586593627930 0.996525406837
-44.908851623535 -74.197731018066 -146.924224853516 2.071835994720
-57.102489471436 -68.302253723145 -151.301864624023 4.133551120758
-46.951461791992 -64.008438110352 -154.851577758789 4.097261428833
25.651422500610 -76.668800354004 -160.822296142578 2.518759012222
-50.212242126465 -69.129005432129 -155.376327514648 1.626608371735
-97.502586364746 -69.745979309082 -144.751266479492 3.208384752274
-44.349945068359 -68.453895568848 -159.291061401367 0.584179520607
22.757917404175 -68.348045349121 -160.456970214844 1.177219510078
-102.675544738770 -69.117935180664 -160.996429443359 1.560860514641
19.687530517578 -69.616752624512 -160.550140380859 1.144236803055
-106.529815673828 -60.719272613525 -167.663101196289 2.610545158386
-102.695220947266 -62.779861450195 -160.762573242188 0.351222336292
19.975189208984 -63.960704803467 -171.297805786133 3.836706638336
22.858371734619 -68.065681457520 -169.294494628906 1.867963910103
-110.433670043945 -70.172615051270 -170.379074096680 4.152478694916
-147.283111572266 -66.194992065430 -170.032546997070 5.294668197632
-28.698673248291 -66.990570068359 -186.194198608398 2.016435384750
-24.185932159424 -65.626190185547 -183.394531250000 3.176769495010
-116.634757995605 -64.539207458496 -185.744598388672 4.450581550598
-143.989242553711 -65.459487915039 -184.093383789063 2.676043987274
-108.059051513672 -71.494010925293 -176.586624145508 2.969203472137
-153.043472290039 -70.817916870117 -193.702743530273 2.269204854965
-131.840377807617 -69.842437744141 -187.815658569336 6.930715560913
-141.242523193359 -64.907638549805 -190.246536254883 3.035345554352
-25.104925155640 -62.950031280518 -193.125656127930 5.078675746918
-122.906761169434 -67.413948059082 -186.617172241211 8.004317283630
-116.951713562012 -63.236640930176 -189.922622680664 4.763512611389
-20.386297225952 -73.103561401367 -193.526947021484 2.658803462982
-157.748214721680 -60.856819152832 -187.228424072266 6.788599967957
-140.916519165039 -68.271720886230 -207.293731689453 2.638652801514
-127.197685241699 -62.175796508789 -199.263656616211 1.441141247749
10.305459976196 -66.714691162109 -206.669555664063 2.720339536667
-164.910003662109 -65.850273132324 -199.747283935547 1.923194527626
7.465003013611 -73.770446777344 -211.485305786133 0.971948623657
9.553240776062 -76.912742614746 -215.590438842773 1.007736325264
-22.682062149048 -68.454978942871 -208.849517822266 2.859586954117
-10.290941238403 -70.066276550293 -213.066848754883 2.493236541748
-171.185989379883 -66.014541625977 -207.690521240234 5.384159088135
-163.416305541992 -62.231197357178 -212.453704833984 4.933691024780
-108.328491210938 -67.487289428711 -214.288787841797 7.971870422363
-105.070655822754 -64.148605346680 -224.009063720703 2.650834321976
-162.097152709961 -61.734523773193 -213.138381958008 5.975278854370
-111.791221618652 -65.992813110352 -218.635986328125 7.012577533722
-22.448183059692 -71.133476257324 -218.280258178711 0.776849150658
-129.032073974609 -64.620964050293 -225.470581054688 1.122264027596
-150.374984741211 -68.252227783203 -217.797790527344 3.285531997681
-13.871506690979 -72.873382568359 -229.204879760742 0.192425623536
-136.566040039063 -62.473190307617 -221.637527465820 6.212868213654
-130.829864501953 -59.114528656006 -222.497726440430 6.896262645721
-115.394912719727 -68.340675354004 -227.990875244141 1.907999873161
-6.234561920166 -68.717201232910 -231.508361816406 2.144276857376
-113.560745239258 -63.012325286865 -222.675704956055 5.734931945801
-162.476409912109 -71.455841064453 -215.308853149414 1.860013365746
-151.190917968750 -71.073616027832 -219.943908691406 3.195660829544
-169.509567260742 -65.424079895020 -222.091918945313 4.673147201538
-11.824202537537 -67.280548095703 -229.264053344727 1.852702975273
-14.521846771240 -56.815670013428 -230.201202392578 8.323808670044
71.674110412598 -59.881061553955 -230.979248046875 8.084095954895
-1.810845971107 -65.367874145508 -235.380615234375 1.608287453651
-148.834152221680 -63.089057922363 -227.952407836914 1.384719610214
-17.481822967529 -70.926864624023 -230.702911376953 2.113827228546
72.888389587402 -76.781356811523 -225.941848754883 4.086727619171
62.757553100586 -70.897659301758 -235.067321777344 2.282927751541
-133.794876098633 -65.203491210938 -225.705825805664 1.226142168045
-166.041244506836 -63.892189025879 -220.810211181641 4.209212303162
-115.294830322266 -61.272315979004 -227.170089721680 3.900606870651
-123.601097106934 -64.562644958496 -229.151992797852 0.993527889252
-175.086059570313 -58.807296752930 -226.852737426758 13.299819946289
-163.477066040039 -61.959026336670 -233.000045776367 6.017031669617
-138.555496215820 -63.490947723389 -236.839019775391 5.799376010895
-15.440317153931 -75.164428710938 -232.734924316406 3.410911321640
-8.175558090210 -66.635108947754 -245.136459350586 2.276249170303
-165.601409912109 -61.303161621094 -236.604827880859 6.786974906921
3.734626054764 -72.447105407715 -242.147766113281 1.409792900085
4.112105846405 -67.040756225586 -241.435165405273 2.588735580444
-170.083358764648 -63.108058929443 -236.305358886719 6.680262565613
7.231317043304 -68.365592956543 -243.282440185547 2.156461477280
45.772476196289 -68.353149414063 -251.449615478516 1.449664115906
46.570308685303 -65.414459228516 -256.600677490234 2.262372732162
-11.385375022888 -69.235420227051 -245.129974365234 1.870465636253
45.170463562012 -66.964973449707 -248.354797363281 2.216346740723
-168.462432861328 -64.468887329102 -250.308380126953 4.916191101074
-171.061904907227 -60.882095336914 -242.961700439453 9.133010864258
-169.570297241211 -66.563949584961 -239.954010009766 4.122736454010
49.408702850342 -66.999328613281 -258.450042724609 4.682100296021
-96.607521057129 -70.209327697754 -249.985763549805 3.133178949356
-129.598983764648 -63.381603240967 -247.377182006836 8.601975440979
-114.136192321777 -67.365356445313 -250.120223999023 6.685082435608
25.803615570068 -69.063323974609 -258.223327636719 1.026045203209
31.260887145996 -70.299156188965 -256.731018066406 0.864393770695
-102.026473999023 -65.665420532227 -248.891510009766 6.795456409454
-97.868553161621 -64.027740478516 -254.251358032227 4.378575801849
39.060432434082 -66.914070129395 -259.534515380859 1.383577942848
33.981094360352 -66.260780334473 -256.188110351563 1.212380051613
-163.606643676758 -64.953575134277 -254.633468627930 4.393131732941
27.744796752930 -64.930068969727 -255.155303955078 3.096108436584
-144.475738525391 -66.145843505859 -261.141632080078 2.637874364853
-124.393440246582 -60.617610931396 -254.417022705078 5.676476955414
-137.527404785156 -60.611759185791 -261.760131835938 5.850605964661
31.045978546143 -74.009414672852 -267.044647216797 7.257250785828
-134.458587646484 -68.196769714355 -259.300201416016 2.191809415817
-15.656099319458 -63.893295288086 -256.475341796875 5.440926551819
13.999530792236 -70.842124938965 -277.556915283203 5.212122440338
-20.961288452148 -65.824691772461 -268.264923095703 7.991475582123
18.081441879272 -63.896125793457 -286.979400634766 1.937570810318
-156.576217651367 -66.031341552734 -277.540618896484 5.708386421204
-18.911294937134 -71.761253356934 -275.234436035156 5.879879474640
-161.426284790039 -66.175117492676 -284.444885253906 4.696861267090
-134.279891967773 -63.105911254883 -280.015441894531 7.192395210266
-168.542190551758 -64.747390747070 -284.140502929688 5.199233531952
-131.478393554688 -63.631168365479 -281.000335693359 6.046627044678
-113.971153259277 -69.483261108398 -287.414031982422 0.645771026611
-16.435190200806 -67.650314331055 -290.274169921875 3.925543308258
-119.254730224609 -65.431022644043 -290.573791503906 0.417767733335
-126.581504821777 -71.412292480469 -286.344177246094 1.938305735588
-130.479293823242 -68.175682067871 -287.170837402344 2.597754001617
-145.107223510742 -60.698822021484 -285.210815429688 3.132472276688
-132.331146240234 -69.460586547852 -289.484497070313 3.867245674133
-167.589859008789 -64.623733520508 -282.746856689453 5.055648326874
-152.997802734375 -71.259635925293 -292.082153320313 2.934815406799
-160.738784790039 -62.819030761719 -291.122375488281 5.002647399902
-162.272705078125 -59.969627380371 -299.705108642578 10.711297988892
-167.981094360352 -60.790992736816 -295.807586669922 11.833036422729
-156.544479370117 -65.800865173340 -307.013214111328 3.523561000824
-158.126159667969 -65.186843872070 -308.023895263672 5.144198894501
37.154159545898 -73.370796203613 -20.651306152344 4.202937602997
48.467987060547 -76.408096313477 -22.690317153931 5.458495140076
35.138908386230 -69.523155212402 -34.886180877686 2.036377429962
55.744522094727 -71.503761291504 -33.922286987305 6.881233692169
35.770088195801 -70.159545898438 -40.543186187744 0.648969054222
45.868942260742 -79.275192260742 -38.152980804443 7.915562152863
-51.080516815186 -71.471260070801 -43.673221588135 4.638697147369
87.704681396484 -73.532867431641 -62.916725158691 4.976721763611
87.267738342285 -72.645500183105 -70.779960632324 1.574619293213
-92.003524780273 -64.687454223633 -61.300083160400 1.354841947556
-11.925878524780 -68.968482971191 -61.149879455566 2.357535123825
-83.531875610352 -73.658126831055 -64.296569824219 3.038445711136
99.526367187500 -71.577964782715 -74.063484191895 2.585405588150
-14.245745658875 -67.802482604980 -66.831954956055 1.355868458748
70.679168701172 -75.182060241699 -82.228012084961 1.379570960999
-37.817401885986 -72.407989501953 -76.242034912109 0.734668016434
-28.238504409790 -74.839462280273 -80.792831420898 2.730255126953
56.968288421631 -67.791618347168 -90.424865722656 2.894713401794
-46.446338653564 -80.419532775879 -88.011245727539 1.992669105530
63.091205596924 -67.414588928223 -82.458877563477 2.174658775330
54.950393676758 -70.584678649902 -87.479133605957 0.599096596241
49.954689025879 -76.646339416504 -95.230857849121 0.911732614040
67.625167846680 -70.788970947266 -96.395378112793 1.885326266289
59.339523315430 -70.989799499512 -103.384918212891 3.543975353241
105.349418640137 -68.262306213379 -100.202079772949 2.023418664932
104.436576843262 -77.857810974121 -100.611984252930 4.391197204590
58.648311614990 -77.242874145508 -101.400337219238 4.432195663452
110.414054870605 -71.628440856934 -106.058036804199 1.343369841576
