52.689090728760 -70.577560424805 -108.099433898926 1.995386242867
116.440719604492 -76.205131530762 -115.344161987305 5.642053127289
111.083168029785 -71.952140808105 -118.923255920410 0.933344960213
-75.039443969727 -61.477771759033 -111.083999633789 2.236290216446
-70.926307678223 -70.797157287598 -111.208694458008 4.369787216187
46.034267425537 -71.894432067871 -117.781440734863 0.968913555145
120.600013732910 -66.734558105469 -119.749664306641 7.387162208557
120.203430175781 -69.186622619629 -123.946098327637 5.334951877594
-75.895019531250 -71.656654357910 -122.705848693848 3.327844619751
112.437026977539 -71.250648498535 -123.568801879883 1.980356335640
-64.248275756836 -72.418083190918 -133.272644042969 4.075246334076
-85.839401245117 -68.155853271484 -124.115028381348 1.428309679031
-70.706245422363 -69.923126220703 -126.279861450195 4.770940780640
-53.529033660889 -65.092208862305 -121.983352661133 2.092054605484
40.517177581787 -71.480010986328 -130.870513916016 1.691000699997
46.968448638916 -70.905815124512 -135.009384155273 7.766023635864
-71.306938171387 -73.566802978516 -131.393142700195 3.913599014282
31.900470733643 -69.160140991211 -129.485153198242 2.164006233215
107.504074096680 -75.833786010742 -136.232009887695 3.122919797897
-34.686439514160 -73.532112121582 -147.584518432617 5.866206645966
28.579622268677 -72.034950256348 -144.895996093750 1.880720019341
112.474647521973 -65.432846069336 -149.122497558594 4.068117141724
38.714851379395 -75.455444335938 -144.400436401367 3.407489538193
114.215103149414 -75.377311706543 -146.222351074219 1.873601198196
-52.734294891357 -72.832557678223 -144.648971557617 2.454845905304
-63.643047332764 -76.149017333984 -146.670349121094 4.526081085205
-51.315795898438 -76.562118530273 -151.865234375000 0.770792961121
-43.890800476074 -71.838607788086 -167.596786499023 0.887551069260
3.034461021423 -70.459640502930 -151.997070312500 4.852324962616
112.483398437500 -67.122962951660 -157.026977539063 3.482143163681
109.786399841309 -71.342330932617 -164.401779174805 1.291313171387
12.097637176514 -66.561981201172 -160.070831298828 3.840290546417
2.510205984116 -71.477912902832 -158.707336425781 1.697917699814
17.339513778687 -68.692916870117 -159.980743408203 3.461792230606
22.472187042236 -71.240242004395 -147.002578735352 1.553284645081
119.007019042969 -78.917922973633 -167.626586914063 6.075694561005
108.623451232910 -76.317062377930 -176.228561401367 1.549061536789
29.509998321533 -72.544067382813 -173.819473266602 1.425893187523
29.838680267334 -71.736686706543 -164.962936401367 1.712188124657
118.396438598633 -73.564292907715 -164.797515869141 4.143596172333
-30.009706497192 -71.048294067383 -171.790420532227 1.751388311386
115.507858276367 -71.617126464844 -174.032333374023 2.753271818161
23.334138870239 -67.487281799316 -180.093490600586 0.973070740700
17.040645599365 -76.665054321289 -164.527450561523 3.534185171127
110.323356628418 -72.542358398438 -181.372726440430 1.044010043144
25.177888870239 -73.748703002930 -169.583847045898 2.717865705490
111.934532165527 -69.751846313477 -183.399566650391 2.813707828522
-38.985538482666 -70.618133544922 -175.403945922852 2.571470260620
29.578193664551 -69.311141967773 -171.481109619141 2.330001831055
110.164840698242 -73.354003906250 -188.759292602539 1.894947171211
26.358606338501 -70.469459533691 -175.906219482422 2.844915866852
-151.558914184570 -67.910995483398 -174.011718750000 2.388131380081
-31.736280441284 -74.344215393066 -186.277160644531 2.211653470993
26.781576156616 -76.199699401855 -185.839447021484 1.888933062553
-111.706214904785 -73.371482849121 -191.497467041016 3.289886474609
-112.258552551270 -75.380020141602 -185.436141967773 6.035966873169
22.789430618286 -69.491485595703 -193.366333007813 1.687047004700
13.691109657288 -74.998321533203 -186.387252807617 1.422786593437
-24.868350982666 -77.361907958984 -190.686080932617 1.678230881691
-26.083225250244 -74.053237915039 -184.518798828125 3.478423595428
-23.257846832275 -75.912567138672 -183.975463867188 1.497656464577
23.741498947144 -77.713653564453 -177.961791992188 1.009815096855
-152.256393432617 -72.450225830078 -187.660659790039 2.029316663742
-145.769973754883 -76.204704284668 -196.403259277344 2.277585983276
-140.142135620117 -72.706214904785 -187.041900634766 2.033885240555
-15.972567558289 -69.163803100586 -190.587097167969 2.377844572067
17.685447692871 -73.774330139160 -198.366867065430 2.978828430176
100.060691833496 -76.149482727051 -198.611892700195 2.282422065735
-115.210586547852 -73.049285888672 -200.196380615234 2.452315330505
17.067733764648 -71.322441101074 -202.551147460938 1.502638578415
-14.583617210388 -72.056396484375 -193.705551147461 2.132159948349
-17.365856170654 -72.487129211426 -193.346771240234 0.749195337296
96.855583190918 -73.910247802734 -204.062011718750 1.677841901779
9.074707984924 -77.006599426270 -197.470947265625 2.574635028839
-26.673021316528 -72.941703796387 -192.458038330078 1.590235948563
-120.277008056641 -75.470382690430 -198.410842895508 4.256543159485
-133.326705932617 -71.321411132813 -193.822921752930 2.444559335709
-107.620101928711 -70.786445617676 -204.686431884766 5.493137359619
-145.850036621094 -73.776290893555 -199.076751708984 1.354450702667
22.880298614502 -76.046127319336 -197.001358032227 2.225523471832
96.713005065918 -78.257194519043 -210.272430419922 1.928442716599
-165.709136962891 -72.369338989258 -200.802627563477 1.633135557175
102.861831665039 -75.084342956543 -205.369812011719 2.268925666809
-14.412077903748 -73.944526672363 -210.141784667969 2.887671709061
91.202743530273 -82.905815124512 -216.168884277344 5.986815452576
92.397224426270 -71.806427001953 -221.132064819336 2.694040536880
10.997236251831 -72.795578002930 -211.269119262695 2.206804990768
15.099340438843 -75.020187377930 -209.973999023438 3.212313890457
10.127749443054 -75.030540466309 -212.953826904297 1.806863903999
-8.138813018799 -72.985832214355 -217.229507446289 3.568844318390
-98.759239196777 -73.211097717285 -215.475738525391 1.897039055824
-6.345180988312 -77.283927917480 -220.158569335938 1.833585381508
92.596839904785 -73.511482238770 -215.786636352539 1.548919916153
-91.531364440918 -77.776931762695 -218.341049194336 2.338211297989
-101.129371643066 -77.573516845703 -217.332702636719 4.958644866943
-95.358024597168 -71.811241149902 -215.828231811523 1.554591417313
90.145370483398 -80.159698486328 -223.557525634766 6.377087116241
-134.091415405273 -78.336059570313 -222.470886230469 5.215522289276
-132.223587036133 -65.021232604980 -228.685363769531 1.675267338753
-120.281898498535 -73.700782775879 -223.883575439453 3.424205541611
-112.486770629883 -71.767814636230 -221.328308105469 4.398901939392
-131.190277099609 -70.482925415039 -215.103378295898 9.305229187012
-105.859886169434 -83.197334289551 -223.214782714844 10.066191673279
-114.062309265137 -69.880264282227 -224.605453491211 2.053512573242
-12.724245071411 -71.353515625000 -222.621017456055 1.380374550819
-20.914026260376 -78.179412841797 -225.531005859375 1.807983517647
-0.785091996193 -75.826179504395 -232.465454101563 2.490994215012
-7.981815814972 -72.648933410645 -228.787231445313 1.480094909668
16.160461425781 -77.753532409668 -231.199798583984 2.167603015900
-18.647544860840 -76.603462219238 -225.425872802734 1.777491450310
-159.242019653320 -75.252593994141 -217.868194580078 5.174225807190
-2.020097017288 -73.914283752441 -228.903137207031 2.624184131622
83.112236022949 -76.610290527344 -230.179565429688 4.178597927094
7.489106178284 -73.451881408691 -236.808090209961 1.842711806297
-10.571463584900 -73.798995971680 -225.721588134766 0.931273818016
-154.376174926758 -68.973495483398 -226.572723388672 1.173679471016
-137.470962524414 -77.091865539551 -228.793548583984 2.085864543915
70.784286499023 -70.565887451172 -238.093521118164 1.995103597641
-7.850876808167 -73.926185607910 -232.013015747070 1.403535485268
0.666432976723 -73.556282043457 -234.874954223633 2.068360090256
74.120864868164 -75.319656372070 -241.319320678711 4.621646404266
77.539237976074 -76.756408691406 -238.334869384766 5.685967922211
65.853736877441 -79.921073913574 -236.219329833984 5.623115062714
-3.258650064468 -71.468177795410 -234.585754394531 0.469016134739
53.996154785156 -75.744697570801 -238.660308837891 5.594623088837
-15.097844123840 -74.292579650879 -237.168991088867 1.288338780403
-15.285919189453 -72.805259704590 -238.491241455078 1.989621639252
9.228981971741 -75.986076354980 -238.011383056641 0.506731748581
66.095176696777 -75.444328308105 -248.211273193359 5.854285717010
58.907470703125 -76.339019775391 -239.958404541016 3.427243709564
53.665813446045 -71.066032409668 -247.972335815430 1.134475588799
61.875297546387 -79.289726257324 -245.614608764648 6.466405391693
-17.491415023804 -71.415222167969 -244.310760498047 3.044389963150
-84.471794128418 -71.673713684082 -243.583007812500 6.429347038269
-78.022010803223 -69.890037536621 -250.791000366211 0.813720226288
40.760242462158 -75.278961181641 -251.420043945313 4.402173042297
-143.009475708008 -70.140464782715 -243.422012329102 1.721113443375
40.638565063477 -76.703681945801 -259.793731689453 7.007138729095
-84.151695251465 -75.956321716309 -248.721710205078 3.527283430099
-154.035552978516 -76.217666625977 -251.035339355469 3.855987787247
-144.868392944336 -73.726814270020 -250.874710083008 1.714328289032
47.912147521973 -77.693733215332 -252.076446533203 6.246639728546
-128.312286376953 -73.242973327637 -246.428024291992 8.359141349792
-118.641136169434 -75.066146850586 -252.062408447266 4.099388599396
-96.686378479004 -74.695716857910 -249.271545410156 4.859571933746
-18.495861053467 -82.789520263672 -252.806930541992 8.906445503235
31.575349807739 -76.762725830078 -260.187316894531 6.481336116791
19.880201339722 -80.826148986816 -261.319519042969 1.639186382294
-155.826004028320 -74.107192993164 -249.418380737305 2.599270343781
-113.652130126953 -75.110092163086 -260.021453857422 2.202096700668
-12.319105148315 -77.464302062988 -256.941101074219 0.460971444845
-135.569335937500 -73.933937072754 -261.074066162109 0.782992780209
-13.011743545532 -74.044868469238 -271.911651611328 1.195994853973
-162.674545288086 -75.492393493652 -274.522064208984 3.315507650375
-10.882046699524 -71.125480651855 -274.025299072266 1.976314783096
-165.071609497070 -73.375076293945 -285.523376464844 1.988682985306
-158.041534423828 -75.232307434082 -271.704742431641 3.050763845444
-153.524322509766 -73.719787597656 -280.196960449219 3.069820165634
-171.176422119141 -74.612495422363 -277.408294677734 4.044675350189
19.301231384277 -71.013061523438 -288.162567138672 4.651788711548
-106.876419067383 -81.430259704590 -282.206695556641 9.931669235229
-90.347442626953 -73.959213256836 -281.881042480469 5.308786392212
-172.431198120117 -74.862525939941 -278.005157470703 5.105175971985
-90.407867431641 -78.560707092285 -286.617584228516 4.464322090149
-159.580932617188 -81.775863647461 -283.775909423828 5.156073570251
-77.835563659668 -78.937751770020 -289.548004150391 3.117743730545
-68.557731628418 -76.738456726074 -287.549896240234 0.929201185703
-83.468788146973 -74.562820434570 -287.175476074219 1.153284430504
-4.168878078461 -71.221191406250 -286.559295654297 2.123903512955
-86.313682556152 -77.848457336426 -289.074493408203 2.731750965118
-98.629402160645 -77.075820922852 -287.468322753906 2.351073741913
-120.330482482910 -74.999885559082 -289.136260986328 1.117464900017
-118.068168640137 -73.935165405273 -291.652191162109 2.238674879074
-141.737258911133 -70.463714599609 -287.667144775391 2.640049695969
-143.511276245117 -84.614242553711 -294.427703857422 3.315943479538
-147.697158813477 -82.800239562988 -305.371429443359 3.987538576126
32.415981292725 -67.676139831543 -18.033470153809 1.139865159988
35.581821441650 -64.008468627930 -25.374897003174 7.987862586975
36.580333709717 -71.493659973145 -16.911073684692 0.535564720631
53.170627593994 -69.856452941895 -28.272060394287 3.167279243469
26.305366516113 -70.586311340332 -31.572906494141 1.014913082123
-75.699394226074 -66.673919677734 -48.411376953125 0.926420450211
88.936752319336 -68.878494262695 -66.910003662109 1.916318893433
-7.222380161285 -67.814163208008 -66.436172485352 4.810830593109
106.420623779297 -72.409370422363 -74.073768615723 7.119045734406
99.474136352539 -64.999748229980 -81.957489013672 4.319988727570
78.520317077637 -76.192398071289 -84.267173767090 2.349523544312
72.393302917480 -67.429290771484 -88.939796447754 6.115964889526
-45.838493347168 -67.744209289551 -79.894462585449 2.256761312485
63.127410888672 -69.775848388672 -81.855613708496 2.555368661880
-96.122550964355 -69.518905639648 -85.485633850098 1.448536634445
-44.094112396240 -70.073921203613 -86.876327514648 4.177877902985
-52.603298187256 -72.944465637207 -81.117835998535 5.503983974457
98.808776855469 -70.982841491699 -99.085212707520 1.695631384850
59.831756591797 -71.295509338379 -103.749565124512 4.146281242371
65.091598510742 -66.413154602051 -92.747802734375 1.958259940147
-90.453460693359 -68.159484863281 -91.362297058105 5.910995960236
113.293243408203 -66.103881835938 -96.325149536133 6.403097152710
51.746067047119 -69.546287536621 -93.980552673340 1.650891780853
105.523117065430 -67.710525512695 -99.469650268555 2.023851156235
109.825637817383 -69.943161010742 -109.700096130371 1.926306843758
103.621452331543 -68.719131469727 -105.858734130859 1.262488722801
78.895301818848 -69.264900207520 -106.485679626465 1.672408699989
88.767364501953 -69.545776367188 -109.840957641602 3.777839422226
49.422592163086 -73.578025817871 -110.670639038086 1.084956526756
110.763458251953 -67.645957946777 -110.752929687500 1.104900836945
50.619613647461 -71.106704711914 -110.534881591797 2.447161674500
50.795391082764 -67.109558105469 -102.346977233887 2.141495704651
109.135719299316 -74.001808166504 -119.921615600586 1.362784624100
-75.809135437012 -65.600456237793 -104.303581237793 2.019192695618
51.138988494873 -67.906021118164 -115.599342346191 5.054988384247
38.598331451416 -71.225433349609 -111.579032897949 1.377995014191
110.804801940918 -72.059097290039 -110.221763610840 2.053796291351
46.667690277100 -69.622505187988 -114.308296203613 1.054262280464
-86.571029663086 -68.579116821289 -116.422477722168 2.631254434586
-94.662033081055 -68.606224060059 -113.134452819824 3.657310009003
112.410308837891 -67.823608398438 -125.844558715820 1.842452764511
-88.328834533691 -74.360382080078 -112.242713928223 2.180044651031
42.897926330566 -69.688438415527 -124.277404785156 2.827809810638
40.097091674805 -70.047447204590 -117.432098388672 2.235975027084
-74.784683227539 -71.849182128906 -119.775825500488 4.571015834808
31.004957199097 -66.977676391602 -127.952850341797 3.307087182999
112.103652954102 -71.007003784180 -137.013214111328 0.776424944401
-44.383056640625 -71.635826110840 -137.250228881836 2.161182641983
-86.438194274902 -72.018821716309 -128.265319824219 2.269272089005
37.235961914063 -71.755500793457 -139.231277465820 0.870560586452
-83.160751342773 -71.110877990723 -132.368072509766 3.284684658051
-88.057449340820 -73.687744140625 -130.747009277344 3.658172607422
-44.598060607910 -73.570358276367 -133.127639770508 4.577882766724
-70.471649169922 -72.084289550781 -135.468536376953 2.710324048996
-47.043785095215 -70.796630859375 -137.111358642578 1.401650905609
116.995307922363 -68.708885192871 -140.948760986328 2.163061857224
-72.532882690430 -65.118972778320 -138.275909423828 1.563576102257
39.062351226807 -72.554046630859 -129.031066894531 1.319512009621
-72.158233642578 -65.425750732422 -135.936141967773 1.225414514542
-76.596176147461 -69.140487670898 -128.587020874023 1.219227075577
-84.069122314453 -71.918205261230 -132.159301757813 3.147120952606
-56.242938995361 -70.020889282227 -149.943206787109 2.014270305634
33.675888061523 -69.171966552734 -152.271102905273 2.656065464020
36.547248840332 -71.671722412109 -153.038208007813 4.130106449127
23.119207382202 -69.535224914551 -145.178344726563 1.685218811035
115.593353271484 -75.987152099609 -153.500885009766 1.273357033730
-95.915985107422 -79.251853942871 -152.891387939453 10.556924819946
20.213699340820 -71.525772094727 -144.791671752930 3.050335168839
-66.273147583008 -74.421829223633 -142.657638549805 4.140089035034
25.491439819336 -69.597663879395 -148.711929321289 1.004088759422
-41.160568237305 -69.020362854004 -151.215744018555 2.751245498657
8.857816696167 -67.082817077637 -147.273117065430 4.421489238739
8.096763610840 -70.025337219238 -155.283233642578 1.528338074684
18.401395797729 -70.408050537109 -161.378753662109 2.373444795609
-44.776393890381 -73.141960144043 -163.290298461914 1.407706379890
-39.050407409668 -64.084968566895 -150.835617065430 6.457190990448
-45.434726715088 -69.596755981445 -153.520812988281 0.755640029907
-98.053428649902 -70.099105834961 -165.785385131836 3.589843034744
17.855766296387 -67.163887023926 -171.106765747070 1.985738754272
-36.340095520020 -74.597892761230 -172.360900878906 2.276528835297
13.591302871704 -62.677749633789 -178.120223999023 6.379854679108
-145.220214843750 -76.899757385254 -165.188110351563 11.350346565247
-33.923774719238 -66.270362854004 -174.250930786133 2.360630035400
-149.821533203125 -67.281433105469 -171.053237915039 3.878465890884
19.376388549805 -74.045150756836 -180.516082763672 2.358576536179
-32.223342895508 -77.803688049316 -168.919158935547 1.728314876556
-107.207054138184 -75.571266174316 -179.284927368164 6.041137695313
-102.378196716309 -71.902107238770 -178.571868896484 4.578650474548
-33.877471923828 -69.591011047363 -178.030654907227 1.977887153625
-15.539431571960 -72.347938537598 -188.645324707031 3.513319015503
14.366853713989 -73.634590148926 -188.799026489258 0.874701261520
21.433132171631 -72.576011657715 -196.249572753906 1.240502476692
19.440496444702 -65.275817871094 -188.140609741211 1.781007885933
-137.559860229492 -71.720825195313 -179.398483276367 4.699108600616
17.093639373779 -72.607666015625 -194.769622802734 3.874356746674
11.107533454895 -73.637008666992 -197.719955444336 1.533662796021
-139.704940795898 -68.941345214844 -191.817581176758 2.658967018127
-117.906005859375 -73.977745056152 -196.052230834961 3.465631723404
16.506944656372 -69.665443420410 -198.431884765625 1.209245800972
-110.802803039551 -75.557006835938 -186.961563110352 5.685884952545
-108.126319885254 -74.711929321289 -187.870697021484 4.830461025238
-162.009979248047 -76.213340759277 -196.060836791992 5.099364757538
-14.610040664673 -79.443298339844 -203.381591796875 1.632876992226
16.648426055908 -67.885627746582 -202.526687622070 1.205014228821
-136.777160644531 -68.015930175781 -193.393112182617 4.117545127869
-133.957275390625 -74.272293090820 -204.071792602539 3.030495643616
-18.882181167603 -70.932365417480 -205.481903076172 1.516772627831
-11.670729637146 -69.624832153320 -203.524795532227 0.716989219189
-13.896059036255 -75.331596374512 -209.677551269531 2.985361814499
-146.018051147461 -76.365684509277 -203.149993896484 2.650219917297
-20.816148757935 -75.476005554199 -199.556625366211 2.026715278625
-11.813617706299 -69.544364929199 -207.833969116211 2.543891191483
15.836885452271 -71.817123413086 -208.285278320313 1.710995197296
-10.157466888428 -73.233444213867 -206.211380004883 1.530828475952
11.437632560730 -68.247947692871 -212.345138549805 0.733800351620
-6.592240810394 -76.705108642578 -216.238830566406 1.439324736595
-14.025853157043 -76.765922546387 -209.462402343750 3.271161556244
9.667833328247 -73.522132873535 -225.519104003906 2.362037420273
-5.139175891876 -73.763816833496 -217.750244140625 1.614475369453
13.104670524597 -71.736251831055 -221.493453979492 1.342151045799
-4.195804119110 -76.463890075684 -222.123199462891 1.940520882607
-159.247024536133 -73.956291198730 -214.788955688477 3.554684638977
85.525428771973 -74.858871459961 -223.694381713867 1.776334285736
-134.183105468750 -72.447151184082 -215.883346557617 9.118410110474
-134.076217651367 -72.688629150391 -219.534500122070 5.513057231903
-8.143637657166 -73.395431518555 -227.821716308594 1.240435242653
13.647698402405 -76.889137268066 -234.526916503906 3.495772838593
-149.495574951172 -70.933120727539 -215.381683349609 2.131249427795
85.108352661133 -69.925704956055 -224.116363525391 2.700420618057
-8.705717086792 -73.984748840332 -222.768295288086 2.477906942368
3.859565019608 -75.627464294434 -226.874114990234 1.098307013512
70.934036254883 -72.785522460938 -229.856277465820 0.601965665817
5.201600074768 -76.434753417969 -231.631027221680 1.496701240540
-18.172344207764 -70.083435058594 -229.791397094727 1.947421193123
-120.211227416992 -78.255752563477 -232.804061889648 5.915694713593
-5.768349170685 -74.054855346680 -237.435714721680 1.214969635010
-1.536846041679 -75.619682312012 -231.825927734375 1.549119830132
68.829864501953 -76.043769836426 -236.316436767578 2.395905733109
-163.286392211914 -73.295936584473 -232.707000732422 0.933097779751
-9.560024261475 -72.589927673340 -246.519073486328 1.304922938347
-166.110412597656 -75.550102233887 -233.816040039063 3.259112119675
7.846476078033 -75.737930297852 -244.490081787109 0.891775727272
-167.376678466797 -73.266014099121 -232.083801269531 2.828341722488
-155.237823486328 -69.671386718750 -236.837814331055 1.370972871780
53.448741912842 -80.240142822266 -254.308349609375 9.888764381409
62.990859985352 -71.926971435547 -245.230621337891 1.792456865311
53.475612640381 -73.646804809570 -244.270492553711 2.742205858231
48.896633148193 -79.129859924316 -248.842041015625 6.808301448822
-161.259399414063 -73.042991638184 -240.390106201172 1.379747390747
-151.725738525391 -74.906738281250 -244.716735839844 2.037420511246
-16.323600769043 -73.709495544434 -245.306854248047 3.044151782990
-155.112854003906 -72.120864868164 -242.154357910156 3.761423110962
19.559013366699 -77.415687561035 -256.787536621094 1.529520869255
-165.746887207031 -72.594787597656 -245.537017822266 1.931036233902
-170.422607421875 -67.122581481934 -237.352157592773 4.319787979126
-80.612663269043 -71.786628723145 -248.855834960938 1.161129593849
-173.139160156250 -75.638565063477 -259.933197021484 7.035597324371
-87.134704589844 -76.466438293457 -257.569702148438 3.356813669205
35.188964843750 -68.149597167969 -249.324874877930 3.264402151108
23.978752136230 -78.589324951172 -255.979782104492 4.048024177551
-158.208694458008 -70.525703430176 -253.117782592773 2.423586130142
-103.489707946777 -70.316833496094 -257.470764160156 2.830487251282
38.523429870605 -73.619094848633 -259.167449951172 3.725943803787
-101.938148498535 -74.396453857422 -254.719696044922 2.003675222397
-151.839889526367 -71.715545654297 -252.279449462891 1.920264363289
-107.413391113281 -70.776664733887 -253.433074951172 2.794348955154
-162.982040405273 -74.236557006836 -252.372177124023 1.954336285591
-114.335693359375 -75.615341186523 -257.571594238281 2.280924320221
-156.119766235352 -75.814407348633 -263.558532714844 2.118961572647
-158.401763916016 -77.040733337402 -257.250885009766 3.971396207809
-168.263320922852 -78.522384643555 -259.056610107422 5.625879287720
-160.283676147461 -74.868133544922 -259.910491943359 1.233378887177
-166.907531738281 -70.403091430664 -262.761718750000 1.103109121323
-165.301895141602 -67.932090759277 -261.608367919922 1.584926724434
22.887121200562 -76.000595092773 -263.463836669922 1.567576885223
-149.529144287109 -72.454589843750 -262.963409423828 2.834593772888
-150.401611328125 -73.060447692871 -283.104919433594 2.325713872910
16.174821853638 -83.274108886719 -279.547027587891 5.304407596588
-8.798409461975 -74.021888732910 -274.990631103516 2.396922588348
-127.970039367676 -79.537300109863 -280.099578857422 7.021791934967
-139.287506103516 -82.779495239258 -283.997497558594 3.910600185394
-139.947921752930 -76.394935607910 -281.197631835938 5.379718780518
-131.622070312500 -70.797508239746 -279.970733642578 4.326358795166
-117.753959655762 -74.723274230957 -284.709930419922 3.159508705139
-109.997138977051 -78.284179687500 -282.874053955078 6.850303173065
10.577097892761 -74.246276855469 -292.181427001953 3.131082057953
-92.599479675293 -73.584777832031 -280.782623291016 6.595796108246
-147.305862426758 -77.372695922852 -290.353332519531 1.659282326698
-100.894912719727 -72.693161010742 -284.428588867188 2.731468439102
-131.774810791016 -74.857551574707 -287.343688964844 2.154337882996
10.568593978882 -82.680000305176 -287.727539062500 5.446475505829
-117.613433837891 -79.244163513184 -290.169799804688 2.747659683228
-0.172784999013 -76.370872497559 -287.296783447266 1.572574496269
-144.271545410156 -78.192596435547 -283.383117675781 1.125776529312
-159.063461303711 -78.833740234375 -297.090332031250 5.724386692047
-168.002716064453 -76.959068298340 -301.445922851563 11.607480049133
-154.964218139648 -77.186935424805 -305.225158691406 1.548487901688
55.177982330322 -73.080101013184 -25.940338134766 5.662293910980
25.348299026489 -67.978813171387 -31.082405090332 2.477636337280
41.013648986816 -69.521553039551 -38.426273345947 2.341043233871
-45.402797698975 -66.224670410156 -50.194850921631 3.671187639236
-7.835194110870 -65.421157836914 -60.902793884277 3.209619760513
98.693481445313 -75.135574340820 -77.805107116699 2.785871505737
70.900863647461 -65.909042358398 -68.141349792480 2.181846618652
-14.911458015442 -69.870689392090 -72.980445861816 2.708220243454
-88.428436279297 -66.863265991211 -77.472534179688 7.149410724640
-33.267948150635 -69.204254150391 -78.393898010254 2.460455894470
67.878044128418 -70.328285217285 -81.051910400391 1.331756353378
59.975135803223 -76.385604858398 -83.392753601074 6.353029727936
61.645359039307 -71.726799011230 -87.791793823242 2.157706499100
-51.392345428467 -71.930816650391 -81.431114196777 4.577894210815
72.941162109375 -67.636573791504 -88.684394836426 6.353715419769
48.958709716797 -74.999549865723 -96.254989624023 1.439889311790
70.806793212891 -73.577079772949 -90.510185241699 2.146651744843
-58.642307281494 -67.543205261230 -94.905822753906 4.761188030243
59.115932464600 -64.455970764160 -98.255798339844 1.731764197350
51.126487731934 -71.944656372070 -98.097885131836 2.778892278671
107.839988708496 -74.224128723145 -96.092414855957 2.431427717209
-66.438659667969 -77.115806579590 -96.095481872559 2.197365045547
114.611671447754 -72.153671264648 -104.155769348145 4.307476520538
-76.429695129395 -66.621658325195 -90.251762390137 9.527468681335
60.142986297607 -71.810668945313 -108.501373291016 7.323291301727
54.214065551758 -67.963737487793 -102.918685913086 1.609520554543
100.218757629395 -69.326705932617 -100.330261230469 1.491526961327
91.714347839355 -60.997798919678 -117.189773559570 7.976766586304
60.646732330322 -74.173934936523 -104.835006713867 5.743474483490
-65.180923461914 -71.051162719727 -101.726295471191 4.394467830658
-77.185142517090 -70.854469299316 -105.856948852539 3.102399349213
-81.828773498535 -73.411048889160 -116.846160888672 3.275026798248
-91.495269775391 -79.821166992188 -111.332908630371 2.923099279404
104.514297485352 -72.727439880371 -116.400588989258 2.358531951904
-83.070137023926 -66.115699768066 -116.603897094727 0.968490660191
-76.526649475098 -66.525497436523 -116.408279418945 1.982638597488
114.649566650391 -68.087707519531 -119.169815063477 1.927479267120
-59.712333679199 -63.846233367920 -114.764656066895 2.417530536652
114.943534851074 -74.870025634766 -133.642669677734 1.541815400124
110.479980468750 -70.464706420898 -132.855606079102 1.588059782982
116.277709960938 -70.008087158203 -118.819534301758 2.725266933441
-91.184097290039 -67.518455505371 -129.393035888672 1.846904277802
-50.985912322998 -65.097229003906 -136.182586669922 1.154158473015
-73.445182800293 -73.776626586914 -143.278350830078 1.342832326889
-66.166511535645 -67.307762145996 -148.101547241211 3.475571870804
-71.274986267090 -68.703239440918 -140.448944091797 1.036188602448
-50.629936218262 -65.679687500000 -145.853515625000 2.125771045685
-45.306846618652 -67.853355407715 -150.612747192383 2.132454872131
22.404455184937 -73.459762573242 -144.476379394531 1.169387817383
-92.542922973633 -64.479545593262 -153.375381469727 1.918413281441
-40.562400817871 -74.879417419434 -145.583496093750 2.567913055420
-52.843070983887 -69.516403198242 -150.382293701172 0.824319183826
-42.757953643799 -65.166099548340 -154.049163818359 3.026049852371
30.187685012817 -76.348243713379 -158.632827758789 0.545541822910
-45.889984130859 -70.384742736816 -154.339675903320 0.823552012444
-93.268142700195 -71.602012634277 -144.167236328125 3.076317071915
-40.001987457275 -69.770431518555 -158.225738525391 2.537433862686
27.093242645264 -68.092582702637 -158.728836059570 2.293993711472
-98.272605895996 -71.940299987793 -160.473678588867 3.524121046066
24.055122375488 -69.438713073730 -158.786499023438 0.802831053734
-102.250709533691 -63.993610382080 -167.605453491211 2.177783727646
-98.445602416992 -65.600967407227 -160.569473266602 1.659310579300
24.328367233276 -64.340293884277 -169.809982299805 3.332908630371
27.285764694214 -68.264907836914 -167.567672729492 0.887151002884
-105.898071289063 -73.666824340820 -169.865493774414 4.952413558960
-142.833251953125 -70.574165344238 -170.092086791992 5.527470588684
-24.090095520020 -69.319000244141 -185.011764526367 2.192017793655
-19.642660140991 -67.702392578125 -182.242019653320 3.828369140625
-112.059158325195 -68.987480163574 -185.563674926758 0.721394300461
-139.400787353516 -70.486335754395 -184.138732910156 3.190140247345
-103.423439025879 -75.249076843262 -175.972152709961 6.526591300964
-148.217025756836 -76.552825927734 -193.546340942383 1.484544873238
-127.110275268555 -74.758956909180 -187.507507324219 8.775700569153
-136.599334716797 -70.186538696289 -190.284652709961 5.382105350494
-20.516162872314 -65.555816650391 -192.107635498047 3.037512302399
-118.250892639160 -72.055183410645 -186.348052978516 7.040509700775
-112.360267639160 -67.910644531250 -189.806640625000 0.870077133179
-15.553244590759 -75.598724365234 -191.934234619141 2.366728544235
-153.229400634766 -66.387878417969 -187.645080566406 1.157456874847
-136.002838134766 -74.418113708496 -207.130050659180 5.732512950897
-122.523475646973 -67.583473205566 -199.291488647461 2.805446624756
15.122961044312 -69.152839660645 -205.085311889648 1.662678003311
-160.130004882813 -72.194305419922 -199.958282470703 2.321675539017
12.505103111267 -76.515029907227 -209.556152343750 1.776740550995
14.713238716125 -79.813529968262 -213.471603393555 2.395652532578
-17.787424087524 -71.805374145508 -207.499572753906 1.588914990425
-5.315108776093 -73.330558776855 -211.504226684570 1.388636827469
-166.311111450195 -72.921447753906 -207.944229125977 3.060229063034
-158.580795288086 -69.201408386230 -212.820022583008 0.928346753120
-103.366500854492 -73.203720092773 -213.832336425781 5.572321891785
-100.080482482910 -70.293533325195 -223.680007934570 0.960545957088
-157.266250610352 -68.708839416504 -213.516433715820 1.518913269043
-106.814956665039 -72.020561218262 -218.285446166992 3.944318532944
-17.384489059448 -74.961143493652 -216.775695800781 2.713237285614
-124.006065368652 -71.423522949219 -225.352996826172 0.828430116177
-145.341049194336 -75.171531677246 -217.714401245117 0.825996100903
-8.647247314453 -77.054107666016 -227.509490966797 2.479575634003
-131.631362915039 -69.264442443848 -221.711700439453 2.649494171143
-125.967414855957 -65.816184997559 -222.688110351563 2.171300172806
-110.256980895996 -74.935661315918 -227.541122436523 2.609887123108
-1.086006999016 -72.837982177734 -229.949691772461 3.072558403015
-108.609573364258 -69.296737670898 -222.491867065430 2.093468666077
-157.389968872070 -78.535667419434 -215.182800292969 6.763261795044
-146.065628051758 -78.119064331055 -219.719116210938 2.346971035004
-164.488265991211 -73.035354614258 -222.339477539063 2.536796331406
-6.732975006104 -71.423667907715 -227.838668823242 1.224669575691
-9.668042182922 -61.089923858643 -229.344741821289 7.037743568420
76.579765319824 -62.093769073486 -229.106201171875 5.973961353302
3.299839973450 -69.586608886719 -233.946517944336 1.546701669693
-143.809982299805 -70.504051208496 -228.107635498047 2.937982082367
-12.285852432251 -75.276000976563 -229.142364501953 1.689496517181
78.139152526855 -78.676620483398 -223.186172485352 3.598004102707
67.973945617676 -73.520530700684 -232.705062866211 3.206084728241
-128.750732421875 -72.133102416992 -225.604995727539 2.058484554291
-161.071899414063 -71.355369567871 -221.104660034180 3.152316570282
-110.334182739258 -67.833999633789 -227.087554931641 2.106569051743
-118.537185668945 -71.423416137695 -228.978332519531 3.305863380432
-170.166931152344 -66.811042785645 -227.492645263672 5.199663162231
-158.418289184570 -69.992897033691 -233.352371215820 3.421766281128
-133.425949096680 -71.114471435547 -236.858825683594 2.344376325607
-10.121568679810 -79.561988830566 -230.931198120117 3.791958332062
-2.923460960388 -71.510734558105 -243.686141967773 2.308730363846
-160.517181396484 -69.576057434082 -237.007263183594 2.497265338898
9.087394714355 -76.869079589844 -240.281494140625 1.514024853706
9.328224182129 -71.425552368164 -239.846878051758 1.632213115692
-164.958023071289 -71.471557617188 -236.658996582031 2.325148582458
12.498516082764 -72.767807006836 -241.591781616211 1.327778220177
51.117401123047 -72.239898681641 -249.365295410156 1.020734071732
51.902679443359 -69.552787780762 -254.653839111328 4.084413051605
-6.070413112640 -74.184539794922 -243.576507568359 1.884434461594
50.447986602783 -70.708709716797 -246.352890014648 1.507085919380
-163.148712158203 -73.514343261719 -250.555679321289 2.324042320251
-165.914718627930 -69.617004394531 -243.431350708008 1.195313930511
-164.322158813477 -75.097869873047 -240.117996215820 2.487697124481
54.798458099365 -71.161590576172 -256.390136718750 6.140899658203
-91.185707092285 -77.480842590332 -249.221572875977 5.183153629303
-124.357307434082 -71.332000732422 -247.298950195313 7.211568832397
-108.774452209473 -75.074859619141 -249.677673339844 8.009510993958
31.248058319092 -73.784690856934 -256.291046142578 4.054475307465
36.716144561768 -74.808647155762 -254.682434082031 4.109901905060
-96.723068237305 -73.019630432129 -248.418640136719 5.047832965851
-92.545593261719 -71.560455322266 -253.814743041992 1.961464881897
44.463855743408 -71.384231567383 -257.580291748047 3.584960699081
39.333320617676 -70.682632446289 -254.322967529297 1.768151521683
-158.234725952148 -74.103622436523 -254.801300048828 3.401524782181
33.055984497070 -69.452430725098 -253.422653198242 2.611037015915
-139.009292602539 -75.164886474609 -261.048400878906 2.612640857697
-119.140563964844 -68.809677124023 -254.420761108398 3.822132587433
-132.188034057617 -69.502777099609 -261.884368896484 3.225275516510
36.704853057861 -79.051033020020 -264.791107177734 10.954300880432
-128.967422485352 -76.873641967773 -259.003540039063 0.930791556835
-10.339831352234 -69.541305541992 -255.225845336914 2.286257982254
19.706518173218 -76.846801757813 -275.622467041016 3.415648937225
-15.465441703796 -72.207824707031 -266.951354980469 1.733482480049
23.727212905884 -70.299758911133 -285.351959228516 6.346632480621
-150.924957275391 -76.192344665527 -277.550598144531 2.241015195847
-13.197067260742 -78.444976806641 -273.582489013672 4.000748634338
-155.692733764648 -76.810646057129 -284.485931396484 2.277083396912
-128.678207397461 -72.857208251953 -279.952392578125 4.973266601563
-162.843536376953 -75.542617797852 -284.326812744141 2.157484531403
-125.854171752930 -73.364356994629 -280.880798339844 3.698241472244
-108.142112731934 -79.112449645996 -286.807708740234 5.533431053162
-10.651402473450 -75.057701110840 -288.790039062500 2.113693952560
-113.484886169434 -75.358642578125 -290.225952148438 1.192509174347
-120.714210510254 -81.289802551270 -285.764434814453 6.688368320465
-124.678367614746 -78.196006774902 -286.796722412109 2.277135610580
-139.500946044922 -70.985900878906 -285.373016357422 2.327760457993
-126.473159790039 -79.643417358398 -289.058837890625 2.471882343292
-161.910049438477 -75.323974609375 -282.932067871094 3.375547647476
-147.060852050781 -82.076484680176 -291.764739990234 1.853897452354
-155.010604858398 -73.788375854492 -291.321533203125 1.441909432411
-156.515792846680 -71.424453735352 -300.055480957031 1.799243688583
-162.246246337891 -72.181930541992 -296.177429199219 3.303223609924
-150.569168090820 -77.484474182129 -306.993621826172 1.552598834038
-152.153594970703 -76.962158203125 -308.050506591797 2.013435125351
40.040733337402 -65.532447814941 -18.714889526367 1.104017734528
51.445674896240 -68.394935607910 -20.480928421021 2.680154561996
38.093852996826 -62.475696563721 -33.149677276611 3.107604265213
58.728675842285 -63.902027130127 -31.879577636719 9.930181503296
38.803199768066 -63.388023376465 -38.759452819824 3.761231899261
49.088592529297 -72.119613647461 -35.798896789551 2.130758047104
-47.951255798340 -66.972007751465 -42.679805755615 3.406430959702
91.050254821777 -66.648666381836 -60.410583496094 2.725421428680
90.680282592773 -66.179710388184 -68.313240051270 4.259505748749
-88.824356079102 -62.105625152588 -61.040832519531 4.935493946075
-8.674222946167 -64.423988342285 -59.873004913330 2.562750339508
-80.108818054199 -71.010414123535 -63.483127593994 4.296642303467
102.946014404297 -64.985404968262 -71.525825500488 1.765534520149
-10.957482337952 -63.609943389893 -65.630729675293 1.101035714149
74.285751342773 -69.707229614258 -79.778350830078 4.643374443054
-34.306278228760 -69.267585754395 -75.022659301758 2.821558713913
-24.621986389160 -71.697242736816 -79.345664978027 2.545393466949
60.495525360107 -63.085956573486 -88.483734130859 3.279294252396
-42.610145568848 -78.084121704102 -86.445091247559 2.294497013092
66.518295288086 -62.148956298828 -80.487640380859 2.652474164963
58.511802673340 -65.771324157715 -85.417121887207 1.682656645775
53.748630523682 -72.345176696777 -92.892852783203 0.853609025478
71.286758422852 -66.127708435059 -94.184379577637 4.717829227448
63.086898803711 -66.890945434570 -101.236022949219 5.389507293701
108.980476379395 -62.884227752686 -97.742195129395 4.848773002625
108.300697326660 -72.507453918457 -97.662300109863 2.061542987823
62.522422790527 -73.048072814941 -98.936363220215 3.882963418961
114.188880920410 -66.424278259277 -103.364837646484 5.149612903595
-66.171607971191 -76.621772766113 -97.256706237793 1.416620850563
-67.111488342285 -72.077819824219 -101.026504516602 3.199928283691
110.511985778809 -73.694259643555 -98.926345825195 3.549159288406
59.071960449219 -66.273147583008 -103.304306030273 4.784977912903
76.161567687988 -71.145370483398 -103.890869140625 1.465669393539
-62.479179382324 -58.192298889160 -97.080299377441 4.076165676117
-74.856567382813 -65.050140380859 -103.776298522949 1.994423627853
99.658683776855 -66.616706848145 -114.656944274902 6.743301391602
47.793609619141 -68.443466186523 -103.506767272949 1.341662406921
105.474288940430 -68.513313293457 -104.023735046387 1.589848995209
47.695117950439 -66.279701232910 -110.829750061035 2.091184854507
118.962104797363 -64.269035339355 -112.896438598633 8.734040260315
-82.672622680664 -62.125450134277 -104.224418640137 3.344959974289
108.694114685059 -62.728946685791 -113.834075927734 5.000708580017
-82.649185180664 -63.889282226563 -111.619430541992 0.725721597672
-54.852783203125 -70.358016967773 -120.595497131348 4.699914932251
-56.762653350830 -67.555664062500 -127.125480651855 1.475922942162
-69.185287475586 -71.642242431641 -127.887374877930 5.749214649200
-45.957393646240 -70.550621032715 -129.135284423828 5.133122920990
-84.217895507813 -68.900146484375 -130.723083496094 1.176630496979
-75.088371276855 -73.471534729004 -131.837814331055 2.695796728134
-83.312156677246 -69.234306335449 -125.172645568848 2.333552598953
-50.146289825439 -72.966217041016 -134.815963745117 0.964048862457
-68.786865234375 -67.762054443359 -136.459915161133 3.597483158112
-56.933982849121 -69.109382629395 -131.881362915039 2.043537378311
-60.881649017334 -71.424316406250 -134.527603149414 2.181104421616
25.887407302856 -72.966850280762 -139.714904785156 1.146576881409
-82.086814880371 -72.722496032715 -141.416397094727 4.847052574158
-42.920757293701 -74.020492553711 -146.383743286133 1.949009180069
-95.406723022461 -66.775978088379 -146.910156250000 2.617465972900
-100.990020751953 -67.818328857422 -149.244445800781 2.706677198410
20.478897094727 -76.488113403320 -153.773956298828 2.920573472977
17.629272460938 -74.826530456543 -160.621505737305 3.009301424026
-99.249748229980 -70.632781982422 -156.264282226563 2.086418867111
-96.419342041016 -67.104934692383 -154.551025390625 2.712030410767
-91.249504089355 -68.984710693359 -164.440414428711 7.793994426727
19.420131683350 -66.759170532227 -171.067398071289 1.270147681236
-113.077018737793 -74.182968139648 -161.571029663086 11.307258605957
21.085077285767 -73.195304870605 -168.951309204102 2.145706176758
-142.940536499023 -74.499778747559 -173.861495971680 3.070230007172
18.714773178101 -70.644363403320 -176.135833740234 1.293061017990
23.579973220825 -73.553161621094 -187.588943481445 1.389536023140
-151.866790771484 -67.623443603516 -182.754791259766 2.622084856033
19.845186233521 -75.234985351563 -180.476440429688 2.245261907578
15.113722801208 -69.305297851563 -177.329986572266 2.286705493927
-134.798263549805 -79.627677917480 -188.292098999023 8.965625762939
-149.610961914063 -73.876113891602 -184.756805419922 2.562883377075
17.264802932739 -70.204940795898 -189.796630859375 1.665623068810
23.083755493164 -68.299629211426 -185.388305664063 1.859981894493
-146.242202758789 -70.127899169922 -187.147064208984 2.669495820999
-107.489631652832 -77.018066406250 -188.862564086914 7.114860534668
23.872640609741 -70.195060729980 -196.275177001953 2.016010046005
-125.538543701172 -66.541191101074 -186.507797241211 8.265254020691
12.121559143066 -73.759773254395 -197.660202026367 1.755806446075
-131.213729858398 -66.665916442871 -191.041824340820 3.615520954132
-147.480590820313 -71.357208251953 -187.312759399414 1.638899683952
-160.818588256836 -74.975883483887 -197.177383422852 3.679858922958
-162.460250854492 -69.199943542480 -197.314666748047 1.207598209381
-18.497848510742 -67.963218688965 -204.079498291016 1.728093028069
-165.713699340820 -70.454246520996 -196.801239013672 2.321703433990
-18.917453765869 -69.728134155273 -193.806976318359 2.356494188309
-15.057227134705 -69.668937683105 -196.260620117188 0.879554867744
12.867601394653 -71.277633666992 -195.371398925781 1.146625518799
-157.499832153320 -67.210571289063 -190.852035522461 3.312684297562
-109.950828552246 -68.901596069336 -198.380111694336 1.914989709854
-15.540707588196 -75.656402587891 -207.635803222656 3.413744926453
-154.173614501953 -73.258598327637 -193.758514404297 2.656401634216
20.134529113770 -67.073196411133 -199.730819702148 2.663364648819
-162.134811401367 -71.066627502441 -193.071746826172 3.673342943192
-119.477378845215 -74.804328918457 -201.247161865234 4.201230049133
-107.524902343750 -70.621200561523 -205.048324584961 5.699345588684
-126.649345397949 -66.351226806641 -204.815307617188 1.547497272491
-13.485103607178 -75.431861877441 -200.728683471680 1.663554310799
-19.515354156494 -67.724563598633 -202.654647827148 1.315587162971
-160.950500488281 -67.615493774414 -203.750106811523 1.056155920029
-160.004714965820 -69.132690429688 -207.276519775391 2.802018642426
-165.620178222656 -73.328681945801 -212.454360961914 2.140992403030
-149.447357177734 -75.107185363770 -201.365005493164 3.349935531616
-143.207443237305 -70.189575195313 -219.699554443359 2.207895517349
-6.558588027954 -69.571403503418 -220.155090332031 1.058225989342
-14.983650207520 -70.548309326172 -218.166748046875 0.529178857803
-102.187461853027 -71.433311462402 -218.886703491211 1.000190258026
-7.763928890228 -70.142021179199 -216.829742431641 1.505739927292
-164.926971435547 -70.196090698242 -220.126281738281 1.738555312157
-115.402091979980 -66.691375732422 -228.548767089844 1.945904731750
-0.723879992962 -69.139045715332 -229.912994384766 2.527508258820
6.060072898865 -70.216499328613 -229.348632812500 2.100810050964
-113.053573608398 -70.244979858398 -229.794662475586 2.013229131699
-3.843774080276 -65.176582336426 -231.682312011719 2.998375177383
-115.572006225586 -70.741348266602 -234.009918212891 2.109956026077
-3.902926921844 -68.448295593262 -241.713027954102 3.116620302200
-4.644661903381 -75.149490356445 -231.034423828125 1.167990922928
-2.116522073746 -69.357032775879 -242.255996704102 3.238304376602
65.193222045898 -74.021675109863 -238.210296630859 1.243750572205
-16.235210418701 -74.958930969238 -233.797332763672 3.653993606567
4.757453918457 -70.115783691406 -236.290893554688 2.851932525635
10.070398330688 -72.983535766602 -241.479965209961 1.243849396706
8.101178169250 -78.787666320801 -239.104080200195 2.206515789032
1.725219011307 -79.150505065918 -240.972640991211 1.850741505623
66.677207946777 -76.586769104004 -241.051223754883 3.194650888443
71.294639587402 -71.332878112793 -242.420928955078 2.841422319412
15.826290130615 -74.801940917969 -240.655288696289 1.416143774986
59.210735321045 -72.687690734863 -240.577880859375 1.454575657845
57.165760040283 -76.916091918945 -239.756805419922 4.659942150116
46.402259826660 -66.082328796387 -245.746795654297 1.474897265434
34.704845428467 -74.474060058594 -252.401077270508 4.870264053345
38.084075927734 -75.159759521484 -254.411331176758 4.322546005249
-134.416183471680 -72.439216613770 -249.443466186523 5.087846755981
-17.243436813354 -78.456535339355 -249.234375000000 6.931697845459
25.580591201782 -75.634078979492 -257.987213134766 4.021021366119
47.463260650635 -72.998397827148 -254.969909667969 2.985306739807
23.566352844238 -66.447486877441 -255.708190917969 1.886141777039
-101.031898498535 -71.467407226563 -258.734222412109 1.642807245255
32.391506195068 -71.571037292480 -254.447723388672 2.657776355743
-151.414138793945 -71.490760803223 -255.390533447266 2.833312034607
-117.089591979980 -68.310676574707 -258.274017333984 1.568438410759
-103.292999267578 -73.944274902344 -250.422302246094 5.157949924469
-7.797978878021 -71.173515319824 -258.542419433594 4.466644287109
-157.547317504883 -79.321990966797 -248.266586303711 5.944097518921
29.828983306885 -70.073181152344 -257.325439453125 1.601552128792
-112.804664611816 -75.779663085938 -249.456207275391 7.769009113312
29.063709259033 -73.198547363281 -257.270751953125 3.741232395172
-131.847717285156 -70.733245849609 -256.585662841797 2.773366928101
-120.382232666016 -74.387512207031 -255.394332885742 2.466840267181
-105.655372619629 -67.711189270020 -257.849975585938 1.167602300644
-117.174728393555 -73.260070800781 -261.592285156250 1.959894537926
-139.177062988281 -75.140449523926 -258.779754638672 1.707560420036
26.648818969727 -70.845329284668 -265.182434082031 2.026174545288
-119.464996337891 -68.792800903320 -262.582275390625 2.282869577408
-144.620620727539 -73.860931396484 -266.560211181641 1.710772395134
-6.053892135620 -76.495315551758 -272.951599121094 2.880952596664
-156.143692016602 -71.537803649902 -272.795745849609 2.777694463730
-12.837132453918 -76.104362487793 -281.840118408203 5.209267139435
-3.943660974503 -79.311477661133 -287.065521240234 2.551495313644
-137.006820678711 -77.555328369141 -283.546966552734 3.870479106903
-122.013771057129 -68.871871948242 -286.460968017578 3.038967847824
-141.113464355469 -68.209350585938 -286.183593750000 2.004543304443
-130.542984008789 -75.087631225586 -290.518737792969 2.904707670212
-150.699050903320 -75.447242736816 -290.978088378906 1.330506801605
-151.102828979492 -80.049468994141 -296.381927490234 1.645776271820
-152.981994628906 -81.561576843262 -301.546234130859 1.912761449814
-152.189025878906 -70.115211486816 -290.864624023438 1.864884138107
