13.950900077820 -76.522346496582 -237.873275756836 3.869573593140
-144.917724609375 -71.561332702637 -238.342742919922 2.027228355408
12.388785362244 -71.351356506348 -246.792373657227 2.172031402588
62.569805145264 -73.266548156738 -242.421707153320 0.663344502449
5.856431961060 -70.628601074219 -237.903121948242 2.653151988983
0.465427011251 -75.524261474609 -247.262969970703 2.107894182205
-12.176749229431 -65.899513244629 -241.614562988281 2.156535148621
-22.422695159912 -76.783325195313 -249.064437866211 6.260922908783
-2.809046030045 -76.442253112793 -244.135757446289 2.622739791870
-1.171344995499 -69.163307189941 -243.366104125977 3.807595729828
52.374664306641 -73.873039245605 -245.434753417969 2.745418548584
-63.713130950928 -73.650756835938 -245.214279174805 2.414282083511
14.026442527771 -72.929214477539 -253.606979370117 6.107815742493
-61.871837615967 -70.070236206055 -244.995819091797 2.420698881149
-11.585284233093 -71.007690429688 -251.889770507813 1.906964898109
-68.631553649902 -68.889846801758 -253.060394287109 3.381348609924
-88.583442687988 -79.343048095703 -249.378067016602 5.588760375977
-85.455047607422 -77.402656555176 -250.975830078125 3.420891046524
-22.302217483521 -70.537422180176 -253.013885498047 6.717781543732
-129.256179809570 -77.622062683105 -258.501403808594 1.523584127426
-20.365646362305 -66.225212097168 -257.491180419922 7.015622615814
-128.402893066406 -71.450523376465 -251.647872924805 3.704444646835
-123.642295837402 -67.521469116211 -254.965057373047 1.836392402649
-108.812377929688 -77.655418395996 -254.165771484375 5.998058795929
-146.844833374023 -70.533493041992 -254.478240966797 3.099879264832
-151.560989379883 -69.695991516113 -261.898223876953 2.603086233139
-172.029205322266 -68.321044921875 -259.194824218750 4.897714138031
7.424409866333 -73.722038269043 -284.745849609375 3.350650072098
-67.681274414063 -75.690658569336 -282.294830322266 4.426736831665
-71.361007690430 -73.330596923828 -282.329559326172 4.136276245117
-51.300964355469 -74.171539306641 -284.394592285156 2.471158266068
-31.999605178833 -73.750968933105 -282.703704833984 3.869046449661
-98.026260375977 -72.020790100098 -293.560668945313 2.796830415726
-37.001583099365 -69.449325561523 -289.284332275391 2.829708099365
-7.082359790802 -64.928199768066 -286.978454589844 2.509370803833
-170.559295654297 -74.297904968262 -284.344146728516 2.881228923798
-22.730974197388 -74.097877502441 -292.314849853516 3.124721527100
1.208892941475 -65.927589416504 -292.822998046875 0.757080614567
8.646203994751 -64.051254272461 -294.666992187500 2.620307922363
-61.566566467285 -73.515106201172 -292.020111083984 3.181076049805
-34.027256011963 -76.610389709473 -286.447235107422 1.533713579178
9.790255546570 -68.309677124023 -292.217803955078 1.580726861954
-74.043182373047 -73.787284851074 -293.648376464844 2.748344659805
-44.411571502686 -71.026992797852 -290.565368652344 1.489664077759
-22.741144180298 -70.344749450684 -293.174224853516 4.086067199707
2.144295930862 -70.830261230469 -294.530822753906 2.596676588058
-20.880128860474 -75.427787780762 -289.974731445313 2.609203577042
0.529398024082 -69.019287109375 -295.182739257813 2.902157783508
5.168950080872 -71.999526977539 -294.796478271484 3.162409543991
-140.017318725586 -75.812591552734 -285.310729980469 2.968654632568
-146.542327880859 -73.660446166992 -297.785430908203 2.098284244537
-157.432098388672 -76.959777832031 -304.937011718750 3.834935665131
44.682777404785 -62.988166809082 -15.665912628174 1.416208505630
36.849769592285 -72.627983093262 -11.680233955383 1.379095911980
46.886135101318 -73.069541931152 -18.683116912842 2.221899509430
26.998157501221 -73.260131835938 -24.924613952637 1.949118375778
47.483062744141 -72.979606628418 -30.911026000977 1.810300230980
26.453125000000 -69.487670898438 -22.072090148926 1.508726954460
29.491504669189 -77.991889953613 -33.979240417480 5.673940658569
27.627748489380 -76.004348754883 -39.711322784424 3.822791337967
47.570224761963 -68.839843750000 -38.684177398682 2.550174713135
32.154354095459 -71.657943725586 -42.605842590332 1.501613974571
44.766899108887 -73.273185729980 -35.389102935791 1.883465886116
39.511692047119 -68.553237915039 -41.212570190430 2.101951122284
34.845893859863 -73.215461730957 -44.956680297852 4.570068836212
37.859542846680 -70.020767211914 -45.718441009521 4.512462615967
49.344860076904 -72.437965393066 -49.184391021729 11.832355499268
38.612354278564 -66.799285888672 -49.468292236328 8.933062553406
-33.717487335205 -67.514083862305 -58.004577636719 6.041061401367
-24.141548156738 -67.797401428223 -43.787574768066 7.208024501801
-84.628074645996 -71.906379699707 -53.717399597168 4.022115230560
-82.428123474121 -75.728134155273 -61.781150817871 2.014089584351
85.329208374023 -72.070945739746 -71.678070068359 1.813840627670
85.484672546387 -72.683319091797 -76.598228454590 1.930182933807
-10.705324172974 -76.097732543945 -77.901901245117 10.411750793457
-80.322998046875 -74.908821105957 -69.653244018555 3.356100082397
-20.281099319458 -72.126380920410 -81.286743164063 6.640133380890
-46.337612152100 -78.878700256348 -90.983512878418 4.080012798309
65.584655761719 -72.586982727051 -90.262962341309 2.828931570053
58.780792236328 -67.437644958496 -95.712860107422 1.421006441116
99.036430358887 -73.230293273926 -93.632415771484 2.140623331070
78.728347778320 -75.409942626953 -100.992080688477 3.176102876663
-60.184776306152 -77.029075622559 -90.940032958984 4.318473815918
-61.783924102783 -70.003135681152 -94.898864746094 2.983923196793
46.994079589844 -72.518966674805 -100.822181701660 2.023413896561
73.094810485840 -79.481781005859 -105.872932434082 8.914504051208
52.344310760498 -76.774147033691 -105.234802246094 1.684229850769
104.771362304688 -76.748718261719 -104.207977294922 3.353783130646
-85.211120605469 -74.175292968750 -105.076042175293 2.755356073380
42.340423583984 -80.004608154297 -113.665451049805 1.548050522804
109.819129943848 -69.195381164551 -115.690643310547 1.218983530998
47.880939483643 -68.058555603027 -114.614723205566 2.355671405792
106.000724792480 -68.589996337891 -113.869453430176 0.485291719437
-81.074874877930 -70.789260864258 -113.645812988281 1.641477823257
37.479553222656 -69.555747985840 -121.896736145020 1.257073283195
113.710739135742 -74.691978454590 -127.109817504883 1.617197394371
102.621131896973 -71.999351501465 -124.062538146973 5.324922561646
108.876396179199 -76.228668212891 -122.199905395508 3.303596973419
111.805839538574 -78.254020690918 -123.289245605469 3.585032939911
33.648895263672 -74.167716979980 -118.922538757324 1.773208022118
35.462951660156 -77.885353088379 -121.828826904297 0.935823798180
46.216072082520 -71.743484497070 -115.969596862793 1.985829830170
111.321060180664 -72.521697998047 -131.760543823242 0.845122158527
42.914104461670 -70.114578247070 -127.673202514648 4.116610050201
112.691566467285 -74.620506286621 -140.038650512695 1.049530506134
116.570930480957 -69.683395385742 -135.593948364258 1.956013917923
33.879562377930 -71.069709777832 -123.321739196777 1.019596576691
-75.573852539063 -76.874404907227 -122.948654174805 7.694528102875
118.297271728516 -77.850898742676 -143.793029785156 3.424641847610
-59.937534332275 -80.326187133789 -142.292648315430 6.743302345276
34.157508850098 -74.581069946289 -140.128936767578 1.780374765396
-73.311241149902 -72.687705993652 -138.453918457031 1.381968617439
30.457771301270 -70.059318542480 -138.460739135742 1.553121328354
-70.767387390137 -75.664535522461 -140.797042846680 2.025200128555
-42.114337921143 -75.701026916504 -150.023818969727 0.851900279522
-71.998359680176 -78.345130920410 -133.658905029297 6.674523353577
110.494911193848 -64.883209228516 -145.163162231445 5.082198143005
118.871109008789 -73.492271423340 -147.611984252930 2.352209568024
126.049827575684 -71.474983215332 -154.801269531250 9.585568428040
-71.199470520020 -75.698806762695 -143.941818237305 0.945833206177
8.714250564575 -71.497909545898 -152.480743408203 1.155017495155
-58.755973815918 -69.823570251465 -153.644302368164 5.998259067535
-45.627132415771 -76.550598144531 -152.678497314453 1.754074692726
108.996879577637 -69.064743041992 -166.743606567383 1.582972884178
-38.337055206299 -76.323020935059 -151.920898437500 2.512128353119
9.770100593567 -69.536674499512 -164.572357177734 4.568336963654
22.634569168091 -70.259635925293 -163.242370605469 1.902987122536
112.432914733887 -72.747833251953 -171.391387939453 2.097444057465
33.014575958252 -66.285758972168 -162.623962402344 5.430257320404
-2.996774911880 -77.885742187500 -160.249023437500 3.089506626129
30.934495925903 -70.711036682129 -167.310211181641 2.764474868774
-69.255722045898 -64.796707153320 -156.559066772461 5.338478565216
-61.343265533447 -70.319084167480 -157.692443847656 3.328531026840
-66.378410339355 -70.483558654785 -160.767486572266 1.499446272850
111.329116821289 -70.507637023926 -168.953598022461 1.990910410881
-46.785964965820 -68.802780151367 -163.647567749023 2.722017765045
15.819025993347 -78.176574707031 -175.216384887695 2.417302370071
-63.245426177979 -76.228797912598 -174.587478637695 0.811060309410
-60.319259643555 -75.928344726563 -174.065521240234 1.986404538155
-44.305561065674 -75.365173339844 -163.171844482422 0.535032629967
-38.605216979980 -63.684467315674 -166.462890625000 5.645102500916
112.482139587402 -65.621093750000 -182.684585571289 6.043909072876
-35.016841888428 -73.680587768555 -174.024047851563 3.195175409317
15.823610305786 -71.048179626465 -172.058715820313 1.405821204185
103.983543395996 -77.612335205078 -199.335617065430 2.068607091904
-154.325180053711 -75.988227844238 -171.930450439453 7.303918361664
-142.989913940430 -74.267539978027 -169.209457397461 6.907336711884
-152.722961425781 -71.185379028320 -172.276000976563 3.427943468094
-145.298187255859 -67.810462951660 -175.902770996094 1.193967700005
-27.116136550903 -69.635940551758 -180.584014892578 1.331113100052
-26.717081069946 -71.176307678223 -184.832382202148 1.027937769890
21.445148468018 -67.131820678711 -194.122268676758 2.480566501617
-142.515090942383 -72.512596130371 -182.470535278320 1.085139870644
-144.644363403320 -70.272155761719 -177.790176391602 2.808356046677
-24.444858551025 -62.459613800049 -187.513839721680 5.782383918762
13.537073135376 -76.874526977539 -184.929916381836 1.847336053848
-140.343948364258 -73.578987121582 -188.071075439453 2.564006328583
-37.646705627441 -77.062538146973 -180.768646240234 3.884510517120
100.431610107422 -75.769538879395 -196.431808471680 1.690861940384
105.129859924316 -68.485023498535 -202.239517211914 4.585496425629
18.654300689697 -71.745307922363 -191.372222900391 3.065464019775
-22.657623291016 -78.229187011719 -191.336334228516 1.375513195992
-26.607097625732 -76.397300720215 -199.905914306641 2.258885383606
-147.814956665039 -68.175636291504 -192.177993774414 3.748201847076
-136.725082397461 -70.558380126953 -194.629837036133 3.780409574509
-124.187896728516 -71.068130493164 -190.364517211914 4.813851833344
-126.035728454590 -76.010398864746 -193.586013793945 4.706097602844
-18.535722732544 -71.143035888672 -195.524383544922 0.977461934090
10.423239707947 -74.987556457520 -195.496475219727 1.250847697258
91.842445373535 -65.887222290039 -205.858428955078 4.963921070099
-147.585525512695 -73.481246948242 -190.259857177734 2.441740274429
-148.394439697266 -68.698799133301 -198.436431884766 2.444363832474
-147.615417480469 -65.181457519531 -193.360977172852 1.520970582962
-157.673217773438 -66.791526794434 -195.912445068359 0.765303611755
-31.844671249390 -70.390213012695 -201.593627929688 5.261647224426
-15.225923538208 -78.435997009277 -194.549758911133 1.984849691391
-145.058410644531 -63.939853668213 -189.793029785156 1.617651224136
-21.542831420898 -75.736564636230 -195.851318359375 2.487546205521
-165.233032226563 -73.873207092285 -193.945587158203 5.951531410217
-132.394042968750 -72.324455261230 -194.714309692383 1.759885430336
7.894556999207 -67.787231445313 -212.537582397461 2.117802619934
-163.860626220703 -70.740119934082 -196.823883056641 1.701430201530
-145.127960205078 -74.667602539063 -197.028930664063 1.303388595581
9.126912117004 -74.330841064453 -203.579376220703 1.388919591904
-158.440643310547 -76.330215454102 -201.643234252930 5.366595745087
-25.322305679321 -73.448638916016 -202.386947631836 1.466521978378
100.770317077637 -71.417419433594 -206.570266723633 2.072437763214
-155.483230590820 -72.136184692383 -208.866333007813 3.428308725357
-165.057769775391 -73.282806396484 -208.442947387695 2.101926088333
-82.472488403320 -69.292564392090 -212.492019653320 4.055162906647
90.800704956055 -70.863693237305 -215.959854125977 1.786108016968
-6.521130084991 -71.887931823730 -213.778289794922 0.710285544395
-156.377593994141 -72.409103393555 -204.794296264648 3.511255502701
-92.496597290039 -65.111511230469 -213.729827880859 5.703905105591
-7.938986778259 -71.555305480957 -210.327560424805 1.961150527000
12.312726020813 -67.982749938965 -224.490203857422 1.421816945076
-146.012969970703 -73.733665466309 -213.552352905273 3.098025083542
-5.685198783875 -73.934745788574 -221.012435913086 2.949867486954
-17.024379730225 -65.194305419922 -220.598464965820 5.894428730011
-23.266057968140 -67.191268920898 -219.464218139648 4.559596538544
83.984497070313 -72.624763488770 -220.616867065430 1.026586651802
-25.005598068237 -66.156707763672 -214.790924072266 6.299100875854
-31.474088668823 -71.947402954102 -219.218002319336 3.718274831772
-105.328742980957 -71.541694641113 -217.645431518555 3.251392364502
-18.084400177002 -70.703163146973 -227.308456420898 0.690537035465
86.475708007813 -69.869026184082 -224.716705322266 3.128482580185
78.461112976074 -69.567962646484 -223.962249755859 2.459306478500
4.387866020203 -76.590896606445 -227.647827148438 1.915851593018
-16.303344726563 -70.116813659668 -227.772903442383 1.242290496826
76.205596923828 -80.156707763672 -227.698883056641 4.569200515747
-132.163818359375 -71.642868041992 -218.125198364258 6.569003105164
-26.796253204346 -74.265327453613 -222.029907226563 2.322540521622
-106.117034912109 -69.148704528809 -222.708419799805 1.116108894348
-110.882102966309 -74.875205993652 -226.256576538086 2.933279037476
-137.250976562500 -69.677337646484 -223.523727416992 3.173587560654
74.597618103027 -72.221946716309 -228.968154907227 1.826470851898
-130.615722656250 -74.475028991699 -224.323074340820 2.411084175110
-3.080291986465 -70.474037170410 -232.578216552734 1.945678353310
69.348602294922 -71.255500793457 -228.608612060547 2.756311893463
-18.567689895630 -73.003623962402 -232.138442993164 3.948436021805
-11.804513931274 -73.222503662109 -231.548339843750 1.397027492523
-9.268958091736 -69.061393737793 -234.826721191406 1.954762458801
3.840049982071 -72.558532714844 -232.867523193359 2.739723205566
78.970458984375 -71.318656921387 -231.261718750000 1.270514607430
12.678586006165 -72.327819824219 -234.939376831055 1.730985283852
-1.163934946060 -72.749015808105 -234.382385253906 2.435305356979
-7.904480934143 -74.074661254883 -226.263809204102 1.235638856888
-9.372408866882 -68.795875549316 -235.615020751953 1.619024395943
12.011137962341 -69.250144958496 -234.976394653320 1.389792203903
-12.520770072937 -67.998031616211 -236.993240356445 1.300528645515
70.674224853516 -70.100921630859 -241.088714599609 1.389757156372
-12.197538375854 -68.540466308594 -234.871353149414 1.484913587570
19.350481033325 -71.427268981934 -230.508712768555 2.198465108871
-164.576019287109 -67.063392639160 -237.855117797852 1.943623661995
-9.321615219116 -70.968582153320 -244.826995849609 1.916705131531
-14.380519866943 -70.726638793945 -242.283172607422 1.341766357422
-171.534912109375 -69.737167358398 -253.611877441406 4.565393447876
-13.517358779907 -72.517616271973 -244.978042602539 2.644572973251
15.310483932495 -74.530082702637 -245.473968505859 1.791421175003
-151.963943481445 -75.098617553711 -246.552658081055 1.982765197754
-70.981155395508 -71.355468750000 -247.307754516602 2.155653953552
-61.674755096436 -68.885574340820 -248.394165039063 2.932515621185
50.057109832764 -69.047012329102 -252.172515869141 2.352988958359
-81.092437744141 -71.923004150391 -244.056427001953 5.024638652802
9.792697906494 -71.047393798828 -247.027114868164 3.517413377762
-82.030761718750 -72.733154296875 -248.831527709961 0.556696772575
-23.794931411743 -71.760307312012 -247.793579101563 5.991594314575
-154.697967529297 -73.129737854004 -250.328918457031 2.716981887817
43.673469543457 -68.150108337402 -252.859405517578 1.447962641716
-88.369430541992 -67.169181823730 -245.757217407227 6.193535804749
-99.278518676758 -72.254623413086 -253.483581542969 0.727558970451
-99.778762817383 -78.900245666504 -249.672180175781 7.988564968109
-129.357879638672 -72.117736816406 -256.165466308594 4.322262287140
-114.066902160645 -68.210762023926 -253.955215454102 3.094162464142
-112.403259277344 -68.324714660645 -257.039825439453 1.371481657028
11.717187881470 -70.172500610352 -260.884826660156 10.500907897949
-134.372985839844 -67.206298828125 -262.538970947266 1.211543321609
-13.606926918030 -74.448722839355 -278.670288085938 3.740962028503
-152.421569824219 -75.314727783203 -277.643585205078 2.053400039673
-174.991851806641 -69.973320007324 -276.389770507813 7.100048065186
-134.610534667969 -71.907333374023 -284.175109863281 1.396970748901
-122.072639465332 -73.792869567871 -275.411254882813 9.669419288635
-86.419486999512 -66.100425720215 -286.031372070313 4.089944839478
-62.345115661621 -64.638809204102 -289.635620117188 6.237622737885
-51.031055450439 -69.458541870117 -286.095977783203 2.185575485229
-19.101041793823 -69.056335449219 -291.236480712891 3.505280017853
-16.431978225708 -68.858596801758 -288.820800781250 3.204912185669
-40.787620544434 -71.860061645508 -290.103607177734 0.582399725914
-40.847671508789 -69.627410888672 -287.458435058594 2.099250316620
-27.039276123047 -66.586166381836 -294.157257080078 6.631607532501
-80.233749389648 -73.723236083984 -291.181640625000 1.762544155121
-60.706890106201 -66.839576721191 -294.758117675781 6.414582729340
-19.120445251465 -64.986312866211 -292.360717773438 7.441598892212
-21.452314376831 -70.510292053223 -292.335723876953 3.369936704636
-11.383662223816 -69.503425598145 -293.664764404297 4.286736965179
-2.809039115906 -64.933715820313 -298.325408935547 6.609754085541
-93.096710205078 -69.412780761719 -281.831909179688 6.101027965546
-153.575088500977 -68.529670715332 -282.131683349609 1.605484604836
-124.022712707520 -71.854011535645 -293.152374267578 1.051294922829
-160.442901611328 -75.291419982910 -298.100952148438 5.028388500214
-162.023284912109 -72.324287414551 -293.500579833984 1.707307219505
-150.084213256836 -70.537338256836 -299.332427978516 2.862228155136
51.630916595459 -75.412269592285 -30.751441955566 4.927808761597
23.474361419678 -72.463455200195 -27.418224334717 2.320993185043
56.229236602783 -74.824310302734 -30.150636672974 7.767704486847
54.796443939209 -76.900878906250 -37.249237060547 9.673102378845
90.154327392578 -66.206779479980 -73.210166931152 6.834044456482
101.456207275391 -69.020065307617 -82.588310241699 2.344732284546
99.403984069824 -70.481002807617 -86.986061096191 1.674667954445
97.958572387695 -69.026573181152 -95.872863769531 3.251590490341
51.480712890625 -71.907318115234 -91.692260742188 1.095704197884
53.466609954834 -71.689399719238 -96.134902954102 3.129869222641
62.893775939941 -69.028221130371 -97.662437438965 2.647641420364
-62.277233123779 -67.914031982422 -91.684257507324 1.877200007439
75.614173889160 -72.753349304199 -96.110427856445 1.881919384003
105.576393127441 -70.156555175781 -98.026428222656 0.755825996399
75.943962097168 -75.479576110840 -105.128730773926 5.254539966583
95.975570678711 -67.108909606934 -101.771080017090 2.709013700485
-78.851463317871 -73.919769287109 -99.796890258789 2.183926582336
48.460819244385 -71.980346679688 -108.857109069824 0.771038234234
-86.714393615723 -76.164932250977 -107.875953674316 3.974856138229
52.106346130371 -72.899673461914 -118.048919677734 5.739571094513
44.717895507813 -66.513763427734 -110.513786315918 2.044013977051
103.925170898438 -74.505264282227 -113.160659790039 2.958972454071
42.673343658447 -68.056549072266 -112.483970642090 1.142951965332
43.323986053467 -75.063369750977 -119.034156799316 2.344573736191
42.237991333008 -68.016265869141 -120.754432678223 1.826607584953
104.368934631348 -65.085166931152 -124.906890869141 6.160573482513
-79.239830017090 -70.948257446289 -117.657875061035 1.377871274948
115.353286743164 -73.978073120117 -128.200683593750 1.779070734978
41.069290161133 -64.926605224609 -120.337242126465 3.979479074478
45.959068298340 -73.088829040527 -119.913574218750 1.683341979980
33.843502044678 -72.949440002441 -123.194999694824 1.057957053185
-53.833610534668 -70.710289001465 -131.076950073242 2.371963500977
30.637609481812 -69.790527343750 -125.084289550781 1.795273423195
-77.376289367676 -73.572731018066 -135.005722045898 1.343272089958
-60.100811004639 -70.791442871094 -133.589324951172 1.298723816872
-74.577209472656 -69.513397216797 -128.874221801758 1.639618277550
35.441452026367 -70.885993957520 -129.896606445313 2.267038106918
-54.517181396484 -69.677803039551 -131.150756835938 1.801680564880
40.971111297607 -71.521415710449 -135.773712158203 2.992929697037
-76.189857482910 -72.517562866211 -136.791870117188 1.329367637634
-56.335784912109 -74.725997924805 -140.389511108398 1.116899967194
29.629299163818 -70.200515747070 -141.618576049805 2.081304788589
112.459808349609 -75.225494384766 -153.735305786133 1.303081989288
120.187438964844 -71.617439270020 -145.734970092773 3.784632921219
34.610813140869 -70.377731323242 -144.048797607422 0.810362339020
-47.721279144287 -68.877510070801 -144.427780151367 1.613306403160
108.803840637207 -70.365791320801 -166.309082031250 1.612213730812
-72.891464233398 -71.156990051270 -147.972549438477 1.358616709709
-47.420207977295 -73.737998962402 -137.501647949219 1.054488301277
35.486736297607 -76.266380310059 -155.771392822266 2.346856117249
-67.946174621582 -73.442153930664 -141.558914184570 2.533048391342
-69.323760986328 -74.133544921875 -143.438949584961 2.227927923203
117.417839050293 -65.764114379883 -154.025695800781 5.269423007965
-62.590251922607 -69.204864501953 -146.250732421875 5.389507293701
-40.626880645752 -69.517837524414 -149.946319580078 2.217258453369
31.750308990479 -65.318664550781 -156.835205078125 4.409866809845
-75.334754943848 -70.846649169922 -146.620513916016 1.252036213875
7.298095226288 -73.632347106934 -163.202407836914 1.284091830254
34.408210754395 -66.989799499512 -159.870498657227 5.030434131622
25.132318496704 -72.353919982910 -154.604843139648 1.986644744873
5.465116977692 -75.681068420410 -157.322540283203 1.171001672745
-47.586456298828 -68.591194152832 -152.935195922852 2.068252563477
24.431509017944 -71.141853332520 -154.230392456055 1.134274125099
-47.708530426025 -74.071983337402 -149.342544555664 3.405886411667
6.531719207764 -73.755943298340 -151.604232788086 3.115563869476
20.839065551758 -72.618202209473 -150.597946166992 2.426663160324
-72.453102111816 -76.263786315918 -151.053527832031 1.317085385323
-44.722564697266 -72.045654296875 -154.954452514648 2.355494260788
-71.907440185547 -68.092750549316 -160.853118896484 5.158774852753
9.769858360291 -62.839981079102 -168.259719848633 11.321573257446
18.509563446045 -72.267135620117 -147.586273193359 2.290532112122
0.675108015537 -68.484268188477 -164.830261230469 4.106839656830
22.374084472656 -66.185997009277 -157.412338256836 2.559435367584
27.994974136353 -71.579757690430 -164.687606811523 2.520237207413
-46.347766876221 -73.877487182617 -162.341598510742 1.492490291595
-32.551036834717 -70.702919006348 -160.485656738281 2.123440742493
-36.646697998047 -69.638183593750 -161.178741455078 2.032497406006
30.617650985718 -72.703422546387 -167.182891845703 1.685956716537
-46.709117889404 -71.130439758301 -164.754165649414 2.090495586395
-44.014476776123 -72.191474914551 -162.168395996094 0.678545296192
20.192037582397 -74.240371704102 -164.298202514648 1.686799407005
-43.495456695557 -70.604690551758 -172.219039916992 3.448872089386
32.502475738525 -67.222167968750 -177.470199584961 6.748000144958
117.737449645996 -67.519744873047 -169.746582031250 5.785397052765
-33.077159881592 -70.182579040527 -173.868621826172 1.521178007126
104.563484191895 -66.877655029297 -175.861907958984 5.284185886383
-34.221328735352 -66.650650024414 -178.061981201172 3.817089080811
-40.096981048584 -71.912681579590 -179.236160278320 3.766311883926
16.691009521484 -72.943649291992 -177.221405029297 1.348038911819
101.315834045410 -66.780342102051 -184.073379516602 4.728081703186
-30.053007125854 -70.146469116211 -182.630920410156 2.056880235672
-31.150678634644 -63.505096435547 -174.175170898438 5.270370960236
-23.278209686279 -74.263969421387 -187.354797363281 2.512085437775
-146.694061279297 -77.275802612305 -182.549331665039 3.212411165237
11.213714599609 -74.118789672852 -184.226913452148 2.601333618164
104.768814086914 -68.347053527832 -201.162200927734 4.114493370056
-161.058944702148 -71.132774353027 -188.261993408203 7.217202663422
-27.162012100220 -71.345817565918 -190.422286987305 1.287002086639
-116.605659484863 -67.974479675293 -190.523590087891 3.466365098953
-131.874649047852 -71.793151855469 -193.049804687500 2.482735395432
-108.909767150879 -68.321647644043 -199.397842407227 2.128144025803
-111.830406188965 -65.638900756836 -195.805099487305 1.506546735764
-18.509265899658 -66.197998046875 -200.853057861328 1.750095129013
16.573938369751 -72.761596679688 -200.531753540039 3.095021963120
-25.079195022583 -61.320625305176 -200.800781250000 7.285179615021
-127.977523803711 -67.886726379395 -197.902633666992 3.761192083359
-29.658536911011 -68.421974182129 -207.734527587891 5.725216865540
-131.059997558594 -75.735061645508 -198.734069824219 2.696148157120
-12.854632377625 -65.339508056641 -201.684890747070 3.095367193222
-146.286819458008 -71.070808410645 -197.771865844727 0.874011337757
87.524337768555 -69.297851562500 -215.858642578125 2.437252044678
-167.180480957031 -71.154914855957 -198.110992431641 3.497539997101
-1.914355993271 -71.816177368164 -214.999984741211 1.711686730385
11.498244285583 -62.241931915283 -214.880844116211 6.016943931580
5.684364795685 -64.634170532227 -218.136611938477 6.394704341888
80.285774230957 -69.319900512695 -223.925354003906 2.548172950745
-0.272029012442 -64.910911560059 -219.077285766602 4.515826702118
12.924658775330 -70.838424682617 -215.587142944336 1.419499397278
-16.386472702026 -76.252662658691 -211.754196166992 1.355412006378
-90.670021057129 -71.143638610840 -211.082397460938 3.512146711349
-105.464195251465 -72.891921997070 -214.723571777344 5.960883140564
-5.786921024323 -69.245307922363 -222.400558471680 1.548634767532
-173.071960449219 -71.274223327637 -226.529083251953 6.567014217377
8.551073074341 -66.946441650391 -220.445861816406 3.878847360611
-145.219665527344 -72.814865112305 -217.853790283203 0.702185213566
8.977009773254 -66.205139160156 -228.088684082031 3.414011716843
-137.420333862305 -71.841011047363 -215.873016357422 7.578595638275
-118.614723205566 -69.445182800293 -225.476730346680 1.888880848885
17.500741958618 -62.829254150391 -227.857528686523 8.048501014709
70.293060302734 -68.667488098145 -235.718627929688 1.770900249481
-0.666617989540 -66.871879577637 -227.896728515625 1.531312465668
-118.842453002930 -73.487686157227 -214.832031250000 10.260960578918
69.905723571777 -68.489082336426 -231.126556396484 0.898817658424
74.941596984863 -71.926300048828 -236.936798095703 2.618835449219
-125.169624328613 -71.393745422363 -225.760421752930 1.718040943146
-124.949134826660 -73.529586791992 -228.683792114258 1.350635647774
-14.558469772339 -69.358100891113 -232.457138061523 1.875413060188
65.361694335938 -73.110244750977 -232.731536865234 2.654318332672
64.087257385254 -67.020347595215 -240.747817993164 0.875927031040
68.086723327637 -68.093261718750 -238.920181274414 1.031163334846
-137.436111450195 -74.131797790527 -234.283477783203 3.737476110458
64.584060668945 -76.165672302246 -238.182754516602 2.402626752853
60.364707946777 -74.134132385254 -239.628067016602 2.298322916031
-170.960372924805 -74.547515869141 -220.682403564453 6.299737453461
-5.016192913055 -72.215888977051 -244.002410888672 1.903292655945
10.514291763306 -68.497283935547 -248.638183593750 4.683731555939
-6.733726978302 -73.152000427246 -245.044952392578 1.828031420708
10.724566459656 -74.658004760742 -247.037796020508 2.241246461868
66.206520080566 -71.566635131836 -245.593032836914 2.719794034958
5.989004135132 -75.395874023438 -241.414382934570 1.842414379120
-11.003234863281 -67.011970520020 -246.134582519531 1.137340307236
-10.301321983337 -72.154121398926 -248.744827270508 0.832389414310
62.396808624268 -68.596321105957 -250.419326782227 4.423551559448
2.201308965683 -73.269248962402 -248.718536376953 4.517665863037
-14.287200927734 -70.129379272461 -239.911880493164 2.187379360199
11.071374893188 -72.929229736328 -249.746170043945 5.259907245636
-168.801208496094 -64.426239013672 -234.836410522461 5.215645790100
57.365913391113 -67.565475463867 -254.795150756836 5.637920379639
48.272594451904 -69.028472900391 -256.720611572266 2.588839530945
53.061973571777 -74.516830444336 -245.480819702148 3.143220663071
-19.446092605591 -68.860191345215 -254.617370605469 5.043559551239
48.991619110107 -73.992233276367 -248.948776245117 1.948312401772
-78.525588989258 -73.400276184082 -246.997726440430 2.454485177994
47.192390441895 -71.968009948730 -255.668548583984 3.113451480865
-92.823173522949 -73.357910156250 -253.421203613281 1.402602076530
-133.244293212891 -73.827026367188 -249.224166870117 5.690256118774
-139.802093505859 -64.423797607422 -246.588775634766 7.011810302734
48.462699890137 -67.469886779785 -262.387329101563 8.028309822083
-143.113983154297 -66.814857482910 -252.388366699219 2.573085546494
-108.993995666504 -79.935890197754 -247.856094360352 11.797412872314
-115.754951477051 -69.730735778809 -254.698928833008 1.781895995140
-89.441246032715 -71.396705627441 -247.621643066406 4.127432823181
-117.719673156738 -72.663185119629 -260.321228027344 2.275630712509
-130.349044799805 -66.102539062500 -262.730987548828 2.565683603287
-149.245880126953 -70.683845520020 -260.608062744141 2.084807157516
-16.330160140991 -72.348503112793 -260.849639892578 1.884713292122
-179.022460937500 -69.249282836914 -261.616058349609 11.563452720642
-13.341280937195 -74.417747497559 -272.198059082031 1.501071453094
-162.712051391602 -63.903198242188 -259.188476562500 5.007328033447
-160.452697753906 -65.924217224121 -265.615966796875 3.340013980865
-174.711273193359 -62.781211853027 -266.196319580078 10.492216110229
-17.997850418091 -66.518051147461 -277.619903564453 7.369850158691
-139.292343139648 -70.413101196289 -278.425567626953 6.625060558319
-162.634262084961 -65.792816162109 -283.171142578125 4.321673870087
-148.255050659180 -69.463546752930 -276.839355468750 1.956565976143
-142.722259521484 -72.776657104492 -279.601715087891 3.471881151199
-15.188881874084 -70.852272033691 -281.208343505859 5.623220920563
-129.443344116211 -75.500679016113 -278.057525634766 7.197203636169
-147.858352661133 -71.002815246582 -280.832061767578 2.671659946442
-119.369079589844 -67.723999023438 -281.315856933594 6.388773918152
-85.002975463867 -66.696517944336 -289.009399414063 2.714873790741
-67.450263977051 -70.878456115723 -280.541625976563 6.005879878998
-11.434753417969 -70.861007690430 -289.606811523438 1.588433861732
-55.171726226807 -71.995666503906 -289.614654541016 0.915540516376
-69.306632995605 -72.835571289063 -285.459930419922 2.237795352936
-75.979293823242 -67.579338073730 -289.631134033203 1.931663155556
-93.688941955566 -71.229080200195 -294.909545898438 3.310933828354
-112.863906860352 -63.100063323975 -284.328674316406 6.269568920135
-164.869705200195 -70.093986511230 -284.536590576172 1.976447105408
-159.954406738281 -68.280082702637 -282.023132324219 2.837608337402
-133.658660888672 -72.753929138184 -293.213470458984 1.495380163193
-151.278411865234 -69.621513366699 -287.089080810547 0.961922287941
-164.543853759766 -67.354164123535 -292.488861083984 3.725009679794
-154.412704467773 -70.409576416016 -312.910736083984 1.240280985832
52.312137603760 -70.121307373047 -25.241657257080 1.948905706406
25.725149154663 -81.688957214355 -28.119159698486 9.241746902466
52.093448638916 -73.081321716309 -42.167736053467 8.567570686340
-15.551321983337 -73.359657287598 -66.290092468262 2.078677654266
84.288909912109 -69.986328125000 -72.309890747070 3.483838081360
89.131477355957 -63.684329986572 -78.859054565430 9.458863258362
79.817192077637 -69.114875793457 -80.085578918457 7.586658000946
82.690170288086 -70.675064086914 -73.236007690430 3.891245603561
102.094329833984 -71.872680664063 -80.488304138184 2.060430049896
-93.048851013184 -75.160987854004 -71.495880126953 3.782655954361
71.992599487305 -73.645217895508 -83.947944641113 1.519929289818
-31.448734283447 -68.164604187012 -76.736618041992 2.301671504974
101.871444702148 -71.983985900879 -93.501800537109 1.927569985390
69.442764282227 -78.780120849609 -93.545501708984 5.897469997406
114.492080688477 -69.503761291504 -96.484184265137 6.662494659424
109.218734741211 -74.887229919434 -105.058769226074 1.705516934395
74.938560485840 -74.113998413086 -101.432655334473 1.759251117706
-75.893432617188 -72.492294311523 -97.106460571289 2.387990474701
58.612892150879 -72.762451171875 -115.165107727051 9.410997390747
111.076988220215 -72.597480773926 -112.905029296875 1.251383423805
51.015781402588 -77.878791809082 -119.785392761230 5.165737152100
89.147949218750 -72.007759094238 -107.133636474609 2.348492145538
46.146629333496 -77.717491149902 -115.463905334473 1.168463349342
108.935867309570 -68.253036499023 -105.637779235840 1.513213038445
51.065296173096 -69.725082397461 -111.613151550293 3.321534872055
114.697929382324 -74.658599853516 -120.272140502930 1.394260525703
109.254104614258 -70.280052185059 -123.557617187500 1.484686374664
-76.739532470703 -61.229129791260 -111.841308593750 2.413412094116
-72.584053039551 -70.509963989258 -112.460029602051 3.297714471817
44.238136291504 -70.644515991211 -121.220787048340 1.530075311661
118.728408813477 -64.976470947266 -124.323303222656 6.396890640259
118.265838623047 -67.240173339844 -128.617675781250 4.538251876831
-77.761383056641 -70.881500244141 -123.891067504883 2.107754230499
110.517936706543 -69.363296508789 -128.191024780273 1.894353985786
-66.309509277344 -71.102035522461 -134.693359375000 5.257486343384
-87.747192382813 -67.377807617188 -124.958808898926 1.836497426033
-72.648460388184 -68.959938049316 -127.478210449219 2.771418333054
-55.418083190918 -64.228607177734 -123.284957885742 1.258276462555
38.476722717285 -69.675201416016 -134.174575805664 2.305052042007
44.847068786621 -68.879264831543 -138.401153564453 7.430866718292
-73.326339721680 -72.374099731445 -132.738143920898 2.149269104004
29.876050949097 -67.468940734863 -132.528488159180 2.238704204559
105.372825622559 -73.402198791504 -140.954681396484 4.436056137085
-37.013740539551 -71.404769897461 -149.580947875977 3.802533388138
26.283348083496 -69.668891906738 -147.989379882813 1.215543508530
110.052169799805 -62.405654907227 -153.453918457031 7.203958988190
36.442588806152 -73.050315856934 -147.834075927734 2.369930744171
111.894676208496 -72.460067749023 -151.035919189453 1.588180303574
-55.007110595703 -70.940437316895 -146.286209106445 1.225405693054
-65.935264587402 -74.225105285645 -148.254013061523 2.041404724121
-53.704845428467 -74.334602355957 -153.687561035156 2.228334426880
-46.596675872803 -68.868339538574 -169.324630737305 4.559328556061
0.603211998940 -67.922515869141 -154.542510986328 5.957894802094
109.922218322754 -63.739650726318 -161.425186157227 5.897171020508
107.109191894531 -67.639480590820 -168.931365966797 3.105980157852
9.495638847351 -63.615219116211 -162.597976684570 7.048607826233
-0.040724001825 -68.641921997070 -161.280990600586 3.788064002991
14.748607635498 -65.718124389648 -162.699935913086 5.694633007050
20.134004592896 -68.815383911133 -149.945693969727 2.453724622726
116.305076599121 -75.010200500488 -172.661941528320 3.294061183929
105.750839233398 -72.085578918457 -180.946365356445 1.289546132088
26.678363800049 -68.875564575195 -176.918731689453 3.198560237885
27.167686462402 -68.464164733887 -168.042388916016 1.072839379311
115.721107482910 -69.792335510254 -169.584487915039 3.012202024460
-32.799945831299 -67.811683654785 -173.732574462891 0.672417521477
112.651908874512 -67.449638366699 -178.667922973633 3.710171699524
20.362369537354 -63.577892303467 -182.844833374023 4.378936767578
14.404123306274 -73.480010986328 -167.593963623047 3.574167490005
107.336410522461 -68.074417114258 -185.946090698242 2.357901811600
22.431659698486 -70.293556213379 -172.662719726563 1.993092417717
108.896011352539 -65.186706542969 -187.874740600586 5.408429622650
-41.843391418457 -67.271148681641 -177.157775878906 6.061044692993
26.774261474609 -65.750373840332 -174.439117431641 3.871996641159
107.044570922852 -68.555007934570 -193.357498168945 3.625496149063
23.478651046753 -66.727493286133 -178.851974487305 1.457194447517
-154.383331298828 -65.271118164063 -173.579620361328 3.179479122162
-34.779438018799 -70.464653015137 -188.318634033203 3.876535654068
23.744815826416 -72.004180908203 -189.038696289063 2.282876968384
-114.836425781250 -69.714904785156 -192.021469116211 2.560380935669
-115.266189575195 -71.996261596680 -186.047393798828 4.634624481201
19.580795288086 -64.988143920898 -196.182067871094 2.270358562469
10.640722274780 -70.854110717773 -189.291656494141 2.335051298141
-27.980030059814 -73.242446899414 -192.983963012695 1.045715451241
-29.096157073975 -70.220565795898 -186.652999877930 1.541591167450
-26.252138137817 -72.086235046387 -186.245697021484 2.191065549850
20.859115600586 -73.887077331543 -181.182556152344 3.491289615631
-155.312301635742 -69.197822570801 -187.403610229492 3.033891201019
-148.971298217773 -72.519554138184 -196.423629760742 1.650058269501
-143.187515258789 -69.412200927734 -187.019409179688 1.564198017120
-19.123992919922 -65.006423950195 -192.680038452148 3.471391677856
14.405666351318 -69.071548461914 -201.275466918945 0.423238694668
96.772750854492 -70.963569641113 -203.138671875000 1.444024324417
-118.503425598145 -69.023048400879 -200.631347656250 4.148159980774
13.698335647583 -66.438110351563 -205.333328247070 2.908804655075
-17.779172897339 -67.748344421387 -195.950256347656 1.233158230782
-20.552131652832 -68.210586547852 -195.560195922852 1.363411545753
93.456008911133 -68.500572204590 -208.422927856445 3.148419380188
5.828918933868 -72.389793395996 -200.367797851563 3.019524097443
-29.838846206665 -68.757614135742 -194.522140502930 3.728985786438
-123.523918151855 -71.550613403320 -198.863708496094 1.131858706474
-136.506149291992 -67.685958862305 -193.855316162109 3.788756608963
-111.008834838867 -66.517951965332 -205.153747558594 2.694557905197
-149.112884521484 -69.974227905273 -198.983413696289 1.267826795578
19.636014938354 -71.372627258301 -200.108963012695 1.955148100853
93.219192504883 -72.565483093262 -214.818710327148 2.982107877731
-169.007263183594 -68.604576110840 -200.279586791992 3.651235342026
99.442558288574 -69.580589294434 -209.892166137695 4.024337768555
-17.904003143311 -68.896743774414 -212.455108642578 2.080901622772
87.622985839844 -76.976440429688 -220.815948486328 2.765268087387
88.670898437500 -65.659072875977 -225.296539306641 5.797827243805
7.474073886871 -67.553535461426 -213.995803833008 2.278722286224
11.610338211060 -69.810546875000 -212.877441406250 1.078156113625
6.584321022034 -69.715652465820 -215.762985229492 2.803555965424
-11.768322944641 -67.585517883301 -219.606536865234 0.818881809711
-102.338348388672 -68.405921936035 -216.201889038086 3.308114528656
-10.008525848389 -71.737686157227 -222.758163452148 0.691621840000
88.978149414063 -67.600883483887 -220.037689208984 3.150031089783
-95.142822265625 -72.797431945801 -219.401596069336 2.328471899033
-104.721313476563 -72.694160461426 -218.209167480469 3.274688720703
-98.951141357422 -66.972297668457 -216.553497314453 2.936370611191
86.415077209473 -73.907936096191 -228.053100585938 3.054500341415
-137.769088745117 -73.413543701172 -222.770629882813 5.041823863983
-136.082000732422 -59.823059082031 -228.413879394531 4.805118083954
-124.010955810547 -68.640914916992 -224.226837158203 1.147833585739
-116.179183959961 -66.780029296875 -221.730789184570 4.401391029358
-134.769790649414 -65.882156372070 -215.112228393555 9.674749374390
-109.532897949219 -78.075523376465 -224.250167846680 5.966062545776
-117.824546813965 -64.756469726563 -224.890365600586 4.338619232178
-16.461088180542 -65.739311218262 -224.834213256836 4.234936714172
-24.670192718506 -72.474502563477 -227.897125244141 4.465567588806
-4.685342788696 -69.698013305664 -235.087097167969 1.712131500244
-11.827846527100 -66.729934692383 -231.138397216797 1.578215479851
12.290007591248 -71.583511352539 -234.220504760742 1.718437314034
-22.409854888916 -70.891944885254 -227.762924194336 2.921549081802
-162.844512939453 -70.682975769043 -217.573272705078 3.316055059433
-5.863214969635 -67.954811096191 -231.420425415039 2.618978023529
79.242843627930 -70.105384826660 -234.378814697266 2.890815258026
3.495033979416 -67.084281921387 -239.469787597656 0.900535702705
-14.354424476624 -68.031028747559 -228.080490112305 1.280309200287
-158.171966552734 -63.992317199707 -226.074737548828 3.437986135483
-141.271606445313 -71.906440734863 -228.967926025391 1.980955362320
66.740600585938 -63.782672882080 -241.785629272461 3.530985116959
-11.750673294067 -67.860527038574 -234.420150756836 1.577819824219
-3.289937019348 -67.314140319824 -237.418411254883 1.167302846909
70.039756774902 -68.367950439453 -245.282455444336 4.686998844147
73.519981384277 -69.917541503906 -242.428787231445 4.304965019226
61.891380310059 -73.240447998047 -240.243484497070 2.280601263046
-7.219095230103 -65.263511657715 -236.963714599609 1.216878056526
49.970252990723 -69.026519775391 -242.276336669922 2.214668273926
-19.090366363525 -68.036735534668 -239.453521728516 2.853316545486
-19.310234069824 -66.492729187012 -240.703948974609 4.440390586853
5.224569797516 -69.552024841309 -240.817459106445 1.021254658699
61.888038635254 -68.229301452637 -252.024581909180 5.602048397064
54.859432220459 -69.534042358398 -243.689727783203 1.076725244522
49.444068908691 -63.937065124512 -251.361129760742 1.184679627419
57.735946655273 -72.211250305176 -249.526290893555 1.757058501244
-21.630277633667 -64.855804443359 -246.413681030273 8.390347480774
-88.583534240723 -65.528594970703 -244.469177246094 8.096021652222
-82.277618408203 -63.386833190918 -251.706909179688 5.610116958618
36.497314453125 -68.064727783203 -254.757202148438 1.780874729156
-147.114898681641 -64.337936401367 -243.165206909180 1.898977518082
36.226943969727 -69.113304138184 -263.182800292969 3.552762508392
-88.338142395020 -69.574645996094 -249.800109863281 1.917677760124
-158.250854492188 -70.130508422852 -250.840255737305 2.025239467621
-149.094543457031 -67.597122192383 -250.736129760742 2.694298028946
43.647468566895 -70.406822204590 -255.652572631836 2.565562009811
-132.461181640625 -67.218711853027 -246.576782226563 8.055337905884
-122.887672424316 -68.732292175293 -252.463912963867 3.053300380707
-100.886886596680 -68.362159729004 -250.062606811523 4.359626770020
-22.737051010132 -75.843345642090 -255.392425537109 8.995486259460
27.158369064331 -69.206321716309 -263.412261962891 0.832142174244
15.464129447937 -73.281532287598 -264.511047363281 6.750862121582
-160.021209716797 -68.104888916016 -249.097518920898 0.991599977016
-118.047317504883 -68.390937805176 -260.507141113281 2.830494880676
-16.664234161377 -70.303009033203 -259.395843505859 3.149588584900
-139.985778808594 -67.293777465820 -261.103424072266 0.794989645481
-17.651702880859 -66.219886779785 -274.182403564453 6.318692207336
-167.328399658203 -68.402336120605 -274.108154296875 1.348363399506
-15.575913429260 -63.196586608887 -276.201477050781 5.536866664886
-169.939849853516 -65.807670593262 -284.957427978516 5.235464096069
-162.645141601563 -68.242401123047 -271.367523193359 2.158077716827
-158.293991088867 -66.324966430664 -279.864654541016 5.274683952332
-175.886657714844 -67.442436218262 -276.795440673828 8.799344062805
14.338453292847 -62.278396606445 -290.870971679688 2.485429286957
-111.654472351074 -73.671470642090 -283.074523925781 4.492201805115
-95.158889770508 -66.128395080566 -282.716949462891 5.821601867676
-177.151077270508 -67.672607421875 -277.379821777344 9.950538635254
-95.284927368164 -70.513198852539 -287.653533935547 1.525295615196
-164.376770019531 -74.246917724609 -283.690185546875 1.265378952026
-82.767578125000 -70.686798095703 -290.828186035156 1.436595201492
-73.465026855469 -68.526420593262 -288.903869628906 1.375025987625
-88.376983642578 -66.454811096191 -288.158508300781 2.946681976318
-9.096513748169 -62.692024230957 -288.848205566406 5.460309505463
-91.240638732910 -69.668190002441 -290.150665283203 1.655292749405
-103.527999877930 -69.038574218750 -288.285644531250 2.653283119202
-125.266204833984 -67.013732910156 -289.460113525391 1.179199695587
-123.056266784668 -65.824409484863 -291.966766357422 2.632422924042
-146.663833618164 -62.670116424561 -287.396057128906 1.607826471329
-148.494247436523 -76.513244628906 -294.751831054688 0.683079838753
-152.891632080078 -74.234367370605 -305.524383544922 3.010877609253
32.456050872803 -70.979827880859 -21.150897979736 3.494308471680
35.466964721680 -66.968734741211 -28.376996994019 8.185811042786
36.659103393555 -74.820022583008 -20.277759552002 4.945651531219
53.027172088623 -72.580574035645 -31.856267929077 4.407101631165
26.109054565430 -73.314910888672 -34.692985534668 2.205845832825
-76.208992004395 -69.233322143555 -49.463859558105 2.072126388550
88.063682556152 -69.667549133301 -71.061134338379 3.507205963135
-8.074109077454 -69.173873901367 -68.775337219238 5.410384178162
105.428367614746 -72.773979187012 -78.695953369141 5.234779834747
98.300506591797 -65.058105468750 -86.110008239746 5.348101139069
77.362152099609 -76.255279541016 -88.535278320313 1.988036632538
71.106704711914 -67.326576232910 -92.696258544922 4.009794712067
-46.933628082275 -68.720863342285 -81.505943298340 2.813941478729
61.985641479492 -70.041160583496 -85.555801391602 0.673183441162
-97.303710937500 -70.529838562012 -86.247444152832 1.844152927399
-45.308006286621 -70.725265502930 -88.616256713867 4.548091888428
-53.694587707520 -73.899551391602 -82.837356567383 5.388268947601
97.346023559570 -70.271057128906 -103.474143981934 2.614296674728
58.291004180908 -70.596565246582 -107.431747436523 5.292436122894
63.730602264404 -66.182403564453 -96.320129394531 2.630186557770
-91.751533508301 -68.876029968262 -92.160148620605 4.905504703522
111.855354309082 -65.438217163086 -100.763954162598 4.125575542450
50.379882812500 -69.333175659180 -97.447265625000 2.904455900192
104.036041259766 -66.946563720703 -103.834335327148 0.765125155449
108.158470153809 -68.693756103516 -114.231994628906 1.728240609169
102.020874023438 -67.678565979004 -110.226310729980 2.949977397919
77.290283203125 -68.336662292480 -110.423255920410 3.757857799530
87.099525451660 -68.410545349121 -113.968376159668 7.024881839752
47.766223907471 -72.625846862793 -114.256187438965 1.517143249512
109.065345764160 -66.346351623535 -115.197593688965 1.488695263863
48.953506469727 -70.156303405762 -114.031524658203 1.976638555527
49.261981964111 -66.529289245605 -105.676910400391 1.025086283684
107.298439025879 -72.293975830078 -124.611152648926 2.223304271698
