-34.331905364990 -89.871612548828 -243.952514648438 9.673697471619
-145.460372924805 -82.400680541992 -232.753097534180 0.931867420673
-44.162837982178 -82.929550170898 -238.729080200195 4.207629203796
-48.338272094727 -87.340003967285 -244.403640747070 7.491779804230
-29.422809600830 -87.925292968750 -247.613281250000 9.836091041565
11.729235649109 -85.306228637695 -248.991729736328 3.559787988663
-47.553054809570 -88.416412353516 -243.731170654297 8.328288078308
18.515466690063 -88.678039550781 -244.967971801758 6.112319469452
10.183116912842 -80.509971618652 -236.359115600586 1.162278413773
7.647480010986 -88.567520141602 -246.070678710938 7.572118282318
-45.160587310791 -83.369331359863 -249.679183959961 5.435860157013
16.101461410522 -88.082061767578 -248.694641113281 5.166501998901
-141.305831909180 -88.964447021484 -244.652984619141 7.414362907410
21.269882202148 -86.786285400391 -251.572158813477 6.792994499207
2.156770944595 -89.676345825195 -245.432022094727 9.123790740967
6.044556140900 -85.357505798340 -255.823059082031 2.373268365860
-152.817489624023 -85.271774291992 -254.562728881836 1.797711491585
-152.570190429688 -84.692710876465 -255.273101806641 1.126538276672
-146.742843627930 -92.314178466797 -259.320434570313 7.640159130096
-158.029449462891 -83.246398925781 -255.004623413086 4.957089424133
11.578004837036 -88.029632568359 -272.299774169922 5.870334148407
-157.768234252930 -81.954399108887 -272.126922607422 7.159519672394
-9.601831436157 -87.403884887695 -281.676879882813 10.538763999939
-158.290328979492 -78.611778259277 -267.858978271484 4.668412208557
-147.319641113281 -86.713912963867 -268.112915039063 1.672220587730
-155.358306884766 -86.340133666992 -271.867950439453 5.490003108978
-156.785537719727 -84.490272521973 -279.983184814453 5.914802551270
-138.578536987305 -82.741760253906 -283.521331787109 4.015710830688
-153.370849609375 -91.676651000977 -286.542327880859 5.866461753845
-156.877471923828 -99.040596008301 -284.561889648438 13.947344779968
-154.728973388672 -88.735839843750 -294.699371337891 4.993314266205
-157.984878540039 -85.777801513672 -289.065612792969 4.323352813721
-151.614456176758 -80.274055480957 -289.807891845703 1.537796378136
-153.397857666016 -87.873458862305 -297.213500976563 3.639295816422
-152.601715087891 -87.208686828613 -296.747161865234 2.518283605576
-150.448272705078 -84.782875061035 -296.096221923828 1.443809151649
-46.780357360840 -75.575561523438 -54.165203094482 2.558416843414
-50.633026123047 -77.541076660156 -57.259449005127 1.450768113136
-40.681289672852 -75.226142883301 -63.981933593750 3.245766639709
-24.230289459229 -81.660575866699 -74.915878295898 3.996542692184
-51.404193878174 -75.791099548340 -86.863533020020 2.912499666214
-81.240356445313 -83.088172912598 -99.742439270020 2.740573883057
55.767772674561 -83.796394348145 -112.438804626465 9.552947998047
-75.771430969238 -79.855216979980 -100.761528015137 1.241195321083
42.549518585205 -77.776870727539 -114.314262390137 0.904993832111
41.721397399902 -79.738960266113 -127.377807617188 1.961272954941
38.625755310059 -77.036361694336 -124.419296264648 1.767948865891
39.984764099121 -76.521270751953 -140.808029174805 3.138956785202
34.098121643066 -77.562660217285 -143.213180541992 1.432292103767
37.780059814453 -80.072097778320 -134.932022094727 1.144281506538
31.627716064453 -79.238807678223 -152.901290893555 2.313192129135
-39.249366760254 -81.162475585938 -145.203857421875 5.690611362457
31.108802795410 -75.972114562988 -146.137344360352 2.144308328629
-58.192359924316 -80.365951538086 -152.241226196289 7.349437236786
-36.483036041260 -84.439956665039 -150.689453125000 7.919285774231
-55.151248931885 -82.925872802734 -166.494400024414 5.474296569824
-41.887912750244 -81.979263305664 -161.146789550781 2.180772781372
33.549297332764 -83.956993103027 -157.661087036133 5.827083110809
-34.231975555420 -85.746063232422 -166.005722045898 5.630093097687
-0.447136998177 -76.414764404297 -166.937561035156 2.426075696945
34.358585357666 -80.550605773926 -160.534133911133 4.534437179565
-13.887852668762 -84.059974670410 -166.577514648438 6.802460670471
-63.266002655029 -76.527519226074 -163.720657348633 0.355039536953
-37.785419464111 -83.039039611816 -167.346084594727 2.855937957764
-26.248517990112 -75.786849975586 -179.606643676758 1.557298421860
31.834701538086 -82.766731262207 -177.627136230469 7.983346462250
-55.050994873047 -83.028396606445 -179.302093505859 2.488621711731
-27.691896438599 -76.340568542480 -179.166564941406 2.280124664307
25.624607086182 -84.075813293457 -184.541534423828 6.678884029388
-52.402591705322 -80.883789062500 -185.179336547852 1.613478302956
-24.164554595947 -78.610237121582 -191.501007080078 0.964070260525
-54.391414642334 -79.626991271973 -178.998779296875 2.455676078796
-35.412872314453 -85.140739440918 -200.039428710938 4.689775466919
-29.440822601318 -88.376350402832 -190.845947265625 3.706069469452
-37.817741394043 -84.190567016602 -192.922378540039 2.856127262115
-24.979211807251 -79.466598510742 -195.592193603516 0.723510026932
-132.996337890625 -79.816047668457 -196.986328125000 2.308661222458
16.920379638672 -82.349639892578 -207.285491943359 3.624555826187
-139.941329956055 -75.495994567871 -193.101272583008 3.445708274841
-25.793441772461 -80.152709960938 -202.729187011719 5.073810577393
-16.689905166626 -76.321594238281 -199.772048950195 2.217157125473
-40.361537933350 -76.533966064453 -192.918792724609 1.418865203857
13.744075775146 -84.096054077148 -192.281158447266 6.842992305756
-17.471632003784 -82.241325378418 -202.647903442383 2.450492620468
-61.049484252930 -80.664398193359 -210.077438354492 0.707154452801
-38.528041839600 -77.441879272461 -201.931869506836 1.598579883575
-63.886707305908 -80.360443115234 -206.433624267578 2.071323394775
-71.671478271484 -81.499664306641 -206.448150634766 1.576963543892
22.558055877686 -83.385513305664 -218.500061035156 7.525071144104
-88.270248413086 -86.575195312500 -209.103637695313 9.725469589233
-30.174171447754 -84.678939819336 -221.069961547852 7.968254566193
-85.025657653809 -85.776283264160 -210.942428588867 6.982601165771
-148.178329467773 -84.762649536133 -214.934494018555 2.389670610428
-10.421076774597 -82.896774291992 -213.666305541992 3.274125337601
-11.632545471191 -79.693481445313 -224.678344726563 3.354518890381
15.365797042847 -82.022857666016 -211.065429687500 2.852909564972
13.314697265625 -87.462471008301 -224.615005493164 6.530719757080
-5.682138919830 -82.718864440918 -234.474304199219 5.636932849884
-132.666168212891 -84.264739990234 -220.690811157227 7.177513599396
-146.746139526367 -85.143112182617 -222.482757568359 2.475821495056
-148.341491699219 -74.631431579590 -228.498016357422 1.711003541946
9.932188034058 -85.136169433594 -233.146560668945 3.440466880798
0.624521970749 -83.763961791992 -237.630172729492 5.186281681061
-28.180294036865 -80.035369873047 -231.445114135742 7.390275001526
-149.291244506836 -85.028541564941 -228.316696166992 1.684860587120
6.817440986633 -80.297615051270 -247.966766357422 0.687262773514
-28.225975036621 -85.360603332520 -247.062850952148 7.584451675415
17.546909332275 -80.149215698242 -237.191177368164 2.562307357788
-58.340763092041 -85.599304199219 -246.155151367188 7.281101226807
-53.645969390869 -78.414710998535 -248.591003417969 1.532785654068
-145.874389648438 -83.412658691406 -239.498138427734 0.844111979008
-62.613842010498 -85.165107727051 -246.113281250000 7.333590984344
-7.454027175903 -76.716323852539 -256.731719970703 4.175054073334
-11.614789962769 -86.530639648438 -255.176040649414 6.822435379028
-151.398620605469 -85.241584777832 -253.075653076172 2.368084907532
-136.689880371094 -83.394866943359 -254.427947998047 2.559603452682
-137.844970703125 -82.921859741211 -257.977844238281 1.774345397949
14.518913269043 -79.049995422363 -265.211395263672 3.386316537857
-148.267288208008 -90.655258178711 -266.709075927734 4.911970138550
16.046138763428 -92.267761230469 -271.988067626953 10.069403648376
-152.278732299805 -80.992340087891 -261.293518066406 2.030710458755
3.930984020233 -96.185806274414 -278.007812500000 13.273046493530
-152.024459838867 -83.622673034668 -278.416625976563 1.094828486443
-2.223247051239 -82.066596984863 -287.032440185547 5.640801429749
-161.316970825195 -90.819969177246 -278.354644775391 12.056273460388
-144.010528564453 -85.513343811035 -289.058868408203 1.116659164429
-139.129150390625 -86.545654296875 -276.579559326172 7.325250148773
-153.350555419922 -88.672996520996 -287.573028564453 3.468984842300
-20.574296951294 -88.077301025391 -291.371063232422 10.160211563110
-158.195816040039 -84.359138488770 -286.700714111328 4.272349357605
-153.791915893555 -87.741233825684 -287.510711669922 2.721256971359
-153.971908569336 -82.449745178223 -305.871032714844 4.695991039276
-48.809185028076 -71.999839782715 -60.135337829590 5.750989437103
-31.772577285767 -77.598602294922 -63.590450286865 3.628521442413
-59.949764251709 -77.139869689941 -57.804073333740 0.252344489098
-24.490964889526 -73.950584411621 -72.903083801270 3.256870269775
-24.811586380005 -81.523948669434 -75.051452636719 3.623722791672
-82.359870910645 -73.497741699219 -86.521018981934 7.243632316589
90.987770080566 -71.155387878418 -88.515129089355 5.554852962494
-32.589561462402 -72.753379821777 -81.262794494629 3.472002029419
87.102798461914 -80.256942749023 -86.139358520508 3.306626319885
81.054046630859 -74.864852905273 -93.975784301758 1.487936854362
92.503364562988 -69.168220520020 -101.040946960449 3.191405296326
87.649291992188 -72.494407653809 -97.442237854004 3.122491836548
99.959609985352 -74.556976318359 -97.449020385742 3.084218263626
-80.510009765625 -70.539566040039 -93.381042480469 6.992121219635
60.222179412842 -72.692283630371 -110.510101318359 8.169465065002
-90.142936706543 -74.072372436523 -116.759834289551 2.180984020233
38.096126556396 -77.836166381836 -116.232124328613 0.867596685886
56.178256988525 -77.548583984375 -117.138633728027 8.369830131531
41.347114562988 -77.843078613281 -122.342308044434 2.655015468597
34.543281555176 -78.967010498047 -132.539947509766 1.708083033562
29.361347198486 -81.886505126953 -145.630493164063 2.512570142746
33.703781127930 -78.908264160156 -148.247573852539 1.043778538704
34.850212097168 -77.323165893555 -156.406005859375 2.691237688065
-48.210998535156 -81.043762207031 -151.329650878906 1.845394015312
-42.318771362305 -81.764152526855 -152.678237915039 3.408203363419
-38.552337646484 -83.392448425293 -155.213623046875 4.210962295532
29.961818695068 -84.005004882813 -150.325988769531 4.080119132996
23.565362930298 -77.891494750977 -174.037200927734 2.291450500488
-36.305133819580 -80.045318603516 -159.149749755859 2.267631530762
-31.286142349243 -76.947204589844 -154.850128173828 5.303532600403
-47.099456787109 -74.552551269531 -152.928634643555 2.745775699615
1.378254055977 -80.617530822754 -171.093902587891 3.954138994217
29.979198455811 -78.040824890137 -162.928756713867 1.208114743233
32.016593933105 -69.785400390625 -161.947311401367 2.117103338242
28.318080902100 -80.559959411621 -171.492218017578 2.369584083557
-5.807372093201 -78.302558898926 -170.070220947266 2.522625207901
0.251837998629 -80.108108520508 -172.660568237305 4.408690452576
-51.957511901855 -76.572364807129 -176.816619873047 1.520399689674
-59.765419006348 -80.153030395508 -165.482406616211 1.438782930374
-34.861209869385 -82.108299255371 -178.124420166016 3.517610549927
-35.274864196777 -77.084373474121 -166.512710571289 1.550204038620
24.225524902344 -80.186622619629 -175.498474121094 1.618917822838
-21.598819732666 -84.339462280273 -180.502700805664 1.071350574493
-36.662654876709 -88.197875976563 -182.266448974609 7.787646293640
-59.465328216553 -84.866050720215 -178.794692993164 5.462316036224
105.171653747559 -82.846900939941 -184.197418212891 5.647158145905
20.826313018799 -78.342437744141 -172.418945312500 0.726713657379
-22.254253387451 -77.809860229492 -178.773406982422 1.373563766479
-49.098579406738 -77.057937622070 -180.102981567383 1.218962788582
-12.696640968323 -76.185836791992 -178.990036010742 1.615680694580
108.241439819336 -81.986152648926 -186.944320678711 5.275506496429
-45.163776397705 -80.147377014160 -185.106765747070 1.697952151299
16.360939025879 -81.379028320313 -187.038986206055 3.436579227448
27.216783523560 -79.250022888184 -185.899856567383 4.421072959900
-51.486309051514 -80.474929809570 -182.308242797852 1.603697061539
-22.621053695679 -76.634437561035 -183.548568725586 1.430182695389
-55.802936553955 -84.557357788086 -174.073196411133 4.346632480621
-27.115566253662 -70.305671691895 -181.687896728516 0.882248282433
-24.295150756836 -80.998367309570 -183.896621704102 2.804869413376
22.141263961792 -85.195686340332 -189.316101074219 6.892273902893
-48.102336883545 -83.730369567871 -187.422470092773 3.419116497040
104.105163574219 -81.978340148926 -196.723815917969 4.879363059998
-49.135246276855 -74.992973327637 -191.157577514648 1.380701780319
15.951657295227 -85.022575378418 -203.685241699219 5.757596969604
13.974769592285 -80.395561218262 -205.533935546875 0.844071090221
-43.024536132813 -82.119201660156 -188.453018188477 4.594870567322
-15.909143447876 -77.736862182617 -191.455474853516 1.735369801521
103.718215942383 -83.639724731445 -204.284286499023 7.962105751038
107.503227233887 -84.922317504883 -203.163223266602 10.412463188171
-45.057594299316 -72.889671325684 -191.284194946289 1.792476534843
-150.408355712891 -81.636268615723 -185.978240966797 2.290943861008
-52.973651885986 -76.594261169434 -200.315567016602 3.284533023834
-146.078369140625 -78.425979614258 -195.680145263672 2.009672641754
-134.213241577148 -78.541526794434 -197.737167358398 1.243896722794
-41.441646575928 -75.806106567383 -197.939224243164 1.912170886993
12.780620574951 -82.301292419434 -210.490051269531 2.759713888168
-18.547586441040 -79.178138732910 -199.898529052734 1.923186779022
15.763224601746 -86.700019836426 -209.190139770508 6.797173976898
86.473564147949 -86.425666809082 -217.381210327148 9.772847175598
-39.884204864502 -77.957069396973 -197.702651977539 0.676142215729
-12.675295829773 -83.450149536133 -204.899551391602 5.261737346649
-9.824744224548 -83.154747009277 -211.172317504883 4.439224720001
-38.141742706299 -80.910339355469 -211.121932983398 3.240233182907
6.985642910004 -89.692077636719 -210.629379272461 10.520695686340
-75.514389038086 -80.095092773438 -210.241928100586 1.307828664780
12.137486457825 -85.673789978027 -217.727340698242 4.818847656250
-38.133724212646 -79.859909057617 -213.638000488281 4.825223922729
-141.449249267578 -79.813026428223 -199.889526367188 1.900919795036
-145.643737792969 -83.108398437500 -208.542327880859 1.654211640358
-85.306854248047 -81.341621398926 -211.191421508789 3.590560913086
-32.861091613770 -81.225158691406 -209.745010375977 2.353468418121
-24.628984451294 -81.020080566406 -216.732437133789 2.182057857513
-27.763271331787 -83.583221435547 -213.578887939453 3.545301675797
-90.547729492188 -84.741210937500 -218.699920654297 7.644733428955
-84.971145629883 -81.071739196777 -211.050872802734 3.357570171356
10.304609298706 -80.698913574219 -220.907562255859 2.254263639450
-146.091506958008 -79.080436706543 -213.159255981445 1.790015459061
-12.440328598022 -79.569953918457 -212.543609619141 0.898317337036
7.242706775665 -87.025489807129 -220.701828002930 7.457948684692
-139.860366821289 -83.209381103516 -211.775527954102 5.305897235870
-22.599203109741 -85.211753845215 -224.645355224609 8.097111701965
-4.584792137146 -80.992393493652 -225.944473266602 1.259444952011
-0.872062981129 -82.383277893066 -219.718399047852 3.762389659882
-152.775436401367 -79.919624328613 -217.296096801758 3.240444421768
-133.575729370117 -77.236396789551 -221.289001464844 6.084704875946
-4.828493118286 -80.800346374512 -232.340744018555 2.875029325485
-149.442596435547 -85.948829650879 -222.830001831055 2.753887176514
-2.240897893906 -81.568778991699 -232.455535888672 2.766994953156
17.043699264526 -76.058525085449 -235.341003417969 1.077407598495
-6.695974826813 -77.904510498047 -240.896377563477 4.413657665253
0.692952990532 -83.426826477051 -233.177856445313 4.750452041626
8.173310279846 -90.674766540527 -238.069839477539 8.910306930542
-151.112503051758 -82.690628051758 -227.624496459961 1.443530917168
-18.258554458618 -82.184951782227 -238.945953369141 4.749938488007
-30.297517776489 -90.537582397461 -242.176803588867 10.625725746155
7.906663894653 -77.076309204102 -231.886474609375 1.054217338562
-1.518604040146 -78.684867858887 -240.935043334961 3.869073152542
4.623269081116 -83.768829345703 -237.596298217773 5.421100616455
-54.087131500244 -82.923126220703 -237.926162719727 7.230029582977
-155.596710205078 -79.439781188965 -241.290618896484 5.344814777374
-154.688018798828 -81.110038757324 -244.780899047852 5.054489135742
10.913433074951 -85.266265869141 -251.481658935547 3.162486076355
18.834289550781 -85.562446594238 -249.724273681641 3.804593563080
-60.124507904053 -82.110183715820 -247.992950439453 4.114897727966
-151.132797241211 -77.649101257324 -250.114837646484 2.336440801620
-155.452835083008 -88.800926208496 -250.488601684570 7.311645507813
-150.211624145508 -82.263603210449 -251.382827758789 2.395152807236
-149.024475097656 -88.133323669434 -251.227966308594 3.266928911209
-138.424880981445 -85.000450134277 -253.053649902344 4.559493064880
-15.531231880188 -82.212913513184 -259.708862304688 5.329617023468
-150.013244628906 -80.847404479980 -263.677368164063 2.150419473648
-14.405708312988 -87.948493957520 -259.674194335938 8.864888191223
-157.099731445313 -84.284461975098 -270.025512695313 6.155262947083
-158.142333984375 -87.235527038574 -278.262145996094 7.544693470001
-158.420700073242 -89.381759643555 -276.066345214844 9.050932884216
-11.092777252197 -79.900794982910 -293.585540771484 3.704605102539
-150.355850219727 -82.769950866699 -280.300964355469 2.880716323853
-41.218082427979 -84.076339721680 -279.556060791016 10.235211372375
-35.711269378662 -78.396842956543 -291.629852294922 2.100938558578
-26.890302658081 -83.946586608887 -285.070587158203 7.388218879700
-13.744880676270 -85.507171630859 -294.038269042969 8.967185020447
12.880390167236 -84.523117065430 -296.156829833984 7.360180854797
-129.638351440430 -83.038909912109 -283.986602783203 7.572186470032
-60.147132873535 -88.339080810547 -284.915832519531 12.134544372559
-44.310630798340 -83.023391723633 -295.589813232422 8.613873481750
-40.967205047607 -85.773452758789 -291.106597900391 8.580718994141
-14.061302185059 -85.680419921875 -290.056915283203 8.159733772278
3.763478040695 -82.773330688477 -289.393951416016 5.296561241150
-142.281585693359 -86.295982360840 -287.407409667969 0.887752532959
2.454566001892 -88.047904968262 -297.393920898438 12.453301429749
-161.899688720703 -89.029991149902 -301.225280761719 11.143806457520
-153.382141113281 -83.350227355957 -296.031616210938 3.041730403900
-156.449523925781 -82.922500610352 -306.898895263672 6.519338607788
-152.614273071289 -84.687286376953 -307.035644531250 6.396033763885
-45.754962921143 -71.101432800293 -50.667392730713 1.102983713150
-42.492935180664 -72.674919128418 -57.248905181885 3.385750532150
-63.677780151367 -72.172477722168 -53.957962036133 2.534029722214
-37.437526702881 -73.521316528320 -57.871219635010 2.685839176178
-34.412677764893 -67.415420532227 -59.838058471680 7.341475963593
-17.050825119019 -68.209793090820 -59.731971740723 2.083279609680
-74.621040344238 -73.972640991211 -64.401214599609 3.984719514847
88.402221679688 -73.073997497559 -87.941535949707 4.705934524536
-85.338844299316 -75.349967956543 -80.923149108887 3.147295951843
92.322067260742 -78.598762512207 -87.297462463379 1.756624579430
93.495758056641 -76.071723937988 -89.414962768555 0.958253622055
101.118209838867 -74.282882690430 -89.779220581055 3.009186029434
-54.368518829346 -80.350517272949 -91.959709167480 1.941413998604
92.719970703125 -79.766349792480 -99.324020385742 5.425382137299
87.212799072266 -73.147613525391 -99.398231506348 2.222640991211
101.249214172363 -78.615638732910 -99.634628295898 5.979250907898
-54.264389038086 -77.973983764648 -96.930465698242 3.948040485382
62.655174255371 -73.825942993164 -102.516647338867 6.166830062866
51.277790069580 -76.532447814941 -108.898277282715 2.082059144974
42.476047515869 -76.780487060547 -112.968208312988 1.899839758873
42.237812042236 -75.310356140137 -114.250144958496 3.248980045319
-88.598503112793 -73.589050292969 -112.575782775879 2.324859857559
39.091156005859 -79.192718505859 -122.521057128906 2.248129367828
-77.955619812012 -75.224174499512 -112.153007507324 4.856021404266
45.356880187988 -77.126876831055 -132.467163085938 5.201326370239
36.027965545654 -76.572166442871 -125.484077453613 2.732043027878
36.371959686279 -81.151817321777 -128.032196044922 2.024953603745
46.357578277588 -74.010063171387 -127.432670593262 3.595397949219
44.683441162109 -81.648139953613 -131.240554809570 6.032529830933
-53.320129394531 -68.618774414063 -142.462905883789 1.829160094261
40.814697265625 -80.221557617188 -136.983413696289 4.144176959991
40.089584350586 -78.366386413574 -144.701660156250 4.711547374725
-43.539623260498 -70.999557495117 -140.220306396484 1.972774982452
-45.422618865967 -81.463012695313 -141.010528564453 5.013227939606
37.555198669434 -77.919456481934 -147.536666870117 4.371340274811
110.988533020020 -75.876152038574 -149.091461181641 1.899625420570
112.414375305176 -76.819328308105 -152.610015869141 2.413013935089
30.923837661743 -81.028236389160 -148.363250732422 1.880192399025
-39.714813232422 -76.247283935547 -146.570846557617 2.797367095947
115.573265075684 -83.211280822754 -168.733047485352 7.068373680115
-41.291942596436 -76.639518737793 -157.396224975586 2.102583408356
-59.357460021973 -80.823471069336 -162.155426025391 3.523399829865
113.341613769531 -79.636108398438 -170.510925292969 3.845050096512
28.311380386353 -81.742301940918 -172.826843261719 3.456451177597
1.413210988045 -78.821228027344 -168.839691162109 2.041768312454
115.169975280762 -81.226509094238 -159.525329589844 4.710531711578
-59.336673736572 -80.526618957520 -159.141647338867 4.470885753632
-32.580986022949 -84.624954223633 -162.538314819336 5.538655281067
111.774421691895 -77.680755615234 -172.450408935547 2.065116643906
27.201757431030 -72.819381713867 -162.374114990234 2.359694719315
-65.434829711914 -78.834808349609 -169.628936767578 2.423366546631
108.016799926758 -76.089302062988 -181.162292480469 1.674454808235
-62.425445556641 -80.670257568359 -168.920257568359 1.627882242203
-51.756187438965 -82.418411254883 -177.968246459961 3.285989046097
106.574462890625 -79.283737182617 -187.580718994141 2.263759374619
-62.466255187988 -78.522193908691 -168.394958496094 1.582369208336
115.265357971191 -78.264106750488 -181.127639770508 5.834878921509
-56.257278442383 -81.982200622559 -171.164657592773 2.218487501144
-12.119226455688 -78.472366333008 -176.995544433594 1.330949664116
-8.076794624329 -79.624076843262 -181.133270263672 4.764916896820
106.960327148438 -80.115356445313 -177.759170532227 3.888039827347
24.189558029175 -78.046997070313 -170.078018188477 1.171266078949
31.452768325806 -80.970909118652 -171.019500732422 4.930537223816
-52.998908996582 -83.324928283691 -177.736267089844 3.191870927811
18.329208374023 -78.921768188477 -189.612197875977 0.863088607788
-55.278881072998 -81.351013183594 -180.717102050781 0.338360160589
-51.635486602783 -75.501663208008 -193.818603515625 2.697036027908
13.596796035767 -80.264350891113 -182.434295654297 4.329983234406
-61.377788543701 -76.417816162109 -185.549591064453 5.259848594666
112.457626342773 -75.450721740723 -193.558578491211 5.627659320831
21.638654708862 -80.670196533203 -182.796203613281 1.539928436279
-30.982057571411 -81.049270629883 -188.186203002930 1.941545367241
-45.325756072998 -75.604217529297 -196.108093261719 1.787582516670
10.795900344849 -78.635505676270 -200.078155517578 2.096732854843
-27.371814727783 -80.179435729980 -186.883239746094 2.094573974609
-53.489482879639 -79.951034545898 -196.592651367188 3.222822666168
100.087471008301 -83.844490051270 -195.537750244141 6.506947040558
14.057478904724 -76.587394714355 -193.792495727539 2.634192943573
-134.998840332031 -80.140800476074 -189.603118896484 7.572941780090
-41.466045379639 -77.042823791504 -190.915832519531 1.813554763794
104.588768005371 -83.395133972168 -202.872024536133 7.534339427948
-148.653289794922 -78.560989379883 -196.200729370117 2.393003940582
18.373958587646 -79.321495056152 -196.038284301758 2.403616905212
-46.542697906494 -90.080444335938 -203.461380004883 5.404314041138
-33.672653198242 -81.620895385742 -205.207443237305 1.939513087273
-41.139286041260 -75.709747314453 -205.359436035156 1.420137882233
-41.941005706787 -80.333656311035 -191.301528930664 2.225301742554
102.733245849609 -84.344947814941 -207.234634399414 8.861301422119
-17.599765777588 -78.737823486328 -203.117721557617 1.389657020569
-151.760955810547 -74.185943603516 -194.568023681641 2.672269582748
10.899273872375 -78.388328552246 -212.512084960938 2.124044179916
-70.566772460938 -82.054473876953 -200.448547363281 6.873738765717
-143.462432861328 -77.963531494141 -206.295349121094 1.137912750244
97.083145141602 -79.226379394531 -216.192153930664 5.312164306641
-35.590354919434 -80.636306762695 -206.875534057617 1.938255906105
-25.173175811768 -79.491500854492 -218.313049316406 1.837872743607
5.452108860016 -82.223884582520 -213.264480590820 4.517148971558
-72.535881042480 -78.638992309570 -210.988922119141 2.800974845886
-26.448345184326 -78.915641784668 -208.944396972656 1.562412977219
-9.564549446106 -85.757492065430 -220.009826660156 5.918072700500
-81.912376403809 -84.381889343262 -215.968444824219 5.503414630890
-13.785660743713 -85.468513488770 -221.203735351563 7.390528678894
9.352803230286 -80.152793884277 -218.897644042969 0.963422536850
16.886121749878 -90.145950317383 -224.757797241211 9.874711036682
-146.163436889648 -80.224388122559 -213.193908691406 1.804963588715
-3.837977886200 -77.509941101074 -218.820999145508 1.825172185898
-91.638122558594 -76.593612670898 -220.758911132813 1.981995105743
-23.793502807617 -75.679183959961 -219.513031005859 1.002527713776
94.561927795410 -82.694725036621 -219.255157470703 8.085059165955
5.449045181274 -84.153152465820 -232.012466430664 5.536940097809
14.013721466064 -86.431793212891 -217.516036987305 5.973931789398
77.427909851074 -73.115898132324 -228.684432983398 1.779492974281
2.324326992035 -80.100090026855 -228.667846679688 2.310456752777
84.566787719727 -79.015281677246 -228.990203857422 5.257430076599
-16.972272872925 -79.911315917969 -225.166748046875 2.672377109528
11.470727920532 -83.939048767090 -227.038208007813 2.417901515961
-151.128372192383 -82.450759887695 -220.304290771484 2.628224849701
-19.221078872681 -91.086242675781 -228.692276000977 13.921107292175
0.395024001598 -86.844802856445 -228.888534545898 7.175648689270
-151.469039916992 -83.497436523438 -223.122314453125 2.021621465683
-134.096099853516 -81.483955383301 -221.871917724609 5.433842658997
10.716277122498 -79.660102844238 -230.860336303711 0.598080635071
-8.328937530518 -81.442176818848 -245.080581665039 5.628958225250
-139.859619140625 -81.748870849609 -227.089324951172 1.255882978439
-150.775360107422 -85.695953369141 -229.357513427734 2.182312250137
-146.104751586914 -77.887901306152 -234.312820434570 1.115221261978
-25.016592025757 -82.305320739746 -234.702194213867 5.736445426941
-145.779174804688 -79.521011352539 -240.732574462891 1.009098529816
16.762636184692 -81.045059204102 -242.576034545898 3.030049562454
5.644120216370 -83.450469970703 -247.451309204102 3.045581579208
-154.831130981445 -77.654426574707 -231.291122436523 1.090477585793
-154.974639892578 -80.808242797852 -236.972061157227 5.069449901581
-46.693202972412 -82.091445922852 -239.243041992188 4.356916904449
-35.697059631348 -86.926750183105 -245.698806762695 7.429955482483
4.422439098358 -85.122421264648 -253.004470825195 1.493832230568
-36.322780609131 -79.642868041992 -248.447296142578 4.210134983063
22.131835937500 -85.477493286133 -255.820419311523 7.068734645844
-3.555982112885 -83.468788146973 -246.336517333984 4.510290622711
-157.691635131836 -79.231231689453 -247.069274902344 6.151185989380
-6.824865818024 -73.477859497070 -249.127929687500 2.117866516113
-141.731781005859 -84.246597290039 -247.625762939453 4.297030925751
-68.210281372070 -83.266090393066 -250.016281127930 6.134548664093
-157.468429565430 -89.088333129883 -251.537765502930 8.407493591309
-129.118515014648 -86.592254638672 -259.084197998047 6.785342216492
-153.003433227539 -78.025924682617 -254.275878906250 1.448026776314
-14.924400329590 -81.331359863281 -269.415832519531 5.314795494080
-147.747329711914 -84.764968872070 -258.774841308594 1.969116330147
-151.643630981445 -82.587738037109 -257.638519287109 2.017983675003
-14.124510765076 -86.039184570313 -269.075561523438 7.826286792755
-151.988571166992 -83.867301940918 -261.062896728516 1.481417536736
-9.466515541077 -88.382019042969 -286.486663818359 11.001552581787
-47.216186523438 -86.492042541504 -278.834014892578 12.765114784241
-143.724960327148 -86.275474548340 -279.148559570313 3.499264240265
-136.989929199219 -79.569450378418 -275.122833251953 9.413518905640
-129.243392944336 -82.837730407715 -278.291656494141 10.620682716370
-59.156997680664 -82.176368713379 -276.990081787109 11.521690368652
-117.977546691895 -83.719764709473 -287.044586181641 7.435107231140
10.969043731689 -92.571327209473 -292.315155029297 14.647370338440
-67.310157775879 -83.568542480469 -284.609680175781 7.903767585754
-145.231460571289 -80.170288085938 -281.131927490234 1.803248047829
-66.821060180664 -79.564888000488 -284.967926025391 4.278886318207
-148.124969482422 -90.884788513184 -284.588104248047 4.992244243622
-123.782257080078 -81.915161132813 -279.486694335938 8.968662261963
-51.538711547852 -83.531532287598 -291.839019775391 6.780677318573
-45.808826446533 -84.790817260742 -290.662689208984 8.382822990417
-138.977752685547 -83.812927246094 -285.128601074219 2.467490434647
-16.832254409790 -78.768959045410 -295.164825439453 4.394162178040
-6.721263885498 -89.248863220215 -294.423950195313 12.757684707642
4.198822021484 -84.687889099121 -293.556121826172 7.898831844330
8.061229705811 -84.298057556152 -296.558227539063 8.571799278259
-152.258087158203 -90.045295715332 -289.687713623047 4.035132884979
-149.408447265625 -81.862350463867 -292.664245605469 2.292184352875
-62.790641784668 -68.327278137207 -63.093357086182 10.216568946838
94.601692199707 -74.829566955566 -86.351028442383 1.909371495247
87.407699584961 -75.345977783203 -83.153793334961 2.140978336334
-19.693222045898 -78.654556274414 -74.788742065430 4.626587867737
93.374397277832 -72.424369812012 -80.261070251465 2.300388574600
-32.878704071045 -70.125282287598 -82.177284240723 5.181608200073
98.275779724121 -79.606536865234 -84.879333496094 5.744125843048
95.847923278809 -79.414924621582 -86.608871459961 4.409482955933
-65.335937500000 -70.566986083984 -92.799255371094 0.960863053799
86.344909667969 -74.566673278809 -96.381645202637 1.616381645203
86.190811157227 -71.719558715820 -105.105842590332 1.764270305634
99.227737426758 -73.371772766113 -96.327598571777 1.378544211388
59.958972930908 -74.953056335449 -95.709197998047 2.690444946289
-74.010520935059 -79.848983764648 -99.321220397949 2.331348419189
-79.582015991211 -69.462722778320 -97.211593627930 3.132386922836
55.911754608154 -74.666244506836 -116.192916870117 7.199692726135
-87.051864624023 -78.332298278809 -108.016006469727 3.181087017059
48.803493499756 -75.670570373535 -119.863876342773 2.628625631332
116.581581115723 -75.118263244629 -123.288795471191 2.658310651779
111.181838989258 -73.238609313965 -139.715118408203 1.984296202660
28.407880783081 -71.405998229980 -141.912017822266 1.985112667084
117.945564270020 -83.379676818848 -139.434478759766 7.948659896851
32.490901947021 -73.659324645996 -137.901199340820 3.568714618683
113.331634521484 -79.084678649902 -141.157806396484 2.717468261719
34.894908905029 -82.000747680664 -142.784805297852 4.176877021790
-49.897182464600 -80.514251708984 -152.244812011719 2.200719356537
38.919807434082 -77.320625305176 -144.804077148438 3.715153455734
116.508049011230 -75.660537719727 -145.330734252930 1.575399160385
-47.306213378906 -77.726264953613 -150.507980346680 1.795914411545
31.631839752197 -82.541778564453 -149.270858764648 2.938459396362
-50.970474243164 -76.282684326172 -133.062149047852 2.859582185745
-53.576839447021 -84.200981140137 -147.619110107422 6.612654685974
-50.371406555176 -72.054763793945 -151.488830566406 1.066183328629
-64.321533203125 -79.910255432129 -154.320358276367 3.331446409225
114.067558288574 -76.084472656250 -156.123535156250 1.579848766327
-48.384258270264 -75.153038024902 -151.004119873047 2.651312589645
20.997974395752 -80.729118347168 -163.869674682617 2.332899808884
111.552993774414 -84.130424499512 -165.414733886719 7.254582405090
-65.674163818359 -81.098205566406 -153.967086791992 4.109818458557
-46.430149078369 -75.086959838867 -157.483932495117 1.458371043205
9.091762542725 -76.572685241699 -161.026092529297 2.505861759186
-60.116870880127 -72.527770996094 -156.238739013672 3.666560888290
-56.532619476318 -78.837142944336 -162.055480957031 4.086287975311
1.271440029144 -87.786689758301 -162.628143310547 9.413765907288
-44.216072082520 -82.016632080078 -172.781845092773 5.963889122009
27.904064178467 -74.620765686035 -168.806198120117 2.327415227890
-65.920791625977 -76.638153076172 -160.982238769531 0.824632465839
-46.492839813232 -71.583496093750 -168.680450439453 3.260390758514
25.567968368530 -77.105857849121 -166.671798706055 2.867883443832
-28.809963226318 -84.773666381836 -177.375640869141 4.878135681152
-31.500850677490 -70.663269042969 -168.891250610352 1.149164915085
14.980360031128 -75.386260986328 -180.001113891602 0.883086919785
-36.654239654541 -83.781906127930 -177.329238891602 4.991061687469
-5.111081123352 -77.477706909180 -177.178161621094 3.743909358978
-63.419219970703 -76.987052917480 -169.203582763672 2.287128448486
-4.603199005127 -79.351966857910 -172.858367919922 0.474777370691
-21.963829040527 -85.172607421875 -178.554351806641 2.513659715652
18.562942504883 -82.021903991699 -186.643936157227 3.307963132858
-34.500194549561 -76.673507690430 -178.114181518555 2.195880413055
18.329851150513 -80.064811706543 -181.823928833008 2.035229206085
-15.346423149109 -79.649124145508 -188.301620483398 4.273664951324
-32.163478851318 -78.772148132324 -180.651397705078 1.580199122429
-144.270858764648 -69.117309570313 -182.196960449219 3.292045831680
-24.698461532593 -78.510253906250 -187.064620971680 1.849001288414
-145.518600463867 -75.098419189453 -188.754974365234 0.896684527397
-152.265838623047 -78.199684143066 -182.987838745117 5.229338645935
-44.867652893066 -83.190490722656 -189.261138916016 3.548341751099
103.296798706055 -84.041450500488 -201.011291503906 7.234805583954
-145.391891479492 -76.001502990723 -186.314544677734 0.967067539692
-150.978073120117 -78.853065490723 -192.783462524414 2.348679542542
19.994682312012 -79.961181640625 -198.885559082031 2.825423717499
-134.181167602539 -73.742507934570 -189.438354492188 7.020197868347
23.686515808105 -72.375289916992 -201.275222778320 3.352266788483
-139.831695556641 -73.801010131836 -198.775070190430 1.256302714348
10.241561889648 -80.312660217285 -198.129608154297 3.000393152237
-137.667816162109 -76.236022949219 -197.695083618164 1.721765756607
7.362857818604 -77.296897888184 -208.126602172852 1.427872180939
-149.182067871094 -77.262435913086 -194.401687622070 1.444985032082
90.558471679688 -75.718978881836 -211.181121826172 1.319013834000
-14.038571357727 -76.735122680664 -209.901885986328 2.846216917038
-25.764251708984 -77.285728454590 -207.014251708984 3.343836545944
-10.274151802063 -85.392189025879 -203.790740966797 7.681202411652
-149.888244628906 -82.420326232910 -203.367858886719 1.281748056412
-42.614868164063 -82.952247619629 -207.600662231445 5.562603950500
-83.848739624023 -77.031745910645 -207.541290283203 3.607329845428
-31.575317382813 -80.728645324707 -214.268127441406 2.144388198853
17.402946472168 -73.718223571777 -212.189056396484 1.417822837830
-145.780929565430 -79.377677917480 -200.869400024414 1.601357340813
-86.168823242188 -78.668350219727 -211.053375244141 2.025289297104
-24.234375000000 -80.084846496582 -216.588882446289 1.955144286156
-26.475725173950 -74.866348266602 -223.152572631836 2.583506584167
-15.887611389160 -77.140815734863 -219.930938720703 1.919984936714
-25.065179824829 -79.070510864258 -217.530258178711 2.201885461807
-79.758880615234 -81.002143859863 -218.399444580078 3.838402509689
-84.276458740234 -81.670486450195 -222.194931030273 7.047183036804
-22.220354080200 -81.970718383789 -225.602828979492 5.430082321167
-7.772017002106 -78.240951538086 -224.205261230469 1.911429643631
-147.666625976563 -74.823501586914 -210.676101684570 1.733574151993
-3.051163911819 -76.122535705566 -220.018218994141 1.729151964188
80.816955566406 -78.638496398926 -232.621948242188 4.538014411926
-145.856674194336 -84.466995239258 -223.941528320313 1.408775806427
-6.182755947113 -78.427505493164 -225.472946166992 1.404113769531
-145.331512451172 -79.846839904785 -226.912963867188 2.051247835159
-151.896560668945 -87.500724792480 -219.189880371094 5.251028537750
-7.186934947968 -80.453742980957 -230.689971923828 3.644436120987
21.927520751953 -80.975105285645 -224.448806762695 5.385806083679
-141.813705444336 -79.170600891113 -222.611907958984 2.680912971497
-15.496235847473 -80.355453491211 -234.157302856445 6.177665710449
74.163825988770 -82.376792907715 -233.351226806641 7.005539894104
81.027160644531 -83.301925659180 -243.998413085938 14.436708450317
7.336707115173 -77.197296142578 -234.556137084961 1.106503248215
-26.600727081299 -78.065238952637 -245.651657104492 3.453123092651
-22.651634216309 -80.554138183594 -233.507873535156 6.097719192505
6.928997993469 -80.615417480469 -247.352828979492 0.958706855774
-48.316719055176 -75.825965881348 -243.169891357422 1.360658884048
-29.334783554077 -83.157417297363 -250.398696899414 8.550464630127
6.185725212097 -82.977447509766 -247.501327514648 2.546203374863
-67.183303833008 -81.247100830078 -250.458267211914 4.311738967896
-32.513389587402 -78.185501098633 -251.046890258789 7.435683250427
-45.719898223877 -79.907493591309 -243.265365600586 0.855917215347
-152.425964355469 -78.388870239258 -237.191833496094 2.877592802048
-52.588478088379 -82.678115844727 -249.628234863281 4.832278728485
-56.613327026367 -80.882789611816 -245.356292724609 2.357549905777
-66.510452270508 -88.393409729004 -249.071243286133 11.073761940002
-7.143743991852 -77.219573974609 -251.739944458008 1.726196408272
-87.281524658203 -77.395881652832 -251.083908081055 2.976181745529
-149.371551513672 -87.272491455078 -253.363006591797 2.397412776947
-139.496612548828 -90.673278808594 -254.207702636719 6.756360530853
-127.567016601563 -75.627632141113 -258.241607666016 2.110910177231
-156.975891113281 -78.283813476563 -255.807510375977 2.295321226120
16.207513809204 -80.581329345703 -263.810119628906 1.729787826538
-12.747838020325 -81.737281799316 -271.044464111328 4.108572959900
-155.474151611328 -81.249679565430 -258.601348876953 1.486174821854
-155.323867797852 -79.854644775391 -268.247100830078 4.529843330383
-144.630554199219 -84.185836791992 -274.391601562500 3.202645778656
-60.071033477783 -87.611808776855 -284.041412353516 11.631962776184
-39.372341156006 -81.310028076172 -288.776550292969 3.759693384171
-28.285541534424 -83.602844238281 -295.596374511719 8.745925903320
-18.034299850464 -83.263099670410 -288.517791748047 5.428384780884
-70.837127685547 -82.471450805664 -282.732391357422 8.286311149597
-80.217727661133 -80.955406188965 -284.224334716797 6.898274898529
-10.284055709839 -86.407386779785 -291.218780517578 9.054515838623
8.053458213806 -86.220649719238 -294.431396484375 9.090400695801
-137.013687133789 -85.777511596680 -284.325775146484 2.590449333191
-80.768241882324 -79.388565063477 -287.721374511719 4.329412937164
-151.661026000977 -82.451461791992 -287.622558593750 1.443840861320
-96.785575866699 -80.786582946777 -287.364501953125 5.854164600372
-70.525558471680 -79.523567199707 -288.962524414063 3.909805059433
-88.023239135742 -85.949432373047 -287.682586669922 10.470738410950
-69.057853698730 -86.688179016113 -288.210968017578 10.384526252747
-24.154169082642 -83.783348083496 -296.686981201172 8.669561386108
-5.696050167084 -81.372291564941 -292.888366699219 4.994923591614
-160.049118041992 -84.111572265625 -288.616516113281 5.910634517670
-147.456237792969 -85.283920288086 -291.342163085938 1.699218869209
-148.862884521484 -82.483772277832 -298.201782226563 3.381276845932
-158.672943115234 -82.273086547852 -302.716522216797 7.050720214844
-52.127338409424 -69.468391418457 -56.331550598145 6.000632286072
-40.627582550049 -67.496757507324 -53.786754608154 4.827288627625
-36.454586029053 -66.897392272949 -54.084506988525 4.866699218750
-69.201141357422 -76.952171325684 -57.156017303467 1.771240472794
-24.186559677124 -70.901939392090 -59.139949798584 2.190124273300
-21.413629531860 -71.772125244141 -79.491371154785 4.644457817078
80.836112976074 -80.400733947754 -93.983726501465 3.497150897980
87.678184509277 -75.630874633789 -94.401580810547 1.956683039665
86.536079406738 -71.741073608398 -94.191162109375 4.696020603180
102.571418762207 -79.400642395020 -98.582923889160 6.241671562195
78.433883666992 -75.140586853027 -98.933410644531 1.837169766426
63.334327697754 -76.054893493652 -99.984138488770 6.163853645325
49.137756347656 -74.109092712402 -107.410438537598 1.667446732521
-59.807121276855 -77.838302612305 -102.900367736816 6.929349899292
-68.205551147461 -71.399162292480 -97.154586791992 2.776728391647
49.220207214355 -71.045333862305 -107.962303161621 1.214327692986
-79.416633605957 -74.616729736328 -106.740402221680 3.892471313477
-86.539955139160 -68.011016845703 -109.062683105469 1.376433014870
53.658657073975 -71.364837646484 -107.536079406738 1.687971591949
108.816581726074 -73.135200500488 -122.220199584961 2.015301942825
38.552951812744 -76.546813964844 -126.276031494141 1.972055792809
49.193149566650 -80.022933959961 -120.605712890625 4.764918327332
48.290821075439 -77.074722290039 -127.248397827148 5.346086978912
32.619194030762 -75.689666748047 -131.092575073242 2.680914640427
114.313270568848 -74.220024108887 -124.810211181641 1.162822723389
35.201084136963 -78.856101989746 -128.375198364258 2.581128835678
35.494045257568 -74.643905639648 -133.992645263672 3.021575450897
-37.314495086670 -70.445358276367 -142.617370605469 6.362863063812
-65.818664550781 -77.372528076172 -147.962219238281 3.110740184784
-48.774150848389 -74.389350891113 -151.646087646484 2.897652149200
-67.755996704102 -74.367034912109 -139.570175170898 3.436550140381
-38.179386138916 -77.535713195801 -150.162826538086 2.825747489929
112.602600097656 -74.574188232422 -159.843292236328 1.773605465889
-68.558982849121 -75.406150817871 -151.120178222656 1.513944983482
24.195800781250 -84.502891540527 -156.242324829102 5.007467746735
35.266242980957 -70.353103637695 -154.874557495117 3.128050565720
117.099243164063 -73.665115356445 -161.031906127930 1.249608516693
9.974873542786 -72.252792358398 -158.718002319336 1.919391989708
36.706363677979 -74.085990905762 -161.775329589844 4.655717849731
-54.226482391357 -76.767654418945 -159.905929565430 5.909515857697
-46.383842468262 -81.326637268066 -171.499938964844 6.731947422028
21.300779342651 -77.334815979004 -168.522354125977 1.175257325172
-66.330230712891 -73.973052978516 -167.565322875977 1.931073307991
-60.915031433105 -70.352210998535 -157.957748413086 3.613023996353
114.219932556152 -81.940757751465 -173.021133422852 5.855809211731
-10.561177253723 -70.448234558105 -169.839630126953 5.345040321350
-53.302120208740 -81.256835937500 -176.112228393555 2.052869319916
-29.767629623413 -74.617355346680 -175.453598022461 2.309079170227
-52.896507263184 -76.265335083008 -171.555465698242 2.557252407074
33.285903930664 -84.593292236328 -173.378463745117 8.801837921143
112.482749938965 -69.911598205566 -175.005004882813 1.109239339828
111.837600708008 -83.641006469727 -188.395675659180 8.283488273621
117.272125244141 -82.816841125488 -200.602691650391 15.104666709900
109.645217895508 -79.896316528320 -180.317337036133 3.161878347397
-59.211780548096 -79.201766967773 -191.588775634766 7.171292304993
-51.414802551270 -75.535995483398 -180.678253173828 1.354877471924
23.910211563110 -78.432968139648 -188.255874633789 1.814962387085
-51.344806671143 -69.221565246582 -185.284698486328 5.232399940491
-22.567028045654 -74.163978576660 -188.883163452148 2.923116683960
-49.454223632813 -74.744880676270 -191.728836059570 1.231705427170
-142.131164550781 -79.749076843262 -192.732147216797 2.768458127975
100.117637634277 -75.723320007324 -199.364669799805 1.609073042870
-45.145179748535 -77.472213745117 -190.293426513672 1.567541718483
-12.680907249451 -80.581283569336 -196.354324340820 3.834580659866
-136.353912353516 -77.458534240723 -199.213897705078 2.309807062149
-43.346633911133 -81.013626098633 -195.011276245117 1.632639765739
107.546775817871 -88.342300415039 -199.955184936523 12.532480239868
109.597900390625 -80.675933837891 -197.804428100586 7.341349601746
-47.149589538574 -81.249053955078 -197.634826660156 1.438062548637
-22.082128524780 -76.820686340332 -196.235244750977 1.748782038689
-149.591339111328 -83.442314147949 -195.625885009766 1.325397133827
-27.541149139404 -75.499572753906 -203.048706054688 4.044053077698
-151.159454345703 -80.531181335449 -192.010864257813 2.627692461014
-152.119384765625 -77.790435791016 -197.420181274414 1.536262989044
-141.069610595703 -77.377014160156 -196.133346557617 0.758629977703
-36.599559783936 -77.145362854004 -196.932708740234 1.261901736259
103.879051208496 -82.935699462891 -208.521682739258 8.838547706604
-37.606609344482 -77.210655212402 -202.437500000000 1.747946858406
-143.352951049805 -80.516677856445 -195.540634155273 1.427940726280
-37.599048614502 -79.695884704590 -210.492782592773 1.855216503143
-18.612871170044 -81.483398437500 -211.785293579102 4.322626113892
93.442230224609 -81.336494445801 -210.710586547852 4.326324939728
95.451606750488 -80.850311279297 -212.969055175781 4.662310123444
-26.233303070068 -81.909843444824 -217.143676757813 2.812249898911
-88.213745117188 -82.790374755859 -209.856384277344 6.245450496674
-69.269210815430 -80.574356079102 -210.931121826172 1.839582681656
-18.776273727417 -80.795295715332 -219.179244995117 2.689630508423
-150.508789062500 -73.625556945801 -209.739761352539 2.065588712692
84.568550109863 -83.578994750977 -224.523254394531 7.296613693237
86.127037048340 -76.657241821289 -229.755004882813 4.621963024139
86.870414733887 -84.426460266113 -224.939941406250 8.517067909241
-100.963096618652 -71.027008056641 -221.519500732422 2.852110624313
-146.060317993164 -80.225181579590 -219.887542724609 3.186995983124
-18.372316360474 -87.103637695313 -219.865753173828 8.754926681519
80.752861022949 -78.573875427246 -230.605300903320 3.902170896530
-144.942611694336 -88.009284973145 -219.898574829102 4.961555480957
-35.346485137939 -78.797584533691 -222.450973510742 7.849668502808
-133.999771118164 -71.103149414063 -230.428070068359 2.316622972488
-12.488146781921 -81.998092651367 -228.693954467773 5.525593280792
19.743413925171 -78.772979736328 -222.765106201172 2.298931121826
13.171824455261 -79.337554931641 -239.472106933594 1.604114174843
-158.386962890625 -83.298446655273 -229.754699707031 5.628519535065
-123.231178283691 -75.073135375977 -227.575302124023 1.579378724098
-9.684236526489 -80.622085571289 -234.071121215820 5.934502124786
