41.232460021973 -84.040161132813 -113.921150207520 4.673274993896
102.159500122070 -81.743125915527 -118.445152282715 9.687158584595
113.128173828125 -75.731132507324 -114.587257385254 3.647694110870
45.997501373291 -77.983428955078 -121.101333618164 1.744350790977
109.476684570313 -76.214561462402 -130.433303833008 1.318051815033
113.303718566895 -83.429489135742 -140.665328979492 6.966581344604
-52.660552978516 -74.557899475098 -130.111694335938 2.640089035034
30.590129852295 -80.497032165527 -135.444992065430 2.064623117447
31.217098236084 -84.957748413086 -129.301300048828 5.198262691498
19.280410766602 -75.644325256348 -145.037765502930 4.143071174622
113.458488464355 -80.602943420410 -142.771026611328 4.560596466064
108.940010070801 -82.653160095215 -138.733032226563 7.046226501465
-76.107620239258 -78.125015258789 -149.423629760742 4.637526512146
-51.040050506592 -79.471176147461 -149.977645874023 2.621316671371
-75.363212585449 -73.149726867676 -148.869888305664 1.161700248718
18.458450317383 -82.184272766113 -154.735321044922 6.571098327637
109.251342773438 -79.046318054199 -159.829956054688 3.498087644577
-57.311656951904 -77.337738037109 -153.860366821289 5.646953582764
-72.346572875977 -75.427055358887 -149.883255004883 0.529173612595
-43.301670074463 -82.191978454590 -157.851562500000 3.827403783798
36.432998657227 -79.606346130371 -152.612213134766 4.172925472260
106.930229187012 -82.927726745605 -162.600845336914 6.985476970673
117.391204833984 -83.817161560059 -161.407470703125 8.183859825134
-70.883224487305 -76.466918945313 -151.094726562500 2.243269920349
-75.791427612305 -77.894638061523 -164.462783813477 8.095458030701
17.399429321289 -84.121459960938 -165.206527709961 7.249660015106
-58.465171813965 -81.388481140137 -161.621307373047 4.502373218536
-31.919792175293 -88.247764587402 -165.632186889648 8.665595054626
5.492290973663 -76.284843444824 -166.928680419922 2.889860630035
109.869918823242 -84.547927856445 -172.471176147461 7.402719020844
4.700399875641 -77.766990661621 -167.852279663086 3.777290344238
-40.313320159912 -78.635337829590 -168.616714477539 0.872516334057
-3.200407028198 -74.885665893555 -165.489364624023 1.983024716377
100.806755065918 -79.343551635742 -181.089492797852 4.822806358337
-44.246322631836 -69.938369750977 -177.542480468750 6.218854904175
28.674949645996 -75.898101806641 -171.751998901367 1.104550361633
111.048393249512 -78.898757934570 -175.247100830078 2.056789636612
-51.969570159912 -76.600257873535 -181.106430053711 1.564192175865
-30.227176666260 -80.642066955566 -170.478561401367 1.923965811729
95.560607910156 -85.558761596680 -178.772994995117 12.995341300964
32.217483520508 -83.322288513184 -175.078811645508 7.655415058136
114.618881225586 -76.859298706055 -182.041442871094 4.514371395111
-40.980232238770 -80.962844848633 -170.777008056641 2.645046472549
104.671257019043 -78.938842773438 -185.841506958008 3.128376960754
-59.193016052246 -76.186462402344 -179.060256958008 0.595965921879
-25.897357940674 -76.862113952637 -176.004684448242 1.218979835510
-144.593688964844 -74.107498168945 -179.886886596680 1.758506417274
-57.132076263428 -77.061271667480 -186.136734008789 4.144316673279
-148.935882568359 -71.923744201660 -180.790847778320 1.864208817482
-34.700393676758 -77.313308715820 -187.701141357422 3.267065763474
18.259286880493 -77.903915405273 -189.768692016602 1.429349899292
110.156883239746 -75.946571350098 -186.256622314453 2.238809347153
-32.739959716797 -76.907821655273 -193.452026367188 3.734597444534
11.440265655518 -81.171669006348 -195.544647216797 3.408429622650
13.546529769897 -79.346275329590 -201.011123657227 2.460079431534
-152.351455688477 -69.730751037598 -191.726211547852 1.808255195618
99.417488098145 -86.522697448730 -203.516906738281 9.512458801270
-21.421506881714 -74.449943542480 -196.124313354492 3.068795204163
104.084190368652 -75.484024047852 -196.932998657227 1.473438024521
13.968563079834 -77.731674194336 -192.535552978516 2.136194467545
-132.812545776367 -73.318931579590 -201.641067504883 1.354723095894
-147.888000488281 -71.597648620605 -194.521347045898 2.335602045059
91.271705627441 -72.654327392578 -203.357604980469 2.307018518448
-14.092492103577 -76.381309509277 -201.822494506836 1.807722210884
-18.697837829590 -80.956970214844 -197.089050292969 1.195000171661
10.705098152161 -79.284858703613 -204.919647216797 1.818837761879
-148.469467163086 -73.838127136230 -204.911544799805 1.966751217842
-150.640243530273 -75.314514160156 -205.185012817383 1.675032019615
98.226799011230 -88.743591308594 -210.864822387695 12.064963340759
-76.639022827148 -78.983047485352 -210.658615112305 1.618091821671
-38.906547546387 -74.618843078613 -202.063247680664 1.468054652214
19.168174743652 -77.616508483887 -213.137039184570 1.509153008461
-25.730161666870 -82.178665161133 -210.662582397461 3.533193588257
-81.297111511230 -73.672592163086 -214.243286132813 1.207447886467
91.002708435059 -79.903343200684 -210.401473999023 3.271133899689
-84.700569152832 -71.468841552734 -215.596969604492 1.872089147568
-150.869079589844 -74.775848388672 -217.602554321289 2.137589454651
-81.420555114746 -79.269973754883 -217.055282592773 1.583590745926
-18.684768676758 -79.398963928223 -213.330978393555 3.214485406876
-25.457597732544 -80.664382934570 -219.189498901367 2.306048393250
21.637699127197 -76.844924926758 -213.831390380859 3.211633682251
-8.216956138611 -75.993080139160 -212.502365112305 0.928199410439
-82.100074768066 -76.099128723145 -219.942840576172 3.223627090454
87.749366760254 -81.470481872559 -219.381042480469 5.444328784943
-96.909324645996 -77.891418457031 -213.246261596680 4.901411533356
-147.965698242188 -83.090942382813 -224.580154418945 0.928047120571
-13.322987556458 -81.115455627441 -218.196884155273 2.795213937759
13.725125312805 -79.308563232422 -217.760192871094 1.845864415169
-107.515190124512 -73.356086730957 -218.072082519531 4.645207881927
6.862415790558 -81.691909790039 -221.016021728516 2.502926588058
-30.957427978516 -81.931137084961 -216.310653686523 3.232670307159
79.108131408691 -84.036033630371 -229.152099609375 8.014243125916
-148.770706176758 -72.566398620605 -217.402481079102 1.814331889153
5.917379856110 -75.714920043945 -228.328170776367 1.360324740410
-8.038040161133 -79.034828186035 -222.863388061523 1.818014144897
13.851495742798 -74.379325866699 -223.105834960938 2.072890043259
82.743560791016 -77.602798461914 -232.525024414063 5.170598506927
-16.820434570313 -79.593429565430 -227.395721435547 2.634815216064
-132.101516723633 -79.972068786621 -227.506576538086 2.938931941986
-9.237708091736 -83.950462341309 -226.988418579102 6.112598419189
13.695412635803 -77.345909118652 -236.757080078125 3.611116409302
-129.298782348633 -73.406646728516 -219.940948486328 5.365673065186
-153.999923706055 -76.850692749023 -228.735870361328 1.881406903267
-142.350051879883 -75.268486022949 -227.489334106445 2.048439979553
-133.628890991211 -74.173736572266 -227.508895874023 1.125295281410
-12.141001701355 -77.753936767578 -228.921676635742 2.204262733459
68.308044433594 -80.123725891113 -233.532836914063 5.574101448059
-144.666473388672 -76.205802917480 -235.930999755859 1.651330113411
68.599617004395 -77.742828369141 -230.016510009766 4.528845310211
-17.443784713745 -80.926277160645 -227.022567749023 3.699546337128
-145.784973144531 -80.929794311523 -230.360336303711 0.943717360497
73.010444641113 -86.333953857422 -238.616867065430 12.091517448425
12.306651115417 -84.230194091797 -239.134231567383 1.706779479980
-144.820205688477 -69.457115173340 -236.005249023438 0.479927122593
-152.139923095703 -75.324577331543 -235.750854492188 1.487800836563
8.576898574829 -72.736160278320 -237.676940917969 1.392997741699
-5.549849987030 -79.816406250000 -241.806030273438 6.126348018646
-26.889797210693 -74.601242065430 -247.047927856445 3.931360244751
-9.393912315369 -78.214973449707 -242.196258544922 4.833378791809
-165.652587890625 -75.852966308594 -234.254806518555 3.450693607330
5.846886157990 -78.529571533203 -247.893112182617 2.125484466553
-166.384536743164 -72.312591552734 -232.249877929688 2.411479711533
-21.127840042114 -76.444664001465 -231.979187011719 5.020721912384
65.425399780273 -82.289710998535 -242.871643066406 8.561064720154
-10.269105911255 -76.543449401855 -243.099639892578 3.662641525269
-29.602334976196 -78.570152282715 -240.098251342773 1.609016418457
-29.853454589844 -74.348388671875 -242.587020874023 2.344753742218
-18.263011932373 -74.756149291992 -248.181411743164 5.185659408569
-145.807861328125 -72.650466918945 -233.906829833984 1.834906220436
6.074811935425 -82.485603332520 -246.009902954102 3.403483390808
61.685203552246 -85.034469604492 -243.680175781250 11.571739196777
7.557845115662 -80.341346740723 -245.622909545898 1.664795279503
-165.960556030273 -72.454460144043 -237.157989501953 1.622843861580
-50.857578277588 -81.355751037598 -245.194992065430 2.019944190979
3.598725080490 -82.310913085938 -250.506423950195 0.706452131271
14.362059593201 -72.921005249023 -253.965667724609 6.064233779907
-63.070289611816 -76.998855590820 -251.953277587891 2.251576423645
-6.657812118530 -77.730628967285 -243.542495727539 4.243968486786
16.693391799927 -82.838058471680 -255.187347412109 2.614784479141
-169.621520996094 -73.449104309082 -242.645111083984 3.827910900116
-76.127479553223 -80.244529724121 -255.478546142578 5.945572376251
-57.237777709961 -73.653884887695 -248.341873168945 1.364440321922
-83.725845336914 -74.014976501465 -247.487365722656 2.832769393921
-165.969787597656 -72.270286560059 -238.899139404297 1.773252010345
-156.212127685547 -74.855659484863 -248.861114501953 2.609519720078
-63.078884124756 -71.936378479004 -255.144805908203 5.434388160706
-72.694160461426 -83.799812316895 -250.520904541016 7.492053508759
-158.357391357422 -72.150329589844 -250.119750976563 1.526134490967
-156.342575073242 -71.112358093262 -246.264068603516 2.371221542358
-81.618019104004 -75.995620727539 -249.687606811523 1.177429080009
-95.760589599609 -70.715980529785 -250.908554077148 2.338935852051
-165.995925903320 -75.780395507813 -249.217178344727 2.295383930206
-157.943771362305 -73.263687133789 -248.509155273438 1.231914401054
-138.970275878906 -69.859901428223 -256.076416015625 2.699009180069
-85.137725830078 -79.718803405762 -252.089447021484 5.095626831055
-167.703292846680 -69.062698364258 -252.393157958984 1.482650995255
-152.521240234375 -80.016281127930 -254.484085083008 0.914139389992
-98.153495788574 -75.881935119629 -253.471954345703 3.102807044983
-105.425018310547 -68.344734191895 -259.339630126953 1.617538571358
-153.079406738281 -72.148643493652 -257.079406738281 2.714722871780
-101.605987548828 -75.053176879883 -263.057495117188 4.297118186951
-156.044342041016 -72.684677124023 -250.827041625977 2.769763708115
-104.188735961914 -77.945663452148 -254.220458984375 5.661060810089
-171.530746459961 -78.592475891113 -252.781982421875 7.672089576721
-166.981811523438 -80.390434265137 -254.925933837891 6.967631816864
-126.212921142578 -72.456275939941 -254.576171875000 0.825543999672
-152.236679077148 -79.790664672852 -255.937637329102 2.020811080933
-111.079643249512 -73.543014526367 -258.372100830078 2.072849750519
-18.574123382568 -84.530967712402 -261.763305664063 9.111388206482
-146.926788330078 -72.347801208496 -259.294616699219 1.305591940880
-130.489654541016 -73.696327209473 -260.431640625000 2.719531536102
-160.556091308594 -73.030349731445 -263.384063720703 1.423852205276
16.884534835815 -80.640182495117 -270.125427246094 1.803595304489
-157.921081542969 -70.892066955566 -281.721160888672 1.979403257370
-172.964218139648 -70.864685058594 -277.541717529297 4.964342117310
-9.791316032410 -84.806121826172 -285.093475341797 7.815633296967
-153.994888305664 -76.969703674316 -277.076812744141 3.598064422607
-10.883485794067 -76.710128784180 -278.447143554688 2.924021720886
10.939320564270 -79.501991271973 -288.791961669922 2.281174182892
-137.312377929688 -71.854606628418 -285.999847412109 1.471286058426
-74.068954467773 -80.845970153809 -280.784515380859 8.843343734741
-45.880187988281 -75.951240539551 -282.234466552734 4.978362560272
-120.610710144043 -72.145393371582 -287.440887451172 2.493544816971
-94.892517089844 -75.498428344727 -293.884643554688 3.405347585678
-95.249076843262 -74.869148254395 -295.492492675781 4.472685813904
-53.384735107422 -82.385902404785 -288.534393310547 5.244164943695
-119.532958984375 -69.979476928711 -291.967102050781 1.614478349686
-112.274307250977 -76.176307678223 -291.658172607422 2.909713268280
-36.930072784424 -81.545768737793 -292.467620849609 5.219224929810
-121.069320678711 -77.310508728027 -287.261291503906 2.757660150528
-130.825912475586 -78.521148681641 -287.354553222656 2.015885114670
-149.721908569336 -77.649230957031 -292.963073730469 2.554625272751
5.285790920258 -75.896408081055 -289.479156494141 1.795560002327
10.174551963806 -81.269790649414 -295.607208251953 5.848666667938
-160.666183471680 -73.932167053223 -292.347595214844 2.111430883408
-159.839523315430 -73.285186767578 -302.234893798828 4.431030273438
-151.601867675781 -77.452796936035 -308.436584472656 2.021452903748
-155.595260620117 -70.294311523438 -305.347320556641 1.156495571136
-157.454833984375 -78.096748352051 -311.407165527344 3.427867174149
27.796934127808 -76.729804992676 -17.154167175293 4.580342769623
27.952196121216 -74.664276123047 -25.340038299561 3.626599073410
27.262228012085 -76.521888732910 -22.487817764282 4.546034336090
29.814723968506 -77.930709838867 -42.955944061279 6.556477546692
-49.935436248779 -67.045104980469 -56.661598205566 8.237044334412
-62.350048065186 -72.399276733398 -53.469142913818 2.307644367218
-38.148403167725 -73.993522644043 -53.565002441406 1.585310935974
-80.197097778320 -75.431175231934 -60.128871917725 1.545794367790
82.184379577637 -84.944862365723 -84.639152526855 7.131548881531
-17.455688476563 -72.851440429688 -76.961433410645 4.771419525146
92.201744079590 -82.912689208984 -71.543891906738 8.696681976318
97.062606811523 -78.120903015137 -84.447784423828 4.321866035461
-91.122154235840 -72.793388366699 -82.000976562500 2.438184499741
77.129463195801 -74.142852783203 -79.372024536133 1.986487984657
-39.248332977295 -78.989166259766 -85.937904357910 1.812950253487
103.150901794434 -79.713012695313 -88.767272949219 8.030347824097
-55.174194335938 -77.768852233887 -90.888633728027 1.729902029037
51.558506011963 -77.102134704590 -91.158714294434 3.173640251160
73.631500244141 -79.906105041504 -89.921455383301 3.725147962570
57.676017761230 -83.192070007324 -97.382827758789 7.623432636261
47.666877746582 -75.993675231934 -107.818618774414 1.199915647507
67.986328125000 -81.299781799316 -98.428398132324 9.269206047058
49.282188415527 -70.108787536621 -100.686470031738 2.916782855988
101.626037597656 -79.838653564453 -108.566574096680 7.217414855957
113.782386779785 -81.553718566895 -112.730346679688 7.896566390991
76.378570556641 -75.306976318359 -104.112869262695 4.376268386841
90.206161499023 -79.076782226563 -109.307907104492 9.398702621460
102.143051147461 -77.311683654785 -106.343467712402 5.197209358215
106.585525512695 -69.753059387207 -105.264007568359 1.841584563255
40.346588134766 -85.563484191895 -110.452537536621 6.184049606323
107.852226257324 -81.198493957520 -123.755416870117 6.469836235046
114.993095397949 -82.726051330566 -127.244445800781 7.532980442047
33.216461181641 -76.757186889648 -120.746376037598 1.483082056046
39.190929412842 -79.471763610840 -121.764442443848 3.052262306213
106.432502746582 -77.428688049316 -134.730224609375 4.340966224670
38.058162689209 -82.738059997559 -129.295867919922 4.034814834595
115.710113525391 -75.925827026367 -135.990631103516 1.357928991318
110.213951110840 -78.655799865723 -132.977966308594 3.376652956009
24.832145690918 -75.038032531738 -139.586212158203 1.524859786034
-47.934772491455 -79.690200805664 -132.524597167969 6.544255733490
-57.720207214355 -76.519821166992 -141.720626831055 2.678260803223
115.181724548340 -78.370613098145 -137.898834228516 3.636669397354
-75.552177429199 -78.099052429199 -143.302444458008 3.947733879089
-75.469200134277 -72.944435119629 -138.475784301758 0.726389586926
-59.279415130615 -78.203483581543 -139.477249145508 4.611468315125
33.463790893555 -79.148674011230 -141.307800292969 2.057398796082
104.074882507324 -77.830039978027 -153.305038452148 7.135865211487
-63.973144531250 -77.185417175293 -145.125579833984 5.206008911133
-44.832084655762 -71.052627563477 -145.152679443359 1.400173306465
39.908336639404 -84.108764648438 -153.017440795898 9.329208374023
-64.166412353516 -78.305313110352 -152.397781372070 3.249751806259
112.877784729004 -72.837379455566 -149.433273315430 1.446570396423
108.258422851563 -82.195434570313 -161.160949707031 5.804895877838
109.325149536133 -82.193252563477 -152.885696411133 6.170439243317
-39.170490264893 -75.581642150879 -157.152343750000 2.105084419250
-66.373535156250 -74.857109069824 -155.971298217773 0.970474541187
-69.721305847168 -65.649780273438 -152.725067138672 4.008467197418
27.939418792725 -73.715919494629 -155.212738037109 3.298992872238
-0.907163023949 -80.018043518066 -166.003494262695 2.789757251740
106.889793395996 -78.889900207520 -160.603149414063 4.846958160400
107.559234619141 -74.704223632813 -160.854507446289 2.112344264984
112.976463317871 -79.397071838379 -163.257415771484 2.955368518829
-65.614372253418 -81.155487060547 -159.564666748047 3.353445291519
-48.145088195801 -77.812515258789 -162.171539306641 2.402317523956
4.330838203430 -80.581108093262 -172.540908813477 6.533601284027
-25.916679382324 -73.657279968262 -174.479675292969 1.919775724411
104.771400451660 -80.388961791992 -166.468002319336 5.884514808655
-37.205127716064 -72.790176391602 -162.096298217773 2.528129816055
109.070587158203 -83.009887695313 -172.868026733398 5.744640827179
-42.578079223633 -72.963775634766 -172.346740722656 1.242515087128
109.580108642578 -83.400428771973 -172.915954589844 6.203212738037
-152.314300537109 -68.338859558105 -179.727432250977 1.074934363365
-33.066211700439 -74.341133117676 -175.637466430664 3.742809772491
-21.989450454712 -72.012199401855 -180.421783447266 2.461128950119
29.693094253540 -83.572074890137 -177.587478637695 6.810481548309
13.513115882874 -75.892959594727 -180.925445556641 1.734472632408
20.719924926758 -79.700263977051 -183.999588012695 1.734725952148
103.840744018555 -84.830375671387 -192.905868530273 7.540490627289
-154.452056884766 -68.321784973145 -185.516586303711 2.297412633896
-23.655145645142 -76.764312744141 -188.540786743164 2.312380075455
103.510345458984 -79.517532348633 -182.960388183594 2.790405750275
100.969200134277 -78.855316162109 -196.167846679688 1.565708875656
102.665107727051 -81.110145568848 -185.501876831055 5.100770473480
93.264709472656 -85.496025085449 -200.218231201172 9.022341728210
-158.956756591797 -83.193885803223 -195.560623168945 7.275424003601
95.046508789063 -86.545089721680 -207.358428955078 9.133146286011
-35.311305999756 -76.255111694336 -196.961257934570 2.795307397842
95.339271545410 -77.189346313477 -200.234741210938 1.959406137466
-130.434417724609 -74.045639038086 -190.156738281250 6.187611579895
-33.749496459961 -78.662506103516 -192.052734375000 1.847344994545
-144.340988159180 -74.008033752441 -201.341918945313 2.256738901138
87.856246948242 -78.916290283203 -203.231018066406 6.386683940887
6.629401206970 -76.299690246582 -203.759841918945 3.591655254364
21.495983123779 -80.877250671387 -198.802917480469 4.162662982941
-152.487350463867 -75.270362854004 -196.766983032227 2.243802547455
-139.766799926758 -70.640823364258 -206.053985595703 2.629754066467
-18.886560440063 -78.698623657227 -208.137969970703 2.727588176727
-128.489746093750 -81.523109436035 -202.704055786133 5.869173526764
-150.417648315430 -75.660659790039 -198.943450927734 2.498281955719
4.453236103058 -75.146423339844 -201.065612792969 4.724150180817
-28.613012313843 -75.712142944336 -206.018478393555 1.511737585068
15.436345100403 -77.028503417969 -210.344619750977 2.044884443283
3.162981987000 -77.843711853027 -211.911453247070 4.766047477722
82.797981262207 -80.135612487793 -217.711196899414 5.131172180176
-28.724512100220 -68.734291076660 -212.695755004883 4.032192230225
91.531974792480 -79.198745727539 -215.631759643555 2.795406579971
99.316986083984 -80.798141479492 -211.677124023438 5.639558792114
-145.546905517578 -68.217086791992 -217.782409667969 1.606113314629
91.736595153809 -75.756408691406 -214.912628173828 1.878874182701
3.585580110550 -72.694908142090 -211.350006103516 3.313275337219
1.120643973351 -75.774391174316 -211.384826660156 5.696836471558
-36.936725616455 -74.233573913574 -210.995025634766 2.440110445023
-95.131629943848 -69.569602966309 -213.483856201172 3.013490676880
-37.471607208252 -76.367568969727 -215.185043334961 4.469650745392
81.329063415527 -81.255096435547 -220.546340942383 5.146073341370
80.037353515625 -81.858703613281 -221.165954589844 5.977863311768
-41.664745330811 -70.459648132324 -216.531265258789 9.857598304749
-80.332786560059 -66.580055236816 -225.211502075195 11.492884635925
-6.215669155121 -75.472175598145 -217.257629394531 1.498413324356
85.668334960938 -81.326354980469 -222.878814697266 4.932293415070
-149.941528320313 -76.539695739746 -218.890106201172 1.979867577553
-173.284744262695 -74.626747131348 -208.801284790039 8.249591827393
-161.076049804688 -71.808792114258 -217.204177856445 3.889903068542
-22.664354324341 -80.315658569336 -230.073089599609 6.477437019348
-155.370025634766 -77.297660827637 -221.525238037109 4.179146289825
-10.682750701904 -84.248962402344 -230.080200195313 7.855729103088
3.020096063614 -75.308242797852 -219.720703125000 3.260353803635
-164.514968872070 -78.997093200684 -218.275955200195 6.539363384247
-167.440429687500 -71.288619995117 -223.052688598633 2.458479642868
74.089714050293 -79.041061401367 -233.977554321289 3.973393678665
2.014214038849 -79.214248657227 -232.021728515625 1.171412706375
-152.023605346680 -75.396110534668 -219.771072387695 3.661788940430
-146.240005493164 -74.391296386719 -218.455215454102 1.480784058571
-24.809106826782 -79.580413818359 -227.203826904297 5.667896747589
0.528024971485 -77.894630432129 -224.776092529297 1.237940073013
80.966468811035 -79.903923034668 -226.160461425781 4.230887889862
-161.617507934570 -75.198875427246 -227.640350341797 2.293474435806
-149.359512329102 -70.999176025391 -226.158569335938 2.104114294052
-129.150299072266 -70.037452697754 -228.929199218750 4.986050605774
78.661132812500 -84.525276184082 -235.592956542969 10.183202743530
-118.619415283203 -69.242988586426 -231.384109497070 2.250298976898
-148.716522216797 -76.483352661133 -227.219772338867 2.071485519409
-157.386123657227 -78.651924133301 -226.673294067383 3.296819686890
-150.145416259766 -72.928779602051 -224.489334106445 1.763443946838
-154.590408325195 -68.611564636230 -228.168350219727 1.190518975258
-170.223434448242 -68.123580932617 -235.349929809570 3.697651386261
-140.651947021484 -73.212684631348 -234.631805419922 2.659714937210
-139.638534545898 -71.903816223145 -231.672882080078 1.787412405014
-159.004104614258 -72.634689331055 -226.009460449219 0.881028652191
-148.902862548828 -71.935363769531 -229.214950561523 1.299234986305
-155.214172363281 -68.594276428223 -231.006469726563 0.865047991276
68.034637451172 -78.212051391602 -222.073425292969 9.504358291626
64.595733642578 -75.175064086914 -243.034881591797 2.397106409073
-164.949432373047 -70.759864807129 -237.388778686523 2.626670122147
65.455001831055 -80.254615783691 -237.642028808594 5.862842082977
-24.620788574219 -75.487800598145 -237.325012207031 0.975402593613
5.299681186676 -77.893104553223 -241.959075927734 1.614194035530
14.113177299500 -82.698783874512 -237.162521362305 0.676821410656
-144.456253051758 -72.528533935547 -241.208724975586 1.153837442398
12.913930892944 -77.662025451660 -246.213623046875 1.940493822098
62.899169921875 -81.136344909668 -240.708175659180 6.982341289520
6.221952915192 -76.543975830078 -237.485488891602 1.111024260521
0.870894014835 -81.449432373047 -246.863128662109 2.470353841782
-11.560824394226 -71.301231384277 -241.683242797852 1.641729354858
-22.003036499023 -81.991844177246 -249.140319824219 7.885422706604
-2.498013973236 -82.195388793945 -243.790924072266 6.252063274384
-0.635510981083 -74.960044860840 -243.128845214844 1.921332716942
52.755783081055 -81.468620300293 -243.931289672852 9.356863975525
-63.238681793213 -77.425834655762 -246.257736206055 0.893199682236
14.642490386963 -79.431365966797 -252.958389282227 1.793745160103
-61.284217834473 -73.904083251953 -246.069427490234 1.426463723183
-10.921721458435 -76.634361267090 -251.840637207031 0.885277628899
-67.828063964844 -72.666656494141 -254.301757812500 3.176005601883
-88.190734863281 -82.381134033203 -250.852493286133 8.008489608765
-84.966224670410 -80.577583312988 -252.419189453125 5.760631084442
-21.590751647949 -75.835044860840 -253.208221435547 7.941452503204
-128.580642700195 -79.510253906250 -260.896514892578 4.008011341095
-19.416980743408 -71.680938720703 -257.725921630859 4.854406356812
-127.668037414551 -73.231758117676 -254.148574829102 2.190227985382
-122.709846496582 -69.529724121094 -257.437286376953 1.719649195671
-108.245994567871 -80.127311706543 -256.114349365234 7.233355045319
-146.004913330078 -71.766830444336 -257.399627685547 2.833730220795
-150.531921386719 -70.926086425781 -264.936157226563 2.161660909653
-170.995773315430 -68.824241638184 -262.709228515625 3.827850103378
8.680548667908 -80.640945434570 -284.212768554688 3.493971347809
-66.484138488770 -80.089195251465 -283.369049072266 5.767299175262
-70.081657409668 -77.610641479492 -283.530700683594 4.235989570618
-50.021423339844 -79.152465820313 -285.138977050781 3.069947242737
-30.757030487061 -79.332252502441 -283.034393310547 4.142124176025
-96.443939208984 -75.654052734375 -295.366729736328 4.601584434509
-35.472076416016 -75.003471374512 -289.806274414063 2.029296398163
-5.474600791931 -71.422286987305 -286.934997558594 1.075813651085
-169.191940307617 -75.357299804688 -287.697967529297 3.001863479614
-21.303062438965 -80.179397583008 -292.431549072266 3.631656169891
2.901025056839 -72.812553405762 -292.575775146484 1.219380855560
10.434186935425 -71.219688415527 -294.292999267578 3.739389896393
-60.095191955566 -78.314407348633 -292.998931884766 3.621268749237
-32.798824310303 -82.199142456055 -286.764495849609 4.557797908783
11.383500099182 -75.462631225586 -291.736083984375 3.140111684799
-72.536552429199 -78.209411621094 -294.894409179688 5.891428470612
-42.901618957520 -76.362457275391 -291.218048095703 0.533740520477
-21.169973373413 -76.446258544922 -293.364562988281 2.787557601929
3.708684921265 -77.777099609375 -294.166015625000 3.074393749237
-19.547655105591 -81.521484375000 -290.025756835938 3.413150310516
2.169208049774 -75.927673339844 -294.888610839844 2.723769903183
6.697678089142 -79.050338745117 -294.342315673828 2.989587545395
-138.703720092773 -77.894561767578 -287.965454101563 1.517583370209
-144.887023925781 -75.783668518066 -300.619995117188 1.224877357483
-155.726303100586 -78.868240356445 -307.942108154297 2.941424369812
40.552478790283 -65.658073425293 -14.644415855408 2.592860460281
32.319877624512 -74.951980590820 -10.642510414124 3.652502298355
42.482433319092 -75.865798950195 -17.413871765137 4.397029876709
22.736192703247 -75.529624938965 -24.084487915039 3.320940971375
43.341590881348 -76.044670104980 -29.625179290771 4.803275585175
22.256643295288 -71.683952331543 -21.319297790527 1.376328110695
25.262306213379 -80.524269104004 -32.987567901611 8.136144638062
23.587940216064 -78.593719482422 -38.797058105469 6.791007041931
43.731655120850 -72.069229125977 -37.474437713623 1.575587391853
28.317247390747 -74.458343505859 -41.676628112793 3.049071550369
40.712879180908 -76.339973449707 -34.155033111572 4.715221881866
35.742652893066 -71.569442749023 -40.183860778809 1.104314208031
31.004743576050 -76.151069641113 -43.936882019043 5.615373134613
34.138618469238 -73.073356628418 -44.695114135742 4.410946846008
45.608074188232 -75.936912536621 -47.860504150391 10.002271652222
35.077770233154 -69.955421447754 -48.490180969238 7.323362350464
-37.038120269775 -68.465881347656 -58.592819213867 6.676639556885
-27.781040191650 -68.774147033691 -44.166683197021 6.349803447723
-88.146308898926 -71.093955993652 -55.336151123047 4.061536312103
-85.904098510742 -75.149444580078 -63.273097991943 2.422280550003
82.054290771484 -77.211341857910 -69.563560485840 3.718982696533
82.293731689453 -77.928604125977 -74.466133117676 3.120806932449
-13.907210350037 -78.204948425293 -77.808792114258 9.283188819885
-83.606140136719 -74.560317993164 -71.111785888672 3.476873159409
-23.271356582642 -73.990737915039 -81.479957580566 4.867093563080
-49.326473236084 -80.078987121582 -91.610458374023 2.727143287659
62.702682495117 -77.456550598145 -88.562683105469 5.837379455566
56.191375732422 -72.198425292969 -94.260452270508 1.778200030327
96.178482055664 -79.267684936523 -91.185394287109 3.564270257950
75.969963073730 -80.928047180176 -98.943794250488 6.350454330444
-63.102153778076 -77.774665832520 -91.906616210938 2.682711362839
-64.381973266602 -70.782066345215 -96.036880493164 1.870548486710
44.353141784668 -76.992568969727 -99.525817871094 2.169972181320
70.308868408203 -84.911079406738 -103.865859985352 13.455367088318
49.651191711426 -81.510337829590 -103.735702514648 3.166690826416
102.016365051270 -83.187454223633 -101.561607360840 9.869047164917
-87.713691711426 -74.388313293457 -106.640708923340 4.838822364807
39.726577758789 -84.581275939941 -112.318283081055 5.475725650787
107.555625915527 -76.039634704590 -113.077232360840 1.983591794968
45.680797576904 -72.845634460449 -113.380645751953 1.020839095116
103.721687316895 -75.272079467773 -111.352363586426 2.985876560211
-83.285896301270 -71.315368652344 -115.182746887207 2.790972471237
35.392322540283 -74.148132324219 -120.857872009277 1.733818173409
111.503662109375 -81.892684936523 -124.298179626465 6.717022418976
100.447669982910 -78.775444030762 -121.548027038574 8.875972747803
106.517639160156 -83.169281005859 -119.466064453125 8.458505630493
109.400466918945 -85.311607360840 -120.450950622559 10.177633285522
31.347885131836 -78.570137023926 -117.878196716309 3.650918245316
33.098430633545 -82.403831481934 -120.670410156250 3.099966049194
43.923278808594 -76.500679016113 -114.698951721191 2.294071674347
109.286903381348 -79.740219116211 -129.041900634766 4.545118808746
40.926704406738 -75.002876281738 -126.501831054688 1.149330615997
110.762260437012 -82.051162719727 -137.245132446289 6.056785106659
114.708625793457 -77.154716491699 -132.814453125000 2.361409902573
31.774984359741 -75.571647644043 -122.331344604492 1.802952647209
-77.794250488281 -77.766319274902 -124.241455078125 7.910449981689
116.335731506348 -85.539894104004 -140.811614990234 9.269163131714
-61.874259948730 -82.123611450195 -143.166748046875 9.517784118652
32.292724609375 -79.431922912598 -139.056137084961 0.581094264984
-75.064659118652 -73.973007202148 -139.772750854492 1.268239259720
28.711044311523 -74.757949829102 -137.558578491211 1.814526438713
-72.572166442871 -77.078971862793 -142.000625610352 3.041878938675
-43.746734619141 -78.245330810547 -150.595153808594 1.325309038162
-74.043060302734 -79.571678161621 -134.839859008789 7.119461059570
109.000457763672 -72.353332519531 -142.606948852539 1.559432983398
117.135398864746 -81.281196594238 -144.702026367188 5.565046787262
124.528388977051 -79.647865295410 -151.770645141602 9.697325706482
-72.938262939453 -77.163078308105 -145.152847290039 2.203483819962
7.234345912933 -75.766311645508 -152.020446777344 3.634748458862
-60.102741241455 -71.898963928223 -154.694091796875 4.158520221710
-47.228702545166 -79.032867431641 -153.308914184570 1.494565486908
107.822662353516 -76.922149658203 -164.128662109375 1.566524028778
-39.952827453613 -79.029678344727 -152.396453857422 2.759292602539
8.611499786377 -74.087585449219 -164.122253417969 2.582615613937
21.413600921631 -75.205810546875 -162.496871948242 0.617075800896
111.232055664063 -80.810119628906 -168.626770019531 3.467304229736
31.904724121094 -71.563537597656 -161.729522705078 1.631874084473
-4.515298843384 -81.922637939453 -159.916275024414 6.461026191711
29.778411865234 -76.012588500977 -166.372314453125 1.800606131554
-70.364967346191 -66.590087890625 -157.936370849609 4.581870079041
-62.618537902832 -72.391525268555 -158.787399291992 1.737240672112
-67.589920043945 -72.453002929688 -161.968139648438 1.678577184677
110.151954650879 -78.485649108887 -166.258239746094 1.780875802040
-47.895618438721 -71.476226806641 -164.450942993164 2.405653238297
14.594013214111 -83.136711120605 -174.459335327148 6.728908538818
-64.357215881348 -78.578475952148 -175.600601196289 3.055986881256
-61.434410095215 -78.363815307617 -175.020690917969 2.600678205490
-45.645820617676 -78.105552673340 -163.792083740234 1.058867692947
-39.490997314453 -66.688026428223 -167.186492919922 3.230810880661
111.758453369141 -73.920402526855 -180.054107666016 1.561817288399
-36.077758789063 -76.948669433594 -174.469268798828 2.513006210327
14.768941879272 -75.949470520020 -171.443069458008 3.217834949493
103.220764160156 -85.962516784668 -196.648330688477 8.486952781677
-155.414291381836 -75.289878845215 -174.944183349609 5.961406707764
-144.088348388672 -73.887664794922 -172.009948730469 4.175346851349
-153.646026611328 -70.550331115723 -175.348922729492 2.169367313385
-146.037612915039 -67.495903015137 -178.877853393555 1.636590838432
-27.909189224243 -73.300407409668 -180.932861328125 2.835576057434
-27.471519470215 -74.939292907715 -185.140365600586 3.274744272232
20.985124588013 -72.670333862305 -193.450942993164 2.494466066360
-143.273818969727 -72.419815063477 -185.289382934570 2.027997970581
-145.426208496094 -70.015701293945 -180.701736450195 2.853124618530
-24.853809356689 -66.358444213867 -187.942260742188 2.682099342346
12.563507080078 -81.958511352539 -184.244247436523 5.600815773010
-141.020935058594 -73.670875549316 -190.818984985352 3.799504756927
-38.674961090088 -80.379035949707 -181.202056884766 5.273663520813
99.671310424805 -83.945175170898 -193.859786987305 6.712285995483
104.731849670410 -76.938880920410 -199.705291748047 2.133946895599
17.984395980835 -77.132598876953 -190.672515869141 1.169278621674
-23.511993408203 -82.252838134766 -191.413955688477 1.839811444283
-27.215368270874 -80.467079162598 -200.102340698242 4.576796531677
-148.218933105469 -68.109642028809 -195.193969726563 3.599515676498
-137.164993286133 -70.905113220215 -197.355026245117 3.350363254547
-124.745162963867 -71.739715576172 -192.806961059570 3.057665586472
-126.687736511230 -76.683174133301 -195.970367431641 4.455230236053
-19.068357467651 -75.392814636230 -195.649230957031 2.700255870819
9.739366531372 -80.185867309570 -194.911514282227 3.977454662323
91.618179321289 -73.979949951172 -203.664703369141 2.709084033966
-148.207122802734 -73.379745483398 -193.167343139648 0.975294291973
-148.682464599609 -68.740867614746 -201.452102661133 2.431835174561
-147.894699096680 -65.148361206055 -196.430938720703 2.328069686890
-157.944076538086 -66.478576660156 -199.169921875000 1.279999971390
-32.212944030762 -74.326690673828 -202.022109985352 2.819715261459
-16.024734497070 -82.769256591797 -194.459167480469 4.535789489746
-145.374114990234 -63.919055938721 -192.832931518555 1.256674528122
-22.219161987305 -79.890708923340 -195.951583862305 1.255200147629
-165.775634765625 -73.266365051270 -197.230270385742 4.084698200226
-132.894363403320 -72.813957214355 -197.309890747070 1.373904466629
7.814393997192 -73.254974365234 -212.142166137695 1.424170374870
-164.238815307617 -70.239379882813 -200.138854980469 1.596488237381
-145.647216796875 -74.783897399902 -199.856338500977 0.698326706886
8.637592315674 -79.651695251465 -203.032211303711 2.346400260925
-158.906890869141 -76.101646423340 -204.727523803711 6.202337265015
-25.780679702759 -77.613395690918 -202.612121582031 3.427090883255
100.370018005371 -79.813995361328 -204.071990966797 3.941188335419
-155.658691406250 -72.155120849609 -211.965164184570 1.642683267593
-165.272933959961 -72.977516174316 -211.729110717773 1.309547424316
-82.533226013184 -71.787590026855 -214.046157836914 1.329127550125
90.626060485840 -79.124244689941 -213.686737060547 2.517405033112
-6.700264930725 -76.903991699219 -213.617446899414 1.923945903778
-156.647933959961 -72.315475463867 -207.909118652344 3.796621322632
-92.383964538574 -67.305366516113 -215.585159301758 2.975399971008
-8.179225921631 -76.454704284668 -210.205795288086 1.681126832962
12.476458549500 -73.839088439941 -223.988998413086 2.881073951721
-146.149505615234 -74.158187866211 -216.410339355469 1.514991521835
-5.779512882233 -79.124130249023 -220.789916992188 1.956594944000
-16.827533721924 -70.009040832520 -220.796279907227 1.681550383568
-23.154939651489 -71.776214599609 -219.759979248047 1.580189347267
83.855422973633 -80.754798889160 -218.456390380859 5.063637256622
-24.957920074463 -70.590042114258 -215.147140502930 2.654080390930
-31.520196914673 -76.253952026367 -219.600128173828 2.730845451355
-105.337097167969 -73.388664245605 -219.653717041016 2.474061012268
-17.927690505981 -75.615631103516 -227.418289184570 1.538220405579
86.523536682129 -78.166542053223 -222.554077148438 2.435557603836
78.509208679199 -77.586868286133 -221.981399536133 3.089903116226
4.338150978088 -82.244606018066 -227.149597167969 4.465037345886
-16.118631362915 -75.097732543945 -227.855056762695 1.925907254219
75.982154846191 -88.169670104980 -225.557647705078 12.409695625305
-132.144393920898 -72.617385864258 -220.718994140625 4.505232810974
-26.863491058350 -78.781204223633 -222.262802124023 2.919815301895
-105.937538146973 -71.074707031250 -224.778808593750 1.833575487137
-110.814254760742 -76.712554931641 -228.317230224609 4.516582965851
-137.047470092773 -70.596084594727 -226.265243530273 2.851663827896
74.666648864746 -80.213836669922 -227.017578125000 5.402069568634
-130.560211181641 -75.624588012695 -226.824615478516 2.044402360916
-2.815741062164 -75.987266540527 -232.361663818359 1.055694818497
69.446281433105 -79.068244934082 -226.792144775391 6.556396961212
-18.384637832642 -77.996879577637 -232.211547851563 4.792628288269
-11.646563529968 -78.425895690918 -231.469284057617 2.769639492035
-8.904772758484 -74.418045043945 -234.772491455078 1.934059262276
4.035921096802 -78.303588867188 -232.458312988281 1.530527472496
79.114875793457 -79.501701354980 -229.232131958008 3.824384450912
12.919243812561 -78.405807495117 -234.340209960938 2.084881782532
-0.938329994678 -78.360290527344 -234.078353881836 2.278996706009
-7.890192985535 -79.297966003418 -226.084854125977 2.476325988770
-8.982557296753 -74.165382385254 -235.567947387695 2.702479839325
12.355606079102 -75.309249877930 -234.452346801758 3.068941831589
-12.072617530823 -73.292716979980 -237.030197143555 1.493075966835
71.074386596680 -78.212356567383 -239.260498046875 4.545996189117
-11.812769889832 -73.802146911621 -234.891494750977 1.757392168045
19.521823883057 -77.634994506836 -229.783050537109 1.805506110191
-163.959747314453 -67.377792358398 -241.240249633789 1.949903726578
-8.808517456055 -76.525802612305 -244.732101440430 3.989563465118
-13.909441947937 -76.065917968750 -242.304946899414 2.921084403992
-170.667617797852 -70.141815185547 -257.090057373047 4.159388065338
-13.049368858337 -77.938827514648 -244.944519042969 5.533147811890
15.699480056763 -80.907562255859 -244.769317626953 2.067964792252
-151.440399169922 -75.998802185059 -249.499847412109 3.151793718338
-70.380134582520 -74.935997009277 -248.554595947266 1.922076821327
-60.975658416748 -72.796012878418 -249.485275268555 1.136947154999
50.743865966797 -76.707290649414 -250.811767578125 4.950697422028
-80.571472167969 -75.104476928711 -245.514968872070 4.177838802338
10.334979057312 -77.277725219727 -246.511093139648 0.963354408741
-81.434638977051 -75.980461120605 -250.292617797852 0.675533056259
-23.233898162842 -76.901588439941 -247.998825073242 5.162769317627
-154.026519775391 -74.018447875977 -253.373062133789 0.937883675098
44.409667968750 -75.615203857422 -251.655792236328 4.138198852539
-87.648338317871 -70.149642944336 -247.467849731445 3.941983699799
-98.554183959961 -75.030067443848 -255.329818725586 1.784211635590
-99.356323242188 -81.576622009277 -251.400375366211 9.036255836487
-128.548553466797 -73.959121704102 -258.671997070313 2.468245267868
-113.186325073242 -70.512702941895 -256.204620361328 1.185640215874
-111.462272644043 -70.744094848633 -259.249237060547 2.796790361404
12.581421852112 -76.749069213867 -260.337860107422 6.230821609497
-133.260803222656 -69.016334533691 -265.249114990234 2.012276649475
-12.487610816956 -80.551940917969 -278.586181640625 6.732059478760
-151.244552612305 -76.833106994629 -280.583099365234 2.248998880386
-173.645950317383 -70.728187561035 -279.929138183594 5.834322452545
-133.195220947266 -74.146827697754 -286.788696289063 2.180261850357
-120.916038513184 -76.264572143555 -277.716949462891 8.353016853333
-84.808959960938 -69.966270446777 -287.702850341797 1.933755159378
-60.628150939941 -69.370582580566 -290.807037353516 2.967332363129
-49.558620452881 -74.486526489258 -286.926391601563 1.272517919540
-17.530956268311 -75.238990783691 -291.373260498047 1.598645567894
-14.908695220947 -75.079917907715 -288.904052734375 2.465493917465
-39.318046569824 -77.304626464844 -290.660705566406 0.328218668699
-39.359870910645 -75.017784118652 -288.061889648438 2.095186710358
-25.318693161011 -72.569213867188 -294.515197753906 4.402332782745
-78.772544860840 -77.891654968262 -292.565582275391 3.797213077545
-58.955703735352 -71.727912902832 -295.848144531250 5.414494514465
-17.390914916992 -71.194274902344 -292.577453613281 1.994390010834
-19.905471801758 -76.636955261230 -292.494934082031 1.480927228928
-9.782917022705 -75.988914489746 -293.622680664063 2.495182275772
-0.963806986809 -71.799446105957 -298.183349609375 6.561724662781
-91.680480957031 -72.971099853516 -283.586334228516 4.013391494751
-152.075881958008 -70.106636047363 -285.227874755859 2.603976964951
-122.423217773438 -74.624488830566 -295.531219482422 3.516319990158
-158.824371337891 -76.962890625000 -301.207733154297 4.285562038422
-160.402404785156 -73.852310180664 -296.702270507813 3.544484853745
-148.289276123047 -72.577980041504 -302.305267333984 4.021160602570
47.401798248291 -78.608612060547 -29.326999664307 7.040309429169
19.294639587402 -74.668502807617 -26.669855117798 2.984339475632
52.003353118896 -78.160018920898 -28.637304306030 7.577665328979
50.653282165527 -80.332550048828 -35.723384857178 9.712454795837
87.103492736816 -71.541389465332 -71.104598999023 2.397407054901
98.502029418945 -74.915161132813 -80.175849914551 1.862289786339
96.496154785156 -76.397140502930 -84.587921142578 3.163057565689
95.289054870605 -75.077323913574 -93.531120300293 1.096901178360
48.662738800049 -76.342872619629 -90.313613891602 4.675327777863
50.748695373535 -76.280899047852 -94.715118408203 1.109369993210
60.289577484131 -73.962738037109 -96.087844848633 2.323103904724
-64.873588562012 -68.612823486328 -92.875541687012 1.433589100838
72.843017578125 -78.071617126465 -94.184684753418 3.563125133514
102.909034729004 -76.500755310059 -95.494697570801 3.923278331757
73.273292541504 -80.990371704102 -103.138267517090 8.732483863831
93.496734619141 -73.216072082520 -99.507911682129 1.514858365059
-81.462608337402 -74.234489440918 -101.229583740234 2.220003604889
46.007324218750 -76.666259765625 -107.535728454590 1.804122686386
-89.222587585449 -76.384078979492 -109.433219909668 2.921317100525
49.814605712891 -77.891990661621 -116.625640869141 2.659682989120
42.484573364258 -71.114479064941 -109.381126403809 1.455907225609
101.435691833496 -81.100250244141 -110.573043823242 8.605182647705
40.432079315186 -72.629035949707 -111.364906311035 1.853075385094
40.987964630127 -79.785446166992 -117.760261535645 1.385928630829
40.174060821533 -72.742965698242 -119.642112731934 2.411373853683
102.442314147949 -71.941093444824 -122.489654541016 5.063269615173
-81.372360229492 -71.616310119629 -119.149757385254 1.872674942017
113.191871643066 -81.255538940430 -125.366630554199 6.137545108795
39.100311279297 -69.608695983887 -119.311439514160 1.805789113045
43.705429077148 -77.916923522949 -118.620407104492 1.001181960106
31.673654556274 -77.446205139160 -122.168495178223 0.791383624077
-55.693046569824 -72.487075805664 -132.011276245117 1.290023684502
28.615600585938 -74.222763061523 -124.189277648926 2.696650266647
-79.229240417480 -74.653495788574 -136.397689819336 2.920144081116
-61.904701232910 -72.413337707520 -134.658218383789 3.046694040298
-76.427368164063 -70.564300537109 -130.287322998047 1.009490370750
33.481410980225 -75.573364257813 -128.872772216797 3.166943788528
-56.340129852295 -71.434402465820 -132.120315551758 1.179396390915
39.110416412354 -76.509819030762 -134.613723754883 2.117057800293
-77.970657348633 -73.674507141113 -138.177810668945 2.029413938522
-58.129226684570 -76.607246398926 -141.295654296875 2.897265911102
27.945583343506 -74.936141967773 -140.730422973633 1.431982874870
110.801429748535 -82.927108764648 -150.929046630859 7.126497745514
118.473274230957 -79.412803649902 -142.833847045898 4.766070365906
32.968921661377 -75.326492309570 -143.047012329102 2.659668684006
-49.240894317627 -71.128593444824 -145.258468627930 2.407685518265
107.577217102051 -78.207023620605 -163.672973632813 2.950891494751
-74.392066955566 -72.651161193848 -149.308166503906 1.529679656029
-49.249038696289 -75.854240417480 -138.233200073242 0.991771876812
33.897010803223 -81.478347778320 -154.629577636719 3.971718311310
-69.662956237793 -74.966514587402 -142.744079589844 1.725491166115
-71.022567749023 -75.650405883789 -144.639877319336 0.513744592667
116.076866149902 -73.641716003418 -151.296722412109 1.820624113083
-64.070449829102 -71.004051208496 -147.399856567383 3.556923389435
-42.056152343750 -72.114089965820 -150.606674194336 0.916101634502
30.550706863403 -70.437667846680 -155.989974975586 1.231650233269
-76.851829528809 -72.233184814453 -148.016311645508 1.626043558121
5.975920200348 -78.071029663086 -162.726516723633 1.686302781105
33.215339660645 -72.256767272949 -158.932891845703 2.900953531265
23.656204223633 -77.204666137695 -153.767227172852 1.485234498978
3.951261043549 -79.938171386719 -156.849075317383 4.506538867950
-48.915954589844 -71.020240783691 -153.764892578125 0.750574886799
22.988355636597 -75.962837219238 -153.432098388672 1.202680826187
-49.296775817871 -76.419723510742 -150.068710327148 0.889666080475
4.959698200226 -77.933044433594 -151.147720336914 6.860877513885
19.272397994995 -77.245986938477 -149.850891113281 3.573923826218
-74.058692932129 -77.831306457520 -152.277816772461 3.008367061615
-46.126464843750 -74.607398986816 -155.652648925781 2.983273983002
-73.033195495605 -69.883972167969 -162.221832275391 4.968864440918
8.912606239319 -67.471023559570 -167.939666748047 7.673567295074
16.892442703247 -76.757247924805 -146.898437500000 6.310210227966
-0.435867011547 -72.742240905762 -164.599929809570 0.794877529144
21.165172576904 -71.007881164551 -156.755157470703 2.140507459641
26.756549835205 -76.730598449707 -163.798141479492 1.297943353653
-47.654514312744 -76.534934997559 -163.036163330078 1.460825562477
-33.802246093750 -73.778472900391 -160.941284179688 1.365504264832
-37.844528198242 -72.594017028809 -161.744689941406 2.558448553085
29.392753601074 -77.990478515625 -166.212814331055 2.771970987320
-47.872856140137 -73.827217102051 -165.509613037109 2.753984451294
-45.270572662354 -74.923355102539 -162.845077514648 0.851284384727
18.862821578979 -79.124778747559 -163.527496337891 3.859232425690
