-151.915344238281 -82.602203369141 -207.013900756836 3.654730796814
-78.921745300293 -78.280906677246 -212.821258544922 2.291364669800
-43.468528747559 -81.442604064941 -214.200195312500 8.858341217041
12.108472824097 -79.077301025391 -205.663146972656 1.908130645752
-90.202362060547 -75.937286376953 -208.464126586914 5.038736343384
-32.117668151855 -72.263587951660 -215.097656250000 3.067631006241
3.933273077011 -78.632286071777 -228.087783813477 1.257109880447
-155.961380004883 -85.291297912598 -220.189529418945 7.107416152954
-3.528120040894 -79.567161560059 -231.672607421875 0.979212224483
2.801841020584 -80.731155395508 -226.973007202148 3.374532461166
5.169285774231 -80.358535766602 -237.218536376953 2.780131578445
-142.838577270508 -89.512474060059 -230.126464843750 6.102922916412
-160.903213500977 -86.219955444336 -232.222839355469 9.085176467896
1.888296961784 -79.317077636719 -236.027130126953 1.309165716171
2.648917913437 -78.973991394043 -242.154983520508 2.144911766052
2.839207887650 -73.318420410156 -241.580535888672 1.548243403435
-157.640319824219 -88.987030029297 -239.051498413086 9.767169952393
-153.784118652344 -86.525558471680 -241.529083251953 5.566338539124
8.774180412292 -76.058624267578 -242.237426757813 1.341539263725
-41.891426086426 -76.015106201172 -250.939712524414 5.233586788177
6.245124816895 -78.835830688477 -251.188491821289 3.350764274597
-49.556301116943 -81.352813720703 -252.333847045898 6.224106311798
-158.807113647461 -90.631362915039 -255.187179565430 9.065587997437
0.315834999084 -78.590316772461 -261.194061279297 6.862679004669
-150.831329345703 -80.608650207520 -265.402832031250 1.573192238808
-160.871307373047 -82.889816284180 -255.186477661133 7.224635601044
7.740775108337 -80.188606262207 -267.815216064453 4.666586399078
-15.824364662170 -73.060050964355 -254.294876098633 2.303832054138
-16.493356704712 -76.072265625000 -272.008758544922 4.142455101013
-155.429260253906 -82.907958984375 -255.604858398438 2.474910497665
-161.166885375977 -78.215835571289 -260.990356445313 3.374253034592
-153.156616210938 -82.541580200195 -263.786285400391 2.097045898438
-160.935134887695 -78.001098632813 -261.769134521484 3.216165065765
-163.763107299805 -80.160522460938 -267.151367187500 5.895637512207
-22.021631240845 -77.922782897949 -274.135681152344 10.004317283630
-9.484763145447 -72.507713317871 -273.205261230469 3.036729812622
-2.699760913849 -82.857772827148 -270.380584716797 2.296251535416
-2.439377069473 -76.128540039063 -289.151153564453 2.400660037994
-11.728554725647 -78.913528442383 -285.777893066406 2.808330774307
-145.034820556641 -78.732902526855 -294.054260253906 2.574832916260
-151.760696411133 -85.232574462891 -289.795989990234 1.311954975128
-65.870239257813 -81.659576416016 -68.392547607422 2.377205371857
-46.858963012695 -83.637969970703 -68.849670410156 3.485862493515
-64.741279602051 -85.749229431152 -70.092361450195 5.583661079407
-49.893161773682 -83.691757202148 -74.723289489746 2.886628150940
-80.927589416504 -87.607505798340 -66.475646972656 9.904185295105
-92.192611694336 -86.697547912598 -75.931678771973 11.485781669617
-36.478359222412 -80.244689941406 -87.138359069824 4.448772430420
-48.958877563477 -84.157508850098 -92.375358581543 4.264431476593
-52.485294342041 -83.337844848633 -85.261833190918 3.400775194168
-89.880744934082 -82.668006896973 -88.787513732910 4.777706623077
-81.028800964355 -81.657409667969 -105.088256835938 1.626557588577
34.578628540039 -83.400596618652 -115.402046203613 4.931417465210
-89.902374267578 -86.902664184570 -114.927276611328 9.092483520508
34.171485900879 -81.023986816406 -125.924217224121 1.828237533569
36.567779541016 -84.204017639160 -136.330154418945 4.721454143524
30.011035919189 -77.298454284668 -128.127746582031 1.457429409027
28.445320129395 -84.366203308105 -133.057205200195 5.273811340332
27.962081909180 -77.144851684570 -146.241088867188 1.607058167458
17.649169921875 -74.052902221680 -152.099334716797 3.784342527390
-50.285068511963 -86.130744934082 -151.509963989258 7.140255928040
17.745843887329 -76.721343994141 -153.302856445313 4.619723796844
15.573493003845 -78.488861083984 -158.842910766602 5.691975593567
-57.093929290771 -81.210472106934 -162.526626586914 4.788124084473
19.889749526978 -81.565872192383 -155.011993408203 5.117099761963
-49.961380004883 -80.283584594727 -166.034515380859 6.155926704407
20.750715255737 -76.762573242188 -172.754653930664 1.911383986473
-70.127815246582 -83.598434448242 -172.969482421875 8.966613769531
-18.136674880981 -83.590026855469 -185.350753784180 2.426630020142
-43.360118865967 -70.432319641113 -177.423065185547 5.446206569672
-25.070720672607 -76.791542053223 -177.978515625000 2.149461507797
-61.848068237305 -77.250282287598 -180.337570190430 2.923806667328
15.533305168152 -76.166984558105 -174.801437377930 1.962227940559
-26.042276382446 -80.199401855469 -187.435531616211 1.271540880203
-31.253700256348 -85.598587036133 -191.768554687500 1.007621884346
-70.150619506836 -80.895645141602 -187.983261108398 14.061459541321
-33.352252960205 -77.846954345703 -186.833007812500 2.615394353867
9.194065093994 -75.907554626465 -189.967330932617 3.442252397537
-161.631607055664 -78.296913146973 -182.353805541992 12.203263282776
-36.521221160889 -75.979675292969 -191.922943115234 3.952998876572
-60.629089355469 -77.808036804199 -196.448776245117 7.306946754456
-158.607513427734 -86.392906188965 -194.471923828125 8.630117416382
-152.797561645508 -84.699333190918 -203.841064453125 4.263651371002
-23.446071624756 -77.871231079102 -198.243057250977 1.488780379295
-23.815437316895 -80.741043090820 -208.440444946289 4.169560432434
-63.230037689209 -81.552070617676 -198.773239135742 5.589887142181
-30.035713195801 -73.537727355957 -203.498870849609 3.932331800461
-62.489025115967 -79.880805969238 -210.602310180664 1.366591215134
-53.850318908691 -84.274192810059 -208.782836914063 3.061210393906
-64.383819580078 -86.730010986328 -203.996826171875 3.645344257355
-25.365236282349 -76.648063659668 -212.748504638672 1.155179738998
-159.118362426758 -85.415992736816 -208.082687377930 10.455399513245
-63.071247100830 -79.836906433105 -204.117568969727 1.973847746849
-66.052864074707 -79.807304382324 -212.056411743164 2.236817121506
-39.281654357910 -78.468688964844 -203.541763305664 2.086967945099
-22.324962615967 -82.529396057129 -202.648956298828 4.150069713593
-46.649879455566 -79.506370544434 -210.434158325195 8.085053443909
-84.673332214355 -87.368667602539 -219.184280395508 9.370460510254
-152.468002319336 -86.174530029297 -216.266052246094 4.917991161346
-43.455684661865 -81.357963562012 -206.134170532227 4.700912952423
-5.104827880859 -77.030891418457 -215.465209960938 1.141294836998
-65.526977539063 -79.128349304199 -216.666854858398 6.078387260437
-80.835006713867 -76.314010620117 -219.019348144531 2.697836875916
-35.079513549805 -72.632560729980 -224.622848510742 9.217421531677
-18.723535537720 -76.945480346680 -221.075668334961 1.800647377968
-33.363830566406 -80.043365478516 -227.313308715820 10.301370620728
3.452586889267 -76.248703002930 -218.259246826172 3.855310440063
-161.160140991211 -78.678909301758 -225.292114257813 5.103951931000
-18.769598007202 -74.866020202637 -218.937896728516 1.960858225822
-157.538192749023 -82.412834167480 -233.226669311523 5.356028556824
-3.429934024811 -82.992820739746 -240.688049316406 6.823174953461
6.327361106873 -81.740112304688 -226.962249755859 3.195933103561
-12.992676734924 -79.447341918945 -231.603836059570 4.241176605225
7.174005985260 -74.773216247559 -231.215454101563 1.806793212891
-148.097015380859 -84.120788574219 -230.970077514648 1.521288990974
-0.165986999869 -81.908966064453 -227.845184326172 2.178542613983
-162.907028198242 -77.613990783691 -235.883041381836 4.204750537872
-159.726119995117 -84.854766845703 -235.823547363281 9.014803886414
-11.595556259155 -75.006317138672 -227.402832031250 1.456245303154
6.467107772827 -74.687210083008 -242.027847290039 1.416733741760
-42.183742523193 -82.287147521973 -248.054519653320 4.263602256775
-153.682067871094 -78.776268005371 -238.749954223633 3.610007762909
-52.309101104736 -76.115470886230 -242.441024780273 1.960146784782
-56.243473052979 -80.089897155762 -248.590148925781 2.208886384964
-37.257846832275 -79.883880615234 -251.408401489258 6.649393558502
3.824213027954 -76.079048156738 -251.603118896484 5.915480613708
-55.442218780518 -81.203041076660 -248.001617431641 2.973575115204
10.619206428528 -79.630523681641 -247.752426147461 1.831393122673
1.888556003571 -72.512306213379 -238.622024536133 1.961594939232
-0.223017007113 -79.701347351074 -249.087524414063 1.211754202843
-53.071891784668 -75.567481994629 -253.405120849609 5.166037559509
8.265524864197 -78.755775451660 -251.462646484375 3.726183652878
-149.104904174805 -84.102203369141 -251.104507446289 1.653724789619
13.452923774719 -77.065681457520 -254.090606689453 4.134805679321
-5.692347049713 -81.006889343262 -248.678558349609 2.220145940781
-1.717107057571 -75.646812438965 -258.537963867188 8.049121856689
-160.512130737305 -79.810462951660 -260.892913818359 5.046291351318
-160.266799926758 -79.162002563477 -261.541320800781 4.462877273560
-154.147445678711 -86.222755432129 -266.137542724609 5.207713127136
-165.768722534180 -77.889198303223 -261.265594482422 3.754047155380
4.221969127655 -76.640350341797 -275.060150146484 6.145737648010
-165.196640014648 -75.014411926270 -278.186523437500 2.080592393875
-16.772577285767 -75.702087402344 -284.820037841797 3.018538475037
-165.898559570313 -72.095123291016 -273.642730712891 2.787500381470
-154.702423095703 -79.851005554199 -274.389556884766 4.336936473846
-162.670593261719 -79.341125488281 -278.276519775391 6.270470142365
-163.984222412109 -76.787162780762 -286.218017578125 2.637984275818
-145.765319824219 -74.246200561523 -289.165161132813 2.762255668640
-160.237335205078 -83.245521545410 -293.329772949219 6.259818553925
-163.575836181641 -90.849655151367 -292.114135742188 11.879458427429
-161.511581420898 -79.599975585938 -301.211181640625 7.843678951263
-164.962615966797 -77.260803222656 -295.405242919922 5.704870700836
-158.735046386719 -71.548179626465 -295.493835449219 1.640434741974
-160.154434204102 -78.474670410156 -303.604553222656 6.360235214233
-159.386840820313 -77.835342407227 -303.061157226563 5.273215293884
-157.315795898438 -75.424850463867 -302.141387939453 2.532799005508
-58.873550415039 -85.915657043457 -58.089122772217 8.137663841248
-62.606132507324 -87.686431884766 -61.437679290771 9.107864379883
-52.588848114014 -84.502204895020 -67.690872192383 4.255455017090
-35.745800018311 -89.468772888184 -78.791915893555 7.441607475281
-62.825531005859 -83.229423522949 -90.765922546387 4.104703426361
-92.178375244141 -90.079048156738 -104.936424255371 9.891659736633
45.025127410889 -86.046913146973 -114.521026611328 6.046581268311
-86.782577514648 -86.624595642090 -105.529594421387 4.166139125824
31.684255599976 -80.225761413574 -116.136421203613 4.504615783691
31.176473617554 -80.993377685547 -129.340393066406 1.684286475182
27.947015762329 -78.657127380371 -126.217514038086 3.369373798370
29.623119354248 -76.594886779785 -142.454528808594 2.192035675049
23.817926406860 -77.562377929688 -145.078552246094 2.132139205933
27.400005340576 -80.729553222656 -136.981079101563 2.042685508728
21.592384338379 -78.399948120117 -154.933364868164 2.639095067978
-49.344547271729 -82.869667053223 -149.061019897461 4.279493331909
20.845153808594 -75.786773681641 -147.911651611328 2.551030874252
-68.155815124512 -81.919403076172 -156.425064086914 4.155243873596
-46.376861572266 -85.553230285645 -154.759933471680 5.636141300201
-64.755813598633 -83.071525573730 -170.780105590820 4.557802200317
-51.635353088379 -82.278335571289 -165.067550659180 7.739182472229
23.741447448730 -82.606597900391 -160.061233520508 3.345663309097
-43.779994964600 -85.379661560059 -170.076171875000 7.442983627319
-10.257739067078 -75.126487731934 -169.377822875977 2.024389266968
24.513130187988 -78.929443359375 -162.590240478516 1.263213992119
-23.483648300171 -83.119308471680 -170.027343750000 7.233365058899
-73.101119995117 -77.170074462891 -167.616165161133 6.315450668335
-47.379928588867 -82.653732299805 -171.242919921875 8.105240821838
-35.804370880127 -74.002143859863 -182.519973754883 2.844172477722
22.399421691895 -79.621749877930 -179.867523193359 1.108681321144
-64.393035888672 -81.987640380859 -183.537506103516 7.552954673767
-37.240306854248 -74.631507873535 -182.165573120117 2.962418556213
16.369903564453 -80.447502136230 -187.012512207031 2.862075805664
-61.687091827393 -79.241043090820 -189.131195068359 8.324521064758
-33.401405334473 -75.659347534180 -194.572769165039 4.776960372925
-63.835243225098 -78.612808227539 -182.908248901367 5.841961860657
-44.286998748779 -81.663429260254 -203.928604125977 2.995813131332
-38.414344787598 -85.578140258789 -194.937408447266 1.908033847809
-46.861351013184 -81.437751770020 -196.811004638672 0.603392004967
-34.108634948730 -76.154960632324 -198.742782592773 3.136922121048
-142.023132324219 -79.183883666992 -202.622451782227 1.679563283920
8.083747863770 -76.854377746582 -209.694229125977 1.000117778778
-149.163711547852 -75.423385620117 -198.516342163086 2.074255228043
-34.758441925049 -76.199684143066 -205.929306030273 1.018321871758
-25.827587127686 -72.422660827637 -202.426406860352 2.280344486237
-49.618091583252 -73.883010864258 -196.162399291992 3.011978626251
4.653986930847 -80.061622619629 -194.989837646484 7.688567161560
-26.384775161743 -78.069686889648 -205.850646972656 3.078266859055
-69.830070495605 -76.947219848633 -214.094421386719 1.783269166946
-47.577503204346 -73.906303405762 -205.176666259766 6.286325931549
-72.748001098633 -77.055137634277 -210.503646850586 1.923008561134
-80.495918273926 -78.390258789063 -210.799957275391 1.174570560455
13.974468231201 -76.702674865723 -220.825241088867 1.696224570274
-96.888809204102 -83.628807067871 -214.287506103516 8.803297996521
-38.637905120850 -79.124435424805 -224.703155517578 11.776873588562
-93.631233215332 -82.579292297363 -215.970809936523 6.136601448059
-156.693572998047 -82.844314575195 -221.290008544922 6.943712711334
-19.096651077271 -77.520698547363 -216.719268798828 1.229888439178
-20.173788070679 -73.346290588379 -227.415420532227 1.965251684189
6.597595214844 -76.220306396484 -213.462615966797 1.639610648155
4.974792003632 -80.436294555664 -227.497543334961 2.686832189560
-13.943584442139 -75.297851562500 -237.309722900391 1.327804446220
-141.087905883789 -81.413345336914 -226.621551513672 1.630252957344
-155.098526000977 -82.488372802734 -228.806732177734 2.438973426819
-156.865295410156 -71.510971069336 -233.866287231445 3.146277666092
1.702168941498 -77.420486450195 -235.854309082031 0.768376827240
-7.547434806824 -75.882484436035 -240.403778076172 3.024183034897
-36.564853668213 -73.491867065430 -234.560058593750 5.880326747894
-157.527008056641 -81.901535034180 -234.661956787109 5.833393096924
-1.245674014091 -71.316032409668 -250.234771728516 5.779037952423
-36.144702911377 -77.350761413574 -250.597717285156 5.772961616516
9.254717826843 -71.884788513184 -239.249542236328 2.129011392593
-66.253204345703 -78.455604553223 -250.401763916016 2.376088619232
-61.712997436523 -70.957008361816 -252.060180664063 3.563207626343
-153.930725097656 -79.171157836914 -245.567108154297 3.508771896362
-70.536735534668 -78.138442993164 -250.417526245117 2.033689022064
-15.431152343750 -67.312721252441 -258.956604003906 2.848020553589
-19.346166610718 -77.333694458008 -258.403686523438 6.344005107880
-159.125106811523 -79.880889892578 -259.377441406250 4.228107929230
-144.449447631836 -77.535140991211 -260.219177246094 2.528859853745
-145.545120239258 -76.766380310059 -263.736053466797 2.174468517303
6.765945911407 -68.280578613281 -267.112182617188 6.129552841187
-155.567611694336 -83.928504943848 -273.375427246094 5.783073425293
8.799780845642 -80.771476745605 -275.037200927734 2.701663494110
-159.957031250000 -74.914901733398 -267.188385009766 3.128452301025
-3.076354980469 -84.430412292480 -281.665527343750 6.086763858795
-159.282043457031 -75.944450378418 -284.470428466797 3.580741405487
-9.439251899719 -69.702697753906 -289.493560791016 3.592804908752
-168.368728637695 -83.355964660645 -285.281097412109 8.736362457275
-151.004165649414 -76.634674072266 -295.056030273438 0.300715327263
-146.349838256836 -78.688209533691 -282.616271972656 0.898258388042
-160.280258178711 -80.159980773926 -294.079620361328 5.856515884399
-27.523046493530 -75.762168884277 -294.782440185547 3.276295900345
-165.261108398438 -76.072677612305 -292.925506591797 3.503154277802
-160.748703002930 -79.249755859375 -293.942108154297 5.166110038757
-160.704437255859 -72.291046142578 -311.738372802734 4.794152259827
-60.880226135254 -81.857627868652 -63.750408172607 2.832263946533
-43.626972198486 -86.668136596680 -67.316093444824 6.707906246185
-71.917495727539 -87.479118347168 -62.155181884766 9.165730476379
-36.263015747070 -81.987129211426 -76.086242675781 1.685129523277
-36.327823638916 -89.335380554199 -78.927581787109 7.314646244049
-93.833862304688 -81.783569335938 -90.919303894043 6.058719158173
79.384994506836 -74.758430480957 -88.742057800293 3.370586156845
-44.220775604248 -80.233764648438 -84.482971191406 2.206323623657
75.709007263184 -84.138526916504 -87.301002502441 7.184875011444
69.671806335449 -78.204658508301 -94.744987487793 5.165152072906
81.098030090332 -71.583732604980 -100.994758605957 2.057687759399
76.267028808594 -75.353324890137 -97.828086853027 1.075897336006
88.627868652344 -77.085510253906 -97.743881225586 1.981871485710
-91.928833007813 -78.157119750977 -97.434852600098 2.437541961670
49.126842498779 -75.056396484375 -111.480079650879 1.306043148041
-100.983001708984 -79.764205932617 -121.252517700195 10.745890617371
27.274076461792 -80.223434448242 -118.152542114258 6.567155838013
45.355728149414 -79.383049011230 -118.616828918457 1.813674330711
30.647216796875 -79.581222534180 -124.161933898926 1.684826731682
24.085708618164 -79.934776306152 -134.571960449219 4.331297874451
19.254072189331 -81.766143798828 -147.989852905273 6.286836147308
23.563585281372 -78.446891784668 -150.222885131836 1.497260212898
24.830385208130 -76.085525512695 -158.173110961914 3.153318166733
-58.179924011230 -82.418655395508 -155.352508544922 8.259219169617
-52.243701934814 -82.857841491699 -156.627014160156 6.083215236664
-48.382514953613 -84.146400451660 -159.214767456055 6.488714694977
20.008718490601 -83.425415039063 -152.845123291016 6.089250087738
13.925720214844 -75.315811157227 -176.034393310547 3.091419935226
-46.150558471680 -80.392601013184 -162.774765014648 2.926018714905
-41.308506011963 -77.575477600098 -158.095703125000 1.373911738396
-57.218379974365 -75.780769348145 -156.323074340820 5.493518829346
-8.231476783752 -78.878356933594 -173.859817504883 2.272535085678
20.114646911621 -76.323936462402 -164.843414306641 2.070402860641
21.899765014648 -68.144309997559 -163.062072753906 2.570972442627
18.698709487915 -78.083457946777 -173.637603759766 0.575617074966
-15.498384475708 -76.855575561523 -172.791809082031 1.965560674667
-9.339714050293 -78.255844116211 -175.398330688477 0.951344966888
-61.532577514648 -75.710586547852 -180.400009155273 2.502795934677
-69.465393066406 -80.525009155273 -169.623153686523 5.322646617889
-44.264968872070 -80.655395507813 -181.820892333984 5.002300262451
-45.054508209229 -76.738250732422 -169.809417724609 2.416943311691
14.679384231567 -77.448158264160 -177.684799194336 2.996777772903
-30.899805068970 -82.311531066895 -184.091339111328 2.555133342743
-45.810832977295 -86.381027221680 -186.544448852539 5.912910461426
-68.763565063477 -83.978523254395 -183.301620483398 11.651371002197
95.828002929688 -77.186767578125 -184.745727539063 7.042778015137
11.168120384216 -75.985435485840 -174.527175903320 5.914319992065
-31.772747039795 -75.988891601563 -181.785247802734 0.903729736805
-58.595119476318 -75.815910339355 -183.651123046875 2.190147638321
-22.261930465698 -74.103729248047 -181.634170532227 1.071257829666
98.927551269531 -75.996345520020 -187.331390380859 2.883774042130
-54.474693298340 -78.326423645020 -188.826507568359 2.281130075455
7.086906909943 -77.773406982422 -189.462127685547 6.080652713776
17.853548049927 -75.477073669434 -187.885452270508 2.027025222778
-60.841022491455 -79.075492858887 -186.214569091797 5.509306907654
-32.075408935547 -74.387252807617 -186.439437866211 2.290999889374
-65.207748413086 -84.012214660645 -178.489547729492 7.544592857361
-36.782176971436 -68.376541137695 -184.108428955078 4.468764781952
-33.619255065918 -78.742431640625 -187.224700927734 2.460025787354
13.016819000244 -81.211685180664 -191.947799682617 4.516427516937
-57.264213562012 -81.755363464355 -191.527694702148 6.052814483643
94.991836547852 -75.192626953125 -197.160507202148 1.630897760391
-58.465415954590 -72.740089416504 -194.467391967773 8.661929130554
7.117444038391 -79.872795104980 -206.377578735352 3.476703643799
5.049665927887 -75.147773742676 -207.838195800781 2.168930292130
-52.213665008545 -79.924331665039 -192.290069580078 2.813013076782
-25.176307678223 -74.579460144043 -194.259262084961 1.616255640984
94.804954528809 -76.157882690430 -204.848419189453 1.561508536339
98.600883483887 -77.439666748047 -203.763946533203 1.937041997910
-54.446529388428 -70.528724670410 -194.307495117188 6.995670795441
-159.596984863281 -82.465690612793 -192.227325439453 9.126327514648
-62.070983886719 -73.587707519531 -203.818756103516 5.625047683716
-155.162734985352 -78.261215209961 -201.492385864258 2.552172660828
-143.259765625000 -77.877525329590 -203.280624389648 1.475478172302
-50.616130828857 -72.722763061523 -201.118103027344 6.671227931976
4.010093212128 -76.617866516113 -212.974243164063 3.034412145615
-27.601608276367 -75.302658081055 -202.856872558594 3.960333585739
7.087720870972 -81.038795471191 -212.016082763672 3.012865066528
77.914199829102 -78.169509887695 -218.535079956055 5.577425479889
-49.004188537598 -74.845138549805 -201.044601440430 4.862939834595
-21.511798858643 -78.940132141113 -208.093963623047 3.892809152603
-18.544023513794 -77.992385864258 -214.246566772461 2.549814939499
-46.907958984375 -76.499618530273 -214.635162353516 10.998167037964
-1.571648001671 -84.112396240234 -213.923446655273 6.628360271454
-84.298934936523 -76.741630554199 -214.535278320313 2.191075801849
3.608532905579 -79.322860717773 -220.503356933594 3.636054277420
-46.878337860107 -75.221366882324 -217.043334960938 12.370935440063
-150.412200927734 -79.132522583008 -205.704833984375 1.583795785904
-154.336441040039 -81.722351074219 -214.716903686523 5.254552841187
-94.031387329102 -78.149414062500 -215.817947387695 2.693417310715
-41.649570465088 -76.802833557129 -213.173065185547 5.773535728455
-33.286437988281 -75.738975524902 -219.922882080078 4.250544071198
-36.411029815674 -78.663177490234 -217.090179443359 4.891092777252
-99.021682739258 -80.975914001465 -223.724243164063 6.987948417664
-93.706283569336 -77.885025024414 -215.645614624023 2.324491977692
1.701939940453 -74.124809265137 -223.254318237305 1.550971865654
-154.803115844727 -77.298072814941 -218.953521728516 4.639647006989
-21.230613708496 -74.365493774414 -215.342163085938 0.718272864819
-1.185155034065 -80.520828247070 -223.700073242188 1.097937107086
-148.488143920898 -81.373703002930 -217.813171386719 1.757253885269
-30.980043411255 -79.127410888672 -228.138931274414 9.084327697754
-13.068202972412 -74.338890075684 -228.634643554688 0.554208815098
-9.444999694824 -76.202003479004 -222.479644775391 1.765210390091
-161.375656127930 -77.925048828125 -223.301071166992 5.122042655945
-142.181594848633 -74.385856628418 -226.592514038086 1.934193015099
-13.187432289124 -73.563110351563 -234.990158081055 2.145868062973
-157.763778686523 -83.328430175781 -229.287796020508 5.123811244965
-10.577540397644 -74.250076293945 -235.116058349609 2.361467361450
8.599747657776 -67.997009277344 -237.043563842773 1.471234321594
-14.961392402649 -69.938751220703 -243.284088134766 1.830710768700
-7.578769207001 -75.956489562988 -235.938919067383 2.743442535400
0.199261993170 -82.524391174316 -241.304046630859 5.563078403473
-159.426696777344 -79.685745239258 -233.799697875977 6.096616268158
-26.436754226685 -74.680412292480 -241.998687744141 1.553582668304
-38.169124603271 -83.009147644043 -246.256042480469 4.010746479034
-0.573375999928 -69.566947937012 -233.906021118164 1.757162690163
-9.764481544495 -70.577255249023 -243.276336669922 1.337664961815
-3.551630020142 -75.786437988281 -240.279449462891 2.492444276810
-62.243923187256 -76.441421508789 -241.867095947266 3.298338174820
-163.722106933594 -75.303924560547 -247.208190917969 2.050422191620
-162.696426391602 -76.620361328125 -250.815475463867 2.641000032425
3.058269023895 -75.830451965332 -254.096786499023 7.261522293091
10.947048187256 -76.081573486328 -252.194107055664 4.644410133362
-68.096313476563 -74.859207153320 -251.951599121094 0.762892425060
-159.132080078125 -72.590110778809 -255.726806640625 3.350978612900
-163.129699707031 -83.768295288086 -257.221069335938 9.509857177734
-158.056533813477 -77.042190551758 -257.391784667969 3.694812774658
-156.708877563477 -82.868232727051 -257.749481201172 3.430104017258
-146.166320800781 -79.305419921875 -259.037963867188 1.944572448730
-23.289249420166 -72.718986511230 -262.608947753906 7.965034961700
-157.648620605469 -74.491462707520 -269.496643066406 1.352514147758
-22.004501342773 -78.402008056641 -263.075408935547 8.279076576233
-164.505905151367 -77.510475158691 -276.293243408203 3.202753067017
-165.298233032227 -79.714042663574 -284.787628173828 4.809412479401
-165.560867309570 -82.060478210449 -282.805053710938 7.113657951355
-18.231239318848 -67.172172546387 -296.020416259766 7.184859752655
-157.600097656250 -74.878158569336 -286.230010986328 2.163519620895
-48.506103515625 -73.408302307129 -283.123168945313 3.238083124161
-42.916782379150 -66.496261596680 -294.496032714844 7.094443321228
-34.078701019287 -72.396934509277 -288.274780273438 2.639641284943
-20.715595245361 -72.779823303223 -297.046203613281 5.528851985931
5.909163951874 -70.911964416504 -298.458648681641 6.383364677429
-136.812713623047 -74.266426086426 -289.452056884766 1.962136268616
-67.195793151855 -77.648574829102 -289.281311035156 1.189022421837
-51.301155090332 -70.959281921387 -299.058776855469 8.598332405090
-47.973636627197 -74.023880004883 -294.772033691406 5.045431137085
-21.107709884644 -73.328346252441 -293.105834960938 2.067750930786
-3.388430118561 -70.032249450684 -291.773040771484 1.721487998962
-149.287826538086 -77.521301269531 -293.444458007813 2.275626182556
-4.386644840240 -74.577392578125 -300.251190185547 8.220306396484
-168.537445068359 -79.476364135742 -307.898132324219 13.875242233276
-160.289352416992 -74.081108093262 -302.012329101563 4.911669254303
-163.146499633789 -72.731109619141 -312.861480712891 7.272320747375
-159.261352539063 -74.375343322754 -313.072265625000 3.742451667786
-58.044975280762 -81.758674621582 -54.172882080078 5.696772575378
-54.607379913330 -82.631958007813 -60.795063018799 4.668141841888
-75.860359191895 -82.986984252930 -57.955154418945 7.060342788696
-49.518676757813 -83.285446166992 -61.377174377441 5.008633613586
-46.626720428467 -76.947334289551 -62.705745697021 1.786532402039
-29.255155563354 -77.296203613281 -62.277706146240 2.860336065292
-86.534904479980 -84.098640441895 -68.766052246094 8.328885078430
76.843078613281 -76.788436889648 -88.406051635742 1.745425820351
-96.872703552246 -84.221931457520 -85.584411621094 10.508795738220
80.902214050293 -82.245223999023 -88.182823181152 5.188493728638
82.047386169434 -79.503692626953 -90.032104492188 2.026761770248
89.622581481934 -77.491165161133 -90.056922912598 2.079695940018
-65.557075500488 -87.374069213867 -96.325347900391 1.958777427673
81.576454162598 -82.285926818848 -100.253593444824 7.426350593567
75.888740539551 -75.834152221680 -99.845222473145 2.725424528122
90.074676513672 -80.889953613281 -100.262939453125 6.041030406952
-65.418754577637 -84.546539306641 -101.053253173828 2.098178625107
51.428031921387 -76.860061645508 -103.571144104004 1.285722970963
40.262641906738 -79.260429382324 -110.431724548340 1.372358322144
31.555637359619 -79.360252380371 -114.706604003906 4.500830173492
31.302371978760 -77.784667968750 -115.853248596191 3.256453752518
-99.537872314453 -79.629501342773 -117.007682800293 8.864185333252
28.434022903442 -80.966796875000 -124.515167236328 4.304656028748
-88.864143371582 -81.019287109375 -116.494567871094 4.823120594025
34.839843750000 -77.828567504883 -134.084335327148 1.130264997482
25.359371185303 -78.164276123047 -127.294059753418 4.363114833832
25.883062362671 -82.478408813477 -130.243362426758 5.822191715240
35.650581359863 -75.165260314941 -128.763473510742 4.005254268646
34.268531799316 -82.459808349609 -133.293655395508 1.958196997643
-63.813709259033 -71.003158569336 -145.501159667969 4.029108524323
30.478609085083 -80.609855651855 -138.967895507813 1.646003007889
29.858493804932 -78.069015502930 -146.497711181641 1.453123092651
-54.017860412598 -73.325721740723 -143.264465332031 1.089473843575
-55.590721130371 -83.716827392578 -145.054672241211 7.361881732941
27.370597839355 -77.428146362305 -149.336700439453 1.198972940445
100.734344482422 -73.340377807617 -149.024749755859 8.694019317627
102.257095336914 -73.917022705078 -152.581649780273 7.560356140137
20.847011566162 -80.618705749512 -150.595993041992 4.380654811859
-49.919624328613 -77.862983703613 -149.981216430664 1.129522562027
105.920013427734 -78.707656860352 -169.147293090820 4.320718765259
-51.265312194824 -77.294265747070 -160.829986572266 3.563336372375
-69.106369018555 -81.489128112793 -166.363357543945 4.761415481567
103.625640869141 -75.042785644531 -170.639785766602 2.811014175415
18.752182006836 -79.137207031250 -175.074935913086 1.452690005302
-8.292549133301 -77.297714233398 -171.449996948242 2.188815116882
105.274673461914 -77.593254089355 -159.807830810547 4.925962448120
-69.155021667480 -81.471549987793 -163.335357666016 5.059999942780
-42.231693267822 -84.541137695313 -166.483795166016 6.092311859131
102.043968200684 -72.958038330078 -172.426742553711 3.893231153488
17.181415557861 -71.250091552734 -163.875137329102 2.135746002197
-75.084243774414 -78.977256774902 -173.759170532227 11.168323516846
98.420684814453 -70.666770935059 -181.039016723633 5.783221721649
-72.039627075195 -80.791419982910 -173.153656005859 9.122597694397
-61.144329071045 -81.417999267578 -182.078613281250 4.547505855560
97.198814392090 -73.290977478027 -187.754776000977 4.501941204071
-72.151214599609 -78.702865600586 -172.434417724609 8.068265914917
105.725097656250 -72.646186828613 -181.039123535156 1.063619256020
-65.792907714844 -81.729484558105 -175.367980957031 5.452057361603
-21.661279678345 -76.548950195313 -179.845397949219 1.281049489975
-17.505111694336 -77.207901000977 -183.978271484375 2.665530204773
97.408569335938 -75.016143798828 -178.044830322266 7.695620059967
14.473612785339 -75.820159912109 -172.093032836914 3.272477626801
21.833444595337 -78.454635620117 -173.133346557617 1.346328258514
-62.365627288818 -82.374092102051 -181.959182739258 5.684160232544
9.037373542786 -75.038543701172 -191.753387451172 2.443176031113
-64.639060974121 -80.193199157715 -184.797348022461 7.797473907471
-60.895957946777 -73.065612792969 -197.220123291016 9.395085334778
4.199831008911 -77.161209106445 -184.838699340820 9.653254508972
-70.774459838867 -74.994949340820 -189.294158935547 14.945362091064
103.092346191406 -68.770317077637 -193.219955444336 2.917117118835
12.255584716797 -77.322547912598 -185.053115844727 3.078100681305
-40.213756561279 -78.570724487305 -191.652008056641 1.485447883606
-54.540702819824 -72.792030334473 -199.365081787109 7.397894382477
1.712782979012 -73.982604980469 -202.317672729492 6.773561477661
-36.656448364258 -77.731376647949 -190.192810058594 2.357665061951
-62.568012237549 -77.286369323730 -200.432449340820 4.819071292877
91.004753112793 -77.264259338379 -196.242568969727 6.018762111664
4.787601947784 -72.439849853516 -195.797897338867 5.587502002716
-144.165054321289 -80.241363525391 -195.347747802734 0.858067095280
-50.748306274414 -74.603302001953 -194.240295410156 2.969179391861
95.639503479004 -76.022254943848 -203.400207519531 1.946270227432
-157.721786499023 -78.414489746094 -202.081665039063 4.997658252716
9.223597526550 -74.841545104980 -198.186340332031 0.919122397900
-55.202461242676 -86.553688049316 -208.042160034180 3.130735158920
-42.541580200195 -77.637084960938 -208.710678100586 3.788370132446
-50.166183471680 -71.933418273926 -208.489318847656 9.498442649841
-51.123016357422 -77.855659484863 -194.937210083008 2.856483459473
93.900146484375 -76.612884521484 -207.872711181641 1.283906102180
-26.601404190063 -74.542289733887 -205.999633789063 3.492084503174
-160.983200073242 -74.291336059570 -200.125396728516 3.060702085495
2.061307907104 -72.585090637207 -214.670822143555 4.204896450043
-79.498001098633 -79.468086242676 -204.853042602539 5.314022541046
-152.346069335938 -76.752098083496 -211.957977294922 3.420980930328
88.291740417480 -70.837333679199 -216.448791503906 1.670849800110
-44.451877593994 -76.552810668945 -210.324554443359 6.308977127075
-33.841053009033 -74.085578918457 -221.368469238281 5.954531669617
-3.259944915771 -76.475128173828 -215.896026611328 0.919872760773
-81.347831726074 -75.145759582520 -215.077438354492 1.413006067276
-35.321559906006 -74.411132812500 -212.017990112305 1.924382686615
-18.031900405884 -79.759834289551 -223.277481079102 2.000531911850
-90.456939697266 -80.645980834961 -220.775390625000 5.188625335693
-22.234369277954 -79.471687316895 -224.535629272461 3.614905595779
0.694655001163 -73.791664123535 -221.224945068359 2.522621631622
8.622115135193 -83.001289367676 -227.804748535156 2.646443605423
-154.842254638672 -78.435409545898 -219.094696044922 4.780385971069
-12.563796043396 -71.511238098145 -221.206390380859 1.797626495361
-100.297805786133 -72.704078674316 -225.050811767578 0.985844910145
-32.544620513916 -70.144104003906 -222.181655883789 6.975917339325
85.931259155273 -74.072250366211 -219.873901367188 1.838901758194
-2.828815937042 -76.663406372070 -234.737136840820 1.920413494110
5.500586032867 -80.048080444336 -220.319869995117 2.347471952438
68.730484008789 -64.112182617188 -228.771636962891 5.635795593262
-6.132976055145 -73.019355773926 -231.106567382813 1.211526989937
76.036476135254 -69.770378112793 -229.455093383789 1.802104353905
-25.494319915771 -73.656898498535 -228.043228149414 4.778913021088
3.082403898239 -76.753227233887 -229.628387451172 1.440058469772
-159.597702026367 -80.123718261719 -226.490646362305 5.831684589386
-27.357385635376 -84.513000488281 -232.630126953125 8.374135017395
-7.867794036865 -79.762725830078 -231.989410400391 3.983731031418
-159.851715087891 -80.914070129395 -229.399871826172 5.941365718842
-142.570892333984 -78.573478698730 -227.574630737305 1.451645016670
2.286096096039 -72.160530090332 -233.057723999023 2.787707805634
-16.409473419189 -73.115982055664 -247.811508178711 2.955589532852
-148.217758178711 -78.505058288574 -232.924209594727 2.280019760132
-158.970458984375 -82.508308410645 -235.793167114258 7.757411003113
-154.420791625977 -74.156982421875 -239.903045654297 4.331912994385
-33.273433685303 -75.368118286133 -237.938903808594 1.308927774429
-153.919494628906 -75.180953979492 -246.436538696289 2.620248556137
8.605190277100 -72.299377441406 -244.710357666016 1.761449933052
-2.340464115143 -74.532478332520 -250.037796020508 4.273320198059
-163.209747314453 -74.430770874023 -237.072174072266 1.506585717201
-163.149673461914 -77.048881530762 -243.020462036133 4.822418212891
-54.850994110107 -75.299568176270 -242.933349609375 1.028606534004
-43.595127105713 -79.230049133301 -249.553710937500 4.134331703186
-3.401992082596 -75.715423583984 -255.747375488281 6.304652690887
-44.368690490723 -71.742141723633 -251.635391235352 7.013285636902
14.363860130310 -75.348007202148 -258.180023193359 6.182566165924
-11.557158470154 -74.893035888672 -249.139175415039 2.259438514709
-165.704452514648 -74.616935729980 -252.989501953125 1.314220547676
-15.047234535217 -64.775375366211 -251.075256347656 3.730008840561
-149.602432250977 -79.142555236816 -253.640518188477 1.799015045166
-76.103858947754 -76.033172607422 -254.256103515625 2.335974693298
-165.114761352539 -84.009864807129 -258.337829589844 9.900475502014
-136.698669433594 -80.090614318848 -264.975708007813 4.160653591156
-160.906677246094 -72.629409790039 -259.946380615234 1.607077836990
-22.510627746582 -70.928878784180 -272.177673339844 8.490573883057
-155.373779296875 -78.784942626953 -264.924163818359 3.007914066315
-159.351745605469 -76.824104309082 -263.681793212891 3.000287771225
-21.586294174194 -75.625587463379 -272.252929687500 8.314546585083
-159.591232299805 -77.790351867676 -267.216125488281 4.712922096252
-16.512420654297 -76.227806091309 -289.694976806641 1.735452651978
-54.447624206543 -76.035591125488 -282.762756347656 4.075850009918
-150.898376464844 -78.301483154297 -285.253631591797 2.763432264328
-144.436782836914 -71.823158264160 -280.476928710938 1.758276939392
-136.539108276367 -74.582069396973 -283.755187988281 1.925247430801
-66.539527893066 -72.220832824707 -280.802764892578 5.383491516113
-125.077804565430 -74.358268737793 -292.293304443359 0.539166331291
4.146412849426 -79.327667236328 -295.416595458984 4.587630271912
-74.494323730469 -73.114677429199 -288.701660156250 2.922211885452
-152.534713745117 -72.080429077148 -286.701904296875 2.972519874573
-74.110351562500 -69.083686828613 -288.679626464844 0.504743576050
-155.056396484375 -82.501403808594 -291.192138671875 1.808727502823
-131.082839965820 -73.411285400391 -284.735809326172 1.759397268295
-58.586746215820 -71.999641418457 -295.536071777344 5.013547897339
-52.848880767822 -73.212738037109 -294.350158691406 4.101609230042
-146.101699829102 -75.174308776855 -290.872680664063 2.438936710358
-23.966951370239 -66.048950195313 -297.619415283203 9.845370292664
-13.583587646484 -76.285896301270 -297.613739013672 5.934433937073
-2.815336942673 -71.542091369629 -296.082397460938 5.115872383118
1.094722032547 -70.776222229004 -298.947296142578 6.914542198181
-159.107147216797 -81.302139282227 -296.285949707031 6.145978927612
-156.427978515625 -72.807846069336 -298.432983398438 2.346975088120
-74.896171569824 -78.292434692383 -66.676368713379 0.982159674168
83.055747985840 -78.521575927734 -86.842689514160 2.058452367783
75.815681457520 -79.518142700195 -83.871009826660 3.027499914169
-31.298192977905 -86.370361328125 -78.286056518555 5.420903682709
81.638351440430 -76.722068786621 -80.587158203125 1.236629009247
-44.564792633057 -77.540832519531 -85.158660888672 0.172870174050
86.831550598145 -83.316894531250 -85.732490539551 6.225533008575
84.434852600098 -83.029525756836 -87.491966247559 5.963249683380
-76.774856567383 -77.843437194824 -96.512657165527 4.368559837341
74.999938964844 -77.547943115234 -96.992210388184 3.427217960358
74.943122863770 -73.911941528320 -105.419403076172 4.433511734009
87.840515136719 -76.028427124023 -96.535346984863 0.866391718388
48.626960754395 -78.681060791016 -96.959098815918 3.501482486725
-85.052101135254 -86.705657958984 -104.055084228516 2.888574600220
-90.953865051270 -76.707199096680 -101.128227233887 2.098952054977
44.989501953125 -76.608337402344 -117.416801452637 0.491734653711
-97.951805114746 -84.731903076172 -112.868606567383 10.483430862427
37.988048553467 -77.453765869141 -121.325370788574 3.005422830582
105.779602050781 -74.824440002441 -123.140823364258 3.797611951828
100.663543701172 -71.576271057129 -139.443893432617 8.705582618713
17.932312011719 -71.702384948730 -143.347564697266 3.225191831589
107.701492309570 -81.520492553711 -139.941528320313 6.844364166260
21.994655609131 -74.209663391113 -139.468627929688 3.240043401718
103.005012512207 -77.206130981445 -141.367874145508 7.525108337402
24.729820251465 -81.998825073242 -145.041412353516 3.289022922516
-59.861370086670 -81.850898742676 -156.253356933594 6.467022895813
28.662212371826 -77.049049377441 -146.530303955078 1.816157341003
106.168258666992 -73.329635620117 -145.135391235352 3.584836959839
-57.385234832764 -79.168853759766 -154.209350585938 6.360561847687
21.615373611450 -82.022987365723 -151.622360229492 4.418982982635
-61.441493988037 -79.439109802246 -136.792648315430 6.832340240479
-63.529396057129 -86.043701171875 -152.070663452148 9.546253204346
-60.587509155273 -73.512657165527 -154.734909057617 3.556002855301
-74.251922607422 -81.433158874512 -158.592605590820 6.797385215759
103.959953308105 -72.817939758301 -155.974304199219 5.598359107971
-58.524627685547 -76.589714050293 -154.491577148438 5.505447387695
11.233145713806 -79.146514892578 -166.231445312500 7.122125148773
101.860588073730 -80.033721923828 -166.019775390625 7.796710968018
-75.577636718750 -82.683448791504 -158.380783081055 8.440126419067
-56.442138671875 -75.874427795410 -160.891754150391 4.382113933563
-0.839991986752 -75.581718444824 -163.290145874023 1.483326435089
-70.217590332031 -73.798141479492 -159.728866577148 1.364321112633
-66.340858459473 -79.447723388672 -166.017166137695 1.545831322670
-8.309155464172 -86.799362182617 -166.092620849609 7.157287120819
-53.725139617920 -81.301109313965 -176.706878662109 1.462456464767
18.064172744751 -72.430618286133 -170.427780151367 2.110223293304
-75.806755065918 -77.602264404297 -164.960632324219 8.113543510437
-56.375850677490 -71.354316711426 -171.717864990234 3.853178501129
15.755775451660 -75.162208557129 -168.584289550781 2.671938657761
-38.157890319824 -83.220222473145 -181.182373046875 6.325824737549
-41.414314270020 -70.028869628906 -171.501846313477 1.784125804901
5.396637916565 -72.494453430176 -181.937072753906 8.658751487732
-46.026187896729 -82.441383361816 -181.223754882813 4.373534202576
-14.681472778320 -75.359710693359 -179.776290893555 2.777146816254
-73.130195617676 -77.124900817871 -173.120178222656 8.819156646729
-14.209010124207 -77.611213684082 -175.636383056641 1.057799935341
-31.280775070190 -83.330329895020 -182.236526489258 3.474792480469
9.297584533691 -78.392524719238 -189.077728271484 4.744675159454
-44.056552886963 -75.237258911133 -181.303512573242 5.055027484894
8.912092208862 -76.895858764648 -184.104965209961 5.369549274445
-24.624332427979 -76.759643554688 -191.282302856445 2.253479242325
-41.611019134521 -77.030998229980 -183.968826293945 5.345828533173
-153.890380859375 -70.194236755371 -187.173889160156 1.368777036667
-34.027751922607 -75.983596801758 -190.159255981445 3.210450649261
-154.836914062500 -75.574287414551 -194.280029296875 3.225384950638
-161.610229492188 -79.369583129883 -188.977127075195 11.407190322876
-54.009296417236 -80.963951110840 -193.234878540039 4.548271179199
94.328674316406 -76.871109008789 -201.636581420898 1.989801168442
-154.734481811523 -76.695381164551 -191.930572509766 4.045441627502
-160.106292724609 -79.081420898438 -198.759475708008 6.627493858337
10.919001579285 -75.173057556152 -201.042678833008 1.685884833336
-143.530364990234 -73.866577148438 -194.577682495117 1.186400890350
14.444675445557 -67.305366516113 -202.641098022461 0.544454693794
-148.986541748047 -73.209159851074 -204.006591796875 2.098083972931
1.166224002838 -75.846466064453 -200.544464111328 7.997358798981
-146.777679443359 -75.676422119141 -203.105728149414 3.102178096771
-1.592483043671 -71.995880126953 -210.285324096680 4.790116786957
-158.323089599609 -77.301902770996 -200.183517456055 4.673472404480
81.571144104004 -67.978836059570 -211.286788940430 7.456663131714
-22.960847854614 -71.829391479492 -212.488403320313 2.980761051178
-34.722656250000 -72.949279785156 -209.931274414063 2.649250030518
-19.080196380615 -80.913185119629 -207.113739013672 3.156780242920
-158.702606201172 -81.625946044922 -209.599121093750 9.078997612000
-51.392642974854 -78.973793029785 -211.419006347656 6.586216926575
-92.768836975098 -74.158744812012 -211.755310058594 2.815615892410
-40.286750793457 -75.857261657715 -217.601058959961 8.024776458740
8.423775672913 -67.797210693359 -213.772384643555 1.870787382126
-154.733612060547 -78.721343994141 -206.738998413086 4.890681743622
-94.970489501953 -75.523666381836 -215.454727172852 1.370317935944
-32.921161651611 -74.811065673828 -219.685134887695 3.925093650818
-35.174194335938 -69.068534851074 -225.791320800781 11.239415168762
-24.594053268433 -71.354721069336 -222.551834106445 1.720236182213
-33.760784149170 -73.736045837402 -220.548080444336 5.335551738739
-88.350074768066 -77.001220703125 -222.836151123047 4.951205730438
-92.769271850586 -77.433326721191 -226.778854370117 7.089146137238
-30.672754287720 -75.803024291992 -228.785934448242 8.754629135132
-16.365831375122 -71.843750000000 -226.723190307617 1.150744915009
-156.546844482422 -73.331192016602 -216.126541137695 1.692997694016
-11.792023658752 -69.999160766602 -222.252944946289 1.742554306984
72.351982116699 -69.157333374023 -233.121368408203 1.444616556168
-154.198944091797 -81.657463073730 -230.176635742188 1.454764246941
-14.746593475342 -71.870971679688 -227.966140747070 1.071339249611
-153.743209838867 -76.770446777344 -232.698623657227 1.928522467613
-160.246627807617 -85.273307800293 -225.862350463867 7.954058170319
-15.587644577026 -73.431976318359 -233.368667602539 2.641058206558
13.397444725037 -73.770187377930 -226.540374755859 2.724109172821
-150.333663940430 -76.403198242188 -228.274658203125 1.249683499336
-23.824419021606 -73.229934692383 -237.000640869141 2.341208457947
65.822288513184 -72.984054565430 -234.342071533203 1.667166471481
72.923332214355 -72.742668151855 -244.870162963867 6.060651779175
-1.085469961166 -69.455551147461 -236.587799072266 1.663976669312
-34.753314971924 -70.177185058594 -248.486068725586 7.496895313263
-30.983144760132 -73.673843383789 -236.535293579102 3.801949977875
-1.137735009193 -71.686195373535 -249.650207519531 5.141103744507
-56.569351196289 -68.742454528809 -246.304336547852 3.648837804794
-37.246891021729 -74.878387451172 -253.741577148438 9.135184288025
-1.811414003372 -74.042930603027 -250.031829833984 4.433772087097
-75.125068664551 -73.955955505371 -254.487365722656 1.464267730713
-40.549671173096 -69.952224731445 -254.002777099609 10.295030593872
-53.857860565186 -72.728759765625 -246.714965820313 0.418673574924
-160.665817260742 -74.554077148438 -242.959106445313 3.743145227432
-60.515727996826 -75.077392578125 -253.460083007813 4.014147758484
-64.675064086914 -73.789741516113 -249.134124755859 2.195587873459
-74.280647277832 -81.179908752441 -253.747344970703 5.672831535339
-15.208186149597 -68.266777038574 -254.026351928711 1.992411732674
-95.306427001953 -70.587532043457 -255.214279174805 2.431680679321
-157.036560058594 -81.823143005371 -259.803802490234 2.857982873917
-147.055175781250 -84.873306274414 -260.732086181641 1.528976321220
-135.472198486328 -69.214103698730 -263.094909667969 0.743539750576
-164.838470458984 -72.847930908203 -261.585266113281 1.738359570503
8.468000411987 -69.890380859375 -265.819305419922 8.158251762390
-20.290975570679 -71.125831604004 -273.786682128906 6.505518913269
-163.197921752930 -75.502914428711 -264.604675292969 1.484891414642
-162.891189575195 -73.219223022461 -274.075683593750 3.502339363098
-151.958404541016 -76.684555053711 -280.346771240234 2.666311740875
-67.157836914063 -77.003463745117 -288.342315673828 0.820284008980
-46.551952362061 -69.754852294922 -292.006317138672 4.293786048889
-35.269287109375 -71.118583679199 -298.753631591797 8.133732795715
-25.177228927612 -71.167739868164 -291.442138671875 2.072145462036
-78.087966918945 -72.287849426270 -286.812377929688 2.456186056137
