-147.268676757813 -79.401527404785 -280.755432128906 1.688065052032
-62.357734680176 -81.258316040039 -287.224731445313 4.786676883698
-41.597911834717 -74.503463745117 -290.962585449219 1.941583395004
-30.222873687744 -76.418197631836 -297.414459228516 6.200719833374
-20.256536483765 -76.142982482910 -289.937408447266 2.174820661545
-73.247802734375 -76.322998046875 -286.178527832031 3.202580213547
-82.587837219238 -74.902687072754 -287.985870361328 0.916242837906
-12.358827590942 -79.085769653320 -292.430236816406 2.884892702103
6.082653999329 -78.524765014648 -294.923675537109 3.222785949707
-139.252899169922 -80.571601867676 -290.430969238281 1.132131218910
-83.029579162598 -73.237213134766 -291.452606201172 1.546309590340
-153.815444946289 -77.365783691406 -294.190093994141 2.205246686935
-99.024108886719 -74.885910034180 -291.758331298828 2.126436710358
-72.746093750000 -73.180076599121 -292.299957275391 1.105650544167
-90.173576354980 -79.904350280762 -291.893005371094 5.640778064728
-71.192390441895 -80.341606140137 -291.709106445313 4.965876102448
-26.050455093384 -76.502937316895 -298.349273681641 6.988276481628
-7.792475223541 -73.933273315430 -293.768066406250 1.716644883156
-162.131423950195 -79.120216369629 -295.557647705078 6.195437908173
-149.426254272461 -80.018760681152 -297.828125000000 2.417799711227
-150.614807128906 -77.029869079590 -304.649230957031 2.510953426361
-160.247253417969 -76.827407836914 -309.531799316406 5.583032608032
-63.418483734131 -70.027229309082 -58.933677673340 6.737577915192
-52.057830810547 -67.962554931641 -55.887302398682 6.883927822113
-47.886756896973 -67.291709899902 -56.005081176758 7.444629669189
-80.324897766113 -77.737541198730 -60.644157409668 3.150800943375
-35.371231079102 -70.953819274902 -60.700714111328 5.049766540527
-31.808702468872 -71.154373168945 -80.946571350098 3.752775430679
71.046539306641 -77.795814514160 -91.725219726563 3.876159906387
77.821472167969 -72.913146972656 -91.733581542969 3.795047283173
76.609329223633 -69.049278259277 -91.450012207031 6.298091411591
92.922721862793 -76.328163146973 -95.447479248047 1.523184657097
68.750427246094 -72.422225952148 -96.602874755859 2.592417955399
53.718845367432 -73.530311584473 -98.264328002930 1.533659219742
39.786865234375 -71.569839477539 -106.172256469727 1.774161458015
-69.176116943359 -77.071685791016 -105.996559143066 5.398923397064
-77.891181945801 -70.939582824707 -100.388053894043 2.159769535065
39.840740203857 -68.489624023438 -106.627639770508 2.329496622086
-88.674110412598 -74.028030395508 -110.493446350098 3.467840433121
-95.809463500977 -67.461563110352 -112.888893127441 3.671792745590
44.264244079590 -68.755447387695 -106.039817810059 1.625183224678
99.964569091797 -69.243835449219 -118.625122070313 6.417974472046
29.971763610840 -73.583374023438 -125.498413085938 2.539939641953
40.442325592041 -77.072525024414 -119.528251647949 2.578557968140
39.746952056885 -73.934776306152 -126.108711242676 2.093762874603
24.213344573975 -72.667320251465 -130.512878417969 4.964669227600
105.573081970215 -70.165634155273 -121.032089233398 2.519238233566
26.740407943726 -75.876907348633 -127.794586181641 2.888273715973
27.179641723633 -71.489585876465 -133.266571044922 2.570293426514
-45.304447174072 -68.120780944824 -144.571670532227 1.231551408768
-73.467597961426 -75.307060241699 -151.222595214844 1.044653177261
-56.345264434814 -71.956138610840 -154.152206420898 3.797637701035
-75.772697448730 -72.591171264648 -142.824783325195 1.067290544510
-45.765388488770 -74.987304687500 -152.355834960938 3.088048458099
105.208702087402 -69.465110778809 -156.099807739258 4.700860500336
-76.116683959961 -73.285614013672 -154.423355102539 4.131328105927
16.901208877563 -80.826393127441 -156.224700927734 6.306049346924
27.680746078491 -66.560890197754 -154.002380371094 1.856526732445
109.732185363770 -68.452400207520 -157.085479736328 1.937405943871
2.588841915131 -68.720695495605 -158.877395629883 2.987550258636
29.443832397461 -70.057182312012 -160.951950073242 1.581186056137
-61.438674926758 -74.160232543945 -162.684997558594 2.097632408142
-53.085819244385 -78.241302490234 -174.099319458008 1.704794526100
14.362017631531 -73.327369689941 -168.385238647461 3.659042835236
-73.284461975098 -71.312850952148 -170.719070434570 8.946088790894
-68.299789428711 -67.909057617188 -160.804046630859 3.260300159454
107.447608947754 -76.396743774414 -169.421859741211 2.947564840317
-17.533615112305 -66.882629394531 -170.725799560547 10.729495048523
-59.822967529297 -78.133209228516 -178.971679687500 0.540995597839
-36.441429138184 -71.164581298828 -177.202331542969 1.498657584190
-59.672691345215 -73.279052734375 -174.253814697266 2.146761655807
26.639942169189 -80.251899719238 -172.991104125977 1.812580108643
105.593009948730 -64.339576721191 -171.106887817383 6.564741134644
105.682525634766 -77.657730102539 -184.921447753906 1.807421922684
111.565612792969 -76.376075744629 -196.878509521484 6.489539146423
103.122619628906 -74.197235107422 -176.824493408203 1.942914962769
-65.169242858887 -75.690895080566 -194.596130371094 11.348866462708
-57.855369567871 -72.246612548828 -183.286209106445 3.465167045593
17.741264343262 -73.777267456055 -188.027175903320 3.177947521210
-57.711585998535 -65.792816162109 -187.693481445313 9.869630813599
-28.741050720215 -70.189285278320 -190.323318481445 1.100613355637
-55.486896514893 -71.085807800293 -194.223663330078 7.263845920563
-147.964584350586 -77.447639465332 -198.963653564453 0.898679375648
94.263748168945 -69.582466125488 -196.091400146484 3.900201559067
-51.192276000977 -73.791091918945 -192.705673217773 2.246924638748
-18.473983764648 -76.224021911621 -197.596878051758 1.580821037292
-141.981628417969 -74.871849060059 -205.144760131836 2.383449316025
-49.157615661621 -77.157951354980 -197.455291748047 1.949483036995
101.913352966309 -82.064270019531 -196.775207519531 4.426571369171
103.756385803223 -74.437927246094 -194.315872192383 1.151437640190
-52.853199005127 -77.369453430176 -200.229965209961 2.504660129547
-27.932537078857 -72.610458374023 -197.728073120117 2.434964656830
-155.247940063477 -81.161491394043 -202.254272460938 3.676940917969
-33.147808074951 -71.162017822266 -204.704635620117 2.897855520248
-157.000000000000 -78.387077331543 -198.616287231445 3.489118814468
-157.796707153320 -75.495567321777 -203.973373413086 5.262061595917
-146.812332153320 -74.956161499023 -202.247955322266 2.401210546494
-42.405540466309 -73.131416320801 -198.996337890625 1.653464317322
98.488693237305 -76.451789855957 -205.309844970703 1.312560439110
-43.200248718262 -73.042068481445 -204.535446166992 4.073775768280
-149.065536499023 -78.146530151367 -201.839248657227 2.177596092224
-42.844562530518 -75.277351379395 -212.655838012695 6.644929885864
-23.796405792236 -76.738891601563 -213.266067504883 1.259515762329
88.118652343750 -74.942741394043 -207.851669311523 2.074992179871
90.204757690430 -74.357040405273 -210.014953613281 1.477797508240
-31.198547363281 -77.114288330078 -218.925781250000 2.157774686813
-93.389854431152 -79.149604797363 -214.072570800781 3.634666681290
-74.456451416016 -76.617309570313 -214.345855712891 1.204694747925
-23.688182830811 -75.825675964355 -220.636611938477 0.763475358486
-155.784042358398 -70.929115295410 -216.089828491211 1.423013448715
79.816894531250 -76.891273498535 -222.058883666992 2.595609903336
81.461952209473 -69.788879394531 -227.014755249023 1.301131129265
82.146423339844 -77.690834045410 -222.411605834961 1.399693965912
-105.872856140137 -67.224975585938 -225.859375000000 1.130109667778
-150.844665527344 -77.145179748535 -226.252746582031 2.720007419586
-23.156202316284 -82.103073120117 -221.497390747070 3.669979572296
76.155937194824 -71.758865356445 -228.129943847656 1.198755025864
-149.601486206055 -84.907577514648 -226.455841064453 1.281002402306
-40.151397705078 -73.977058410645 -224.485275268555 12.306030273438
-138.539306640625 -67.522438049316 -236.038024902344 4.231460094452
-17.022317886353 -76.639976501465 -229.932861328125 2.114242792130
14.902624130249 -73.115623474121 -222.666305541992 0.514452993870
8.984438896179 -73.263412475586 -239.624526977539 1.798742294312
-162.733779907227 -80.097480773926 -236.677947998047 6.401789665222
-127.824768066406 -71.416358947754 -232.891983032227 2.374713659286
-14.037569046021 -75.056892395020 -235.153427124023 2.921217441559
-3.887273073196 -71.845512390137 -244.354690551758 2.128515005112
60.540725708008 -77.536155700684 -239.371887207031 4.761221885681
61.602115631104 -73.342613220215 -240.697753906250 2.195996522903
-3.645857095718 -76.373054504395 -244.527053833008 2.524634838104
15.357134819031 -76.001617431641 -240.350326538086 2.661053895950
-28.644609451294 -73.604751586914 -245.818038940430 3.826047182083
-46.387748718262 -80.027603149414 -250.690704345703 4.813669681549
-54.087924957275 -79.273620605469 -236.800155639648 6.463541030884
-47.998947143555 -78.961639404297 -245.704360961914 1.251347303391
-24.825653076172 -78.798118591309 -248.282241821289 6.058345794678
-60.951946258545 -71.593513488770 -243.003799438477 2.558750391006
0.764711976051 -74.481513977051 -248.217224121094 3.316105127335
-78.472084045410 -69.235328674316 -249.140960693359 1.120653510094
7.930603027344 -71.350418090820 -248.182312011719 4.905251979828
-151.794464111328 -78.819824218750 -250.529739379883 2.482994318008
-73.869155883789 -81.303581237793 -255.034317016602 6.372480392456
5.223175048828 -77.073776245117 -251.780990600586 5.335980892181
-171.684371948242 -76.418647766113 -252.164718627930 6.306155204773
11.727238655090 -72.006805419922 -252.743408203125 7.440484046936
-90.584426879883 -78.298889160156 -256.423522949219 4.273897171021
-80.007629394531 -70.939636230469 -253.494689941406 1.136475205421
18.236228942871 -74.495414733887 -261.071014404297 4.245591163635
-93.846122741699 -73.455818176270 -260.265502929688 3.139197826385
-137.728195190430 -77.896743774414 -256.714355468750 0.619940459728
-142.980422973633 -78.528930664063 -258.999847412109 2.156607866287
-140.244583129883 -77.028770446777 -260.076477050781 1.019368052483
-147.323135375977 -74.149215698242 -260.736724853516 1.083087086678
-144.438323974609 -80.428550720215 -256.554565429688 2.083924293518
-141.989807128906 -74.402465820313 -265.081237792969 2.603252887726
-163.047637939453 -78.054092407227 -258.000549316406 4.442766189575
-134.946716308594 -72.307907104492 -265.305450439453 1.578420281410
-140.777374267578 -72.766365051270 -259.061004638672 2.201268196106
-166.952239990234 -81.502304077148 -268.921722412109 7.291536331177
-159.394439697266 -77.132148742676 -265.251129150391 3.371706962585
-154.838836669922 -76.065582275391 -268.348602294922 2.650794744492
-151.179061889648 -83.088211059570 -266.132232666016 3.057942867279
7.728992938995 -86.424339294434 -286.059997558594 8.021681785583
-169.134750366211 -81.102455139160 -269.045654296875 7.894692420959
-161.526382446289 -72.285690307617 -278.886840820313 2.714635133743
-11.042781829834 -74.343696594238 -280.514465332031 3.365698099136
-165.793411254883 -77.373687744141 -268.278350830078 3.041605472565
10.166198730469 -80.282608032227 -284.199188232422 3.396631717682
-159.243148803711 -75.459625244141 -284.401123046875 3.533378124237
-166.465927124023 -73.465011596680 -294.961914062500 4.736413002014
-157.620025634766 -72.755088806152 -282.099945068359 2.845182895660
-175.276321411133 -67.820297241211 -281.815460205078 8.546350479126
-3.174416065216 -74.202690124512 -292.036560058594 1.676315546036
6.535877227783 -81.316665649414 -285.042510986328 3.667679548264
-103.025611877441 -67.838943481445 -288.188415527344 2.989346742630
-157.894058227539 -79.223747253418 -290.158691406250 2.239912271500
-153.428131103516 -78.050132751465 -284.419433593750 2.185456752777
-116.748214721680 -72.499298095703 -294.290527343750 1.941841125488
-155.544799804688 -75.319435119629 -293.014526367188 0.833012819290
-155.587493896484 -75.743881225586 -296.747161865234 2.678385257721
-74.107955932617 -75.638336181641 -292.381530761719 3.066509723663
-167.311737060547 -80.967681884766 -294.786865234375 8.702478408813
-125.787193298340 -79.718566894531 -289.289459228516 2.423032283783
-48.520015716553 -82.072738647461 -294.415161132813 6.872740268707
-157.431823730469 -73.647514343262 -295.103729248047 1.076905131340
-149.019226074219 -77.251007080078 -292.497589111328 3.013386487961
-24.294086456299 -80.593200683594 -295.244140625000 5.420358657837
-132.042221069336 -74.817909240723 -301.236877441406 7.535044670105
-4.025803089142 -76.592185974121 -293.530853271484 2.503031015396
5.022994041443 -79.398139953613 -291.976989746094 2.524662494659
-138.385253906250 -75.773376464844 -298.009582519531 6.420085430145
-150.397476196289 -74.677833557129 -296.459686279297 2.289879083633
-161.668960571289 -73.880325317383 -309.397369384766 5.658046722412
-74.771987915039 -70.370887756348 -51.190586090088 1.650340318680
-29.520145416260 -70.105758666992 -64.614158630371 6.022401332855
-26.757127761841 -72.099090576172 -68.764259338379 5.070094108582
70.693923950195 -69.123664855957 -77.171714782715 3.055834293365
85.975204467773 -69.260711669922 -80.245124816895 6.686103343964
-40.922622680664 -64.728179931641 -82.215484619141 3.448616743088
78.162780761719 -72.825630187988 -78.762786865234 3.705208778381
83.026237487793 -74.735992431641 -83.867439270020 3.512565135956
68.863677978516 -70.556510925293 -83.598167419434 1.395384311676
64.315345764160 -67.372901916504 -94.015174865723 1.660614371300
-48.678745269775 -75.001998901367 -86.556831359863 2.447736501694
-99.110656738281 -69.321708679199 -94.232986450195 3.325867414474
54.448993682861 -73.214378356934 -95.259269714355 2.469172239304
43.526111602783 -73.673622131348 -100.643768310547 2.739974021912
92.792427062988 -65.170440673828 -102.990516662598 4.180650711060
-98.492874145508 -68.098396301270 -106.630119323730 2.308455705643
80.496307373047 -69.657897949219 -100.090263366699 3.741776466370
80.919822692871 -70.659858703613 -104.791374206543 1.245996356010
86.165130615234 -72.544425964355 -98.533050537109 2.548616647720
78.063392639160 -65.795234680176 -108.870208740234 1.279731512070
91.519515991211 -68.809738159180 -105.635757446289 1.258635878563
-88.542839050293 -78.963996887207 -104.318504333496 2.687775135040
37.635818481445 -76.483367919922 -114.413360595703 0.945493519306
98.517799377441 -72.191268920898 -117.992134094238 7.716195583344
109.214660644531 -65.768882751465 -114.033683776855 2.266722202301
42.312480926514 -70.354370117188 -121.590332031250 0.663213193417
105.841171264648 -66.560607910156 -129.928878784180 4.735594272614
110.074302673340 -73.762168884277 -140.009246826172 1.206409692764
-56.244255065918 -70.355461120605 -132.215621948242 1.633196830750
27.234586715698 -73.552833557129 -136.146163940430 1.126215457916
27.909774780273 -77.917602539063 -129.939010620117 1.597814679146
15.927390098572 -69.196121215820 -145.977050781250 2.547460079193
110.168884277344 -70.956901550293 -142.146713256836 0.529227674007
105.656036376953 -73.110473632813 -138.156509399414 3.704526185989
-79.239730834961 -74.935470581055 -151.854141235352 6.106183528900
-54.135459899902 -75.444007873535 -151.991409301758 2.277621984482
-78.671302795410 -69.931808471680 -151.349670410156 4.460482597351
15.483424186707 -75.873252868652 -155.605545043945 3.949084758759
106.191749572754 -69.742782592773 -159.288436889648 3.457183837891
-60.410533905029 -73.568412780762 -155.999618530273 3.379683017731
-75.564010620117 -72.118095397949 -152.286743164063 2.993745088577
-46.182601928711 -77.995079040527 -159.706848144531 0.958611488342
33.324539184570 -72.667419433594 -153.227584838867 2.152082920074
104.047401428223 -73.732292175293 -162.048202514648 3.864837169647
114.511337280273 -74.255271911621 -160.677185058594 1.757998704910
-74.047073364258 -73.122268676758 -153.461853027344 2.346879005432
-78.685356140137 -74.870918273926 -166.888031005859 10.799612045288
14.661280632019 -77.967605590820 -166.067779541016 4.850924491882
-61.300765991211 -77.746383666992 -163.727722167969 1.154287576675
-34.478755950928 -83.755355834961 -167.229949951172 3.771758317947
2.528482913971 -70.556701660156 -168.075744628906 4.079380035400
107.200767517090 -75.368293762207 -171.849746704102 0.716944873333
1.801826000214 -72.075370788574 -168.993621826172 2.878140449524
-43.139114379883 -74.466377258301 -170.465759277344 2.321474313736
-6.228535175323 -69.433952331543 -166.792633056641 4.944715499878
98.110855102539 -70.573135375977 -180.674804687500 6.238425254822
-47.214202880859 -66.011871337891 -179.559158325195 9.699523925781
25.761053085327 -69.446891784668 -172.532806396484 1.609222412109
108.234901428223 -69.715606689453 -174.675582885742 0.977728068829
-54.650962829590 -72.971115112305 -183.163955688477 1.575280427933
-32.962383270264 -76.154365539551 -172.141616821289 2.787764072418
93.038307189941 -76.933723449707 -178.366271972656 11.453667640686
29.603876113892 -76.786193847656 -175.711334228516 3.317129373550
111.845886230469 -67.636993408203 -181.436569213867 4.325378894806
-43.692367553711 -76.840164184570 -172.607696533203 4.010149478912
102.036903381348 -70.094398498535 -185.369140625000 1.488216876984
-61.916721343994 -72.776588439941 -181.238571166992 4.664364337921
-28.671562194824 -72.295944213867 -177.643875122070 1.540918827057
-147.314147949219 -73.581481933594 -183.453659057617 0.947237670422
-59.712150573730 -73.664482116699 -188.269989013672 6.855424404144
-151.711578369141 -71.555786132813 -184.453536987305 2.876426935196
-37.261997222900 -73.180107116699 -189.472946166992 5.635307312012
15.714528083801 -72.013031005859 -190.687500000000 2.248664379120
107.425437927246 -66.924354553223 -185.733306884766 3.506539106369
-35.222381591797 -72.776344299316 -195.196334838867 5.307905673981
9.104048728943 -75.575820922852 -196.531051635742 1.741595029831
11.237254142761 -73.744812011719 -201.985198974609 1.566649317741
-155.019180297852 -69.607284545898 -195.468093872070 2.059554100037
97.329666137695 -78.057388305664 -203.031784057617 1.750493407249
-23.950254440308 -69.970603942871 -197.717559814453 1.218809843063
101.516189575195 -66.791549682617 -196.510131835938 3.958127260208
11.466298103333 -72.017677307129 -193.524398803711 1.707950234413
-135.211563110352 -72.652137756348 -205.025070190430 3.223894834518
-150.450637817383 -71.355613708496 -198.168533325195 1.616227149963
88.723091125488 -64.469970703125 -203.172653198242 8.660742759705
-16.468481063843 -71.721008300781 -203.273925781250 2.935849666595
-20.995054244995 -76.393196105957 -198.558822631836 1.528881669044
8.459698677063 -73.824844360352 -205.939010620117 1.236197710037
-150.786758422852 -73.736045837402 -208.538406372070 3.131927728653
-152.902160644531 -75.287719726563 -208.828369140625 3.463734149933
96.334327697754 -80.403068542480 -210.369979858398 3.898690938950
-78.740013122559 -76.528724670410 -213.074691772461 2.806839704514
-41.320331573486 -70.797218322754 -203.932312011719 3.973147153854
16.995576858521 -71.969192504883 -214.040130615234 1.545904397964
-27.759521484375 -78.009811401367 -212.226867675781 1.360145568848
-83.513824462891 -71.420364379883 -216.798110961914 1.774472355843
88.811996459961 -71.806022644043 -210.130477905273 0.543244659901
-86.966468811035 -69.348365783691 -218.232879638672 2.887915134430
-152.945648193359 -74.902679443359 -221.253646850586 2.876685619354
-83.403953552246 -77.051307678223 -219.542846679688 3.213458538055
-20.768318176270 -75.026145935059 -214.816360473633 0.812415122986
-27.398258209229 -76.587280273438 -220.766281127930 1.291202545166
19.448942184448 -71.123161315918 -214.704376220703 2.061245203018
-10.435239791870 -71.260581970215 -213.862609863281 2.768750905991
-84.141799926758 -73.939186096191 -222.479568481445 5.475111961365
85.760269165039 -73.586875915527 -219.140930175781 1.203718662262
-98.990417480469 -76.150009155273 -215.998748779297 3.370543479919
-149.652008056641 -83.196624755859 -228.081512451172 1.048024535179
-15.273221969604 -76.618225097656 -219.574645996094 1.998494267464
11.688548088074 -73.897468566895 -218.728469848633 3.471469402313
-109.661643981934 -72.030906677246 -221.048492431641 3.715914964676
4.963591098785 -76.548339843750 -222.063949584961 1.647572875023
-32.899013519287 -78.004493713379 -217.960266113281 3.448496103287
77.370735168457 -76.556037902832 -229.016479492188 0.675864398479
-150.925903320313 -72.621696472168 -221.047225952148 1.808524727821
3.938962936401 -70.692649841309 -229.463012695313 1.282964468002
-9.985165596008 -74.415847778320 -224.181365966797 1.187242269516
11.737445831299 -69.029785156250 -224.131484985352 0.953997552395
80.843666076660 -70.044136047363 -232.409576416016 2.023926496506
-18.668617248535 -75.322662353516 -228.846115112305 1.080590724945
-133.855239868164 -79.580368041992 -230.792373657227 1.956210732460
-10.952092170715 -79.417076110840 -228.264404296875 3.329687356949
11.904080390930 -72.159774780273 -237.746063232422 2.613451480865
-131.397842407227 -72.836143493652 -223.264068603516 2.681510448456
-155.822738647461 -77.212036132813 -232.409240722656 2.386909723282
-144.254272460938 -75.224327087402 -230.996414184570 2.650815010071
-135.575454711914 -73.837135314941 -230.890197753906 1.341412186623
-14.028983116150 -73.344810485840 -230.319625854492 1.261532664299
66.518974304199 -73.060882568359 -233.616699218750 2.495790004730
-146.399597167969 -76.337936401367 -239.461837768555 2.079090595245
66.673164367676 -70.630470275879 -230.125625610352 3.379228591919
-19.253063201904 -76.671257019043 -228.466644287109 2.456457853317
-147.450485229492 -81.031257629395 -233.852218627930 2.331100940704
71.509010314941 -79.168579101563 -238.548461914063 5.473606109619
10.785431861877 -79.114280700684 -240.060455322266 2.582687139511
-146.777725219727 -69.599578857422 -239.621307373047 2.635052204132
-153.900283813477 -75.706565856934 -239.411834716797 3.930084466934
6.649992942810 -67.735916137695 -238.803985595703 1.234657168388
-7.162581920624 -75.335296630859 -243.070861816406 2.403559923172
-28.576372146606 -70.902763366699 -248.716308593750 7.458801269531
-11.051153182983 -73.868766784668 -243.542022705078 2.170859813690
-167.410385131836 -76.671646118164 -238.125289916992 4.135403156281
4.282817840576 -73.737266540527 -248.990585327148 5.040170192719
-168.293045043945 -73.134635925293 -236.175872802734 2.434968709946
-23.003341674805 -72.374526977539 -233.536026000977 4.911937236786
63.863590240479 -75.431945800781 -242.973052978516 2.173553705215
-11.966861724854 -72.238342285156 -244.479690551758 1.603850245476
-31.268007278442 -74.878936767578 -241.762649536133 2.194453477859
-31.619428634644 -70.697471618652 -244.306686401367 4.550171375275
-19.931840896606 -70.780662536621 -249.709960937500 4.404716014862
-147.692230224609 -72.799530029297 -237.499908447266 2.879325866699
4.612082004547 -77.661041259766 -247.055603027344 1.660133123398
60.231018066406 -78.310264587402 -243.807449340820 5.290132999420
6.016036987305 -75.463722229004 -246.671325683594 2.723999500275
-167.784301757813 -73.319686889648 -241.074493408203 1.946175217628
-52.331935882568 -78.437530517578 -247.163452148438 0.623842597008
2.205451011658 -77.622474670410 -251.592880249023 4.614441394806
12.703873634338 -67.916999816895 -254.994796752930 9.840241432190
-64.571304321289 -74.573463439941 -254.168746948242 3.954064130783
-8.311120033264 -73.308479309082 -244.850250244141 1.801045656204
15.385263442993 -77.763656616211 -256.057373046875 3.698884487152
-171.319656372070 -74.501182556152 -246.606735229492 5.074927806854
-77.453193664551 -78.297645568848 -257.861907958984 5.798686504364
-58.913810729980 -70.992080688477 -250.505996704102 2.741560935974
-85.385406494141 -72.233970642090 -250.070037841797 0.351696997881
-167.771194458008 -73.156356811523 -242.817687988281 2.167268037796
-157.770797729492 -75.528633117676 -252.590194702148 3.596210479736
-64.696983337402 -69.551902770996 -257.421875000000 7.449430465698
-73.984474182129 -81.677055358887 -252.806838989258 5.760533332825
-159.984466552734 -72.911941528320 -253.916000366211 2.118594646454
-158.068862915039 -71.761650085449 -250.041671752930 1.901790261269
-83.176795959473 -74.168243408203 -252.211898803711 1.524538278580
-97.466156005859 -69.382019042969 -253.723083496094 1.316820859909
-167.511062622070 -76.786079406738 -253.091003417969 4.062388896942
-159.560241699219 -73.991798400879 -252.285476684570 1.369660377502
-140.589935302734 -70.040626525879 -259.590087890625 3.315528154373
-86.530227661133 -78.035621643066 -254.623764038086 3.763025999069
-169.389953613281 -70.167312622070 -256.375976562500 3.897503852844
-153.817855834961 -80.627738952637 -258.089813232422 1.546019911766
-99.642677307129 -74.655242919922 -256.260803222656 1.465087771416
-107.065216064453 -67.436233520508 -262.335815429688 1.534039497375
-154.596313476563 -72.814300537109 -260.790008544922 1.537289977074
-102.963630676270 -74.055526733398 -265.909667968750 6.222998619080
-157.643585205078 -73.376434326172 -254.579666137695 2.965435504913
-105.592460632324 -76.929458618164 -257.080169677734 3.551687240601
-172.889648437500 -79.824356079102 -256.708923339844 9.246908187866
-168.248657226563 -81.493286132813 -258.757781982422 8.154755592346
-127.779144287109 -72.188613891602 -257.854675292969 3.951805114746
-153.517257690430 -80.409736633301 -259.541290283203 1.025176882744
-112.557891845703 -72.810089111328 -261.394958496094 0.746600389481
-19.693555831909 -80.718971252441 -263.174163818359 7.942254543304
-148.405059814453 -72.832336425781 -262.904113769531 2.521232604980
-131.915618896484 -73.640388488770 -263.762023925781 1.612062096596
-161.935150146484 -74.020866394043 -267.201904296875 3.226146697998
15.747212409973 -75.735870361328 -271.016357421875 3.534438371658
-159.073410034180 -72.010284423828 -285.519470214844 1.379391074181
-174.175415039063 -72.439964294434 -281.581329345703 6.191904067993
-10.525860786438 -80.972007751465 -286.356048583984 3.764323711395
-155.022674560547 -77.897537231445 -280.738830566406 4.131745815277
-11.996809959412 -72.839981079102 -279.827789306641 2.355063199997
10.073516845703 -75.017234802246 -289.787963867188 2.534459590912
-138.376800537109 -72.329101562500 -289.456542968750 4.020372390747
-74.961868286133 -79.126129150391 -283.122528076172 5.829575538635
-46.932640075684 -73.303245544434 -284.182250976563 3.425366401672
-121.653404235840 -72.074760437012 -290.627136230469 2.439698219299
-95.735466003418 -74.636062622070 -296.617950439453 5.320588588715
-96.086517333984 -74.038024902344 -298.238891601563 6.617331504822
-54.113674163818 -80.060134887695 -290.521759033203 3.564020633698
-120.574783325195 -69.927024841309 -295.161773681641 3.847220659256
-113.118957519531 -75.872123718262 -294.661041259766 3.999252796173
-37.634166717529 -78.713111877441 -294.201873779297 4.396526813507
-121.941894531250 -77.249923706055 -290.391540527344 3.201285123825
-131.649688720703 -78.789093017578 -290.625671386719 2.380174875259
-150.469970703125 -78.619132995605 -296.545349121094 1.475865364075
4.314564228058 -71.612182617188 -290.609466552734 0.910603046417
9.479929924011 -76.889541625977 -296.592346191406 4.002104282379
-161.541046142578 -75.265373229980 -296.150299072266 4.222707748413
-160.574798583984 -74.706909179688 -306.030334472656 4.919120311737
-152.101974487305 -78.667465209961 -312.048156738281 1.359966993332
-156.382568359375 -71.611648559570 -309.111053466797 1.780825495720
-157.880737304688 -79.542724609375 -315.103637695313 5.956064224243
22.381607055664 -68.495170593262 -17.970106124878 3.242498159409
22.601633071899 -66.521697998047 -26.177175521851 3.417816877365
21.927598953247 -68.367904663086 -23.313760757446 3.076447010040
24.860385894775 -69.929924011230 -43.719718933105 5.254894733429
-54.974243164063 -61.894676208496 -58.829059600830 11.604423522949
-67.253410339355 -67.625640869141 -55.769733428955 6.845132827759
-43.013668060303 -68.405860900879 -55.459724426270 5.899911880493
-84.877693176270 -71.334060668945 -62.675796508789 3.196276664734
78.110412597656 -75.666603088379 -84.472549438477 2.435263156891
-21.990644454956 -66.842697143555 -78.535133361816 5.262697219849
87.838569641113 -73.145217895508 -71.244964599609 0.983484327793
92.746955871582 -68.344230651855 -84.127433776855 6.725766658783
-95.525474548340 -69.321876525879 -84.750205993652 2.028874874115
72.611526489258 -64.979743957520 -79.419662475586 6.929668903351
-43.415996551514 -73.814857482910 -87.782348632813 4.194703578949
98.954956054688 -69.781166076660 -88.329345703125 2.387017011642
-59.290611267090 -73.189102172852 -93.001251220703 3.599223613739
47.350166320801 -68.935523986816 -91.575820922852 1.705386996269
69.481376647949 -70.980682373047 -89.952102661133 1.692234873772
53.768970489502 -74.888778686523 -97.626335144043 0.909636974335
43.696788787842 -68.153999328613 -108.308067321777 1.365955352783
64.025947570801 -72.663108825684 -98.530334472656 4.697271347046
44.997444152832 -62.134895324707 -101.223762512207 4.054499626160
97.759353637695 -70.190139770508 -108.147430419922 4.908573150635
110.032768249512 -71.543991088867 -112.095283508301 1.119540572166
72.304954528809 -66.458442687988 -104.153205871582 1.547557830811
86.334045410156 -69.821601867676 -109.080238342285 4.195355415344
98.155113220215 -67.621322631836 -105.947517395020 2.125461578369
102.324035644531 -59.905391693115 -104.890075683594 2.808804273605
36.744747161865 -77.994865417480 -110.940910339355 2.095411539078
104.275253295898 -71.517738342285 -123.217132568359 3.617729663849
111.519355773926 -72.845016479492 -126.572738647461 0.692993462086
29.493486404419 -69.554695129395 -121.454490661621 3.912860631943
35.571258544922 -72.078498840332 -122.343688964844 1.469323396683
102.910026550293 -67.926742553711 -134.258621215820 6.919356822968
34.671768188477 -75.469123840332 -129.851608276367 3.982631683350
112.151565551758 -66.127525329590 -135.389129638672 3.288512706757
106.701217651367 -69.005332946777 -132.431320190430 3.009158372879
21.365783691406 -68.339546203613 -140.445419311523 1.527529597282
-51.310611724854 -75.353820800781 -134.489654541016 1.734865427017
-61.044815063477 -72.622444152832 -143.878906250000 3.174196243286
111.736534118652 -68.610900878906 -137.275390625000 0.453590124846
-78.785705566406 -74.819076538086 -145.725646972656 3.854990482330
-78.954170227051 -69.608352661133 -140.961883544922 2.186544895172
-62.583339691162 -74.331192016602 -141.640213012695 4.554294109344
30.157098770142 -72.177391052246 -141.978454589844 2.789964914322
100.871421813965 -68.624916076660 -152.862380981445 9.485961914063
-67.215431213379 -73.537887573242 -147.374816894531 0.828086674213
-48.292320251465 -66.765403747559 -147.171600341797 1.893113017082
36.954685211182 -77.054824829102 -153.522018432617 3.736108541489
-67.252105712891 -74.748825073242 -154.634887695313 0.789419531822
109.437881469727 -63.293907165527 -148.912124633789 7.154677391052
105.326622009277 -72.938903808594 -160.596374511719 3.162947416306
106.257118225098 -72.803825378418 -152.305801391602 3.783203601837
-42.286815643311 -71.241767883301 -159.022903442383 1.236560344696
-69.514549255371 -71.418952941895 -158.285202026367 1.990183830261
-73.221061706543 -62.292026519775 -155.205993652344 7.880730628967
24.682397842407 -67.096939086914 -156.035400390625 2.586907625198
-3.756813049316 -74.491950988770 -167.207107543945 0.741268455982
103.839256286621 -69.674972534180 -160.101074218750 5.636962413788
104.372360229492 -65.472381591797 -160.393051147461 7.841568470001
109.982101440430 -70.008186340332 -162.651428222656 2.469891071320
-68.486450195313 -77.729919433594 -161.788467407227 3.102976322174
-51.098438262939 -73.831970214844 -164.156982421875 4.520394325256
1.603366017342 -74.955101013184 -173.652679443359 5.102644443512
-28.823015213013 -69.075912475586 -176.158782958984 1.885302186012
101.868446350098 -71.313095092773 -165.980178833008 5.890112400055
-40.335273742676 -68.443923950195 -163.968734741211 3.390747308731
106.357040405273 -73.862770080566 -172.278137207031 1.033896327019
-45.530952453613 -68.918327331543 -174.300735473633 6.171944141388
106.880058288574 -74.236480712891 -172.313125610352 1.087396621704
-155.224945068359 -68.074356079102 -183.488235473633 3.528899908066
-35.925769805908 -70.013412475586 -177.422073364258 0.641593098640
-24.856292724609 -67.369430541992 -182.057189941406 2.020092964172
27.130645751953 -77.150161743164 -178.256729125977 2.530968904495
10.759680747986 -70.059333801270 -181.946472167969 4.264147758484
18.139133453369 -73.657829284668 -184.858261108398 2.685027837753
101.519615173340 -76.092941284180 -192.373062133789 1.127419114113
-157.267059326172 -68.197074890137 -189.310546875000 4.494950294495
-26.229034423828 -72.269744873047 -190.142852783203 1.844415307045
100.848999023438 -70.677993774414 -182.500045776367 3.379368066788
98.503601074219 -70.256523132324 -195.753509521484 1.458498597145
100.099212646484 -72.327827453613 -185.034973144531 2.434840202332
91.092842102051 -77.199676513672 -199.844589233398 4.949207782745
-161.106872558594 -83.329025268555 -199.242034912109 9.178936958313
93.025329589844 -78.271842956543 -206.942031860352 2.349511384964
-37.756347656250 -72.251693725586 -198.753906250000 3.365997552872
92.888412475586 -68.828674316406 -199.929870605469 3.733285188675
-132.998703002930 -73.163757324219 -193.496185302734 3.262266874313
-36.195426940918 -74.547477722168 -193.791915893555 4.216825962067
-146.713851928711 -73.725112915039 -204.901535034180 2.551266193390
85.517364501953 -70.841369628906 -203.023803710938 7.454751968384
4.268010139465 -70.965080261230 -204.881134033203 4.072344779968
19.196260452271 -74.981506347656 -199.631759643555 1.057285070419
-154.887222290039 -75.207046508789 -200.442062377930 2.617360830307
-142.178359985352 -70.261405944824 -209.580947875977 3.415581226349
-21.078374862671 -74.272155761719 -209.636215209961 1.654724717140
-130.599975585938 -80.718154907227 -205.918197631836 6.598480224609
-152.770278930664 -75.552986145020 -202.580261230469 1.864724278450
2.010693073273 -69.854156494141 -202.236312866211 7.036646842957
-30.932645797729 -71.589920043945 -207.709030151367 3.200881004333
13.200974464417 -71.474357604980 -211.315063476563 1.817706346512
0.989030003548 -72.720291137695 -213.067474365234 4.768323421478
80.740341186523 -72.399833679199 -217.566818237305 1.607116460800
-31.168180465698 -64.698532104492 -214.472335815430 8.043972015381
89.402923583984 -71.145378112793 -215.359893798828 1.430933594704
97.171310424805 -72.435516357422 -211.262176513672 0.520618438721
-147.843597412109 -68.171142578125 -221.428970336914 3.059666633606
89.480499267578 -67.689910888672 -214.679855346680 2.174008369446
1.229941010475 -67.553955078125 -212.562545776367 6.774595260620
-1.129719972610 -70.714813232422 -212.598937988281 3.761187076569
-39.218601226807 -70.450637817383 -212.835571289063 6.382129192352
-97.488395690918 -67.776466369629 -216.309997558594 2.161606550217
-39.613174438477 -72.650398254395 -217.007095336914 7.542660713196
79.356277465820 -73.601264953613 -220.411117553711 1.678604960442
78.095794677734 -74.255203247070 -221.043807983398 1.590908885002
-43.978965759277 -66.903068542480 -218.492446899414 14.254898071289
-82.607894897461 -64.428474426270 -227.835723876953 13.701115608215
-8.374947547913 -70.728431701660 -218.591354370117 2.311504840851
83.733100891113 -73.553848266602 -222.672973632813 0.772165417671
-151.938690185547 -76.649291992188 -222.504516601563 1.943652510643
-175.494781494141 -75.404533386230 -212.813781738281 10.936505317688
-163.251296997070 -72.276191711426 -221.054672241211 2.285406589508
-24.440515518188 -76.272407531738 -231.607360839844 6.008672237396
-157.294952392578 -77.620285034180 -225.216461181641 3.543277263641
-12.335554122925 -79.800239562988 -231.374969482422 4.242160320282
0.889232993126 -70.282791137695 -220.908508300781 1.255677700043
-166.429870605469 -79.588172912598 -222.092956542969 7.672238349915
-169.532958984375 -72.039009094238 -227.009963989258 3.177725076675
72.267700195313 -71.789627075195 -233.982315063477 0.972459793091
0.215984001756 -74.364364624023 -233.175201416016 2.799851179123
-154.043151855469 -75.586799621582 -223.432556152344 3.235438823700
-148.318695068359 -74.372642517090 -222.036972045898 1.806656122208
-26.655323028564 -75.576141357422 -228.781921386719 5.981188774109
-1.431877970695 -73.010635375977 -225.970932006836 3.131315708160
79.040618896484 -72.328964233398 -226.046463012695 1.105741858482
-163.508209228516 -75.804679870605 -231.455795288086 2.800316333771
-151.423431396484 -71.177925109863 -229.830169677734 2.554275989532
-131.215057373047 -69.569458007813 -232.289459228516 2.519344568253
77.045799255371 -77.135513305664 -235.457153320313 3.875642299652
-120.677886962891 -68.450035095215 -234.585525512695 2.820159435272
-150.580108642578 -76.649429321289 -230.813629150391 2.288180351257
-159.180099487305 -79.101860046387 -230.379043579102 5.089337825775
-152.171569824219 -73.113166809082 -228.150146484375 2.560654640198
-156.697662353516 -68.991355895996 -231.952316284180 2.339499950409
-172.218658447266 -69.113761901855 -239.387954711914 5.338541984558
-142.509216308594 -73.196449279785 -238.135543823242 3.632876873016
-141.588699340820 -71.819633483887 -235.177108764648 1.960630893707
-161.009078979492 -73.135086059570 -229.814971923828 1.767390251160
-150.885787963867 -72.133987426758 -232.867156982422 2.350443840027
-157.275131225586 -69.028335571289 -234.800033569336 2.120970726013
65.994293212891 -71.025276184082 -222.187408447266 9.044002532959
62.799213409424 -68.351638793945 -243.236755371094 1.826106667519
-166.826766967773 -71.594863891602 -241.309875488281 1.718696832657
63.739528656006 -73.335838317871 -237.768981933594 1.162805676460
-26.438390731812 -71.598449707031 -238.948257446289 2.691388368607
3.617599964142 -73.050041198730 -243.074295043945 1.065105438232
12.507221221924 -77.499954223633 -238.079101562500 3.189789533615
-146.226150512695 -72.717803955078 -244.780242919922 2.683495521545
11.288461685181 -72.612846374512 -247.209289550781 3.110710382462
61.265132904053 -74.338935852051 -240.864486694336 2.017970561981
4.420905113220 -71.618293762207 -238.603454589844 2.468948841095
-0.608919978142 -76.810585021973 -248.004425048828 1.982657074928
-13.456192016602 -67.026298522949 -243.148498535156 2.826452016830
-23.411575317383 -78.148826599121 -250.639617919922 7.989017486572
-4.000814914703 -77.633377075195 -244.977462768555 2.194709062576
-2.392430067062 -70.332214355469 -244.374542236328 3.083082437515
51.192638397217 -75.050003051758 -244.244766235352 3.722530364990
-64.818504333496 -74.939064025879 -248.471801757813 2.271133422852
13.185371398926 -74.401992797852 -253.903396606445 5.896409988403
-62.986263275146 -71.351593017578 -248.295532226563 0.805146694183
-12.472944259644 -72.453620910645 -253.228210449219 1.462885737419
-69.432243347168 -70.431594848633 -256.645812988281 5.193630695343
-89.512321472168 -80.784461975098 -253.403137207031 6.433031558990
-86.324729919434 -78.891952514648 -254.940155029297 4.697584629059
-23.138927459717 -72.029747009277 -254.775619506836 8.231091499329
-129.805877685547 -79.391860961914 -264.125000000000 5.015489578247
-21.031675338745 -67.858116149902 -259.308654785156 7.049649238586
-129.214309692383 -73.007537841797 -257.440887451172 3.515860557556
-124.329551696777 -69.179618835449 -260.695220947266 2.374110460281
-109.542938232422 -79.268409729004 -259.011657714844 6.662557125092
-147.534255981445 -72.198501586914 -261.001922607422 2.192994594574
-151.962921142578 -71.598930358887 -268.619506835938 2.975836515427
-172.519317626953 -70.160705566406 -266.745452880859 5.696393013000
7.779469966888 -76.177764892578 -285.231781005859 0.908877968788
-67.365333557129 -78.144981384277 -285.594726562500 2.701424121857
-71.040611267090 -75.790924072266 -285.844177246094 1.620647907257
-50.916404724121 -76.675804138184 -287.113037109375 1.822867393494
-31.693803787231 -76.182754516602 -284.699157714844 1.362600326538
-97.256355285645 -74.861152648926 -298.122589111328 7.076864719391
-36.439540863037 -72.094718933105 -291.598022460938 0.994235396385
-6.629636764526 -67.473045349121 -288.292449951172 1.269026160240
-170.089309692383 -76.921897888184 -291.620208740234 5.890686988831
-22.064283370972 -76.821502685547 -293.933135986328 3.824354648590
1.878983020782 -68.646812438965 -293.781341552734 2.320580720901
9.381745338440 -66.821670532227 -295.397521972656 3.674281835556
-60.882595062256 -76.269302368164 -295.142456054688 4.834293365479
-33.577255249023 -79.160240173340 -288.425933837891 1.825631022453
10.430466651917 -71.000007629395 -292.773925781250 3.552263975143
-73.287818908691 -76.605110168457 -297.237426757813 6.997795581818
-43.795375823975 -73.719329833984 -293.111419677734 2.408989429474
-22.040876388550 -73.097190856934 -294.909637451172 4.044167518616
2.878148078918 -73.599678039551 -295.297454833984 2.976440906525
-20.304576873779 -78.075477600098 -291.483367919922 2.003287553787
1.289708971977 -71.811683654785 -296.067169189453 4.553194046021
5.910535812378 -74.773628234863 -295.410400390625 3.032929420471
-139.533004760742 -78.435066223145 -291.369873046875 1.024844646454
-145.575531005859 -76.681877136230 -304.146423339844 1.224061489105
-156.184295654297 -80.214965820313 -311.602233886719 4.109569549561
34.716930389404 -56.971954345703 -15.393067359924 3.859949111938
26.735395431519 -66.489990234375 -11.409381866455 3.235283374786
37.032272338867 -67.140747070313 -18.005950927734 2.215851545334
17.397644042969 -67.547241210938 -24.994520187378 4.717682361603
38.096645355225 -67.433761596680 -30.198877334595 5.209694862366
16.744556427002 -63.687725067139 -22.284715652466 3.835897684097
20.234746932983 -72.558113098145 -33.794212341309 2.146791219711
18.592041015625 -70.753227233887 -39.652931213379 5.921892166138
38.481922149658 -63.539737701416 -38.089080810547 3.410145282745
23.226879119873 -66.495140075684 -42.507156372070 5.158238887787
35.553756713867 -67.870407104492 -34.766151428223 2.545685291290
30.526084899902 -63.340778350830 -40.931602478027 0.758550822735
26.006111145020 -68.122886657715 -44.703292846680 5.977642536163
29.047281265259 -64.950584411621 -45.449100494385 5.262360572815
40.656352996826 -67.463607788086 -48.395652770996 8.238967895508
29.943607330322 -61.847534179688 -49.266651153564 8.821627616882
-42.006755828857 -62.903324127197 -60.536602020264 12.938873291016
-32.981857299805 -62.730865478516 -45.961849212646 2.719332218170
-93.044883728027 -67.210807800293 -58.064128875732 3.063775062561
-90.538703918457 -71.281349182129 -65.913932800293 0.994686484337
77.475067138672 -67.765625000000 -69.496940612793 4.020536899567
77.818557739258 -68.531860351563 -74.385902404785 5.422196865082
-18.251708984375 -72.083374023438 -79.260017395020 6.529113292694
-88.133773803711 -70.707191467285 -73.721580505371 3.822375059128
-27.690231323242 -68.229881286621 -83.131599426270 5.949925899506
-53.357872009277 -75.309524536133 -93.601249694824 2.528340101242
58.455986022949 -68.884399414063 -88.798088073730 1.238515734673
51.866569519043 -63.915447235107 -94.663131713867 2.017037868500
92.012054443359 -69.599021911621 -90.863723754883 6.576282024384
72.000045776367 -72.029090881348 -98.922752380371 1.342171669006
-67.196220397949 -73.473541259766 -94.145492553711 2.711600303650
-68.641433715820 -66.576850891113 -98.381118774414 0.751396894455
40.283058166504 -69.166511535645 -100.057579040527 2.875706911087
66.556640625000 -76.257736206055 -103.885330200195 8.872845649719
45.797424316406 -73.552536010742 -104.126632690430 2.184472084045
98.146781921387 -73.441558837891 -101.096580505371 2.799516439438
-91.662826538086 -71.089996337891 -109.310981750488 3.765175819397
36.122848510742 -77.056007385254 -112.828224182129 2.235429763794
103.631584167480 -66.246948242188 -112.609130859375 3.415160655975
41.697814941406 -65.139976501465 -113.939285278320 3.776006698608
99.746406555176 -65.588630676270 -110.955215454102 5.934429168701
-87.201095581055 -67.970199584961 -117.818305969238 2.890842437744
31.582399368286 -66.875404357910 -121.563232421875 3.727600336075
107.956260681152 -72.095024108887 -123.692985534668 1.807561397552
96.758674621582 -69.319427490234 -121.158103942871 10.204452514648
102.937316894531 -73.481880187988 -118.925781250000 4.150755882263
105.905914306641 -75.537414550781 -119.838180541992 2.422326803207
27.639904022217 -71.395721435547 -118.594482421875 5.121731758118
29.563150405884 -75.200828552246 -121.311164855957 2.595379590988
40.085334777832 -68.867279052734 -115.240539550781 1.685268998146
105.746673583984 -70.074104309082 -128.497528076172 3.058555841446
37.233886718750 -67.609596252441 -127.107223510742 3.038858890533
107.432533264160 -72.430114746094 -136.647216796875 2.004227876663
111.139892578125 -67.352088928223 -132.214508056641 1.139353156090
28.039293289185 -68.436981201172 -123.076683044434 4.542274475098
-81.349266052246 -74.338516235352 -126.708396911621 4.827877998352
113.177192687988 -75.770957946777 -140.081207275391 1.487854480743
-64.984893798828 -78.379371643066 -145.322311401367 5.327809333801
28.959470748901 -72.473457336426 -139.742477416992 1.399493694305
-78.494285583496 -70.637870788574 -142.239501953125 1.060064315796
25.199445724487 -67.905387878418 -138.359725952148 2.617447853088
-75.863182067871 -73.684135437012 -144.389038085938 1.315066814423
-46.878097534180 -73.980834960938 -152.507431030273 3.315643072128
-77.366867065430 -76.140785217285 -137.222625732422 3.580191373825
105.435340881348 -62.860572814941 -142.155014038086 8.910676956177
113.897529602051 -71.533676147461 -144.010314941406 2.120210886002
121.346427917480 -69.735557556152 -150.979522705078 5.016402244568
-76.174629211426 -73.817459106445 -147.545440673828 1.835560560226
4.008026123047 -69.805114746094 -153.149093627930 3.925095796585
-63.367942810059 -68.236763000488 -156.944442749023 3.972790002823
-50.286903381348 -74.916824340820 -155.266555786133 1.120904088020
104.763359069824 -67.718414306641 -163.635131835938 5.058276176453
-43.031112670898 -74.658180236816 -154.238189697266 3.194587230682
5.526113986969 -68.223007202148 -165.247070312500 4.465237617493
18.330135345459 -68.890800476074 -163.403945922852 2.457881212234
108.374031066895 -71.541961669922 -168.030227661133 1.055311083794
28.679605484009 -64.888931274414 -162.513977050781 3.406891345978
-7.398356914520 -76.445350646973 -161.155349731445 5.111740112305
26.779544830322 -69.461120605469 -167.135192871094 1.158998847008
-73.747550964355 -63.314487457275 -160.414993286133 9.301744461060
-65.798538208008 -68.861625671387 -161.071029663086 2.961512565613
-70.712364196777 -69.127593994141 -164.329742431641 4.938144207001
107.178176879883 -69.227531433105 -165.707931518555 2.330427408218
-51.023765563965 -67.518035888672 -166.509658813477 7.221334934235
11.976287841797 -77.186325073242 -175.375564575195 5.126938343048
-67.053947448730 -75.300254821777 -177.832687377930 5.753274917603
-64.149841308594 -74.980606079102 -177.208877563477 3.432307243347
-48.564586639404 -74.059745788574 -165.733703613281 3.319849491119
-42.740356445313 -62.482215881348 -169.169235229492 7.516383171082
108.856628417969 -64.772880554199 -179.531341552734 5.556214809418
-38.867134094238 -72.706901550293 -176.270187377930 2.819433927536
11.861354827881 -69.962402343750 -172.445266723633 5.494229316711
100.999168395996 -77.289093017578 -196.110778808594 1.126844406128
-158.168594360352 -75.069168090820 -178.670181274414 7.925269603729
-146.945419311523 -73.252449035645 -175.572952270508 0.562148869038
-156.553436279297 -70.277893066406 -179.104736328125 3.850776672363
