89.828414916992 -77.303359985352 -212.745254516602 1.646461486816
-31.639396667480 -77.918937683105 -221.169296264648 4.289576053619
-93.831703186035 -79.320884704590 -216.108932495117 3.302780151367
-74.865562438965 -77.043327331543 -216.352523803711 2.451308727264
-24.118963241577 -76.652694702148 -222.852386474609 2.350208520889
-156.110855102539 -70.138771057129 -217.404388427734 2.441248178482
79.353355407715 -79.094825744629 -224.846923828125 3.689744234085
81.077713012695 -71.780326843262 -229.455123901367 0.760904848576
81.669715881348 -79.908531188965 -225.250335693359 4.878528118134
-106.194931030273 -66.655883789063 -227.230957031250 1.777368664742
-151.304565429688 -75.914451599121 -227.885925292969 2.094241619110
-23.680057525635 -82.886825561523 -224.024017333984 5.917871475220
75.739425659180 -73.618484497070 -230.639266967773 1.302972674370
-150.172805786133 -83.674018859863 -228.477432250977 0.465971261263
-40.570781707764 -74.386337280273 -226.522308349609 13.660175323486
-138.906204223633 -65.993843078613 -237.247177124023 5.752986431122
-17.505788803101 -77.100631713867 -232.210922241211 3.873650312424
14.497309684753 -74.385993957520 -224.940521240234 1.834815740585
8.504029273987 -73.614280700684 -241.855407714844 0.747267365456
-163.279632568359 -78.182289123535 -238.383880615234 4.865624904633
-128.234558105469 -70.187728881836 -234.350799560547 2.173173189163
-14.521526336670 -75.303863525391 -237.362136840820 0.797491133213
-4.366639137268 -71.784835815430 -246.445068359375 1.400330901146
59.994956970215 -78.615165710449 -242.073333740234 5.151601314545
61.110111236572 -74.376586914063 -243.196334838867 2.012302637100
-4.190388202667 -76.301300048828 -246.841476440430 0.430719405413
14.833926200867 -76.402236938477 -242.747314453125 3.714849948883
-29.152616500854 -73.123214721680 -247.868530273438 5.816431522369
-47.006301879883 -79.049018859863 -252.962219238281 6.497517585754
-54.634578704834 -78.873489379883 -239.012771606445 4.443209648132
-48.580509185791 -78.207885742188 -247.921371459961 1.864055871964
-25.418643951416 -78.241622924805 -250.604797363281 7.909669399261
-61.415561676025 -70.801437377930 -244.795883178711 1.962340950966
0.230569005013 -74.291923522949 -250.456146240234 4.881743431091
-78.926879882813 -67.898513793945 -250.721069335938 1.754122495651
7.440351009369 -71.266929626465 -250.303146362305 6.906069755554
-152.383499145508 -76.376083374023 -252.210845947266 2.390289068222
-74.521690368652 -79.724578857422 -257.224884033203 6.467007160187
4.636196136475 -76.767364501953 -254.165710449219 6.711055755615
-172.244171142578 -73.619140625000 -253.625320434570 5.217242717743
11.207424163818 -71.750572204590 -254.910110473633 9.144015312195
-91.198410034180 -76.421463012695 -258.380157470703 3.983680009842
-80.505401611328 -69.364334106445 -255.145675659180 2.454440593719
17.644136428833 -73.916191101074 -263.382904052734 4.945026397705
-94.407554626465 -71.349609375000 -261.962402343750 3.725193500519
-138.332519531250 -75.345932006836 -258.413299560547 2.638230085373
-143.603088378906 -75.791076660156 -260.700653076172 2.100875616074
-140.850875854492 -74.278053283691 -261.715850830078 1.369979977608
-147.890579223633 -71.270675659180 -262.197753906250 3.105732440948
-145.077224731445 -77.788414001465 -258.344604492188 2.236115217209
-142.580307006836 -71.383911132813 -266.576293945313 2.863404750824
-163.656997680664 -75.085403442383 -259.578094482422 1.406547904015
-135.509170532227 -69.379585266113 -266.732543945313 2.695281267166
-141.318588256836 -70.063888549805 -260.488952636719 2.498522758484
-167.657638549805 -77.935729980469 -270.636047363281 4.168177127838
-160.022567749023 -73.858123779297 -266.792755126953 2.657989025116
-155.465759277344 -72.703903198242 -269.856842041016 2.427688598633
-151.896636962891 -79.877822875977 -268.007568359375 2.319859266281
6.859887123108 -84.449775695801 -288.875915527344 7.005147933960
-169.834762573242 -77.499755859375 -270.729125976563 4.775053977966
-162.144577026367 -68.315589904785 -280.162231445313 1.364225983620
-11.713923454285 -72.395942687988 -282.647491455078 2.922620058060
-166.437423706055 -73.860488891602 -269.795928955078 1.544172286987
9.392251014709 -78.442016601563 -286.727111816406 2.714599370956
-159.930679321289 -71.245285034180 -285.837615966797 0.259106427431
-167.170166015625 -68.631309509277 -296.250823974609 6.752571105957
-158.259277343750 -68.680526733398 -283.414215087891 3.396714210510
-175.842208862305 -63.519241333008 -282.798034667969 11.011715888977
-3.894459962845 -71.796844482422 -294.188171386719 3.576822042465
5.743960857391 -79.382324218750 -287.602050781250 2.483118295670
-103.627418518066 -64.234329223633 -289.528137207031 4.526205539703
-158.660278320313 -74.739326477051 -291.780334472656 1.468593001366
-154.153228759766 -73.912841796875 -286.012817382813 1.672824382782
-117.441284179688 -68.395553588867 -295.783203125000 3.657648801804
-156.268142700195 -70.732147216797 -294.452178955078 0.942154526711
-156.333084106445 -70.971313476563 -298.200958251953 2.811717510223
-74.842086791992 -72.221199035645 -294.246002197266 3.635650634766
-168.121810913086 -76.120918273926 -296.441314697266 7.696260929108
-126.560211181641 -75.725570678711 -291.098358154297 1.184818029404
-49.357311248779 -78.904808044434 -296.723052978516 6.968421936035
-158.140258789063 -68.932968139648 -296.446960449219 2.451449632645
-149.768524169922 -72.777969360352 -294.063934326172 3.978632688522
-25.116613388062 -77.725257873535 -297.600189208984 6.704179763794
-132.796737670898 -70.154502868652 -302.758178710938 8.665456771851
-4.786224842072 -74.097579956055 -295.794036865234 4.527398109436
4.228415012360 -77.103088378906 -294.425903320313 2.697148561478
-139.138641357422 -71.179161071777 -299.549957275391 4.917744636536
-151.127227783203 -69.993461608887 -297.887481689453 2.563194036484
-162.442306518555 -68.401123046875 -310.713195800781 6.847731113434
-74.383666992188 -78.848793029785 -53.088108062744 6.418999671936
-29.191350936890 -78.554946899414 -66.710159301758 2.413188934326
-26.475009918213 -80.379600524902 -70.967285156250 2.492241621017
70.971092224121 -78.356758117676 -79.708877563477 4.502137184143
86.235382080078 -78.555809020996 -82.862258911133 1.759457111359
-40.592529296875 -72.156684875488 -83.967536926270 3.383608579636
78.379554748535 -82.079864501953 -81.517990112305 5.035859107971
83.193145751953 -83.803947448730 -86.734992980957 6.249782562256
69.092758178711 -79.445114135742 -86.188804626465 5.516141414642
64.544960021973 -75.688209533691 -96.413284301758 5.856874465942
-48.512763977051 -82.094329833984 -88.770576477051 2.069477319717
-98.891662597656 -75.337295532227 -95.903396606445 5.256316184998
54.591217041016 -81.322593688965 -97.893905639648 4.856326103210
43.639629364014 -81.362815856934 -103.239379882813 3.882029771805
93.011245727539 -73.444313049316 -105.412605285645 3.237176656723
-98.310379028320 -73.512710571289 -108.228164672852 4.082228183746
80.665260314941 -77.896903991699 -102.675010681152 5.753649711609
81.054054260254 -78.671577453613 -107.421852111816 8.457570075989
86.299163818359 -80.935760498047 -101.290473937988 6.419040203094
78.249412536621 -73.572189331055 -111.241645812988 7.579186916351
91.675224304199 -76.930534362793 -108.227462768555 7.415859699249
-88.505935668945 -84.617256164551 -106.504783630371 3.825560808182
37.650222778320 -83.407234191895 -117.100822448730 3.599025964737
98.570983886719 -79.796012878418 -120.770523071289 10.899750709534
109.375190734863 -73.726997375488 -116.554458618164 1.392974019051
42.382369995117 -76.997695922852 -123.990623474121 1.663281559944
105.921783447266 -73.686408996582 -132.452148437500 3.400851726532
110.008247375488 -80.440483093262 -142.896240234375 5.002325057983
-56.209644317627 -75.095817565918 -134.106353759766 2.380156993866
27.197437286377 -79.263008117676 -138.610198974609 1.955593109131
27.837432861328 -83.937667846680 -132.629074096680 5.530038833618
15.910756111145 -74.268890380859 -148.157440185547 3.774211883545
110.133438110352 -77.534790039063 -144.893371582031 2.401741504669
105.607788085938 -79.819213867188 -140.991409301758 6.735871791840
-79.353004455566 -78.379348754883 -153.830535888672 7.691408157349
-54.259334564209 -79.231674194336 -154.119171142578 4.041385650635
-78.711280822754 -73.415107727051 -153.083038330078 5.727666854858
15.330061912537 -80.456085205078 -158.100799560547 7.178475379944
106.099563598633 -75.421058654785 -161.934219360352 2.783290147781
-60.524448394775 -77.073043823242 -157.998458862305 2.498425006866
-75.639495849609 -75.595771789551 -154.142333984375 3.809352159500
-46.377140045166 -81.510070800781 -161.990890502930 3.963331937790
33.225128173828 -77.621368408203 -155.657714843750 0.966692447662
103.886734008789 -79.239189147949 -164.876327514648 5.611893177032
114.348030090332 -79.975502014160 -163.585479736328 4.388443470001
-74.142112731934 -76.561882019043 -155.373107910156 3.545959711075
-78.863067626953 -77.581054687500 -168.845596313477 12.031301498413
14.432788848877 -82.020095825195 -168.649230957031 7.239423274994
-61.507564544678 -80.851844787598 -165.918395996094 1.300297021866
-34.789180755615 -87.055419921875 -169.847488403320 7.405463218689
2.398005962372 -74.350143432617 -170.228530883789 3.365606069565
106.973907470703 -80.433662414551 -174.762329101563 3.894910335541
1.645846009254 -75.811378479004 -171.216430664063 3.620861291885
-43.330532073975 -77.497871398926 -172.578094482422 3.575824975967
-6.336503982544 -73.169654846191 -168.847564697266 2.663676023483
97.914871215820 -75.082321166992 -183.294540405273 4.750665664673
-47.324420928955 -68.548919677734 -181.223327636719 7.504343986511
25.624437332153 -73.346977233887 -174.742523193359 1.788143992424
108.076057434082 -74.663490295410 -177.311447143555 1.138353347778
-54.874988555908 -75.217155456543 -185.129058837891 1.847045302391
-33.186206817627 -79.243354797363 -174.386337280273 1.838298797607
92.762458801270 -81.477455139160 -181.276626586914 12.131160736084
29.348653793335 -80.573600769043 -178.298049926758 5.015047073364
111.686843872070 -72.304626464844 -183.979934692383 1.846563577652
-43.926784515381 -79.755149841309 -174.831558227539 5.338687896729
101.826911926270 -74.427581787109 -187.979324340820 2.229296684265
-62.128814697266 -75.016204833984 -183.159835815430 4.724476814270
-28.864881515503 -75.178619384766 -179.713394165039 3.595317363739
-147.537872314453 -74.516021728516 -184.981582641602 1.760870933533
-59.967655181885 -75.586929321289 -190.237487792969 7.855247020721
-151.910354614258 -72.382141113281 -185.858291625977 2.043767452240
-37.518314361572 -75.357933044434 -191.528213500977 4.539058208466
15.463685035706 -74.873657226563 -192.950714111328 1.867908716202
107.258354187012 -71.319129943848 -188.214035034180 1.705269217491
-35.498035430908 -74.700920104980 -197.234970092773 3.840891361237
8.777887344360 -78.051025390625 -198.929306030273 2.737058401108
10.913211822510 -75.983230590820 -204.297302246094 1.460297107697
-155.237731933594 -69.846603393555 -196.746688842773 2.328303575516
96.930236816406 -81.442985534668 -205.988861083984 4.150076389313
-24.198202133179 -71.932205200195 -199.671691894531 1.943852543831
101.304847717285 -70.572227478027 -198.941314697266 1.307468056679
11.203537940979 -74.678916931152 -195.762969970703 1.381580114365
-135.517105102539 -72.693153381348 -206.541717529297 4.597207069397
-150.706283569336 -71.523345947266 -199.552947998047 2.049935340881
88.517242431641 -67.746078491211 -205.416839599609 5.300837516785
-16.766279220581 -73.510902404785 -205.345169067383 3.358396768570
-21.338323593140 -78.346199035645 -200.843185424805 0.851540923119
8.117653846741 -75.829261779785 -208.236236572266 1.394697308540
-151.121246337891 -73.384422302246 -210.025680541992 2.393780708313
-153.259735107422 -74.890159606934 -210.381057739258 3.982181072235
95.869781494141 -83.409683227539 -213.428588867188 7.050118446350
-79.141868591309 -76.957633972168 -215.056976318359 2.115927457809
-41.605106353760 -72.208160400391 -205.832015991211 3.318114995956
16.643798828125 -73.695861816406 -216.279006958008 0.554644644260
-28.184391021729 -79.191833496094 -214.540023803711 1.713264703751
-83.858673095703 -71.605537414551 -218.500137329102 2.704733848572
88.471588134766 -74.730506896973 -212.727966308594 1.385964632034
-87.287704467773 -69.417190551758 -219.813674926758 3.850106239319
-153.351715087891 -73.892105102539 -222.771911621094 1.581989407539
-83.840820312500 -77.095214843750 -221.519454956055 4.975596427917
-21.162775039673 -76.182174682617 -217.014602661133 1.515428662300
-27.840023040771 -77.355003356934 -223.000717163086 2.837936401367
19.106039047241 -72.852500915527 -216.913131713867 2.618459701538
-10.773141860962 -72.613166809082 -215.928588867188 3.507498741150
-84.547080993652 -73.832008361816 -224.295547485352 6.726110935211
85.355735778809 -76.021865844727 -221.799713134766 0.820982277393
-99.397354125977 -76.151870727539 -217.856765747070 3.402222156525
-150.206039428711 -81.884414672852 -230.016571044922 2.192749738693
-15.711591720581 -77.614326477051 -221.873153686523 0.604124367237
11.289570808411 -75.316093444824 -221.029846191406 3.479244232178
-110.030746459961 -71.639793395996 -222.643630981445 2.264272689819
4.513169765472 -77.704856872559 -224.457931518555 2.229722738266
-33.348140716553 -78.831809997559 -220.240234375000 5.155977249146
76.882011413574 -78.382606506348 -231.767135620117 3.480339050293
-151.298858642578 -71.652557373047 -222.463562011719 1.341102480888
3.539800882339 -71.477561950684 -231.554290771484 2.152100086212
-10.412803649902 -75.261581420898 -226.392379760742 1.809959173203
11.384225845337 -70.188980102539 -226.186676025391 1.242578864098
80.432441711426 -71.760482788086 -234.852798461914 3.186961889267
-19.128452301025 -75.815612792969 -231.052322387695 2.973512411118
-134.371368408203 -78.360206604004 -232.625564575195 2.162528991699
-11.468482017517 -80.041297912598 -230.711914062500 4.223546028137
11.447201728821 -72.645599365234 -239.939590454102 1.633467793465
-131.785629272461 -72.030578613281 -224.786636352539 1.704730272293
-156.309768676758 -75.607894897461 -234.013092041016 3.996399164200
-144.708190917969 -73.854339599609 -232.562362670898 2.443320035934
-136.010131835938 -72.595626831055 -232.431671142578 1.134538292885
-14.467599868774 -73.832595825195 -232.449981689453 2.298609972000
66.061180114746 -74.513305664063 -236.134857177734 1.267991065979
-146.905868530273 -74.518890380859 -241.061447143555 1.694607734680
66.265083312988 -72.260452270508 -232.529129028320 2.480714559555
-19.730363845825 -77.172981262207 -230.736801147461 3.778343439102
-147.999023437500 -79.468040466309 -235.684616088867 2.992615461349
70.942390441895 -80.439514160156 -241.386596679688 7.085972309113
10.219719886780 -79.461151123047 -242.588104248047 1.175168514252
-147.188812255859 -67.776237487793 -240.886871337891 1.373912453651
-154.396530151367 -73.785873413086 -240.942611694336 4.028680324554
6.252016067505 -68.101875305176 -240.751815795898 1.529945850372
-7.685641765594 -75.287536621094 -245.318222045898 2.774897336960
-29.058546066284 -70.282768249512 -250.630477905273 9.409329414368
-11.554973602295 -73.745292663574 -245.696960449219 1.919758439064
-167.913284301758 -74.624130249023 -239.637115478516 3.233734130859
3.755511999130 -73.559730529785 -251.209625244141 6.973476409912
-168.737060546875 -71.175590515137 -237.511398315430 2.325477838516
-23.441137313843 -72.579376220703 -235.569412231445 3.535214185715
63.331737518311 -76.382575988770 -245.583160400391 3.935825586319
-12.451464653015 -72.057945251465 -246.548553466797 1.342936038971
-31.776235580444 -74.559059143066 -243.867660522461 1.432495117188
-32.079196929932 -70.252685546875 -246.200836181641 5.753281116486
-20.417549133301 -70.232757568359 -251.660461425781 4.639260292053
-148.139511108398 -71.063827514648 -238.921112060547 3.833598613739
4.037340164185 -77.578399658203 -249.471969604492 3.602561235428
59.655010223389 -79.165122985840 -246.540023803711 6.607355117798
5.474059104919 -75.422561645508 -248.986984252930 4.520906925201
-168.252288818359 -71.125877380371 -242.415695190430 1.502229452133
-52.911903381348 -77.551872253418 -249.331024169922 1.686055183411
1.611819028854 -77.282394409180 -253.989654541016 5.932409286499
12.232337951660 -67.568756103516 -256.962188720703 9.512941360474
-65.125389099121 -73.176101684570 -256.075714111328 5.447004795074
-8.812955856323 -73.159538269043 -246.989791870117 1.268335819244
14.768778800964 -77.387557983398 -258.522033691406 4.628824234009
-171.828094482422 -71.983467102051 -247.981536865234 4.512347698212
-78.074859619141 -76.532974243164 -259.882873535156 6.573941230774
-59.401676177979 -69.859245300293 -252.269531250000 4.561995029449
-85.886123657227 -70.750656127930 -251.761886596680 1.809461355209
-168.244430541992 -70.876953125000 -244.148773193359 2.157759904861
-158.321319580078 -72.903968811035 -254.076538085938 3.303361415863
-65.193763732910 -67.998908996582 -259.076812744141 9.447829246521
-74.632629394531 -80.205825805664 -255.017974853516 5.390982627869
-160.503280639648 -70.194343566895 -255.260665893555 3.539336681366
-158.554718017578 -69.263481140137 -251.344070434570 1.087261915207
-83.714561462402 -72.607635498047 -254.007537841797 2.129225492477
-97.940841674805 -67.553245544434 -255.209106445313 1.242167711258
-168.080566406250 -73.998779296875 -254.589599609375 1.896752715111
-160.087387084961 -71.359146118164 -253.687469482422 2.935036420822
-141.094696044922 -67.318252563477 -260.884063720703 1.095050811768
-87.133102416992 -76.304039001465 -256.590057373047 2.905194282532
-169.879379272461 -67.200393676758 -257.535034179688 4.362944126129
-154.465225219727 -77.780387878418 -259.840515136719 1.843038320541
-100.203132629395 -72.663909912109 -257.992492675781 0.985003769398
-107.548576354980 -65.050872802734 -263.667053222656 3.888537168503
-155.144195556641 -69.833145141602 -262.148559570313 0.802612960339
-103.557098388672 -71.542564392090 -267.583282470703 7.032232761383
-158.172149658203 -70.658241271973 -255.958190917969 1.300869584084
-106.188163757324 -74.811470031738 -258.892913818359 1.567816257477
-173.517486572266 -76.779357910156 -258.325653076172 8.493047714233
-168.909637451172 -78.409950256348 -260.477600097656 5.554694175720
-128.308334350586 -69.728248596191 -259.321136474609 5.065804004669
-154.167861938477 -77.495277404785 -261.281005859375 2.481714248657
-113.112983703613 -70.387229919434 -262.964385986328 1.046449780464
-20.379102706909 -79.497169494629 -265.598937988281 8.246853828430
-148.963058471680 -69.833480834961 -264.292175292969 3.148375034332
-132.490661621094 -70.828849792480 -265.271911621094 1.921750068665
-162.527221679688 -70.619163513184 -268.575073242188 2.329821348190
15.094562530518 -74.629615783691 -273.364593505859 4.286666393280
-159.716766357422 -67.747695922852 -286.785552978516 3.032299280167
-174.806106567383 -68.159790039063 -282.797302246094 7.711132049561
-11.316695213318 -78.734619140625 -288.811035156250 1.796662688255
-155.729446411133 -73.919692993164 -282.321197509766 2.635178089142
-12.643479347229 -70.914733886719 -281.882781982422 3.230087518692
9.350191116333 -72.906585693359 -292.049194335938 1.860229492188
-139.044067382813 -68.161445617676 -290.837768554688 3.005414247513
-75.705291748047 -76.149185180664 -285.165863037109 2.495948553085
-47.600948333740 -70.673828125000 -286.078704833984 2.918587207794
-122.323982238770 -68.083663940430 -292.078674316406 2.585835456848
-96.471351623535 -70.708686828613 -298.318878173828 6.614600658417
-96.820892333984 -70.026565551758 -299.906616210938 8.295644760132
-54.904819488525 -77.008644104004 -292.707092285156 2.915168285370
-121.234626770020 -65.730155944824 -296.507385253906 5.671507835388
-113.862007141113 -71.796447753906 -296.337677001953 4.077796936035
-38.423954010010 -75.712417602539 -296.399383544922 5.405037403107
-122.685012817383 -73.259597778320 -292.096832275391 1.310546517372
-132.414657592773 -74.649383544922 -292.357574462891 1.926308035851
-151.256134033203 -73.924339294434 -298.166809082031 2.500025749207
3.636732101440 -69.384918212891 -292.672943115234 1.202205538750
8.700491905212 -74.432479858398 -298.934478759766 5.948691844940
-162.276580810547 -70.439582824707 -297.551239013672 4.833631515503
-161.345413208008 -69.408020019531 -307.396514892578 5.672908306122
-152.955978393555 -73.185058593750 -313.644744873047 2.868105173111
-157.123001098633 -66.223510742188 -310.342102050781 3.944067478180
-158.759811401367 -73.827598571777 -316.710510253906 6.067522525787
22.930145263672 -79.973457336426 -20.305498123169 7.738971710205
23.142572402954 -77.600822448730 -28.406393051147 5.482824325562
22.454790115356 -79.576416015625 -25.634042739868 7.565320014954
25.276418685913 -80.170829772949 -46.106689453125 10.827896118164
-54.500736236572 -70.283912658691 -60.399410247803 7.258278369904
-66.846771240234 -75.986465454102 -57.564289093018 2.479006767273
-42.619449615479 -77.120071411133 -57.415225982666 0.886853456497
-84.551841735840 -79.102767944336 -64.555755615234 4.630268573761
78.261993408203 -84.634712219238 -87.360435485840 7.565705299377
-21.676731109619 -74.714828491211 -80.491256713867 4.906043529510
88.082382202148 -82.905227661133 -74.073890686035 7.484838962555
93.002555847168 -77.543769836426 -86.728782653809 1.011017799377
-95.265693664551 -75.855384826660 -86.450317382813 3.102513074875
72.937652587891 -74.134223937988 -81.759590148926 2.115324497223
-43.239036560059 -80.921928405762 -89.962631225586 5.493861198425
99.171195983887 -78.858398437500 -91.027603149414 5.050371646881
-59.125663757324 -79.817459106445 -95.064315795898 1.156144738197
47.570026397705 -77.131752014160 -93.968421936035 3.396633863449
69.676765441895 -79.563941955566 -92.558952331543 6.138485908508
53.877178192139 -82.868515014648 -100.337120056152 5.832798480988
43.855499267578 -75.474777221680 -110.623229980469 3.050468921661
64.160751342773 -80.744682312012 -101.182052612305 10.029365539551
45.272380828857 -69.831237792969 -103.257659912109 1.288087129593
97.883842468262 -78.272521972656 -110.835494995117 8.868791580200
110.119499206543 -79.601570129395 -114.907043457031 5.200611114502
72.502670288086 -74.386642456055 -106.534088134766 6.062595844269
86.460983276367 -77.698616027832 -111.691436767578 9.964122772217
98.325637817383 -75.821136474609 -108.513732910156 6.828301429749
102.608428955078 -68.225845336914 -107.098503112793 1.926907896996
36.752838134766 -85.075561523438 -113.702598571777 5.671310424805
104.314689636230 -78.946189880371 -125.984947204590 6.498170375824
111.524543762207 -80.207534790039 -129.438323974609 4.868768692017
29.576753616333 -76.026435852051 -123.750968933105 1.782961964607
35.614097595215 -78.588088989258 -124.794029235840 1.182815551758
102.952735900879 -74.796157836914 -136.829116821289 6.831696987152
34.633880615234 -81.591323852539 -132.455230712891 1.060091972351
112.213928222656 -73.072837829590 -137.916168212891 0.683500111103
106.736106872559 -76.016510009766 -135.076278686523 3.417182445526
21.384756088257 -73.762390136719 -142.617782592773 2.778734683990
-51.357509613037 -80.044448852539 -136.648681640625 4.502168655396
-61.092567443848 -76.717323303223 -145.842803955078 6.104222297668
111.755432128906 -75.454093933105 -139.920349121094 1.786822438240
-78.870758056641 -78.571769714355 -147.706115722656 6.400752067566
-78.944412231445 -73.600532531738 -142.690643310547 3.002603292465
-62.645500183105 -78.512733459473 -143.683288574219 7.239521980286
30.113859176636 -77.642562866211 -144.382308959961 2.538652420044
100.823631286621 -74.547218322754 -155.434173583984 8.411417007446
-67.290702819824 -77.372787475586 -149.348434448242 2.251290559769
-48.272483825684 -70.883979797363 -148.907180786133 1.995426774025
36.791194915771 -82.039268493652 -156.186233520508 6.119523048401
-67.376129150391 -78.223503112793 -156.659072875977 1.258385777473
109.482116699219 -69.537918090820 -151.269317626953 1.424642801285
105.183395385742 -78.536354064941 -163.393646240234 4.388529777527
106.151718139648 -78.823425292969 -155.111282348633 5.507908344269
-42.382770538330 -74.853881835938 -160.994735717773 2.715284109116
-69.606811523438 -74.686294555664 -160.129470825195 2.036148786545
-73.169738769531 -65.671409606934 -156.585769653320 5.445504188538
24.650968551636 -71.798805236816 -158.144134521484 1.907807350159
-3.938790082932 -78.235137939453 -169.523147583008 2.121750831604
103.744766235352 -75.280334472656 -162.730667114258 4.573480129242
104.336311340332 -71.076332092285 -162.817947387695 4.213175773621
109.871124267578 -75.573249816895 -165.325271606445 1.478464126587
-68.683799743652 -80.830535888672 -163.944503784180 4.107879638672
-51.252555847168 -77.064147949219 -166.205703735352 6.128098487854
1.386217951775 -78.454719543457 -176.010635375977 6.574804782867
-28.964073181152 -72.033966064453 -178.070739746094 1.988234519958
101.725349426270 -76.598731994629 -168.673324584961 5.723224163055
-40.413135528564 -71.843055725098 -165.806503295898 1.604735970497
106.149826049805 -78.897186279297 -175.111770629883 3.520133256912
-45.659858703613 -71.734489440918 -176.123031616211 6.175234794617
106.667320251465 -79.276000976563 -175.167770385742 3.443304061890
-155.369644165039 -68.903755187988 -184.704956054688 3.652359485626
-36.084861755371 -72.808547973633 -179.342864990234 0.836428403854
-24.999135971069 -70.094268798828 -183.897827148438 1.602981328964
26.859466552734 -80.776924133301 -180.845779418945 3.293704748154
10.575130462646 -73.284385681152 -184.099212646484 3.175463914871
17.889945983887 -76.837753295898 -187.221878051758 1.618205070496
101.193954467773 -80.065513610840 -195.267532348633 2.794788360596
-157.438552856445 -68.710540771484 -190.515884399414 3.275812149048
-26.476533889771 -74.570083618164 -192.208053588867 1.027706265450
100.643302917480 -75.135314941406 -185.136505126953 2.508979320526
98.246597290039 -74.027824401855 -198.341125488281 2.179069280624
99.859123229980 -76.647445678711 -187.745819091797 2.304953575134
90.720146179199 -80.656364440918 -202.731887817383 5.696203708649
-161.536270141602 -83.278976440430 -201.161270141602 9.724074363708
92.606346130371 -81.404052734375 -209.883178710938 4.421659469604
-38.039710998535 -73.966018676758 -200.749572753906 2.088780879974
92.634193420410 -72.317283630371 -202.413742065430 1.282883882523
-133.261703491211 -73.803749084473 -195.063339233398 2.749550342560
-36.490062713623 -76.525382995605 -195.914627075195 2.212182760239
-147.032836914063 -73.609886169434 -206.413238525391 2.550862550735
85.221900939941 -74.071594238281 -205.565887451172 5.357553005219
3.971693038940 -72.966796875000 -207.017639160156 3.693256378174
18.863971710205 -77.445739746094 -202.047790527344 1.472199320793
-155.207015991211 -75.195495605469 -201.991073608398 2.753889322281
-142.468902587891 -69.983360290527 -210.939132690430 4.138104915619
-21.439575195313 -75.680358886719 -211.802093505859 3.043787956238
-131.024612426758 -80.769020080566 -207.854339599609 8.211782455444
-153.104507446289 -75.465126037598 -204.154357910156 2.267210721970
1.741911053658 -71.956222534180 -204.309982299805 6.169970035553
-31.246244430542 -72.958854675293 -209.695495605469 0.907763004303
12.868485450745 -73.283012390137 -213.513778686523 3.083736658096
0.632560014725 -74.270019531250 -215.263900756836 3.884052753448
80.360084533691 -74.843795776367 -220.143768310547 2.285037517548
-31.413116455078 -65.739608764648 -216.109832763672 7.308033466339
89.049133300781 -73.821052551270 -217.921401977539 0.700143277645
96.816108703613 -75.420303344727 -213.931411743164 2.605376958847
-148.155242919922 -67.232154846191 -222.641128540039 2.429344415665
89.178802490234 -70.404762268066 -217.072372436523 1.684953331947
0.949113011360 -69.138755798340 -214.506301879883 4.896890163422
-1.455399036407 -72.260643005371 -214.686462402344 2.137523889542
-39.537342071533 -71.452262878418 -214.717864990234 7.073791503906
-97.777763366699 -67.794990539551 -217.762695312500 1.373907685280
-39.981273651123 -73.437835693359 -218.990661621094 8.837044715881
78.946739196777 -75.883979797363 -223.036788940430 1.116527676582
77.674346923828 -76.488220214844 -223.694564819336 1.811322450638
-44.271297454834 -67.563713073730 -220.169067382813 14.840403556824
-82.901344299316 -64.091056823730 -229.184341430664 14.765377044678
-8.726044654846 -71.877288818359 -220.635681152344 2.129554510117
83.313926696777 -75.786293029785 -225.315582275391 1.632535099983
-152.375137329102 -75.588806152344 -224.112350463867 2.698176145554
-175.868835449219 -74.494148254395 -214.253509521484 10.834810256958
-163.617996215820 -71.134704589844 -222.391860961914 2.753259658813
-24.925210952759 -76.547157287598 -233.827880859375 3.862845182419
-157.756393432617 -76.349807739258 -226.841812133789 3.784575939178
-12.870749473572 -80.251167297363 -233.830566406250 5.715206146240
0.533388018608 -71.447547912598 -222.974731445313 1.868802666664
-166.904724121094 -78.341384887695 -223.773056030273 6.550055980682
-169.921447753906 -70.516189575195 -228.296508789063 3.338760614395
71.825767517090 -73.306114196777 -236.466369628906 1.585162401199
-0.251107007265 -74.909240722656 -235.424041748047 0.515235006809
-154.468276977539 -74.452491760254 -224.976318359375 2.144276857376
-148.721130371094 -73.388854980469 -223.551483154297 1.895791769028
-27.117601394653 -75.960197448730 -230.960464477539 7.278986454010
-1.848248004913 -73.889610290527 -228.153625488281 3.109466075897
78.624732971191 -74.330963134766 -228.600952148438 2.056153059006
-163.970245361328 -74.141899108887 -232.952758789063 1.005716443062
-151.813934326172 -69.770484924316 -231.162094116211 3.145584344864
-131.595596313477 -68.325553894043 -233.640945434570 1.694075465202
76.520904541016 -78.639068603516 -238.226821899414 5.983949184418
-121.053642272949 -67.241752624512 -235.932159423828 3.212671995163
-151.052780151367 -75.198074340820 -232.418136596680 2.042377233505
-159.684829711914 -77.548408508301 -232.061553955078 5.615082740784
-152.582214355469 -71.775588989258 -229.575698852539 2.869621515274
-157.065704345703 -67.408317565918 -233.147354125977 3.247346401215
-172.619003295898 -66.946632385254 -240.501693725586 6.423514842987
-142.965484619141 -71.501380920410 -239.601638793945 1.776686072350
-142.012634277344 -70.285186767578 -236.583633422852 1.648441433907
-161.426284790039 -71.591712951660 -231.195022583008 3.097545146942
-151.303131103516 -70.583000183105 -234.245162963867 2.052905559540
-157.656005859375 -67.296699523926 -235.990478515625 1.193375349045
65.615150451660 -73.036819458008 -224.616683959961 7.758452415466
62.367027282715 -69.283683776855 -245.492401123047 1.158815622330
-167.271362304688 -69.405105590820 -242.570648193359 0.581098973751
63.260101318359 -74.544197082520 -240.281600952148 0.888179302216
-26.888275146484 -71.489288330078 -240.919464111328 1.888443112373
3.125835895538 -73.155937194824 -245.263381958008 2.182928800583
11.972882270813 -77.970771789551 -240.538330078125 2.414270639420
-146.704055786133 -70.643600463867 -246.195877075195 2.894831657410
10.784110069275 -72.622665405273 -249.410415649414 5.219549655914
60.758270263672 -75.358657836914 -243.410247802734 2.760979890823
3.968828916550 -71.957847595215 -240.731552124023 2.159973859787
-1.175109982491 -76.609207153320 -250.351425170898 4.089946746826
-13.860724449158 -66.897583007813 -244.954742431641 2.748860359192
-24.005725860596 -77.496681213379 -252.934417724609 10.165463447571
-4.565187931061 -77.532783508301 -247.351623535156 0.961889743805
-2.850524902344 -70.293464660645 -246.397872924805 3.418644428253
50.662094116211 -75.761131286621 -246.770660400391 3.483841180801
-65.353012084961 -73.818778991699 -250.402511596680 1.722046852112
12.626293182373 -74.105789184570 -256.194000244141 7.491034507751
-63.469192504883 -70.270347595215 -250.058959960938 2.262659072876
-12.998546600342 -71.834320068359 -255.294403076172 2.321000099182
-69.937637329102 -68.849479675293 -258.321197509766 7.056096076965
-90.148658752441 -79.067756652832 -255.491317749023 4.716888904572
-86.941177368164 -77.146507263184 -256.949310302734 3.821701526642
-23.664045333862 -71.185455322266 -256.765289306641 8.752634048462
-130.464523315430 -76.584365844727 -265.928405761719 3.553367853165
-21.517381668091 -66.825180053711 -261.097869873047 7.439363956451
-129.753189086914 -70.546432495117 -258.940979003906 5.277669906616
-124.828674316406 -66.631362915039 -262.027343750000 0.661105573177
-110.179862976074 -76.996795654297 -260.917358398438 4.668174266815
-148.075088500977 -69.306495666504 -262.365478515625 1.879331588745
-152.527801513672 -68.269996643066 -269.921875000000 3.746009349823
-173.053344726563 -66.638519287109 -267.875671386719 7.337306022644
7.059679985046 -74.258239746094 -287.544189453125 1.519312858582
-68.106376647949 -75.153656005859 -287.625000000000 1.061088204384
-71.748855590820 -72.738967895508 -287.739654541016 2.285693407059
-51.644966125488 -73.841636657715 -289.151947021484 2.272584676743
-32.406993865967 -73.737251281738 -286.813598632813 0.247433066368
-98.001808166504 -70.837982177734 -299.825103759766 8.057043075562
-37.124027252197 -69.247886657715 -293.478698730469 4.444432258606
-7.237330913544 -65.212402343750 -290.099731445313 3.333049774170
-170.827789306641 -72.197799682617 -293.065216064453 6.024606227875
-22.827722549438 -74.054389953613 -296.116210937500 5.406290531158
1.229819059372 -66.232910156250 -295.682556152344 3.103079795837
8.750690460205 -64.435417175293 -297.244659423828 5.020092487335
-61.639144897461 -72.900169372559 -297.101287841797 6.870837688446
-34.348770141602 -76.500633239746 -290.672973632813 0.498647153378
9.751265525818 -68.752349853516 -294.835388183594 3.640693426132
-74.056869506836 -72.958641052246 -299.147705078125 7.991049289703
-44.508728027344 -70.692794799805 -295.033203125000 5.489086627960
-22.755592346191 -70.287132263184 -296.908172607422 7.022067070007
2.151850938797 -71.118453979492 -297.445861816406 5.442331314087
-21.075405120850 -75.452171325684 -293.740081787109 2.870221614838
0.585672020912 -69.272621154785 -298.118530273438 5.830588340759
5.166718006134 -72.327713012695 -297.631774902344 5.534270286560
-140.295288085938 -74.148826599121 -293.043701171875 2.504250288010
-146.367706298828 -71.683158874512 -305.687774658203 3.043655633926
-157.057922363281 -74.695404052734 -313.255035400391 2.499908447266
35.439182281494 -68.765090942383 -17.226121902466 1.704343080521
27.340463638306 -78.355445861816 -13.675980567932 6.507055759430
37.598300933838 -78.824012756348 -20.348398208618 8.291243553162
17.929708480835 -78.610549926758 -27.249488830566 6.976703166962
38.605434417725 -78.530082702637 -32.546165466309 7.599825859070
17.343351364136 -74.880638122559 -24.349590301514 4.975176811218
20.657016754150 -83.220451354980 -36.299522399902 11.193765640259
19.014719009399 -81.105957031250 -42.053867340088 11.852227210999
39.011783599854 -74.257369995117 -40.236804962158 2.781147718430
23.697206497192 -76.777519226074 -44.718185424805 8.597021102905
36.036785125732 -78.705291748047 -37.116531372070 6.571083545685
31.047309875488 -73.807151794434 -43.025951385498 3.403051137924
26.443445205688 -78.333679199219 -47.005813598633 9.880781173706
29.526157379150 -75.171310424805 -47.609756469727 8.028195381165
41.085411071777 -77.698097229004 -50.734985351563 11.943827629089
30.449935913086 -71.896568298340 -51.274280548096 10.280507087708
-41.556442260742 -71.388427734375 -62.219886779785 6.335538387299
-32.466793060303 -72.061401367188 -47.699989318848 5.123749732971
-92.639457702637 -75.098159790039 -59.705478668213 6.895169734955
-90.225540161133 -78.811195373535 -67.758804321289 5.477331638336
77.804122924805 -77.473953247070 -72.010780334473 3.831414222717
78.115447998047 -78.002822875977 -76.933227539063 2.063723802567
-18.015890121460 -79.965171813965 -81.492248535156 9.308803558350
-87.846611022949 -77.886306762695 -75.540702819824 2.643508195877
-27.415378570557 -75.793716430664 -85.121696472168 6.561323642731
-53.226337432861 -81.988502502441 -95.797927856445 3.927145957947
58.687408447266 -77.373085021973 -91.247535705566 3.697477579117
52.143917083740 -72.029174804688 -96.827407836914 3.101241111755
92.220634460449 -78.454338073730 -93.514915466309 2.251014471054
72.141281127930 -80.203704833984 -101.582931518555 8.023994445801
-67.039405822754 -79.934478759766 -96.181335449219 3.908886194229
-68.404777526855 -72.817710876465 -100.064743041992 2.949604511261
40.463577270508 -76.845176696777 -102.415550231934 2.953449964523
66.616783142090 -84.105834960938 -106.720306396484 15.474758148193
45.897285461426 -81.101867675781 -106.723457336426 2.832360267639
98.255607604980 -81.872894287109 -103.955421447754 10.297544479370
-91.535278320313 -76.463691711426 -111.087524414063 1.458602905273
36.136165618896 -84.036148071289 -115.538215637207 4.839343070984
103.792121887207 -74.196586608887 -115.127067565918 2.640830039978
41.875156402588 -72.158973693848 -116.088996887207 1.907673716545
99.923919677734 -73.566368103027 -113.423179626465 5.748760223389
-87.066619873047 -72.990768432617 -119.453208923340 3.655449867249
31.703067779541 -73.374526977539 -123.738113403320 1.650532841682
107.985015869141 -79.550735473633 -126.507202148438 4.836863040924
96.839149475098 -76.747177124023 -123.782279968262 11.517407417297
102.967605590820 -81.100708007813 -121.788879394531 8.750523567200
105.902679443359 -83.150062561035 -122.816368103027 9.132485389709
27.709613800049 -77.980186462402 -120.975822448730 4.413173675537
29.566734313965 -81.673187255859 -123.886306762695 3.843744516373
40.204193115234 -75.794624328613 -117.564140319824 3.102149009705
105.783546447754 -77.264564514160 -131.195175170898 5.023101806641
37.319412231445 -73.913352966309 -129.339950561523 2.393220663071
107.400321960449 -79.239059448242 -139.459411621094 5.306870460510
111.198745727539 -74.438232421875 -134.800659179688 1.412084460258
28.131570816040 -74.809822082520 -125.308784484863 2.319709300995
-81.344619750977 -78.994056701660 -128.675582885742 8.571298599243
113.081916809082 -82.486488342285 -143.082717895508 6.457020282745
-65.120353698730 -82.340362548828 -147.548187255859 7.560111999512
28.921863555908 -78.031784057617 -142.157608032227 1.310648918152
-78.504768371582 -74.572105407715 -144.019729614258 2.947215795517
25.233224868774 -73.485321044922 -140.532577514648 0.648667991161
-75.926612854004 -77.545143127441 -146.329956054688 3.825498342514
-46.984207153320 -77.846504211426 -154.599044799805 1.718281149864
-77.433952331543 -80.331031799316 -139.285781860352 7.080836296082
105.515525817871 -69.382469177246 -144.478988647461 5.357438564301
113.845375061035 -78.071037292480 -146.801895141602 1.505558252335
121.288764953613 -76.035720825195 -153.711502075195 5.052139282227
-76.253631591797 -77.518234252930 -149.487472534180 4.479230880737
3.952899932861 -74.356544494629 -155.290618896484 2.923481225967
-63.409805297852 -71.660415649414 -158.664566040039 0.790283918381
-50.417926788330 -78.597473144531 -157.383728027344 3.385333776474
104.681243896484 -73.164962768555 -166.168670654297 3.148342132568
-43.154796600342 -78.491401672363 -156.380432128906 1.591899037361
5.440781116486 -72.200988769531 -167.303451538086 3.758362293243
18.241895675659 -73.137962341309 -165.560012817383 2.410119295120
108.218055725098 -76.817192077637 -170.764907836914 2.297264099121
28.651002883911 -69.330047607422 -164.526138305664 3.017552137375
-7.581430912018 -80.433540344238 -163.556686401367 4.821759223938
26.666055679321 -73.641685485840 -169.357345581055 1.698980569839
-73.733337402344 -66.428207397461 -161.836074829102 7.684595108032
-65.866943359375 -72.046897888184 -162.804626464844 1.682432889938
-70.798156738281 -72.083030700684 -166.047683715820 4.144607067108
107.065338134766 -74.603630065918 -168.325424194336 1.297734022141
-51.098312377930 -70.643508911133 -168.244842529297 7.397960662842
11.718781471252 -80.743148803711 -177.893585205078 7.115339756012
-67.286575317383 -77.632682800293 -179.856582641602 7.476773262024
-64.375534057617 -77.384849548340 -179.232421875000 5.084838867188
-48.729068756104 -77.249290466309 -167.804489135742 4.798988342285
-42.755748748779 -65.599006652832 -170.694824218750 4.900718688965
108.746925354004 -69.496444702148 -181.920898437500 1.336263537407
-39.059204101563 -75.514160156250 -178.310272216797 1.517193436623
11.719324111938 -73.671661376953 -174.610443115234 4.623039245605
100.640319824219 -81.068435668945 -199.056961059570 4.023533344269
-158.391510009766 -76.085853576660 -180.222564697266 8.560832023621
-147.130294799805 -74.581314086914 -177.096191406250 1.460426330566
-156.710281372070 -71.302040100098 -180.428695678711 4.495511531830
-149.120895385742 -67.975128173828 -183.745864868164 4.148495674133
-30.886459350586 -71.473693847656 -184.530746459961 2.093217849731
-30.367427825928 -72.945625305176 -188.790390014648 1.374129176140
18.131555557251 -69.455696105957 -196.401473999023 0.681205511093
-146.186859130859 -72.603019714355 -190.300659179688 2.296865463257
-148.439437866211 -70.413024902344 -185.654266357422 3.066371679306
-27.882633209229 -64.218276977539 -191.238479614258 4.405222892761
9.782062530518 -79.238441467285 -187.652709960938 5.121248722076
-143.844879150391 -73.603866577148 -195.844177246094 2.424543857574
-41.509788513184 -78.738746643066 -185.197952270508 4.540998458862
97.019821166992 -79.223930358887 -196.240234375000 3.337668418884
102.013259887695 -71.909996032715 -201.757385253906 1.892431378365
15.184705734253 -74.074401855469 -193.828659057617 3.007020473480
-26.193527221680 -79.943702697754 -195.281097412109 1.957432985306
-29.827400207520 -77.904449462891 -203.942993164063 2.247509241104
-151.096405029297 -68.019485473633 -200.099639892578 2.789085626602
-139.965789794922 -70.523605346680 -202.223999023438 1.232897162437
-127.586952209473 -71.293663024902 -197.554382324219 3.361990451813
-129.396209716797 -76.151107788086 -200.923400878906 3.170035123825
-21.833105087280 -72.847717285156 -199.202438354492 1.891733407974
7.050911903381 -77.121772766113 -198.281402587891 3.562712907791
88.892829895020 -69.052536010742 -205.768600463867 4.283589363098
-151.007003784180 -73.360504150391 -198.270187377930 3.049549341202
-151.473464965820 -68.424949645996 -206.382217407227 1.401914834976
-150.814697265625 -65.008453369141 -201.221572875977 2.707631349564
-160.803375244141 -66.424324035645 -204.134124755859 0.422504186630
-34.919338226318 -71.791778564453 -205.695968627930 1.963428378105
-18.662134170532 -80.204879760742 -198.249069213867 1.335959315300
-148.361114501953 -63.867267608643 -197.548995971680 2.437257528305
-24.892787933350 -77.389686584473 -199.711227416992 2.077495336533
-168.525039672852 -73.426116943359 -202.546524047852 3.888560056686
-135.659973144531 -72.352066040039 -202.196136474609 0.966700792313
5.197032928467 -69.589103698730 -215.265533447266 3.269184112549
-167.012512207031 -70.264122009277 -205.321105957031 2.330473423004
-148.341400146484 -74.465194702148 -204.974044799805 1.774945855141
6.035378932953 -76.305252075195 -206.389862060547 2.096515893936
-161.514511108398 -75.849342346191 -210.057022094727 4.167646884918
-28.418354034424 -74.932449340820 -206.326797485352 1.799106836319
97.759750366211 -74.701477050781 -206.282333374023 2.393807411194
-158.257446289063 -71.574577331543 -217.101684570313 3.100747823715
-167.856170654297 -72.586074829102 -217.017150878906 2.278156042099
-85.133148193359 -69.752822875977 -218.248672485352 3.152824401855
88.118949890137 -73.836372375488 -215.986480712891 1.657173156738
-9.226057052612 -73.453041076660 -217.057586669922 3.595911979675
-159.291427612305 -71.905029296875 -213.067138671875 2.202052116394
-95.049552917480 -65.402458190918 -219.743759155273 3.700502395630
-10.753742218018 -73.159523010254 -213.650451660156 3.548724174500
10.009592056274 -69.642089843750 -227.066375732422 0.453793406487
-148.659393310547 -73.230690002441 -221.498382568359 2.124144077301
-8.177710533142 -75.385787963867 -224.295440673828 1.409404754639
-19.398586273193 -66.486450195313 -224.102005004883 4.631294250488
-25.702579498291 -68.409950256348 -223.211639404297 4.380266189575
81.438034057617 -75.414680480957 -220.898117065430 1.688850641251
-27.582647323608 -67.431182861328 -218.580947875977 4.844758510590
-33.981243133545 -73.047233581543 -223.323348999023 7.499734878540
-107.833839416504 -71.572219848633 -224.197891235352 1.424614071846
-20.311859130859 -71.861305236816 -230.941009521484 3.230524539948
84.104125976563 -72.625289916992 -224.862976074219 1.409435629845
76.073883056641 -72.218414306641 -224.369888305664 1.377184510231
2.072913885117 -78.075317382813 -230.639038085938 1.242280721664
-18.508071899414 -71.293472290039 -231.335479736328 3.299727916718
73.793930053711 -82.705833435059 -228.368270874023 7.455487251282
-134.636520385742 -71.266502380371 -225.570510864258 0.560315966606
-29.245437622070 -75.385063171387 -226.019348144531 5.956595420837
-108.417991638184 -69.080009460449 -229.240646362305 1.877871632576
-113.142807006836 -74.672470092773 -233.047042846680 3.366102933884
-139.511566162109 -69.131958007813 -231.099014282227 2.647393703461
72.342666625977 -74.727172851563 -229.548065185547 1.132051348686
-132.922378540039 -74.013008117676 -231.763244628906 0.631892263889
-5.138018131256 -71.763320922852 -235.704513549805 1.742632150650
67.098869323730 -73.689292907715 -229.345825195313 3.921768426895
-20.665954589844 -74.069900512695 -235.824783325195 2.404562711716
-13.930132865906 -74.399429321289 -235.014373779297 3.174792528152
-11.227171897888 -70.219993591309 -238.131713867188 1.564537286758
1.757696986198 -73.944999694824 -235.801055908203 1.697166681290
76.802268981934 -73.849128723145 -231.678573608398 1.416027784348
10.663021087646 -73.809532165527 -237.573699951172 2.401396036148
-3.194982051849 -74.034744262695 -237.484451293945 1.643957734108
-10.221734046936 -75.401283264160 -229.619293212891 1.241044759750
-11.300378799438 -69.939277648926 -238.918151855469 2.096066236496
10.041148185730 -70.722106933594 -237.577804565430 0.994319319725
-14.389142036438 -69.070899963379 -240.385681152344 2.253340244293
68.857849121094 -72.337432861328 -241.752349853516 0.983009934425
-14.144887924194 -69.654930114746 -238.264282226563 1.417642712593
17.195028305054 -73.085441589355 -232.908462524414 1.729621767998
-166.301498413086 -65.863395690918 -246.281082153320 3.166840791702
-10.972241401672 -71.951789855957 -248.160751342773 0.701454877853
-16.109495162964 -71.679069519043 -245.782470703125 3.514885425568
-172.766464233398 -68.158805847168 -262.305633544922 5.757550716400
-15.182239532471 -73.435485839844 -248.478790283203 2.457386255264
13.614406585693 -75.866897583008 -248.052795410156 1.084516763687
-153.521209716797 -73.932388305664 -254.697296142578 1.049678564072
-72.513420104980 -71.379714965820 -252.694839477539 1.095422029495
-63.141590118408 -69.029754638672 -253.427154541016 5.048412799835
48.640445709229 -70.784652709961 -253.494262695313 0.802492618561
-82.734924316406 -71.853546142578 -249.791854858398 1.420669078827
8.201934814453 -72.276138305664 -249.725784301758 5.870829582214
-83.524345397949 -72.566421508789 -254.609207153320 1.811264634132
-25.347955703735 -72.476722717285 -251.620162963867 9.015469551086
-156.098953247070 -71.857681274414 -258.526458740234 1.849123358727
42.296817779541 -69.781227111816 -254.376663208008 1.500223755836
-89.882369995117 -66.963294982910 -251.648086547852 1.870202541351
-100.598129272461 -71.750877380371 -259.822326660156 1.531364798546
