-22.553102493286 -72.322700500488 -249.806549072266 7.090717315674
-153.267211914063 -74.162651062012 -257.177215576172 2.201644420624
45.041591644287 -68.435295104980 -252.360351562500 1.527767419815
-87.176147460938 -67.981735229492 -250.129745483398 2.003788232803
-97.772987365723 -73.065269470215 -258.280273437500 0.939411997795
-98.387519836426 -79.733390808105 -254.525299072266 6.251771926880
-127.733283996582 -73.025062561035 -262.069366455078 2.734948396683
-112.549568176270 -69.073654174805 -259.275695800781 2.519093036652
-110.772880554199 -69.164611816406 -262.297393798828 1.271341800690
13.411129951477 -70.532096862793 -261.569976806641 10.164928436279
-132.529067993164 -68.097511291504 -268.597351074219 4.623433589935
-11.223031997681 -74.804893493652 -280.300201416016 3.419838666916
-149.976608276367 -76.190132141113 -284.400512695313 2.833804130554
-172.598419189453 -70.939201354980 -283.951934814453 4.677503108978
-131.950271606445 -72.681266784668 -290.252227783203 4.447804927826
-119.736824035645 -74.568191528320 -281.041870117188 6.362915039063
-83.746582031250 -66.686042785645 -290.298278808594 2.757988691330
-59.561569213867 -65.115715026855 -293.003997802734 7.029342174530
-48.367031097412 -69.912788391113 -289.075012207031 3.225013971329
-16.271005630493 -69.364395141602 -293.031677246094 3.021306991577
-13.693628311157 -69.169960021973 -290.518157958984 2.588626623154
-37.973499298096 -72.254486083984 -292.714660644531 2.449747085571
-38.139755249023 -70.036537170410 -290.061676025391 2.385730266571
-24.105701446533 -66.907714843750 -296.230194091797 8.216957092285
-77.345458984375 -74.257698059082 -295.257263183594 4.178378582001
-57.726997375488 -67.282424926758 -298.074188232422 8.664988517761
-16.264806747437 -65.288398742676 -294.134216308594 6.889693260193
-18.574453353882 -70.821022033691 -294.224639892578 3.955357789993
-8.467649459839 -69.769676208496 -295.175933837891 4.653954982758
0.255120009184 -65.142906188965 -299.492675781250 6.865085601807
-90.561157226563 -70.045951843262 -286.365692138672 2.556267976761
-150.990295410156 -69.385002136230 -288.891967773438 1.240248799324
-121.038902282715 -72.539794921875 -298.832305908203 6.294589519501
-157.238143920898 -76.084884643555 -305.139495849609 3.454401969910
-158.998657226563 -73.148773193359 -300.584838867188 3.295697212219
-146.859710693359 -71.285865783691 -305.962646484375 3.371218681335
44.831512451172 -76.879707336426 -30.151767730713 5.106480121613
16.559925079346 -74.053329467773 -27.844058990479 4.491833686829
49.402221679688 -76.278022766113 -29.378593444824 5.183594226837
48.240276336670 -78.321113586426 -36.536163330078 6.960582733154
84.858207702637 -67.300209045410 -71.110687255859 5.178761005402
96.509101867676 -70.020446777344 -80.080268859863 3.260969161987
94.626159667969 -71.464958190918 -84.558448791504 3.325774192810
93.503776550293 -69.967414855957 -93.484672546387 5.313465118408
46.914974212646 -73.042884826660 -91.037132263184 3.525865793228
49.062480926514 -72.793380737305 -95.402259826660 1.433219909668
58.529113769531 -70.089050292969 -96.566764831543 0.620804548264
-66.780540466309 -69.470664978027 -95.205131530762 2.529740095139
71.198043823242 -73.775489807129 -94.566299438477 2.390851974487
101.200172424316 -71.057434082031 -95.361679077148 2.195148706436
71.870796203613 -76.451232910156 -103.580665588379 6.066529273987
91.732162475586 -68.024948120117 -99.441757202148 5.260734558105
-83.020790100098 -75.493331909180 -103.955574035645 2.616503953934
44.530410766602 -73.033432006836 -108.301864624023 3.762412071228
-90.571632385254 -77.723457336426 -112.331069946289 0.939592301846
48.515964508057 -73.889091491699 -117.357666015625 2.444754123688
40.829837799072 -67.571777343750 -110.066429138184 1.287108898163
100.125122070313 -75.329582214355 -110.569427490234 5.392498970032
38.865360260010 -69.111351013184 -112.118881225586 1.973025798798
39.784416198730 -76.079872131348 -118.677757263184 2.914389848709
38.735130310059 -69.027557373047 -120.399444580078 1.799933433533
100.965003967285 -65.843963623047 -122.241043090820 7.601691722870
-82.761833190918 -72.425880432129 -121.802680969238 1.829444408417
112.097930908203 -74.678054809570 -125.174545288086 2.016696691513
37.539802551270 -65.944564819336 -120.009239196777 2.971077680588
42.442417144775 -74.090827941895 -119.448844909668 3.428837299347
30.455648422241 -73.978355407715 -123.174263000488 2.969718217850
-56.879196166992 -72.020683288574 -134.273773193359 1.173899412155
27.309316635132 -70.821075439453 -125.163734436035 3.973225116730
-80.249633789063 -74.948745727539 -139.083663940430 4.022242069244
-63.049121856689 -72.111320495605 -137.016067504883 3.309542655945
-77.694412231445 -70.912597656250 -132.831558227539 2.203999519348
32.291576385498 -71.872482299805 -129.801284790039 1.334892272949
-57.563598632813 -70.990348815918 -134.367263793945 1.956038713455
38.036632537842 -72.455368041992 -135.473663330078 1.257189393044
-79.002265930176 -73.879463195801 -140.819183349609 2.643352031708
-59.020584106445 -75.994750976563 -143.693527221680 3.478661060333
26.913009643555 -71.144569396973 -141.725906372070 1.455423235893
110.152915954590 -75.796829223633 -150.804809570313 0.398905724287
117.566139221191 -72.203918457031 -142.505722045898 0.834916234016
31.981399536133 -71.290092468262 -143.971588134766 2.337686538696
-50.285896301270 -70.092483520508 -147.380050659180 1.898960113525
106.944183349609 -70.882164001465 -163.478912353516 2.220997333527
-75.299156188965 -72.445716857910 -151.863159179688 2.682168006897
-50.221488952637 -74.989547729492 -140.473464965820 1.600237250328
33.311958312988 -77.111412048340 -155.685012817383 1.194969058037
-70.584869384766 -74.747512817383 -145.283676147461 1.042528986931
-71.889480590820 -75.433731079102 -147.216903686523 0.906314909458
115.081344604492 -66.315734863281 -150.861770629883 3.657226800919
-65.076141357422 -70.464904785156 -149.752090454102 1.984138250351
-42.990383148193 -70.676437377930 -152.636413574219 0.194117605686
29.574645996094 -66.171951293945 -156.827743530273 2.814114809036
-77.791831970215 -72.151794433594 -150.600555419922 3.320998191833
5.406472206116 -74.541198730469 -164.136917114258 0.836548626423
32.349163055420 -67.816658020020 -159.771759033203 3.305126428604
22.906396865845 -73.243713378906 -154.880523681641 0.812314927578
3.365921020508 -76.628738403320 -158.339660644531 1.625298976898
-49.838569641113 -69.759254455566 -155.875061035156 2.131238222122
22.187536239624 -72.036308288574 -154.525741577148 1.674746155739
-50.071670532227 -75.259979248047 -152.318542480469 2.189313888550
4.213416099548 -74.730903625488 -152.575729370117 4.309360980988
18.469371795654 -73.545738220215 -151.036209106445 3.331287860870
-74.727569580078 -77.533958435059 -154.952972412109 4.410349369049
-46.888717651367 -73.192031860352 -157.805618286133 1.173633575439
-73.852783203125 -69.307624816895 -164.682174682617 7.212015151978
8.020947456360 -63.712329864502 -169.042144775391 10.672253608704
16.029047012329 -73.219726562500 -148.110717773438 3.089875936508
-1.172001004219 -69.408859252930 -165.980636596680 3.479362964630
20.229539871216 -67.070816040039 -157.755035400391 3.475524425507
26.135869979858 -72.403961181641 -164.846542358398 2.923364877701
-48.233253479004 -74.989532470703 -165.257324218750 2.701732158661
-34.526836395264 -71.774101257324 -162.876754760742 2.165033817291
-38.598274230957 -70.720764160156 -163.714813232422 2.809328079224
28.853139877319 -73.504287719727 -167.249298095703 2.626042604446
-48.516101837158 -72.230720520020 -167.666946411133 4.391866683960
-45.914531707764 -73.295860290527 -164.989181518555 1.923714756966
18.334320068359 -75.095512390137 -164.759445190430 2.137705802917
-45.031429290771 -71.652359008789 -175.005264282227 5.031604766846
31.094644546509 -67.960044860840 -177.430770874023 5.238152980804
115.987304687500 -67.984367370605 -166.569259643555 3.231729745865
-34.561122894287 -71.182708740234 -176.267059326172 0.500471770763
103.045410156250 -67.357666015625 -173.162994384766 5.243115901947
-35.563640594482 -67.632209777832 -180.480957031250 3.353226423264
-41.371433258057 -72.909454345703 -181.899078369141 5.209857940674
15.307196617126 -73.741264343262 -177.795944213867 0.926270008087
100.102409362793 -67.227577209473 -181.488067626953 6.360957622528
-31.216073989868 -71.087593078613 -184.911499023438 1.739261507988
-32.650699615479 -64.496574401855 -176.466827392578 4.900082111359
-24.255691528320 -75.154159545898 -189.404006958008 3.846734762192
-147.752059936523 -78.648818969727 -189.171463012695 2.855372905731
10.096584320068 -74.898422241211 -185.004913330078 3.635073423386
104.189292907715 -68.688240051270 -198.445938110352 3.507611274719
-161.920349121094 -72.527915954590 -195.377502441406 2.528645753860
-28.035083770752 -72.233703613281 -192.597167968750 0.844109237194
-117.426574707031 -69.192863464355 -195.980590820313 1.054757952690
-132.577026367188 -73.054161071777 -199.088714599609 1.020968079567
-109.407379150391 -69.463119506836 -204.566574096680 4.041361808777
-112.468955993652 -66.810844421387 -201.069824218750 2.138889312744
-19.023721694946 -66.997077941895 -202.674072265625 1.154152870178
16.049077987671 -73.432464599609 -201.093444824219 3.327531814575
-25.610074996948 -62.144409179688 -202.838302612305 7.420509338379
-128.518844604492 -69.106925964355 -203.773605346680 1.302025675774
-29.902891159058 -69.224708557129 -209.973922729492 4.229148864746
-131.537948608398 -76.961952209473 -204.759933471680 4.626296997070
-13.345653533936 -66.113143920898 -203.292129516602 2.035920858383
-146.807952880859 -72.359397888184 -204.335403442383 2.456239223480
87.502334594727 -69.622634887695 -213.773468017578 0.977082192898
-167.674392700195 -72.518966674805 -205.445632934570 3.567804336548
-1.896653056145 -72.476531982422 -216.228729248047 1.669282436371
11.464992523193 -62.853527069092 -215.563903808594 5.471192836761
5.784501075745 -65.249458312988 -219.044647216797 6.491174221039
80.566299438477 -69.627456665039 -222.101776123047 1.200023293495
-0.132027000189 -65.543098449707 -220.205886840820 3.813924074173
12.949987411499 -71.440689086914 -216.262786865234 2.250596046448
-16.461200714111 -76.984184265137 -213.542755126953 0.392035365105
-90.738319396973 -72.153808593750 -215.585021972656 1.367865204811
-105.381217956543 -73.936927795410 -219.778823852539 2.700142383575
-5.503674983978 -69.879676818848 -223.753387451172 1.054982900620
-172.513427734375 -72.505020141602 -234.061981201172 5.962725162506
8.743405342102 -67.538467407227 -221.258804321289 2.931702136993
-144.994186401367 -73.989898681641 -224.373260498047 2.276819705963
9.447993278503 -66.753906250000 -228.876663208008 3.059772729874
-137.277084350586 -72.998016357422 -222.100921630859 4.872354030609
-118.139610290527 -70.480255126953 -230.991378784180 1.406651377678
17.944171905518 -63.347824096680 -228.313217163086 7.732639312744
71.012802124023 -68.947685241699 -234.252075195313 1.705325961113
-0.193477004766 -67.457366943359 -229.044189453125 2.252353191376
-118.743949890137 -74.581588745117 -220.383972167969 5.499638557434
70.455696105957 -68.795776367188 -229.676528930664 1.754410266876
75.715766906738 -72.182579040527 -235.315200805664 1.517772793770
-124.671936035156 -72.451484680176 -231.527084350586 1.083414673805
-124.335472106934 -74.570510864258 -234.451629638672 1.973229169846
-13.897905349731 -69.970054626465 -234.127197265625 2.389927864075
65.992004394531 -73.424888610840 -231.472625732422 4.019006252289
64.990303039551 -67.296104431152 -239.497985839844 1.423951864243
68.923805236816 -68.364173889160 -237.529754638672 1.424479842186
-136.605010986328 -75.188362121582 -240.511352539063 8.279751777649
65.427833557129 -76.453384399414 -236.964996337891 2.162903547287
61.256759643555 -74.429611206055 -238.554168701172 3.265506982803
-170.606124877930 -75.802322387695 -228.158859252930 5.953906536102
-3.925313949585 -72.729476928711 -245.327575683594 1.289059281349
11.750928878784 -68.928199768066 -249.367340087891 5.315378189087
-5.599572181702 -73.666229248047 -246.437744140625 1.181228995323
11.926063537598 -75.096733093262 -247.793060302734 2.592997789383
67.304496765137 -71.808013916016 -244.285797119141 3.023684978485
6.989271163940 -75.882789611816 -242.352203369141 1.115376472473
-9.849901199341 -67.536193847656 -247.651504516602 2.528277158737
-9.032167434692 -72.661392211914 -250.261367797852 1.876484394073
63.663803100586 -68.825531005859 -249.233505249023 4.120025157928
3.465235948563 -73.730369567871 -249.779708862305 5.513464450836
-13.348917961121 -70.699638366699 -241.570861816406 2.208034038544
12.365766525269 -73.351936340332 -250.477569580078 4.788745880127
-167.965988159180 -65.596061706543 -242.169555664063 3.731764554977
58.793712615967 -67.789451599121 -253.786437988281 5.545679569244
49.783359527588 -69.275558471680 -256.053863525391 3.170882225037
54.176368713379 -74.807395935059 -244.674331665039 3.016664505005
-17.966932296753 -69.369331359863 -256.449707031250 3.227468729019
50.234649658203 -74.278953552246 -248.287277221680 1.827370405197
-77.269042968750 -74.169494628906 -251.039306640625 1.836449503899
48.676563262939 -72.224761962891 -255.057998657227 2.557278871536
-91.320083618164 -74.144989013672 -257.985626220703 1.722533702850
-131.866317749023 -74.786567687988 -255.285369873047 1.858802199364
-138.553451538086 -65.422195434570 -252.843780517578 5.119817256927
50.176219940186 -67.685386657715 -261.701324462891 7.807777881622
-141.639892578125 -67.793807983398 -258.774261474609 1.435477256775
-107.659339904785 -80.813026428223 -253.055999755859 8.672459602356
-114.203102111816 -70.595779418945 -260.089263916016 2.320902109146
-88.161994934082 -72.202957153320 -252.054885864258 2.392282247543
-115.947708129883 -73.504753112793 -265.795745849609 3.434993267059
-128.505111694336 -66.977844238281 -268.634918212891 4.682358741760
-147.449371337891 -71.640556335449 -267.235046386719 2.990773677826
-14.609725952148 -72.812034606934 -262.581237792969 1.444480180740
-177.173873901367 -70.310707092285 -269.333374023438 9.343494415283
-11.196355819702 -74.808250427246 -273.822509765625 1.587049603462
-160.985061645508 -64.917633056641 -266.277252197266 4.439795017242
-158.482360839844 -66.895172119141 -272.627655029297 3.851881980896
-172.721969604492 -63.801834106445 -273.716979980469 8.220835685730
-15.680587768555 -66.896377563477 -279.370391845703 6.193051338196
-136.846694946289 -71.235771179199 -284.671478271484 0.970626175404
-160.015579223633 -66.676063537598 -290.250427246094 3.213431358337
-145.865432739258 -70.328056335449 -283.412017822266 1.175141572952
-140.221664428711 -73.605545043945 -285.985931396484 1.465525746346
-12.724328041077 -71.200531005859 -282.875732421875 3.591166734695
-126.998207092285 -76.288803100586 -283.967346191406 2.240513801575
-145.315780639648 -71.844032287598 -287.395507812500 3.484838247299
-116.841056823730 -68.457229614258 -286.810394287109 0.655490159988
-82.218902587891 -67.260635375977 -293.225158691406 3.661373376846
-64.974227905273 -71.423736572266 -284.137847900391 2.218518733978
-8.663051605225 -71.149551391602 -291.129882812500 1.719461321831
-52.365207672119 -72.445983886719 -292.757476806641 2.444269418716
-66.640319824219 -73.360832214355 -289.131622314453 2.499338150024
-73.175064086914 -68.106658935547 -293.518218994141 4.970352649689
-90.663650512695 -71.793045043945 -299.465759277344 7.807678699493
-110.247291564941 -63.792892456055 -289.556488037109 4.258474826813
-162.182357788086 -70.977958679199 -291.720275878906 1.162145137787
-157.370208740234 -69.159622192383 -289.017547607422 1.707305908203
-130.662445068359 -73.475013732910 -299.253692626953 5.859576702118
-148.508132934570 -70.441284179688 -293.766998291016 2.554512023926
-161.574157714844 -68.193603515625 -299.640411376953 6.655972480774
-150.685012817383 -71.100036621094 -319.690521240234 6.756879329681
45.288459777832 -71.616401672363 -24.592552185059 0.897539079189
18.870981216431 -83.266471862793 -28.510501861572 11.243158340454
45.705619812012 -74.484809875488 -41.530670166016 4.974299907684
-21.001979827881 -74.881828308105 -68.133567810059 0.753968238831
78.978363037109 -71.106292724609 -70.447540283203 2.450954437256
84.034530639648 -64.750785827637 -76.779968261719 9.889482498169
74.793060302734 -70.208984375000 -78.378173828125 4.792846679688
77.417564392090 -71.795875549316 -71.435653686523 2.348937749863
97.080467224121 -72.882095336914 -77.973342895508 1.215490460396
-98.247184753418 -76.941474914551 -76.204658508301 7.576816558838
67.133949279785 -74.747100830078 -82.550628662109 3.873045206070
-36.523483276367 -69.688713073730 -79.131767272949 2.581240653992
97.338050842285 -72.923217773438 -90.986602783203 1.355548143387
64.959800720215 -79.838958740234 -92.262901306152 8.477462768555
110.050308227539 -70.380073547363 -93.488075256348 3.738815546036
105.117774963379 -75.736152648926 -102.279891967773 1.777841567993
70.724464416504 -75.109573364258 -99.916992187500 4.213911056519
-80.169563293457 -74.069625854492 -101.150291442871 1.689116716385
54.911155700684 -73.743530273438 -114.235069274902 5.537229061127
107.255157470703 -73.396774291992 -110.039962768555 1.865092992783
47.509597778320 -78.862670898438 -119.159645080566 2.977301597595
85.126091003418 -72.919692993164 -105.078544616699 3.123044967651
42.483810424805 -78.742965698242 -115.019950866699 0.323662400246
104.830581665039 -69.099998474121 -102.833663940430 0.840646088123
47.225929260254 -70.753540039063 -110.947906494141 2.465978145599
111.153312683105 -75.404251098633 -117.279312133789 0.905542433262
105.817314147949 -71.028015136719 -120.740089416504 1.873655438423
-80.515647888184 -62.729446411133 -115.846237182617 1.393135190010
-76.304023742676 -71.991325378418 -116.360549926758 2.541934013367
40.761341094971 -71.645805358887 -120.805648803711 1.721518993378
115.292655944824 -65.685325622559 -121.127479553223 3.653637886047
114.997581481934 -67.927253723145 -125.447967529297 2.420969486237
-81.054817199707 -72.319641113281 -127.976638793945 3.313641548157
107.247558593750 -70.081321716309 -125.318763732910 1.716225624084
-69.211624145508 -72.438858032227 -138.350067138672 2.130294084549
-91.008041381836 -68.847152709961 -129.393447875977 2.549623727798
-75.820625305176 -70.359626770020 -131.362426757813 1.627653598785
-58.775184631348 -65.587524414063 -126.511199951172 2.429338455200
35.477794647217 -70.627151489258 -133.957855224609 1.506075501442
41.996509552002 -69.784599304199 -137.942230224609 4.442471981049
-76.290763854980 -73.747520446777 -136.661849975586 1.872970342636
26.813739776611 -68.461738586426 -132.618515014648 3.417023897171
102.592407226563 -74.069534301758 -138.284866333008 6.831093788147
-39.385848999023 -72.551948547363 -152.148010253906 1.876974940300
23.802215576172 -70.590583801270 -148.212905883789 1.465219736099
107.686569213867 -62.987724304199 -150.544296264648 8.249333381653
33.961917877197 -73.935188293457 -147.700851440430 0.978781878948
109.477844238281 -73.048286437988 -148.113449096680 2.026376247406
-57.490142822266 -72.172187805176 -149.516983032227 2.718973636627
-68.325401306152 -75.486480712891 -151.904083251953 1.978726029396
-55.902606964111 -75.521072387695 -156.883178710938 5.117983341217
-48.244018554688 -69.943313598633 -172.218063354492 6.836720466614
-1.625404000282 -68.903511047363 -155.699691772461 6.589040756226
107.855857849121 -64.278678894043 -158.521911621094 6.132772445679
105.336761474609 -68.147872924805 -166.147399902344 4.460945129395
7.541158199310 -64.519454956055 -163.398559570313 6.573446750641
-2.017606019974 -69.588523864746 -162.461074829102 3.858460903168
12.802471160889 -66.602317810059 -163.317825317383 5.561169624329
17.725915908813 -69.749176025391 -150.390213012695 0.531771481037
114.692626953125 -75.464042663574 -169.575271606445 1.735218405724
104.439743041992 -72.533348083496 -178.227798461914 0.384696274996
25.260652542114 -69.637962341309 -177.103363037109 3.226564645767
25.420715332031 -69.273193359375 -168.212936401367 1.952838897705
113.975234985352 -70.265251159668 -166.493759155273 0.377701163292
-34.298358917236 -68.811576843262 -176.108276367188 2.181176185608
111.233963012695 -67.884399414063 -175.671676635742 2.788201808929
19.146879196167 -64.331451416016 -183.230209350586 4.020969867706
12.668956756592 -74.338600158691 -168.262420654297 5.322660923004
106.192955017090 -68.489128112793 -183.144226074219 2.253691911697
20.865457534790 -71.094863891602 -173.014526367188 2.890198945999
107.811340332031 -65.585189819336 -184.998626708984 5.056112289429
-43.211383819580 -68.285827636719 -179.861892700195 7.737899303436
25.252862930298 -66.526023864746 -174.605316162109 2.244689702988
106.176483154297 -68.930351257324 -190.563812255859 1.516974568367
22.126056671143 -67.491241455078 -179.141891479492 1.443480014801
-155.813613891602 -66.721794128418 -180.427871704102 2.608072042465
-35.728275299072 -71.392227172852 -190.771331787109 5.044427394867
22.788253784180 -72.711235046387 -189.339782714844 2.170332670212
-115.596542358398 -70.918525695801 -197.421401977539 1.204999327660
-116.237411499023 -73.234024047852 -191.479461669922 5.253840923309
18.863159179688 -65.671798706055 -196.594528198242 1.553072810173
9.698023796082 -71.608306884766 -190.069931030273 2.284720659256
-28.750679016113 -74.119354248047 -195.197326660156 1.413911104202
-30.111278533936 -71.136207580566 -188.895874023438 0.993570923805
-27.276962280273 -72.993537902832 -188.393829345703 2.294163227081
19.622180938721 -74.647636413574 -181.605560302734 2.022626399994
-156.216857910156 -70.576423645020 -194.297409057617 0.637315630913
-149.534652709961 -73.825401306152 -203.094863891602 3.091073036194
-144.113754272461 -70.748031616211 -193.467254638672 0.591264128685
-19.944057464600 -65.852394104004 -194.523071289063 2.386397838593
13.895335197449 -69.746467590332 -201.897018432617 1.017339587212
96.281814575195 -71.323493957520 -200.729965209961 1.687793731689
-118.946220397949 -70.193283081055 -206.156921386719 4.446458339691
13.327860832214 -67.093559265137 -205.964172363281 2.772695779800
-18.468881607056 -68.571434020996 -197.755966186523 0.657909572124
-21.252511978149 -69.046058654785 -197.470947265625 1.496058702469
93.152610778809 -68.843994140625 -206.119842529297 2.081285476685
5.303957939148 -73.101318359375 -201.324066162109 3.544494628906
-30.568981170654 -69.633094787598 -196.779159545898 4.338866233826
-124.018585205078 -72.749008178711 -204.589172363281 1.332174777985
-137.191635131836 -68.959800720215 -200.042709350586 3.501551866531
-111.299781799316 -67.635833740234 -210.386337280273 7.223588466644
-149.591659545898 -71.266685485840 -205.644546508789 0.999581992626
19.088041305542 -72.034500122070 -200.550582885742 2.104658126831
93.167655944824 -72.874794006348 -212.541519165039 1.637609601021
-169.429901123047 -69.963615417480 -207.666580200195 3.187013387680
99.193428039551 -69.893821716309 -207.372909545898 1.636232972145
-17.980522155762 -69.630218505859 -214.260070800781 1.188205957413
87.813652038574 -77.273643493652 -218.764511108398 2.152653694153
88.981941223145 -65.928207397461 -223.143157958984 4.529818534851
7.431664943695 -68.184730529785 -214.856201171875 2.148138761520
11.532642364502 -70.432487487793 -213.597991943359 1.131228566170
6.616119861603 -70.340446472168 -216.666473388672 3.338494062424
-11.590463638306 -68.257301330566 -221.173171997070 1.262027859688
-102.220504760742 -69.431396484375 -221.116928100586 2.005910634995
-9.699469566345 -72.385673522949 -224.279754638672 1.369638442993
89.102630615234 -67.897529602051 -217.886947631836 2.446838855743
-94.894821166992 -73.778724670410 -224.072265625000 2.871606111526
-104.511085510254 -73.717399597168 -223.233520507813 1.951589941978
-98.828247070313 -67.983352661133 -221.335693359375 1.171850681305
86.861480712891 -74.170181274414 -226.024887084961 2.445396900177
-137.365112304688 -74.534164428711 -229.014968872070 2.344285964966
-135.524078369141 -60.906955718994 -234.519805908203 4.746022701263
-123.581352233887 -69.702796936035 -229.937179565430 2.878126859665
-115.854263305664 -67.826583862305 -227.144012451172 1.578069925308
-134.679641723633 -67.033638000488 -221.211212158203 3.606348514557
-109.075607299805 -79.083488464355 -229.476455688477 7.112685680389
-117.389877319336 -65.791923522949 -230.351333618164 2.201649427414
-16.094425201416 -66.399978637695 -226.560531616211 3.825418949127
-24.158670425415 -73.148681640625 -229.960021972656 5.546945571899
-3.933267116547 -70.259071350098 -236.392868041992 0.889487028122
-11.228038787842 -67.339042663574 -232.694656372070 2.192569494247
13.005794525146 -72.086441040039 -234.910568237305 1.505136609077
-21.911006927490 -71.558525085449 -229.734085083008 3.699529409409
-162.625564575195 -71.924804687500 -224.731903076172 1.102584004402
-5.252336978912 -68.540275573730 -232.762924194336 1.648740172386
79.912628173828 -70.359748840332 -232.590621948242 1.430771231651
4.392902851105 -67.591217041016 -240.456787109375 1.705670475960
-13.860566139221 -68.666137695313 -229.739028930664 1.970571160316
-157.668838500977 -65.170623779297 -233.019485473633 3.372838973999
-140.642562866211 -73.006248474121 -235.329177856445 3.097961902618
67.667465209961 -64.043022155762 -240.419967651367 3.794130802155
-11.025493621826 -68.451416015625 -235.977294921875 2.141178846359
-2.462146997452 -67.857368469238 -238.658401489258 0.423672080040
71.111175537109 -68.596916198730 -243.817001342773 4.487313270569
74.489814758301 -70.149162292480 -240.845153808594 4.432364463806
62.801589965820 -73.526947021484 -239.108078002930 1.829463481903
-6.413363933563 -65.823814392090 -238.338088989258 1.624508023262
50.947200775146 -69.346130371094 -241.556961059570 2.580367326736
-18.173837661743 -68.627319335938 -241.278915405273 2.463903903961
-18.353464126587 -67.077339172363 -242.528366088867 4.080296993256
6.180566787720 -70.045150756836 -241.752822875977 1.521701455116
63.213146209717 -68.451644897461 -250.854476928711 5.155140399933
55.887111663818 -69.827842712402 -242.791671752930 2.005168437958
50.736545562744 -64.209167480469 -250.627807617188 1.743739962578
58.987312316895 -72.462493896484 -248.532287597656 1.887236952782
-20.467744827271 -65.417877197266 -248.311035156250 6.851835250854
-87.444000244141 -66.349006652832 -248.841781616211 4.090495586395
-80.883880615234 -64.144470214844 -255.830413818359 6.110744953156
37.940025329590 -68.366119384766 -254.521148681641 2.420609474182
-145.987808227539 -65.382072448730 -249.691955566406 2.942345142365
37.984626770020 -69.369697570801 -262.956420898438 4.047474861145
-86.986419677734 -70.364974975586 -254.181457519531 2.012686014175
-156.810501098633 -71.173843383789 -257.803314208984 1.805670499802
-147.674209594727 -68.607200622559 -257.347991943359 0.830326199532
45.127407073975 -70.676818847656 -255.164520263672 2.567432403564
-131.207138061523 -68.189941406250 -252.575805664063 1.893085360527
-121.417221069336 -69.635948181152 -258.113677978516 3.161076307297
-99.521575927734 -69.197509765625 -254.900329589844 1.340847492218
-21.199819564819 -76.360275268555 -257.382781982422 7.935194015503
28.931118011475 -69.495018005371 -263.520812988281 1.765100955963
17.301334381104 -73.607414245605 -265.071990966797 4.980646610260
-158.651794433594 -69.164321899414 -256.116363525391 1.764863014221
-116.284934997559 -69.232803344727 -265.970886230469 3.010437726974
-15.005155563354 -70.775749206543 -261.129882812500 1.291960477829
-138.190582275391 -68.213592529297 -267.370391845703 4.507991313934
-15.462599754333 -66.615699768066 -275.920928955078 4.800445079803
-165.030502319336 -69.352348327637 -281.380798339844 2.631584167480
-13.325573921204 -63.573764801025 -277.845916748047 6.060975074768
-167.250213623047 -66.708206176758 -292.305084228516 5.742953777313
-160.452163696289 -69.190040588379 -278.468414306641 2.112687349319
-155.798141479492 -67.210182189941 -286.788909912109 1.535764932632
-173.487518310547 -68.409469604492 -284.376892089844 6.145937442780
17.105569839478 -62.464866638184 -291.396606445313 4.747121334076
-109.043716430664 -74.366432189941 -288.314788818359 1.487885594368
-92.602081298828 -66.764434814453 -287.308746337891 3.175197362900
-174.728622436523 -68.641128540039 -285.008728027344 7.217788219452
-92.528900146484 -71.122673034668 -292.269866943359 1.698562026024
-161.704772949219 -75.133590698242 -290.878326416016 1.294351935387
-79.902420043945 -71.232635498047 -294.981384277344 4.072470664978
-70.685661315918 -69.048377990723 -292.703704833984 2.897033214569
-85.622909545898 -67.036064147949 -292.498016357422 3.486824989319
-6.386246204376 -62.976238250732 -290.242126464844 3.963487386703
-88.398605346680 -70.249099731445 -294.611541748047 3.389513015747
-100.748741149902 -69.675132751465 -293.197845458984 2.233246803284
-122.436569213867 -67.724365234375 -295.162780761719 3.624341011047
-120.140350341797 -66.513221740723 -297.579833984375 6.069134235382
-143.912506103516 -63.471286773682 -293.866546630859 1.569465398788
-145.416442871094 -77.280746459961 -301.358337402344 1.006914615631
-149.422454833984 -74.959411621094 -312.273529052734 1.322809696198
25.298536300659 -72.570693969727 -21.241811752319 1.712901949883
28.558204650879 -68.509124755859 -28.330474853516 2.820975780487
29.481472015381 -76.400016784668 -20.234617233276 4.661787509918
46.256507873535 -74.036880493164 -31.189258575439 2.564431667328
19.464385986328 -74.855323791504 -35.021080017090 4.620574474335
-82.254470825195 -71.071838378906 -53.535121917725 3.176420450211
82.703247070313 -70.780364990234 -69.058677673340 1.557071328163
-13.454589843750 -70.654907226563 -70.318946838379 2.118269681931
100.349632263184 -73.780815124512 -76.064010620117 2.973540067673
93.469985961914 -66.051033020020 -83.694892883301 8.134860992432
72.679138183594 -77.312202453613 -86.950546264648 2.014228820801
66.546615600586 -68.384147644043 -91.291961669922 1.644321084023
-51.819679260254 -70.276245117188 -84.472061157227 2.534264326096
57.179111480713 -71.171379089355 -84.507431030273 1.976148009300
-101.973197937012 -72.245689392090 -91.078346252441 6.655697822571
-49.925167083740 -72.235786437988 -91.528114318848 3.887421846390
-58.506698608398 -75.472564697266 -86.079536437988 6.567965507507
93.176803588867 -71.172660827637 -101.109886169434 1.882517695427
54.295871734619 -71.621086120605 -106.507446289063 1.836170196533
59.304767608643 -67.247520446777 -95.179382324219 1.043159008026
-96.213256835938 -70.539108276367 -96.773292541504 1.490296602249
107.557365417480 -66.301033020020 -97.840545654297 1.361438632011
46.017086029053 -70.441474914551 -96.815078735352 0.893517196178
99.862533569336 -67.821525573730 -101.205322265625 1.353175044060
104.372360229492 -69.496696472168 -111.452934265137 2.194465160370
98.087318420410 -68.526092529297 -107.671089172363 3.825008392334
73.383575439453 -69.274612426758 -108.783859252930 4.430871963501
83.317077636719 -69.292854309082 -111.964988708496 6.648529529572
44.037902832031 -73.652030944824 -113.726249694824 2.394016027451
105.305068969727 -67.140716552734 -112.371925354004 1.598723053932
45.206455230713 -71.179374694824 -113.444808959961 0.887518525124
45.192493438721 -67.596885681152 -105.065345764160 1.899664282799
103.909698486328 -73.043380737305 -121.875747680664 3.523909807205
-81.364799499512 -67.194503784180 -109.296020507813 1.368864297867
45.783927917480 -67.723655700684 -118.332283020020 3.945850849152
33.207904815674 -71.359748840332 -114.716773986816 2.475025653839
105.382797241211 -71.574371337891 -112.061515808105 1.352818608284
41.308147430420 -69.545211791992 -117.212028503418 1.703217744827
-91.874191284180 -69.663047790527 -121.746627807617 2.107011795044
-100.022590637207 -69.932090759277 -118.614967346191 4.668318748474
107.226280212402 -66.544754028320 -127.420333862305 3.599777698517
-93.646934509277 -75.663330078125 -117.894691467285 2.370410442352
37.720146179199 -69.146331787109 -127.240264892578 3.032355785370
34.799892425537 -69.875183105469 -120.474723815918 2.101715087891
-79.995704650879 -72.648483276367 -125.039787292480 3.053903341293
25.867973327637 -66.367576599121 -130.995849609375 3.883998155594
107.154808044434 -69.166130065918 -138.738021850586 3.450496673584
-49.286968231201 -71.269149780273 -141.913742065430 2.448464393616
-91.491401672363 -72.502380371094 -133.742202758789 3.766987323761
32.351333618164 -70.513671875000 -142.381454467773 0.694125711918
-88.149963378906 -71.358489990234 -137.732788085938 2.875197410583
-93.048042297363 -74.059906005859 -136.333923339844 5.700905799866
-49.556301116943 -73.410202026367 -137.897796630859 0.925148069859
-75.397422790527 -72.054382324219 -140.641769409180 1.628483295441
-51.958374023438 -70.463310241699 -141.782531738281 3.221702575684
112.092605590820 -66.626930236816 -142.462112426758 2.531020402908
-77.480026245117 -64.976791381836 -143.134979248047 2.982574462891
34.001216888428 -71.805969238281 -132.201782226563 1.367046356201
-77.144569396973 -65.397087097168 -140.806930541992 1.615345478058
-81.675712585449 -69.518135070801 -133.736587524414 1.969943046570
-89.053497314453 -72.183876037598 -137.581588745117 3.100839614868
-60.931594848633 -69.131713867188 -154.728210449219 5.105473518372
29.000883102417 -67.312614440918 -155.339584350586 2.964100360870
31.911537170410 -69.743301391602 -156.177307128906 2.130019426346
18.322044372559 -68.131835937500 -148.471252441406 2.524397373199
110.993759155273 -73.278778076172 -155.386505126953 1.756205916405
-100.446495056152 -78.579566955566 -158.871124267578 9.801198959351
15.430923461914 -70.166801452637 -148.238708496094 1.879076361656
-71.045486450195 -73.988014221191 -147.859542846680 1.277882218361
20.758300781250 -67.994224548340 -151.958862304688 2.441281318665
-45.839931488037 -67.925285339355 -155.668640136719 0.438520789146
4.076077938080 -65.712959289551 -150.705337524414 6.283545970917
3.490684986115 -68.256683349609 -158.865402221680 2.759734869003
13.907272338867 -68.234931945801 -164.779907226563 5.552462100983
-49.193698883057 -71.469604492188 -167.999359130859 5.315234661102
-43.788536071777 -62.995372772217 -155.002944946289 4.860962867737
-50.065471649170 -68.425804138184 -158.078674316406 2.650142669678
-102.445724487305 -68.811683654785 -171.328582763672 0.754784107208
13.503843307495 -64.511756896973 -174.341903686523 5.855939388275
-40.580062866211 -72.388038635254 -176.973129272461 3.831146717072
9.320366859436 -59.719852447510 -181.200180053711 11.172589302063
-149.542160034180 -76.081611633301 -171.948760986328 5.257148742676
-38.216876983643 -63.953536987305 -178.398971557617 6.278738498688
-154.136672973633 -66.225090026855 -177.409835815430 1.916010379791
15.265974044800 -70.897140502930 -184.053817749023 2.038632392883
-36.493026733398 -75.723350524902 -173.620178222656 2.170232534409
-111.296249389648 -73.685867309570 -185.252716064453 4.346354007721
-106.519569396973 -70.011421203613 -184.267395019531 2.079224348068
-38.067638397217 -67.079627990723 -182.338577270508 5.133635044098
-19.512941360474 -69.125747680664 -192.735305786133 2.047016859055
10.403014183044 -70.118843078613 -192.397491455078 1.823490023613
17.591432571411 -68.620414733887 -199.653167724609 0.876127600670
15.376538276672 -61.755832672119 -191.227584838867 5.180796623230
-141.680511474609 -70.123168945313 -185.737457275391 1.916232228279
13.226456642151 -68.767570495605 -198.257537841797 2.267155408859
7.305727005005 -69.704307556152 -201.366394042969 2.034360647202
-143.629531860352 -66.744140625000 -198.039657592773 3.090118885040
-121.706306457520 -71.354217529297 -202.115203857422 0.293665587902
12.675447463989 -65.650878906250 -201.778289794922 2.648511171341
-114.752555847168 -73.320358276367 -192.984512329102 3.914922475815
-112.069023132324 -72.405296325684 -193.800338745117 2.098995685577
-165.777206420898 -74.005531311035 -203.055099487305 2.790983200073
-18.243368148804 -75.463119506836 -207.788253784180 2.520116329193
12.872385025024 -63.666446685791 -205.775588989258 4.882245063782
-140.683547973633 -65.713012695313 -199.512252807617 1.670048832893
-137.606002807617 -71.398239135742 -210.436309814453 7.201248168945
-22.565296173096 -66.898437500000 -209.539184570313 4.070322036743
-15.404429435730 -65.622352600098 -207.385467529297 1.745590329170
-17.458555221558 -71.033882141113 -213.856292724609 1.011919021606
-149.658996582031 -73.649780273438 -209.844650268555 1.655032396317
-24.558626174927 -71.752029418945 -203.885589599609 1.834699392319
-15.470211029053 -65.326995849609 -211.687118530273 3.310531616211
12.206112861633 -67.311386108398 -211.737731933594 1.833382844925
-13.805313110352 -69.076980590820 -210.220642089844 2.448798418045
7.844028949738 -63.584835052490 -215.695007324219 5.365597724915
-10.023380279541 -72.006767272949 -220.341217041016 1.307367324829
-17.577262878418 -72.478370666504 -213.715621948242 1.419737339020
6.367774009705 -68.207489013672 -229.146926879883 2.283329010010
-8.573957443237 -68.979621887207 -221.676345825195 1.907513856888
9.712465286255 -66.593414306641 -224.973800659180 2.806208133698
-7.523584842682 -71.447639465332 -226.160629272461 1.677924275398
-162.699768066406 -70.784851074219 -221.592285156250 3.522119522095
82.189781188965 -68.913307189941 -225.982208251953 1.483093976974
-137.637237548828 -68.984573364258 -222.143936157227 4.228478431702
-137.461853027344 -69.041404724121 -225.799957275391 2.941001653671
-11.399502754211 -68.134582519531 -231.770858764648 1.073726654053
10.544730186462 -71.080001831055 -238.236404418945 1.754626750946
-152.971237182617 -67.643211364746 -221.851745605469 1.625818967819
81.729011535645 -63.969356536865 -226.164550781250 5.050276756287
-12.046688079834 -68.982200622559 -226.764572143555 1.849815607071
0.607212007046 -70.297225952148 -230.713241577148 2.466598033905
67.691375732422 -66.671928405762 -232.302719116211 3.021439790726
2.043375968933 -70.851867675781 -235.478836059570 1.122782945633
-21.424926757813 -64.823303222656 -233.758392333984 8.663004875183
-123.301940917969 -73.803253173828 -239.071517944336 5.250736236572
-8.844031333923 -68.287864685059 -241.360031127930 1.199482560158
-4.698571205139 -70.092102050781 -235.757888793945 1.585094571114
65.738418579102 -69.621559143066 -238.955764770508 1.484400510788
-166.421157836914 -69.264083862305 -239.526824951172 1.167454004288
-12.485911369324 -66.404808044434 -250.427597045898 0.781388759613
-169.201019287109 -71.486457824707 -240.799514770508 2.502228021622
4.912916183472 -69.485176086426 -248.235565185547 6.259412288666
-170.522140502930 -69.304359436035 -238.979019165039 3.725168466568
-158.337432861328 -65.360382080078 -243.320877075195 3.192182540894
50.729686737061 -73.055236816406 -257.417755126953 5.607655525208
60.018959045410 -65.118041992188 -247.759780883789 2.559503793716
50.506347656250 -66.974243164063 -247.063858032227 1.425842761993
46.068164825439 -72.264106750488 -251.988281250000 1.792966365814
-164.258331298828 -68.606445312500 -247.148666381836 1.638922452927
-154.629089355469 -70.159934997559 -251.385238647461 1.808767914772
-19.258266448975 -67.648040771484 -249.398788452148 4.719707012177
-158.090835571289 -67.538536071777 -248.750076293945 1.421966791153
16.862733840942 -70.431999206543 -260.381805419922 7.146745681763
-168.656448364258 -67.943046569824 -252.349197387695 2.574068307877
-173.536163330078 -62.933364868164 -243.989105224609 9.382043838501
-83.489196777344 -66.160362243652 -254.041030883789 3.119024753571
-175.755096435547 -70.330261230469 -267.014495849609 8.406596183777
-89.803489685059 -70.458518981934 -263.097778320313 6.387582302094
32.257781982422 -61.404193878174 -252.175811767578 4.543104171753
21.279136657715 -71.602676391602 -259.551788330078 3.404056787491
-161.004394531250 -65.424415588379 -259.675598144531 3.650294780731
-106.220802307129 -64.477317810059 -262.995208740234 4.095939636230
35.826480865479 -66.340675354004 -262.216033935547 2.014907836914
-104.676811218262 -68.674995422363 -260.423339843750 1.123127937317
-154.639739990234 -66.594276428223 -258.779632568359 2.630732774734
-110.211845397949 -65.176559448242 -259.059173583984 1.636638879776
-165.751510620117 -69.213203430176 -259.205383300781 1.226064801216
-117.007385253906 -69.866897583008 -263.562500000000 0.612943589687
-158.672027587891 -70.162132263184 -270.327239990234 3.307628870010
-161.054794311523 -71.725250244141 -264.132324218750 2.483745098114
-170.866119384766 -73.208000183105 -266.192810058594 4.660697937012
-162.910842895508 -69.439826965332 -266.714416503906 1.521505951881
-169.528244018555 -64.900390625000 -269.461273193359 6.418385028839
-167.969558715820 -62.475276947021 -268.156127929688 7.187006473541
20.296081542969 -68.651924133301 -266.915954589844 4.303761959076
-152.128616333008 -66.773956298828 -269.442413330078 2.936647891998
-152.630401611328 -66.376022338867 -289.601745605469 1.429037690163
13.951841354370 -75.172195434570 -283.464843750000 1.236984968185
-11.194751739502 -66.398124694824 -278.916076660156 2.896852731705
-130.190567016602 -72.782180786133 -286.507904052734 3.525109052658
-141.401306152344 -75.931961059570 -290.772766113281 0.646089732647
-142.178726196289 -69.702590942383 -287.669738769531 1.932239651680
-133.935211181641 -64.094963073730 -286.009887695313 2.568839311600
-119.943519592285 -67.645881652832 -290.681060791016 1.506863713264
-112.184478759766 -71.220603942871 -288.881805419922 2.609953403473
8.489695549011 -65.574974060059 -295.733581542969 4.117896080017
-94.877388000488 -66.467041015625 -286.235015869141 3.017737627029
-149.359329223633 -70.289291381836 -296.998016357422 2.655101299286
-103.114387512207 -65.472343444824 -289.985321044922 3.831829309464
-133.912292480469 -67.780967712402 -293.578277587891 1.588221669197
8.488554000854 -74.221397399902 -291.708129882813 1.667930364609
-119.657188415527 -71.885391235352 -296.356689453125 4.429496765137
-2.324021100998 -68.044197082520 -291.161956787109 1.594524860382
-146.443161010742 -71.429252624512 -290.022399902344 2.821988821030
-160.977340698242 -71.521888732910 -304.016998291016 5.682897567749
-169.855422973633 -69.515914916992 -308.438690185547 14.105299949646
-156.749069213867 -69.429840087891 -311.981658935547 1.942984938622
48.254856109619 -77.354324340820 -28.984830856323 6.206757545471
18.471483230591 -72.284957885742 -34.418617248535 3.543556451797
34.282283782959 -73.308097839355 -41.538127899170 2.693584203720
-51.936908721924 -70.245750427246 -54.730655670166 4.348556995392
-14.192256927490 -68.548683166504 -64.685127258301 1.821357250214
92.720054626465 -76.389533996582 -80.069992065430 1.823440670967
64.662605285645 -67.924339294434 -70.474830627441 4.044019222260
-21.002235412598 -72.453231811523 -77.099639892578 3.999392986298
-94.453315734863 -69.922737121582 -82.800849914551 1.908145189285
-39.263790130615 -71.690284729004 -82.813110351563 4.279850959778
61.919933319092 -71.718299865723 -83.644241333008 2.491684675217
54.124198913574 -77.725280761719 -86.431610107422 6.161711692810
55.825046539307 -72.835815429688 -90.560287475586 2.095901250839
-57.300910949707 -74.433006286621 -86.319152832031 5.441939830780
67.091903686523 -68.598777770996 -91.037117004395 1.703951120377
43.328289031982 -75.799903869629 -99.410873413086 2.362910032272
65.052917480469 -74.460136413574 -93.197143554688 4.491867542267
-64.351387023926 -69.443450927734 -99.689880371094 3.152374267578
53.409595489502 -65.073120117188 -100.692642211914 0.167789354920
45.497077941895 -72.635871887207 -101.058029174805 1.284583926201
102.185714721680 -74.474174499512 -98.115692138672 1.534105777740
-72.024765014648 -79.017898559570 -101.501586914063 1.197563886642
109.080139160156 -71.937225341797 -105.938171386719 1.563777685165
-82.228645324707 -68.925804138184 -95.326843261719 5.895759105682
54.698318481445 -71.894035339355 -111.272468566895 4.117926120758
48.629661560059 -68.388763427734 -105.615447998047 0.750363767147
94.591728210449 -69.442779541016 -102.244110107422 1.526230573654
86.307205200195 -60.359054565430 -118.820953369141 9.602725028992
55.160297393799 -74.433509826660 -107.720191955566 3.264816522598
-70.728698730469 -72.666503906250 -106.797615051270 5.266551494598
-82.657661437988 -72.376739501953 -111.135581970215 3.134335517883
-87.074951171875 -74.422340393066 -122.323310852051 4.723206996918
-96.772216796875 -81.192749023438 -117.318199157715 8.530378341675
99.212341308594 -71.991378784180 -118.381858825684 7.058984756470
-88.396453857422 -67.160484313965 -121.739501953125 2.504948377609
-81.853652954102 -67.517387390137 -121.443077087402 2.635215520859
109.347122192383 -67.122360229492 -120.726707458496 1.371766567230
-65.100639343262 -64.764373779297 -119.355346679688 1.398476243019
109.973388671875 -73.166351318359 -135.512771606445 1.924781560898
105.450660705566 -68.848716735840 -134.589385986328 4.460523128510
110.988594055176 -69.042350769043 -120.442741394043 1.642404317856
-96.262786865234 -67.996368408203 -134.731353759766 4.147069931030
-55.975830078125 -64.855438232422 -140.643203735352 1.435501098633
-78.211456298828 -73.380638122559 -148.580352783203 3.204841136932
-70.914581298828 -66.608886718750 -152.937820434570 2.824263811111
-76.145767211914 -68.435317993164 -145.460861206055 1.670049905777
-55.439002990723 -64.948181152344 -150.322875976563 4.200401306152
-50.008369445801 -66.829475402832 -155.085174560547 2.226885080338
17.635654449463 -72.093276977539 -147.979919433594 1.772609233856
-97.219360351563 -63.770195007324 -158.552749633789 1.824526190758
-45.282672882080 -74.053802490234 -150.326416015625 3.009624242783
-57.529788970947 -68.573532104492 -155.078262329102 6.119944572449
-47.425903320313 -63.948970794678 -158.334884643555 5.296688556671
25.703248977661 -74.193244934082 -162.116058349609 3.638226747513
-50.497611999512 -69.175971984863 -158.944244384766 2.889572620392
-98.036689758301 -71.352584838867 -149.727508544922 2.997757434845
-44.547039031982 -68.311401367188 -162.684646606445 1.486238956451
22.525182723999 -65.972946166992 -161.856430053711 3.078136205673
-102.741706848145 -70.919250488281 -166.120620727539 2.344090223312
19.502796173096 -67.343292236328 -162.037811279297 2.874743223190
-106.672805786133 -62.662654876709 -172.918609619141 0.355276346207
-102.978996276855 -64.585029602051 -165.902359008789 3.106483936310
19.922163009644 -61.695453643799 -172.785461425781 6.123735427856
22.879270553589 -65.699432373047 -170.687713623047 1.301375150681
-110.177703857422 -72.244422912598 -175.727111816406 4.637286186218
-147.132965087891 -69.495376586914 -176.484939575195 1.613311648369
-28.159008026123 -66.364456176758 -189.114257812500 2.395998954773
-23.779466629028 -64.846763610840 -186.184967041016 3.754453420639
-116.102378845215 -66.841529846191 -191.283309936523 2.752406358719
-143.448196411133 -68.669769287109 -190.443405151367 2.620487213135
-107.576705932617 -73.494476318359 -181.858245849609 3.893913030624
-152.029205322266 -74.339767456055 -200.304901123047 2.684322357178
-131.054916381836 -72.650886535645 -193.792755126953 2.393073081970
-140.539352416992 -68.035171508789 -196.513504028320 1.087224841118
-24.496768951416 -62.215950012207 -195.945358276367 5.675436496735
-122.246612548828 -69.924682617188 -192.335083007813 3.231843948364
-116.337921142578 -65.555931091309 -195.471954345703 2.860958099365
-19.433408737183 -72.207290649414 -196.182403564453 2.301860570908
-157.253097534180 -64.532020568848 -193.996658325195 2.278142452240
-139.594314575195 -71.409744262695 -213.535522460938 5.918680191040
-126.330841064453 -64.849525451660 -205.115753173828 0.675056636333
11.406721115112 -64.818038940430 -208.422302246094 2.862185239792
