# This PCD file was generated using the MATLAB® pcwrite function
# from Computer Vision Toolbox®.
# .PCD v.7 - Point Cloud Data file format
VERSION .7
FIELDS x y z
SIZE 8 8 8
TYPE F F F
COUNT 1 1 1
WIDTH 803
HEIGHT 1
VIEWPOINT 0 0 0 1 0 0 0
POINTS 803
DATA ascii
-16.947470208018210 -95.221529260757151 -114.073957725124330
-1.026931872308398 -80.899994920441827 -114.399895646199980
-7.749397879411858 -85.958557093130977 -117.743005105092692
-20.798488656208772 -101.762913606615442 -119.682677292202740
69.383775358855303 -7.136865328727810 -121.293832187792930
-11.594663070720504 -87.929920001295855 -121.702251824011839
67.018126375456404 -14.356656637915778 -123.972682790704852
-0.858985181875230 -87.584375040685742 -122.011404547639188
70.179701181154783 -13.504478367987694 -126.692440616399153
62.775121131975681 -11.767155405195901 -121.605156899753155
-5.678453288503543 -86.407682234974303 -129.667043651792426
-1.989567801422021 -85.012213227194437 -121.221521597229909
64.258868611680171 -16.795164755184800 -130.066138822123918
-6.086369677318145 -83.191494348692189 -127.761197414608006
43.068569038280174 -33.761544355938327 -237.671366622071844
47.435641313578849 -34.690403944359794 -242.578835112743775
49.050921017203962 -29.104549158025630 -244.053551452958970
42.070500274492183 -36.747891466935179 -245.714172558590832
44.935932150554642 -34.037479407767158 -249.463342718124721
27.904173569519124 -50.258232374442827 -249.287787714842949
26.117045212298638 -56.315306147214223 -245.849701403839447
32.484357447065761 -50.781777826732217 -250.000209994754670
54.799310170421329 -19.401723906349449 -248.449033833886432
57.501030620310559 -23.582400711929353 -256.884569830650946
33.028550819158745 -49.635593688375870 -260.699427474251195
25.652418378814051 -52.073705102660448 -256.649272125887876
21.995709092374405 -50.810727404994417 -256.236864811954774
56.325866776757600 -22.902574510605504 -256.228251343678153
26.228674104288974 -51.841276939601485 -263.753724961141074
22.929949743105869 -53.772460482385625 -261.900773300654464
29.031351239240614 -43.275856605073841 -256.657131484791194
24.646625385960842 -54.069866164349321 -264.541127859934761
26.956215908939981 -54.439745288891409 -265.202447145265580
28.650457090046718 -50.391331442637963 -264.351650100492577
57.184169582982939 -25.032175172648113 -265.733201386512235
48.327687705811215 -36.894889535864785 -265.700829891350168
52.504546552523692 -24.694852463731959 -264.120048011105609
30.955676081024247 -48.014328710086758 -266.973469266991060
25.550706707306983 -52.052354633216218 -273.590475951663109
32.036293105021308 -52.670488307131414 -277.215007534431209
33.757054926747038 -48.426650867163588 -276.931609516379979
33.154864995777665 -44.298105084378442 -279.174465730812301
34.560675049287539 -46.082644671811082 -283.296426313029826
32.810270845117763 -47.320846537578014 -281.946981718270195
28.339990592388947 -41.790492751685001 -280.249664170712379
33.275058988124975 -42.349097712702054 -277.499107302217567
53.634292761861602 -29.978627189338702 -286.876995831122656
50.250516200515449 -26.425487138398992 -283.926473456720657
37.742095213976420 -39.373216530375004 -287.370960244489311
51.472899561364095 -31.379044380152614 -287.184527648609958
39.161051385575895 -42.560908802769909 -291.934165943183814
36.693348542648216 -36.483331637709838 -289.727536856037091
61.163438404471499 -16.852123349373219 -8.823938075174523
61.353484194640167 -16.350075304608911 -15.755536657578402
53.775655691322029 -25.810033318161157 -29.870190679228212
69.933307499000648 -8.328182983643812 -33.777020977439690
66.136408584395468 -13.582008979821151 -34.382585995199378
63.486159730235912 -17.553277127002449 -40.265319421798146
65.522103421930325 -19.994201501005982 -42.876436822554510
-2.876663285529501 -81.722320981698459 -44.506782739791738
-12.438015340900687 -87.786549266164400 -46.572232263621473
-18.023820264490627 -91.876904139739395 -43.624485942965919
6.389723495601128 -76.679824380454448 -45.586035170501077
15.031026257937429 -64.316896623633994 -44.788581198749554
29.311136098543376 -54.016781347520940 -49.939185699110837
30.678233395068123 -48.504235379271051 -49.436891135282970
-26.695681816284758 -98.687227987226166 -54.207754149049450
31.334117315340887 -51.979427633141604 -49.745711621614873
97.567935300419947 20.892816002746162 -56.068463059854253
94.673860205503729 10.648429089828108 -57.342275057203850
97.824374679807690 17.191382628171972 -59.072002848894897
-27.573101664949306 -108.408417498036542 -63.490262905154331
88.398859610743074 6.335333157697352 -61.468776579118163
32.507554318808197 -46.898520529222139 -64.649298251027119
24.709044918827605 -54.320447882933145 -61.220809666662731
30.919843778149950 -50.343672686205991 -62.848729279339992
107.997082871600952 26.870255004393314 -58.157978391409486
20.723948832106586 -58.922693100734868 -63.530369439757962
-1.914991937628766 -84.510433927207302 -64.913585499298733
87.774025350978590 7.910626912578940 -67.916607804587258
-12.022856002218679 -86.693254049197037 -69.912415477077133
-7.849242430588249 -82.513540524657699 -72.813577017979611
82.880914067635459 5.360889007910634 -72.890654145359107
13.157390614341864 -66.060809645262140 -72.590589278349356
9.259439239385246 -70.062332653138753 -73.652471873497987
13.368297313494210 -65.567358642669532 -76.428734337518719
95.934793994195488 15.433403772860578 -80.054862076533283
94.018239951875771 22.835403728113398 -80.924322379712606
88.531706940702165 9.667769228436999 -83.580419919852133
92.380619618632551 10.675593080170355 -82.664596462587625
-1.752947107315421 -76.270989210577355 -88.778420901228500
104.731741239973701 22.357600916605655 -86.697917981955030
0.528567170658478 -81.762113497253921 -86.817810900957639
85.583541154821660 5.490826431310024 -86.632764167049544
90.313182541180140 15.271912511311118 -92.336676375659934
-28.481430501845612 -112.234685082977421 -85.422337642969026
103.324990153340536 24.361453927307128 -89.239604522626991
-9.149288422305375 -88.699279871136824 -94.928855168552374
83.596553418063479 3.076553775896114 -91.043622850181961
89.350953390876768 4.410056192553444 -92.864502560028967
89.057989665690272 11.016524271357136 -94.575362059207123
89.946739095213587 7.342081512006875 -93.349447214393948
-11.785529267457454 -87.085832324087164 -96.752699028894440
96.802515831613690 8.043126653314570 -93.002242127583841
-34.448877638883609 -109.099702275119171 -94.676222529930200
104.237115613730509 34.912494944899656 -91.942258738068716
106.817802798944740 29.152087834983281 -98.873558391743458
84.646194300833557 5.503530839862768 -95.838162305871293
99.830035963385910 25.354745773440246 -99.825721689199995
96.009973805062089 13.570202942208713 -99.459831077414862
103.243942232939972 23.328024298281868 -97.588955500817676
111.672193870906739 26.598041715997983 -103.573807233819622
106.986582200165572 31.769055649807331 -101.655120106866121
87.583094400018069 11.414831366881943 -101.822060599413788
111.123111465238225 32.170227302535324 -104.436291272244432
-14.210620342514598 -90.463091267098378 -107.401909120791245
-5.759079854983463 -84.864833599703999 -107.273323572573247
106.171989757263233 26.330507272999260 -99.222738971274282
-6.364430364641949 -88.633097285670473 -104.739225556728869
105.163036086791124 21.434582383645996 -105.153864036898113
106.145926647492502 27.665196071963450 -107.045942765749260
-14.752291506636819 -95.426945389987125 -109.671035652878402
78.009873595739776 -2.033521460296113 -106.235098183020597
72.701240961451774 -8.331293486733513 -108.319329507985231
-11.558894028068252 -92.662438975284019 -116.172818085341930
-16.498874621829490 -95.071999218727527 -114.709505217358213
-28.337600449998909 -102.265408849061558 -115.709847269330766
73.112639049743279 -4.903595765356227 -120.045543495574108
68.057631856106994 -6.330582599923211 -115.318605707193214
-6.600401518852282 -86.584768830877493 -112.211351410638599
-16.910564040156775 -92.745914381546726 -114.259832446028980
-7.206347218055607 -87.744121706683416 -118.402059439576774
66.267775100132880 -9.852266300887980 -113.803179497993156
-19.675862862316841 -102.277407409745379 -123.030006847399420
66.101137907652941 -10.933796206590133 -119.656599971829749
-20.573433461476178 -104.327875508270765 -118.579728530338144
-22.043153747232882 -104.136034736955665 -119.694983814769543
-2.034458169925275 -84.042163492854201 -120.724183975924191
66.521092014850993 -5.264064047689066 -120.887578365488224
67.503894548487438 -6.052273533884140 -128.062888199882025
-5.691959744320622 -85.983878701461123 -125.601327685986405
40.810456017451209 -37.185818647510146 -237.642181795082394
33.028322048318003 -49.426495368347560 -241.126042159169657
38.253749217735454 -44.326543517920861 -236.378495491364617
28.058175675102074 -47.633902829006814 -240.753686928660386
43.341419730975652 -33.522940418131199 -237.473121014239382
39.273780641518400 -37.315634427604465 -240.758333496169286
26.743195736550121 -50.014533868990945 -240.202350835177526
42.461509743695075 -37.095882025936220 -241.208244171208833
27.719408859147556 -47.343729904029011 -240.514895348738435
34.783321409966540 -48.896713150357613 -241.626126320191901
32.224157371275169 -51.879290123401510 -239.813658369761328
55.172610091326213 -26.647599416893538 -240.977211992293377
51.197245713348671 -27.231216399843632 -244.291964996398008
56.193931308486228 -28.175305317092775 -246.050718751228032
47.717487342634968 -36.991822521827103 -247.022421046184434
31.724778194502552 -45.234713380112723 -250.093142757418235
28.407286611772310 -49.984180622895742 -246.140004177649956
60.009969519776504 -19.365497885561123 -246.110290837767451
59.798310608356047 -20.625117069033788 -249.826589523269433
30.223379309208934 -50.890891606934574 -251.263413242072374
29.388039877359049 -50.938959099906604 -253.992179979771663
25.328322136825424 -48.298033106999611 -253.123820137774203
43.949124750847147 -32.877866131491849 -247.721943637943468
27.017917102529928 -48.273625705963475 -256.290494266794099
27.368293396645818 -55.779035312844563 -251.878582422565216
21.019402380528046 -55.681397534028875 -255.296353504986627
29.642443776516277 -47.525807622401452 -255.334080193975893
58.444119904750266 -21.617329280072266 -259.855697831747534
54.506861378562824 -21.740013090692255 -262.316574076601853
59.172145982617302 -18.354627762235168 -263.962658833299940
29.385073602772128 -48.461714056962585 -264.734088900620463
57.606806717220138 -22.788774590794418 -262.144851253141951
59.307893150350445 -20.651907007428719 -268.079979659716912
58.521417367299470 -24.607551204397616 -268.795357477936875
33.179035816738093 -46.633961364028750 -271.941758524332215
49.866232890852238 -32.537384990916699 -268.478452935787573
56.985114399033719 -18.585233430020153 -270.118428978577128
58.566796580712690 -20.272385811196575 -276.777318101416085
54.740169651477629 -25.095739972246022 -271.960623057115015
33.521079709685765 -45.137915406941239 -273.314048380202678
52.496882979109515 -30.005810300101697 -273.453986878518549
56.024052668230624 -22.409779200949153 -277.507603727822698
52.864198561107187 -25.312932831903293 -272.292826073191634
55.493679608939566 -22.799196879981249 -278.488318609002476
29.167729569096043 -50.715736741291266 -281.419731222966277
52.550117613097356 -20.889034600080414 -284.611900276886843
34.807630905169574 -43.779435986330505 -282.043344165436736
45.736744837117456 -29.133192424640679 -281.512495511319230
33.061797278589317 -44.061197308728481 -287.590332460363868
30.196860815606694 -44.535468268676802 -280.809920667946528
58.389394402494247 -20.787046738668643 -283.183274463885255
52.505892947738261 -22.161061689533962 -288.555136687259960
44.235379005714570 -29.314995876977850 -285.983534436408036
34.267196189383043 -41.693108146043684 -284.653167295808032
38.847350311760913 -41.559548632516588 -291.922328751016607
48.968887949692402 -25.164951775818661 -286.434905610389649
34.540956103596564 -43.028025486008318 -285.993503660188765
34.765627560748193 -37.479416260184173 -290.316816105470195
48.839116635244075 -26.402644382667344 -290.514676653870424
52.445928041642361 -28.338268373987979 -292.841225964670969
42.668865938244615 -37.158845228112668 -291.968549989712869
36.838705005517212 -42.524188543040289 -289.759727222004187
46.446116413857879 -32.239750727897992 -289.399841819497453
41.293591943270236 -33.806379901056317 -295.054846185928227
42.734638756985959 -32.277199473377479 -291.269589437579725
50.342771914713275 -30.115912426268949 -296.476447409769435
49.892802466658793 -29.869222105009111 -294.518894655872941
40.939394284058224 -38.393670830065965 -293.530583326097315
46.979418548338089 -34.947521905811158 -293.925038938182809
49.610585944739057 -31.802875278755245 -294.659174326416178
71.257873537262199 -8.640761613640462 -19.530817009759019
75.555837891306112 -0.456623334070427 -24.145873698352215
59.945450703737812 -19.277362117581223 -34.966043739917453
70.215470826443649 -7.527763647529759 -37.893145513735831
1.961634408566233 -78.278869091696791 -40.925103601399904
-17.430585622474243 -98.932930795552139 -45.069704624078327
-20.817640168189275 -101.804278876507908 -45.178871334861199
33.305296957147618 -43.675076262421705 -53.478407911706697
32.813617324750631 -48.306886098025707 -50.191121257563580
105.152225586681482 27.372564821676811 -55.815396952703310
21.790972856515928 -59.485705623043444 -61.658323698047710
16.376187625017739 -56.660384571335022 -63.483421111650742
85.567817879494484 10.937259632880133 -62.776016081195678
107.343932808807793 30.723147482744775 -64.770485396944210
-5.851259488132754 -82.088338212642995 -68.939566502929154
82.469333452187769 4.398649844307855 -66.615652048513795
84.851681381761168 10.633452407522419 -69.517184463520650
-6.535293264357189 -83.312683410475813 -75.608799969198174
-6.641904424433565 -87.219673839550794 -69.728771974726939
81.172762034848532 6.578251971377459 -73.448435745553155
92.961901754446373 24.610092988261325 -81.029749845019239
1.122957983940937 -67.559457852870466 -80.140651518567097
98.189040541549275 18.149611650365586 -81.701928727036545
111.963703448382986 34.090490404073009 -79.971002448364914
95.487519873125322 18.555018853772477 -85.741417679790572
84.382713796067961 3.230471527176802 -78.624455618648000
97.770423605319706 13.363057632463175 -83.220610091678950
101.287294569398014 22.010837295990559 -83.375873435160983
1.966823556599699 -73.552526338830759 -81.952106580947529
82.639376681602215 6.554285835248449 -85.012931455385640
94.680307093906308 13.740310746773478 -84.344562199795220
80.868836540426372 9.071531059884702 -84.913184519576362
-34.382401202697970 -104.829665805370098 -89.199103798329091
101.757783950391811 29.604575800199036 -87.270004195012234
114.812339671632472 39.312735284584093 -85.521877473719528
88.899489293403036 8.508162232783112 -89.977130952654335
103.429202299828091 28.529729258260133 -92.163819562125667
112.758231523575716 36.087170709897038 -94.352658480563989
98.263578988949462 22.860585881038276 -90.809500998951137
101.135859984032891 24.383281744677710 -95.363365344242098
109.079380989985893 27.163930610580433 -93.066514710964938
88.281807322033927 8.966614744530190 -95.539372263543157
80.364538609729209 8.752363975597714 -95.387157340486610
99.127362119769856 25.212219873517533 -100.801043038456356
106.301734113126642 27.428980540686513 -100.342178973855866
109.756859542283138 33.246879653896009 -100.866598133474483
82.325637781812304 3.738298274393542 -98.363618859935528
88.734145754881169 13.321789807427930 -99.170543401452036
110.244979104309337 31.270189817548541 -100.405843170585271
107.918584435491709 33.381047618981725 -96.830719401572821
78.996760946189909 0.720394351906959 -101.260095658693515
85.726044598662000 8.671576169177250 -100.196497607931008
-12.724537109296277 -92.425850309180277 -105.661144270112317
104.158679783610452 29.747699436851878 -100.100325951302608
80.913897311085734 3.780697738232070 -103.992927623511378
-6.955273485527511 -84.012359270510913 -106.081596297003912
82.967850710037297 0.570502557538322 -109.346511970180345
-8.626301529260344 -80.874274156636858 -102.073157116160203
70.845406028527933 -2.390685947083762 -108.391750264256189
-13.109665758337721 -86.627967638731050 -105.984583316094785
-13.965666393885488 -90.683684617924044 -108.777602352809566
-5.751398540765214 -83.009136391124997 -108.370987912290985
74.139829982141904 -2.645774660136831 -112.916276979867803
72.757327965885978 3.072759269350876 -107.757264429560337
-11.629969294701681 -97.787227890808666 -112.644311193110042
-8.393101086512530 -89.320064348654867 -115.008124592086276
-0.148590081228530 -81.016763372008512 -116.230198972136918
70.991541299701439 -4.914622661349706 -112.731119187207938
-13.605162809715885 -89.525936495660659 -113.146741374381264
70.856735941179394 -4.287989260044112 -113.663854268053385
-15.203875759789762 -92.690989150947175 -117.864492297604386
-8.767252678720357 -83.626338258701168 -112.837560541784072
-7.590834929007309 -82.097454870855145 -119.329056557121234
-3.093402786101716 -77.637620771304427 -114.772068073273687
-16.966017615198052 -97.527099795258195 -114.715161055158475
69.674386179999956 -8.272228909648163 -115.196090397702349
-10.374373993488742 -83.981208876654776 -117.588504424847471
-31.039370673098141 -106.966867790901233 -121.972684576390918
1.478018194305701 -79.265252186211157 -115.675019052741504
-7.931863586603496 -84.200695756024643 -121.818188749197702
-2.821744781306997 -75.890800718135509 -124.532699798486206
32.247634692598531 -50.425346767409870 -238.449363544844687
42.252565097130905 -28.173656797904506 -240.800723806902766
35.100214471004733 -40.612528890155851 -243.034894871428122
39.939486744029779 -36.602813898758072 -239.766333494985957
42.962155597120628 -34.515509179935087 -235.391497835248259
28.816193522380125 -53.306849675746832 -239.658759279083398
51.802275150966679 -24.492447029984319 -238.754839734492180
44.984567789136833 -29.837835101779298 -241.264913363743517
54.872856148401247 -31.129016582321579 -241.547381582320810
38.402995563621374 -40.590527992809548 -245.859557086086994
42.250024985207411 -32.545765788116135 -240.841406368059808
47.641651834555574 -25.428965847916810 -240.830721103599217
45.155157124716311 -32.255159019441777 -239.975604053739744
36.227082817337227 -38.281945072842952 -245.220375653204997
48.037988866636773 -24.167230030090046 -237.033862384405296
34.944509525074707 -41.499783373479758 -240.985021510818257
40.159028040235611 -40.136955834901443 -238.897532896023705
41.129530745525656 -32.988014486466312 -241.773615990874021
53.559711114281029 -19.680019955812028 -240.080022825016698
28.727890508593170 -47.492258791597841 -236.926103599923948
23.709780869537120 -47.575273008919766 -241.742323683452298
28.546773034806961 -53.067074992460242 -244.085249598351140
58.193831058925447 -18.973189919500086 -244.779702398234349
52.934756062018693 -20.495841699514386 -247.285762255523736
51.008804094743383 -20.790863420682307 -248.048154767958636
60.658020402910552 -20.466699207137747 -246.773828871793626
56.647790744329257 -16.412195043328282 -256.488239121839001
57.631094757300275 -27.424537675231086 -252.714605034141840
52.855297800573318 -18.627877026153175 -249.941570711608279
61.675783861211514 -14.998854130172688 -253.369158732399598
26.473111054361482 -47.954809050556932 -254.346284048732542
29.043731535774441 -47.184029220266211 -253.156686815060908
24.234274052520483 -56.635129295321491 -253.849735070388903
51.659937007141743 -24.246541055331054 -256.675822491988356
56.943877706051232 -22.072600289249884 -257.916858741936949
57.685299266357418 -20.320591859330332 -254.957307423218907
30.360972236584317 -46.684605954032691 -257.989141931034396
58.782415119098481 -19.912488534232494 -258.941535989502711
29.575994202122040 -54.162680048626406 -261.013991462514241
49.619483371328691 -32.616534349829870 -263.489139645919920
60.523537000516924 -18.982350857451006 -260.705575426731457
30.337042822188533 -47.898135074815237 -263.714719372471166
26.463453325272337 -46.763504468602065 -268.397543553589173
54.073746896300683 -19.078013110590831 -268.672181732164404
27.821472975671824 -50.785714047092569 -272.627951892145404
31.450580202956019 -44.499217853200776 -273.231919824454792
29.696302511832364 -47.590621388742036 -275.270538097617646
32.723293437122550 -45.737364393652747 -273.280313384575209
36.039100578699717 -48.620090559570414 -282.551925181746185
52.932128130308541 -22.982226071505512 -280.612909797302450
34.048239534588390 -42.090069828297807 -277.883737473769258
45.979125655710845 -28.363857736073911 -283.423836271836024
51.347165951644527 -26.352396041151678 -279.642349566589985
30.937738736423480 -38.974549932556933 -286.836100976044918
46.943894247758088 -32.153203859847466 -278.591358918538276
34.837196462781748 -39.567071056091699 -281.875442470975258
33.194135700637929 -39.615276028691525 -286.466509733658427
36.712011003212126 -43.009540675944628 -285.922842727513626
51.297742690001222 -23.062541461836648 -286.580516619976720
35.160255685856733 -41.711175802830709 -288.854737869409462
40.320758021722668 -43.708115538818710 -289.095157765331180
34.649926346914782 -39.072520660676133 -299.050067696225938
33.258550211547302 -39.279435081515707 -293.037606119142822
41.204359154994727 -32.727780025733004 -292.546262639145766
42.637370967976601 -39.408008920108848 -295.417053601996827
42.851413027760458 -38.323500340820971 -292.034860401468507
65.330541992436679 -15.947942823278517 -14.292582423950952
66.352366738022567 -7.591096564550249 -13.875815801444514
60.467660165316111 -18.753754472477702 -18.402021321064002
77.133865049862351 -5.605640012691060 -34.845295011461140
-18.797636509329777 -95.411903571261249 -46.341365552549441
8.395915988529215 -75.684754001534841 -45.898279689287683
-23.549034592032871 -96.742825371277192 -51.768051536370322
20.044017444629123 -57.559237485505562 -48.450763062644221
24.735700940817615 -52.678119359893209 -49.692556811522991
-26.209307690718568 -97.953704818644937 -57.205333094739082
102.501072439529878 20.552913772124672 -54.972601334272788
95.529125127399922 22.430446790567380 -55.743115049688917
90.725020655557444 16.425830201150539 -59.733979072866433
28.101302104870296 -45.266674399257241 -58.385516343096803
100.589528306305425 32.653980830170127 -58.244806744060149
-30.145509778459026 -104.779968233162961 -56.774149308165867
-7.906216683444611 -82.110824357184811 -65.210020301993708
-4.085319496288976 -80.608005590891196 -66.585851186934860
17.042359478608173 -58.409517312302654 -61.479364571861595
84.576738253050195 4.421039569885335 -69.668029556131188
19.233378218216195 -58.573542898267945 -68.379789933103552
112.456140134972514 38.358233015284455 -66.619544504768200
-26.248563609685842 -107.531175007536234 -69.981883671615321
-6.689947278836976 -84.894847973107616 -70.384287133078999
111.137181216170148 34.562622731259815 -79.843846569417806
9.438073500278684 -68.443277611327630 -75.458835510940119
95.950545113483216 11.147745910272924 -81.131160463967575
-37.784204573063903 -106.120102398062841 -82.429617007532272
6.159143230901089 -68.173185256705310 -79.718629345614175
84.992924212853779 14.064281470028197 -79.170415941478751
97.778604921652743 25.806980345485982 -78.876461997756280
84.495304897147008 6.561070846626551 -80.383462334658631
106.620222488242675 27.393828867783803 -79.238774608768480
91.483963262992731 12.985319439483620 -78.433138656505449
104.376101998541742 29.602076538612039 -82.058411498897968
112.414866259958103 33.186914118356597 -83.158491980754491
106.583851492672679 24.497308328277562 -85.189798970722407
107.140363854746496 29.949429563046007 -91.672314919023023
111.519749657743589 36.136655305849679 -89.378934942918065
102.130237655372909 31.350269028446622 -93.126830802470664
98.686040406420545 16.555375068290477 -93.160163158259664
91.805826877021033 20.702403092316111 -93.464913739957026
100.515253423267126 25.911855884703360 -93.580837323480580
94.474147438408863 20.746586079516995 -95.895172088455851
102.260826696395185 29.868387762777399 -98.200849897801646
87.131157717999116 16.891058307446354 -97.629433107139590
106.583512637450113 26.926035996150556 -97.667442883260449
102.178032321438408 27.311863190050939 -93.068925012456702
-34.089171589324330 -107.585498448343856 -98.696600833662913
92.918334551758861 22.131987000987621 -92.993559383413640
108.993553802937939 29.979897818525966 -97.781585294105838
82.897115637746992 7.216519067799221 -98.420537369203473
88.138207628858552 12.009975822286455 -99.447312089674853
76.644063414907137 6.529878575097779 -103.965625911094662
84.204812677819447 11.072756909995816 -99.598122280344654
79.115614232232375 3.986295657181737 -103.645469084135641
74.208986029109340 -0.262756041699144 -103.589629018829200
79.103038852035297 -0.701310391491935 -104.738057700205999
-6.723338331120624 -83.758248422016834 -106.734464927022344
80.222184655158401 2.417214182166279 -110.486744691718997
-7.971281207165702 -83.196797339623345 -103.421946224983117
-16.342514700721047 -91.473083736587384 -106.651133745639896
77.975008736968945 -0.399601684176415 -112.355648596751578
-30.986987556596372 -108.820020805831518 -114.528871394816264
73.234168081529589 -4.715638839260313 -106.513060917591886
-11.554321375278100 -85.130983368475086 -110.881587138354490
-14.285076805295795 -90.418769603797415 -112.200529397288307
-8.768121512062583 -86.289047174705360 -114.252013052142743
-17.901642469526902 -98.260923868666353 -112.658578677598143
-9.948879598282941 -82.945632342206906 -110.290687921993552
-20.933201258607799 -94.565851750891753 -120.848886219214251
-7.722045498774415 -83.654308273514914 -122.761510868323427
-5.966005911049795 -77.846341590092194 -119.638105133458424
-8.816055862188991 -84.883356707964396 -123.771298183695933
33.122303933338891 -40.575378173280058 -237.860147164063903
33.768735150657520 -46.182597368933138 -238.481411622177831
34.115812768538021 -33.698678278689727 -239.814631484693024
31.613002726343545 -46.700728740843708 -236.299293756577811
33.805082859278897 -36.545635326089659 -234.805476678347674
40.719987545482908 -38.840739809540487 -234.333292489911912
32.128161407186958 -41.375103418725409 -241.539736841260293
35.075904151303973 -34.171785917781996 -244.851350787647704
48.451691717917498 -25.242405979361639 -235.394608640335235
24.302087484329743 -52.408907887208656 -242.726455676127813
31.717535335298166 -49.045628888851695 -240.255868059988728
33.939292441173770 -45.340185859104828 -245.270283589089360
46.298942711241033 -32.098680854018177 -238.304684122659495
35.707849266663139 -41.873686140486946 -244.136451860267670
39.207462091724160 -36.852549942912248 -238.914348820735427
28.902954152758344 -51.007291085844045 -243.540000548910712
38.113168440277200 -38.110506651421034 -240.887844441163310
26.464723803043938 -47.448477851067636 -239.415533657316217
25.065717582333395 -47.090423233033810 -244.767240633641961
39.133936157836565 -33.654166287861550 -243.378934730114167
56.880547296634013 -26.438798265896203 -245.005789243931247
48.378314314700766 -26.698057442143860 -245.405859883532401
52.513648802977841 -19.715040521507110 -238.401602297412694
49.665174238982068 -26.623792086207793 -243.813624552761979
26.127101327860245 -48.100641152723483 -244.339116630018111
52.510904108317440 -25.514562142317143 -247.566913636659706
45.760959798974930 -32.568312583206477 -247.169609712551562
25.664375346311498 -53.299078045633706 -248.054264391994138
56.904190149748189 -22.760702679623055 -250.071604321615581
47.507716911997427 -23.209278052673749 -251.679917348690310
51.483230510830609 -24.340767604235580 -251.705783776210154
60.014901604370891 -19.061539626231514 -251.474551710960014
56.969674915534000 -18.794211699393522 -251.763340245374195
54.181666484931213 -13.368402255720072 -252.487642123314373
27.199279518274988 -45.949041123198946 -251.381393232718068
59.348607880641268 -12.051668941016276 -252.257782050852853
59.461283054785660 -15.105598583584095 -252.230450668437925
47.291321944692420 -29.818275766354915 -251.007788807878569
25.224848650189386 -45.655852692813156 -251.454601805934573
53.441173611762601 -18.747964100359020 -252.938345471726848
56.039561881776919 -16.941428889215953 -259.858127504290565
28.850903586652890 -48.224014856952991 -259.830174949043169
32.071226986714791 -50.487921924060288 -260.180996878958695
51.452082516606573 -16.862742072702940 -262.334144948106712
60.756014402996556 -19.696033059149876 -262.337848782574554
58.859798436976767 -17.886256946892708 -267.299727590148450
28.259102791536137 -43.821880897120778 -259.036540310123996
26.546995865242373 -48.467032741967920 -261.224332367392549
60.727640711528188 -17.747286204310061 -267.277555589463589
57.936299278582624 -22.531229256025640 -272.163295114914604
59.684927513392736 -23.550805202032357 -272.704853302635797
56.251484051805740 -13.869763392830768 -272.129230935479939
55.019919278317985 -15.202589545738888 -268.380249304358472
30.276431492644381 -47.962335202386768 -273.658176885210196
31.146228113988261 -48.479424122978415 -274.902947145616508
57.625631568094185 -22.182623460733584 -274.184008694215095
49.070096560516788 -21.060975051042639 -278.304512881273695
34.780430508869102 -39.560378998388806 -280.907220025992956
33.370065231843022 -43.341824947292672 -285.340089346325612
50.977225825529295 -20.126676075855695 -279.650881938018756
32.434017989272803 -40.406000259468257 -277.749267710293225
31.408656286382516 -47.294713616755914 -279.172382170213950
52.221043294200335 -20.279825186697149 -278.593015821463780
36.174844444039607 -43.143333146253951 -287.077930993496011
49.230927408218619 -24.481105365747354 -282.878373903251941
54.569286484950553 -25.176704117731632 -287.436843889162219
31.464237666861450 -38.512648293199959 -284.586728486911625
38.200398290359360 -32.437251561588184 -288.835008594752708
39.993763894936990 -38.406125521180876 -284.485100081822566
49.398091905500820 -28.303491520523316 -282.890575536461597
47.241471775342255 -26.254293362940924 -288.432945070131325
40.164334837241491 -36.981589562864279 -290.444519152678936
51.592643408307261 -26.802976930049375 -288.817521866393008
36.466345255549136 -41.097259619040273 -290.264574747184952
51.009930621754982 -26.212655361980609 -292.519061424591428
44.864767377828514 -30.232932527393199 -292.034341751753686
44.552793818443931 -37.810645731664991 -292.306618139990462
47.389304231850332 -29.503962962629689 -291.583375062356197
44.900778564826098 -28.674782676431658 -288.521984440593542
37.828803431692720 -39.405738537887999 -291.155497410091925
42.292519118841660 -36.587153086743889 -296.713229953106691
53.005732084811370 -25.164120682079762 -293.795906082260956
59.079079847296313 -11.646215898741678 -11.987878035469526
64.566992709907183 -4.395751884985438 -13.896403116958123
57.286465283299442 -19.543774440334911 -12.970821006021499
52.507697291533105 -22.989707650244370 -16.144395318708927
52.198049814827307 -25.002751958762897 -18.506520956969261
60.012774909525547 -18.604069854122177 -16.706649742722412
48.453236999269777 -22.363239108896860 -19.170979498554320
54.659871210583169 -20.319744942732363 -23.496892607254516
72.733901665609721 -4.530039861171905 -21.209985033726674
56.742017250337312 -20.361609772185421 -24.202838820485596
54.910192779404795 -29.286739017983908 -26.551348965176881
52.706195070315346 -15.691585750805160 -31.648537442586907
52.945489753447021 -22.093346457228950 -27.501332542459224
61.082143815903358 -19.374665516864916 -31.689180050330897
48.992569593984186 -22.055457759488860 -36.575936835106830
64.654009240638374 -7.310138119565107 -33.264108593149764
53.461243315603795 -22.967422300081406 -31.711358252978918
61.071607993600168 -20.667751890928219 -32.863429989678259
51.769130645444285 -15.482496000204396 -39.887699952234449
65.649508500365940 -13.883540796904120 -38.232413690731640
58.778071286812192 -18.645528568061440 -35.201762148208587
60.873566009820749 -14.593277049730245 -39.435708036726609
55.880695751685664 -22.513763523015779 -40.385487803610765
56.644469578144694 -14.810582761004060 -40.428824411347790
67.170764498171792 -5.168272970745843 -36.364434186836988
61.122062576045614 -9.393652363572539 -43.554896443449451
61.266386536559573 -14.447709841822750 -36.938276230393399
58.306733913073934 -13.574013944112910 -42.483596456547865
63.355603276394284 -11.020495094007723 -40.122864565306678
63.322346258229793 -11.726230036056963 -40.766126911694762
61.961099351149997 -12.397100812411335 -37.314333965372199
-13.941505761529951 -89.993815019986030 -44.211270940396837
-24.987163039691517 -97.788670774085148 -48.436120882587090
22.711439834230465 -51.156299242182811 -49.758822030285515
23.769311165519390 -49.888662089045923 -51.932813258517598
27.409534583409929 -46.879158325829742 -51.044260041067524
-30.646937587311612 -106.402528420592191 -54.885670058667941
-29.678751332741630 -105.474151732271054 -60.353609631333384
103.450606887618648 26.766241690782927 -53.272992327943470
29.738609963821940 -44.158693112908523 -57.525528110321339
82.759881071391135 9.941431343068178 -59.196183463719990
-6.763946031233768 -82.715640496352435 -63.034586895177839
-37.101998785302783 -106.100085836386398 -58.646678781254586
77.199568835283699 10.788949040654192 -67.292683692426181
-4.370065161152845 -82.852898746329259 -64.597165575213722
107.527032266313554 33.344012130723662 -68.901763027186007
85.972181502548239 4.662834170506685 -70.975027385708543
111.785185347086525 35.046798877648065 -74.396114083395176
85.302631265454480 9.497079881483932 -72.448720341037046
90.536671546626636 12.261537623190248 -73.434592851019545
84.145025356252958 10.147657009867611 -74.462140807348206
87.689676469324496 19.156592587375275 -72.258425911333262
93.878157926529568 22.185832631784937 -71.482497391434634
94.019267992800977 15.557134290301189 -71.385604623541369
-31.666375250639970 -107.100913993237199 -74.770852897150050
88.195518604176385 13.145092414652158 -76.567378332497768
93.643486837249554 25.846111982419494 -75.868078866081404
84.303002165213698 5.398006122771845 -76.215568876575560
108.741982349681123 37.598639642973509 -76.899510533709602
83.392579392405452 10.901586602033655 -80.654842721261389
85.631007144325935 9.427582034341706 -80.951186414719814
112.166396100917822 37.450809608100272 -79.545999667543228
0.083389001774845 -74.372602101411360 -79.028641713920294
103.997219611450888 33.974163804640888 -84.953366455904984
-1.060978544474733 -75.293285073258033 -81.514735073949083
-2.779755916999689 -77.752318213485935 -91.730861221047320
112.126997851706008 38.442497070773832 -87.619777667590483
109.449917285344299 32.943226237523284 -89.010255471519940
-12.462259983061887 -84.214774449535227 -90.723050593679631
101.953708711388515 20.833750224490736 -96.166931573441033
-36.089131216793909 -107.380693680671683 -94.319853998186318
91.957585595352228 14.993753029426657 -94.172313744314835
108.871316696169998 35.264942712325073 -96.679445712079158
97.111967240934973 20.274230584557447 -94.745683366703531
89.570655559862828 17.299231736889372 -95.448279479327468
92.094814254170686 20.324707917594829 -101.787718844588582
-16.882873769540058 -84.020327120445629 -96.553012801033248
85.054107490034028 13.747573788158379 -100.422170688532830
89.543162102467065 17.745293767872901 -99.741788723112606
94.283306013554437 20.460797392398515 -97.879761687302661
86.310363329048698 11.053485156437205 -101.617990282783538
80.606628358222821 3.399800279394658 -101.322531040778344
81.705113491413485 5.032595456661790 -106.420113428208623
-17.143494561991041 -89.017996203798106 -103.743356035648446
-6.539772325150802 -79.847537043877310 -102.209604294802631
-4.438995118611510 -78.646729770834597 -102.659431098197189
-11.752538557341742 -88.505455674060499 -110.735492104013019
-12.859682044513056 -85.106483425548035 -113.249163469532803
-35.064758730538898 -102.959715181654090 -117.664280965985256
-5.946988054816681 -82.574380425213661 -116.840452568077183
-10.519560291137745 -82.799515008688672 -118.959688688839023
-10.680865648968322 -77.934944729547595 -118.268434039066946
-30.926270109634071 -104.628376846756936 -125.199629441895851
29.464290555608503 -40.241052601061121 -232.624248775524109
39.286597511231996 -37.882544509163786 -238.106539911842816
48.802694755488098 -24.735360714753273 -231.187233230791634
34.537620341245322 -39.365218704935039 -240.995772779574622
38.914303841901109 -31.275809309207155 -236.294006898837836
46.811158053816953 -30.522750243986223 -238.198684427710816
34.383731785711788 -38.658606108779125 -240.587757779718714
45.347476650622482 -26.501368900249545 -235.933935073896095
54.415819325272146 -24.934126003810686 -235.180775252842665
45.547883714948114 -23.613351773459623 -240.034807252898531
53.825093240836530 -23.451336496859785 -243.715211881250553
47.901858068306154 -26.019648866086769 -241.734238134935111
38.557690687480132 -35.528045458333771 -244.586499458177855
48.404896557676913 -18.835668975284744 -243.810905216099798
29.255181259185324 -44.797303694875353 -242.871847083079501
30.938387030959422 -40.058966052983088 -243.708606820399098
40.836712763366975 -34.265802833515878 -242.752811998558570
42.789067441927045 -32.074267893944260 -241.856730523429093
29.734756974910074 -45.920225805491320 -236.234065573115828
38.384353592359346 -39.314064151292335 -239.197089134477523
40.113898195804587 -32.338905893150013 -243.505751052783893
48.482666691612991 -23.754311304993102 -246.049556238201603
53.049822135929183 -23.415715392883396 -243.934095617494563
30.168653526183149 -47.788622669568980 -247.559460109234180
44.764181730932130 -31.115698565225770 -245.365612238574926
54.382704762140882 -23.042788016768629 -250.155069286844736
25.563126745141062 -44.532768713083826 -251.647572640036145
54.724454166215708 -22.882855811080233 -251.745717380390204
27.194132467152595 -46.005128379744654 -256.016963673060729
26.699313014562225 -42.035690302116350 -251.113420449255614
30.476446875087458 -42.754119544545851 -257.954008800110046
26.847224978566647 -41.932828250144262 -257.599836562439918
27.559023859845766 -46.375547255811931 -254.292984254597968
26.059595326832468 -46.157704094723229 -257.548403857441087
30.547568316433427 -50.064014760488249 -253.795892539798473
55.616975412367523 -18.605317561052331 -258.878486432898853
29.166403245224792 -47.867791113170902 -261.009365444846480
50.702491815994676 -17.447471994343559 -258.347474502932130
30.038924278861401 -44.050257326241471 -263.006612218950352
28.355093351218258 -43.198526279475828 -263.279542527286992
61.239718956232068 -17.967387003559963 -261.493362138918599
54.479259764649491 -20.305119699586509 -264.676846667788993
52.168005127026042 -19.657513100673491 -263.816883025075924
56.347078892825010 -20.970057745162599 -269.076453606995301
28.493002923434648 -45.195578062839751 -266.207399459019598
56.021090574227060 -17.892263256807190 -270.847905712356521
52.628800669191023 -23.361587210228237 -275.034413189873817
45.428302122184924 -23.864808707882673 -276.284540601671381
54.677442853771964 -23.003225914111724 -271.903118677349539
34.230366659982593 -40.155028686753475 -268.396208472088119
48.975583660562172 -26.870693854814398 -271.153548853761492
57.146902748211744 -24.479258320558063 -273.143311910923330
50.527556606904476 -21.996106920534590 -270.633685503500146
52.733577959220916 -18.929331915181137 -274.471308643225939
33.629736129870970 -37.408583790065443 -279.246672424505903
56.935150614811860 -21.777311606615473 -278.318160283210830
49.537569133786270 -25.202303840579738 -277.932484950815308
51.536411763497078 -25.029473984343507 -279.854629553626637
52.523165495081173 -22.852530251965806 -276.720258133505979
52.838857990208410 -20.995815499434531 -274.852395361601737
50.598571092248832 -23.932177283465201 -277.057423234994417
52.352637665139468 -23.286382502551856 -281.432585233907730
49.054111672448236 -22.517072476952059 -281.149350167775140
31.385233857873942 -42.231967682274927 -279.796037482052839
35.232621405618126 -46.765309797030461 -282.018249541510556
34.377712205019321 -35.484096169719137 -277.982880795372125
54.837688638636692 -22.165740449182863 -282.840566651341305
34.657252907500578 -43.378952337772255 -279.647485009567674
30.122919898817493 -42.162615929743538 -283.961286765343857
49.764150775714022 -22.864666284540949 -280.824376366110982
38.109995069504720 -34.872462454178027 -282.390676479789079
47.240766257524506 -25.751493122658712 -282.048189855772762
44.796110376565331 -25.988262109101942 -284.883814094730099
51.864266058635920 -23.423883245958979 -281.129663700925676
40.031265328314049 -35.719838455682250 -286.553764858627403
43.581569435343120 -28.689906744902100 -287.538686438015361
36.509179513370199 -39.577755007566637 -288.486779976285675
43.462225340654705 -28.739132938415224 -289.564399941771342
37.493560780955853 -36.625303988532700 -289.455112034928447
49.076443478143368 -24.833489535045036 -289.079434746868401
45.622592697938231 -32.334326917366376 -290.965663849961686
44.750766972333302 -34.059122904480581 -292.181441347208022
42.181604121976982 -34.832198195223320 -289.537347635797687
44.667696621563579 -36.362173506056017 -291.992558742456652
44.731440916688648 -30.351699092040267 -291.190374196310017
37.737838131276995 -33.684697391887461 -289.192659458838705
37.395708053810843 -37.308076496725292 -291.883425927746202
42.017945024128636 -37.237634342747363 -292.099591652950039
64.246711765407738 -14.452242293405028 -10.514633726869935
60.982249217831068 -12.228627135100334 -12.044781657420748
66.884066260992384 -7.817430158513608 -16.322619675924784
54.833115701156125 -17.347959030897911 -12.302058538325287
68.364812730775697 -8.461371310814684 -14.769410907154718
57.639265399192155 -21.711931081710407 -16.385119413694493
58.755061416499373 -13.745058410121819 -15.668533443814336
62.767723918876392 -11.170016976869958 -13.411795679093185
63.031068223230996 -6.124152134175195 -16.857913136611607
54.897178010289977 -19.782463558009201 -14.753031080711185
60.727232146399295 -14.455413949675679 -20.960325814607135
55.958729651912748 -23.304757920598483 -15.048888953212625
69.268964424430635 -5.160300261751570 -17.074338451765122
66.523352012239584 -7.366204310557078 -21.684675889518488
54.970994942754999 -14.642807319244355 -23.063482852640334
77.227232414921147 -5.227681406522828 -22.154776757210016
67.099069143548249 -11.457566975981232 -26.596912671778597
56.372366144195809 -18.293989755912726 -21.749428402095923
52.484058040635681 -18.420153033701983 -17.902395621288775
49.879756853004992 -20.341023193808837 -21.742338101580788
63.327416380144271 -6.020666339396055 -19.197099738647086
66.521003423722448 -7.906502353431507 -21.055593530445176
53.618148737192222 -22.064844756519051 -26.041244772061212
67.042863781782060 3.046127394608309 -25.065522365863252
50.314125640728641 -23.850037269082247 -22.535385255843810
67.314563679999466 -7.631332493453156 -27.344545022329580
50.941929083079238 -22.113436516508550 -27.973042033545891
58.859054294718767 -20.025806800870278 -25.923360948340299
70.017874029764670 -6.341870164267069 -30.202089176287625
49.332133654543114 -22.369180123720962 -33.013936249754138
53.369962731245643 -21.124956879033267 -30.406165897751205
72.639923200471429 -1.271413687925910 -28.279106548450709
55.954643806682483 -18.464356289716687 -28.542844462592608
70.945139481318705 -9.679262464878962 -31.637981447296955
50.390134243884845 -22.268699493575987 -31.870719164543324
52.883627868967494 -18.433028883959576 -36.428056840193207
49.807099466596206 -19.319169205391912 -33.837856889971043
53.260338172605294 -16.885625545777277 -34.357936718655068
69.472316615731046 -0.976116083614608 -32.441143513472468
68.013389098036043 -7.496885716356180 -34.749551244750343
64.703795634520233 -2.858637826465240 -35.141943934598721
63.407791479607788 -17.758589704311348 -38.263547729136334
70.423926937108433 -7.334079109016452 -40.374062027943623
71.796403889876501 -0.586872339763372 -31.529200711739772
60.219871007513824 -14.680304560254818 -35.877820605821000
50.578607413849099 -18.958105864128918 -35.689187108906772
54.979444852490282 -20.443516986627337 -37.565773431812708
57.189267177992150 -13.041362656961221 -37.908053253405576
70.474463783080836 -4.178089071715902 -35.187657263690738
61.124601814377101 -16.346995543751085 -38.611124784480452
65.265076152248952 -9.770863925161159 -39.223711572592343
66.240522638980579 -8.351033806748029 -35.208614334270763
54.843662983258241 -16.461263134318060 -39.281786940771866
58.725629298515763 -15.909745500498687 -45.512786809302909
58.086316877649359 -14.491348602093888 -41.880437538570966
61.122628566957019 -13.268001608217086 -39.167873446958964
-10.900370218735604 -88.000159542984065 -44.025240718711792
-13.271741235799539 -81.002699327378423 -39.017585121107999
-18.368126551178729 -90.139055850944530 -42.942156726035975
9.634252412284036 -65.604260865157045 -51.779816368401313
22.616059599954724 -57.372042801715843 -52.764042472419675
32.354565352198939 -44.998789214044834 -52.403256587969537
26.721279021710178 -41.567620717503409 -53.505864339403288
98.219690060193315 24.322540759479402 -64.167871752163009
26.410641812659581 -49.414570208935331 -63.334371483478591
109.580920127307039 32.326065842376813 -64.996637657685369
13.943004260144701 -54.397304865086184 -61.028418441750823
11.875887388566271 -60.501739807017820 -67.349514028615204
-4.897266574621986 -76.974208827441089 -65.549938184877306
-8.518470499743200 -85.639872119109171 -66.620180363218907
-8.260741668394720 -87.553189605690761 -67.562193139132205
-8.771702896274219 -80.309445805561381 -64.479483122741129
96.829184113332133 17.814333927757513 -75.149163286189548
96.085430078540313 21.667600740972144 -72.380859373363961
92.487395735730814 19.751986007070787 -72.833829421910480
84.129344419378540 9.318468738226159 -76.503844542636102
99.535527346625159 20.851142435065178 -75.330696079744627
103.505736433281044 28.479814707378075 -78.864555240641337
76.816509390100805 10.061899748567189 -78.049889023166813
102.153582820459022 27.442692779978042 -73.966599768802510
78.245679854132050 9.892391547366904 -80.407172184756831
5.253647971666414 -70.732648410889226 -79.065198269943323
103.308339006761472 34.889084550996145 -83.163919997727973
109.063887946671002 38.614278145535401 -75.468182994742321
77.914934025550892 3.890358379665444 -83.155152765734783
80.932702424270772 4.839547864265827 -80.466975791483407
105.207486651368995 31.262725298165069 -83.427886744490493
107.817909668147053 35.626530893325857 -83.134189716315035
108.575957251942114 31.978516379796346 -85.904730773218731
-7.513207056287330 -78.335547170564325 -90.587328714671798
83.265895704532824 4.477897924523484 -83.582061982561839
109.820644698847246 38.234407832000649 -88.973227460717794
80.697838265940632 9.835482209450742 -87.015922281403320
77.324804686910554 10.833603953130648 -93.809362477635204
106.465449535550505 31.145262248117263 -94.441203914238301
108.189357043624781 36.240647984097549 -93.018487001637610
80.095776190577979 5.623108331606095 -92.989164742325912
105.434869165976210 35.541022874057390 -96.312492071344991
-8.861289831471254 -87.151567173332879 -90.827593824713048
85.898552695655255 5.992955034095782 -100.012649034211705
-32.987515311998386 -111.145758332534072 -99.734939224965714
86.152793756434392 11.097213724386927 -103.809270902024394
-33.331475445858807 -104.825008450590772 -104.986143397212075
-8.051825430682401 -79.768958285843226 -107.475506298127655
-14.965871914962673 -90.115003578872219 -107.170687717412193
-13.074086387213587 -85.926964884607628 -107.729976668470158
-35.256585155279069 -105.624323392158772 -111.117376130492119
-12.432466476794195 -91.879858176335830 -111.150500733706693
