# This PCD file was generated using the MATLAB® pcwrite function
# from Computer Vision Toolbox®.
# .PCD v.7 - Point Cloud Data file format
VERSION .7
FIELDS x y z
SIZE 8 8 8
TYPE F F F
COUNT 1 1 1
WIDTH 803
HEIGHT 1
VIEWPOINT 0 0 0 1 0 0 0
POINTS 803
DATA ascii
38.413655184415873 -36.223017054544250 -237.386999257551423
31.003518661208954 -44.148466217757559 -238.034475916734181
34.237970938981420 -40.147550995536839 -238.122695277982615
38.128612021567378 -38.343206626787719 -239.270590749433296
31.168890029913754 -42.364077820874201 -238.395819086674521
37.631333732814767 -37.990961741890530 -240.426168971459958
46.839750763780124 -30.445532904652655 -239.267542540854350
25.855626994298522 -48.251869618095370 -240.318597423906112
31.859553602128734 -45.607547223580440 -240.056608837938143
33.687643409580318 -41.816798528144062 -240.960032739127769
42.174617232323477 -34.708189884954969 -240.189908961881116
35.314823162430763 -38.399512986282460 -243.350549846569720
37.942636074639310 -36.921570929423446 -240.654427433306722
27.637446616624246 -49.226392698691910 -242.952210229609875
41.559427795289785 -34.197681940399072 -242.204225290465274
24.700409698033440 -51.080875266031882 -242.692781254328395
28.343819166631786 -44.568632323546886 -243.115565992264067
43.261741112640678 -31.699702222348389 -244.081179031732688
54.429360401309275 -23.075596260412354 -243.871565006172858
47.983472245336571 -28.438359851784973 -245.037942130221154
51.198343801419171 -22.893362669312364 -241.867838500403536
47.312175670686521 -27.430418225457323 -243.018460521304746
27.019578106269602 -48.113013440834948 -246.510829356622992
51.685981185841349 -21.947644325264921 -246.950421856572575
46.303401917419045 -29.848939546560242 -246.873470993956687
26.699146734906574 -49.625251566175244 -247.881069071749749
55.040038847282268 -21.056363961464747 -248.117915173752806
45.139424885450410 -28.929285404677032 -249.610936629833390
52.362045168024771 -21.421339581415474 -249.529622566458272
59.159309191232182 -16.964618144243786 -251.248591025321986
56.399049038105154 -18.339915964791814 -250.911342392307404
56.427450549796156 -15.329043150117677 -250.248991357369249
27.994828678366851 -47.043349283136017 -252.365696125514376
59.534072029618549 -17.148297927773719 -253.283427274472615
58.916679332400420 -18.316019580252497 -253.531037899311968
48.190217889694296 -26.911439410064389 -256.758733134461124
28.941211103498677 -48.003554683498798 -256.371081194448152
54.398868472954554 -18.177284292480781 -258.882020548923663
53.854826889850870 -22.002589794064491 -258.745468839471073
27.074354431017081 -48.353465495598783 -259.153729972121823
30.502605193922342 -47.044052928059578 -261.262590984793292
58.428171118881060 -18.831326826986412 -262.610923237652287
58.199700097338706 -18.216301742032737 -261.472158964572031
57.322198141483824 -17.192256641948141 -263.578019964255361
29.210363293022763 -46.097420916310966 -266.003196375859488
28.987830341138125 -47.856647427465965 -265.331699347393055
57.449719667011287 -18.191198666871731 -265.759217406791322
57.538045497762852 -17.622540657916336 -268.893379360620429
54.688266633398037 -21.037890526722936 -270.798449838532292
56.483564578699280 -18.874854918575814 -269.495654060061952
55.247213048683662 -19.841566095238509 -269.573312070506518
32.665434152775170 -41.745180155218939 -274.506978727741966
29.791612751995086 -46.681164144060396 -274.985873219519362
56.754371050150027 -19.888920505188011 -278.267625285895065
53.875798410138167 -21.846528796297580 -277.255740932871902
32.970615139582712 -43.674488820968371 -277.766866242469973
32.089282922860612 -42.369466257810551 -281.308665877430542
54.287657466719359 -21.797329136412930 -280.548481953349835
35.063118035268154 -41.487355198843630 -282.486810562773940
33.606951427886706 -42.732841170558075 -281.226297333658579
52.203574125986080 -22.860129666248383 -282.131584653736354
34.646632773551460 -39.575013964297703 -283.255068376987367
50.494898859776647 -25.234037677139494 -285.166135299936627
54.829839726735962 -21.988655913991860 -285.699987054513997
35.122539732300666 -39.514790711929663 -284.921690671081478
38.790088328137067 -34.501322499169525 -283.947717259316562
37.686228425395058 -39.836970183761565 -286.698354499724587
51.151064362174289 -23.870888609892308 -287.867744433746282
48.731063857102853 -25.304446848094386 -288.539499887853083
37.849757517328108 -36.211726349365904 -288.231678576969557
50.843105352374785 -25.111081091224680 -290.365852456298171
34.792451731018751 -40.157205681193872 -290.417921297350745
52.242870379444845 -25.576560286508677 -290.683748854725877
46.273379585760551 -27.606653199328107 -290.973391221625945
40.376725070352677 -33.383376269590059 -293.555422579201604
47.189979476979452 -29.132262276391014 -291.333642801959797
47.411347827726928 -27.718371345707418 -292.421809801616917
37.385813094812669 -39.697148352779116 -294.208485139340951
42.506423271501696 -32.863880008035814 -295.615276455510696
46.587821851810958 -29.135465623594104 -295.107876580755544
61.452372604990465 -13.617307896948198 -13.164754203860403
66.517319999701442 -7.454615264887496 -12.140963037837519
55.107514434219560 -19.934088455287601 -16.548892469828004
53.108883931332606 -21.587745198322096 -18.334980563786090
52.948381093773065 -21.552993687850893 -19.604394650740719
57.033002818250907 -17.648021775066027 -19.225810647297234
51.538799133650507 -21.121358739283906 -20.730619856195066
51.110451675737352 -23.426556233485634 -22.299632893503428
71.974745338306960 -2.478399535020761 -23.721602243314873
54.895152618759795 -18.216094763994068 -23.798703515459241
50.245011146704030 -23.933260252978108 -24.744787920123120
54.030727144753655 -18.567722836971587 -26.762402720375267
51.866640800413101 -24.428529153507139 -29.839807958048358
57.343594206573989 -18.384723248298631 -32.427746732735599
51.706196388325992 -23.863494776880508 -32.748690650467580
66.554891508998139 -8.294726091236164 -32.167139101131440
52.827088677726721 -22.929882532943559 -36.168879452104541
58.462556745481002 -17.806863237933534 -34.630989371521359
53.246785447938294 -20.895382568604994 -35.492315271572281
63.008499872233401 -13.349113302376768 -38.194984939807952
54.291787999478544 -20.485263634648792 -36.738795883932738
62.354514916517573 -13.915822979172907 -37.708186446465668
54.952305825746180 -18.950378776430000 -38.295274190174275
57.853454040873821 -17.336764409745165 -39.740186115007631
65.912806793285284 -7.961031254885381 -40.139538834584421
61.129038502620915 -13.604320280516244 -41.645443369753536
60.322011881717678 -12.941218286964061 -41.283698855087472
59.750472623258531 -13.718674973526591 -40.178810140827608
64.372826269359024 -11.315353406416696 -41.895827661227457
63.144255107564014 -12.931949086323812 -40.895821942336056
62.368413326797835 -11.320191016309710 -40.078582682641120
-17.612831097146653 -93.074454865762505 -44.723162435858114
-23.759734060679577 -96.058501499689100 -46.097802493531759
21.636554636333329 -54.291025614534000 -49.691583782654156
27.500496191955328 -47.458681111130716 -51.921275576684664
30.574008474038866 -44.615233728273054 -51.385122192254642
-30.674556728348772 -104.253495510165038 -54.171449751549353
-30.604336871853988 -106.454806887223185 -60.250808250271106
104.648577050187470 30.239850054723195 -61.351161984421317
27.897398968299829 -45.990589860393669 -61.493009533152865
85.959257141264075 11.654478092064986 -61.330829401192879
-8.920992588416553 -82.287986631767879 -64.092012563880971
-32.253204710058398 -107.975635315575033 -63.644607652593294
82.393660323849218 7.770186740966257 -68.609662639531138
-7.504425386275499 -82.198069794556233 -68.884008241795996
108.139659865674304 35.224188087762293 -68.226148310988123
81.624661475551164 7.650471009301222 -70.165333338344155
109.804172710806853 34.518002324879980 -71.251067893854156
82.899616611061631 8.431768469187052 -72.424824453687179
88.527256468367057 16.603819999099205 -73.255806059645195
83.550911255628762 8.983029931134144 -76.509064221373521
89.676709983899542 15.477384681461524 -76.724649754097058
96.522211061460041 23.267747717740590 -74.414349522451943
91.057870206692257 17.540405586175943 -75.080113780436889
-34.368161180126229 -107.702476671726714 -75.002746734256746
87.248942403705698 14.456776221591790 -75.470733899783596
97.529236797080983 24.008147452706464 -74.446743702129524
82.913232071267984 8.719185748766130 -77.744001304105652
112.292578235027477 35.965679564156638 -77.014586299216219
87.474382150273257 13.701440137923170 -79.113191730818116
85.121930252848159 8.247440361286776 -80.428005447433733
112.426991328181728 37.374125438622364 -79.697083894450643
2.099853661797603 -72.627412302161460 -83.224951320770472
104.264195456473303 29.546993957465002 -83.650117308143706
-0.242057969908652 -73.815113376759626 -83.554158536204966
-3.307003850005806 -79.514597069505726 -86.470792314450364
112.572094892645325 35.389914476648251 -85.307375656788395
105.581247792152070 29.766698505784166 -86.269814641236138
-7.240699064058436 -82.992221008514292 -90.376845183206868
97.078325375750893 23.259602185611637 -96.033178070948253
-34.035412622009822 -108.753439825601660 -95.034486070983334
91.697456361637606 17.532169063314072 -96.221945084071962
110.158699697328672 35.117362711067727 -95.756127477213383
97.840476325764087 22.215135268921575 -98.262403976192161
88.329243293439390 12.883686013106745 -97.540667950597197
92.041378978505264 16.871690228421151 -96.483580251951025
-14.202615606729232 -86.234816427473959 -97.643037141209291
86.558375376897786 12.154425360039362 -97.912617684061473
91.015562003773425 17.694842326843229 -97.070692995385926
92.295998397256554 19.550531760400357 -98.259987542649299
85.129252162194348 11.837545601498249 -100.993859429526722
81.419035454154354 8.236166228720432 -99.663340409615657
81.147841984861444 5.938116424814669 -103.304990826535487
-15.308941684564125 -91.016964821040375 -104.888757683067524
-8.667063979744432 -81.412301780085826 -105.956087324761086
-6.601519781915090 -82.328152789656116 -107.868542772879039
-14.308644543381719 -87.713771368353662 -110.048988364513150
-13.685137280479244 -85.871289602139456 -114.416892650689462
-30.670230261094019 -105.711906481038270 -115.977253515797329
-7.510872836630404 -81.207921595151134 -116.947086964560981
-8.772278533012647 -84.525363773319256 -117.968436896792838
-8.203732864339539 -81.142248252094134 -118.775764661423779
-27.266227465670259 -102.224480453454817 -120.678808458865063
34.214209202112905 -40.806868796361570 -237.419476187252997
35.548447956853998 -39.594127649212581 -235.770959308191834
50.179212165603658 -26.884855097961321 -239.005198956414915
31.309842462864111 -40.220443087978730 -238.140907353043445
46.256982768934321 -29.580968107697469 -238.350781029024319
45.736965152880742 -26.655563772440281 -239.557998710249109
34.633044961985213 -39.916812500962671 -240.579115246002459
49.621140232248798 -24.922117199923346 -239.674718610214143
52.588386632892416 -23.034729321503221 -241.813901791061369
46.633908341925604 -27.606534033373382 -238.535361705060268
51.743577431181450 -23.949177072414493 -240.312282055659296
44.738257310758790 -30.871124827754652 -241.360339669018913
39.368838235667340 -35.322219680353520 -242.468725499688503
52.003992838493282 -23.951297057027993 -241.833770230500761
30.331246893881282 -44.485387920140290 -240.814305280312340
34.912654852880131 -41.043199310655702 -240.936149253230241
40.400145909099130 -34.367759400257711 -243.063326683147892
42.802881402127575 -33.203579256178394 -241.661816321150837
29.549735474117263 -44.483273121164778 -244.221805096102997
38.383954254982420 -34.655516195367007 -243.037087673306132
40.404966724615278 -33.091326196252311 -244.042125287734109
49.277616250419356 -25.818035793881261 -244.815190067024332
53.372354582452481 -22.088496316169490 -245.469222101071182
27.961282288020669 -46.516326238124094 -247.633673650965278
44.513294221002091 -27.650897234132373 -248.385032595017833
53.791626141244201 -21.534949273703191 -248.363601945730892
27.560216567305645 -45.788697640658860 -250.546388429573227
55.731721154171922 -20.048572100590540 -250.020574991758622
27.307649611869298 -44.278267998557183 -253.387158522441865
27.546475796465909 -45.621575299887091 -256.320313212522763
27.598215439662837 -47.247068761728819 -257.046917286761641
27.339699355177252 -47.186280620641952 -255.629534396425953
27.980462283214194 -46.379975658585280 -255.979646023251377
28.295753698001096 -47.733731242690034 -256.811203750227264
27.665196809533214 -45.974456780041557 -256.945063476429766
56.665254296614386 -18.362438397321277 -258.444142191231322
27.378303448083837 -48.599127635624605 -259.539026851243477
55.623369376768011 -19.101077152659187 -262.330874058762276
26.702163217257006 -46.616125165799488 -261.672457197594611
29.361351251581443 -43.464631535512666 -263.714638291354163
56.649874708057929 -17.204952818299368 -265.125780722869024
56.634137841043263 -16.276903047649647 -266.375744250388209
54.598593077251238 -19.318300192529332 -266.641833457665939
56.233315262810464 -20.024960616722286 -268.100441813791406
28.383661316473162 -44.446309614803617 -270.531468674482880
54.793485756831402 -19.850763373202231 -270.568448944573333
51.828870930086993 -20.848412274804790 -271.839185304580383
47.845794381435560 -24.694748924811798 -272.495834082777321
52.744641668465881 -21.577096268397863 -270.846694192882580
32.941156504429969 -40.985401764999594 -272.283735096789428
48.146651557258998 -26.320309738967705 -272.778553880070945
56.877852062513483 -19.074526008989213 -274.110368879815212
50.767135024068075 -22.217109416617827 -274.562886069587307
53.418419861458972 -20.519096115505594 -273.545970848475122
35.206916012825424 -38.751569778714632 -275.356688889992711
54.939803660137393 -20.374305314110593 -274.173539352439661
48.884700944590598 -26.505777452232898 -276.921695204793593
51.799847773473083 -24.535677508383504 -277.904381910777772
53.695994700961144 -23.047319371188397 -276.026940252999736
52.044721597497791 -21.934116304648828 -277.291660771990905
51.857427477738867 -21.654473016734148 -276.633665401114058
52.447763803943559 -20.489896129096596 -276.404993370399097
51.840438606235196 -21.709889086165923 -277.673952885088397
31.711048796772008 -42.286317461141344 -279.064168672294613
32.386785534978003 -40.825504947377624 -280.228923806667297
36.260383916122379 -37.130655365100040 -278.756179005822673
55.117143820329169 -21.099983538779330 -279.749089958782861
33.858358342383333 -41.401097290914848 -279.457166940488150
32.813936948271177 -41.179425178482340 -282.658883725971407
49.917559644082218 -23.666108849360636 -279.993991712327727
38.901120197205678 -37.466689668490055 -282.546163349320693
51.443039286889928 -24.322290912943561 -283.294769463055616
45.859933099367588 -28.236481238740186 -284.309856620340099
54.391056281124150 -21.952004414434217 -283.171503061760689
37.242975570291293 -34.604396856256628 -283.276873217932177
44.460557489769663 -29.965270466605286 -285.601903894609734
36.338207355174895 -39.668792319652582 -285.688076001658487
47.251451960942298 -26.254029505443597 -286.031458434978163
40.804774383043778 -36.474094813953442 -289.037221941823304
47.250262587297641 -28.258148085828172 -291.500068270705867
45.607386101803812 -28.470070663333100 -288.081960940329964
45.137395228142374 -27.871573324999662 -289.807105661708590
37.856770834147845 -37.112305908634447 -290.065114311800130
39.480780613362690 -33.002913066598097 -289.328203054172889
42.425974371136832 -32.068678813568482 -290.603441452889797
39.556060847843405 -36.097501509409845 -291.183836432290377
38.363547952964055 -36.720900145150296 -294.488498277295719
40.152676501290195 -36.848536605702471 -295.074615126760875
62.302101284970959 -10.717109847673857 -12.800757746179755
57.699742356916950 -14.466681232965245 -11.917821019885039
65.894637521084306 -7.211319024091186 -13.551320434547678
55.392539214029533 -17.823290489778149 -15.076242144192705
66.962982474787012 -4.903827038450731 -13.647002500596038
54.112226552794233 -18.794987310797502 -17.054977038970527
61.295776835257158 -13.951581768066129 -18.143451665955840
62.940113600187473 -10.780220040333370 -17.664648745097104
69.306925398645262 -2.373657701221140 -16.393464374330197
54.177795721779383 -18.682021907564469 -16.404774274271443
58.594091397092555 -15.772271741006003 -17.214136800107600
52.652976469229159 -20.885312643781749 -18.777475588536454
68.750696447439211 -3.531637732456026 -19.157685533989859
65.074186247434795 -8.305576506719056 -20.192211968422889
56.553999361384157 -16.670734298620992 -20.211091662660994
71.404332994391339 -2.756051482912254 -21.880577851874314
65.414406588471309 -5.938406935263476 -20.705143644482479
54.042056529270404 -17.440457559329008 -21.275822317480117
52.210081697747000 -18.720430170505900 -22.374155192598103
52.987986286706466 -21.515914494388213 -21.029682833856842
67.136044459104056 -7.724199074354628 -22.234406251358866
66.954774124065281 -6.797126194149961 -22.566916172045715
53.440145509614972 -19.403225934278364 -23.856941529417032
72.725207272949561 -0.813555827857844 -25.062426525729137
50.687576829829915 -23.255071795151270 -25.204673811973379
66.747984382458242 -6.605429798418522 -25.673372101066640
50.491312679372989 -22.757131448575688 -28.851886417978356
54.008875210756692 -19.981886040588364 -27.778645440067034
67.109672321324723 -5.338944946319369 -28.242352464918245
50.527807101678235 -23.090913310740667 -30.889144564272410
52.640721225374882 -20.340262437607468 -29.305014768823728
71.194047849854613 -2.304627313181953 -29.121811007290930
55.334666471610966 -19.392242829094744 -31.207259681105132
67.215450450388175 -5.559622388578387 -32.509492380703740
51.098166140377437 -21.143621582505624 -31.556099125920426
55.999215008753104 -17.779087505593047 -32.996002331892768
51.365109019967647 -22.148861425909832 -32.184192259134683
56.908463262155976 -17.076495986731544 -35.064251422948018
71.817873326020774 -2.750125934897781 -34.163328472233971
65.516968568601285 -6.955302981763213 -34.888004688583443
69.052240816641245 -5.095030675668526 -36.457275299439196
58.808064636029165 -15.224239509594762 -34.719566784622117
63.409279847923791 -11.384572427434597 -36.934437021188501
69.828113294358218 -4.659593936765599 -36.662244081959685
58.892399043396871 -14.214750159064801 -36.335871551465686
54.479838301788853 -17.042081728341369 -36.311971063014312
54.725606366654333 -19.963534443737569 -37.179359690053268
61.118344088996807 -13.288363484462504 -37.442831893101264
67.491067538237232 -5.619413667997775 -37.153362065348418
59.866966507624603 -13.446464895291443 -38.315641656736986
61.326603598446845 -12.430245717322004 -38.264564581402759
68.847308010552595 -5.618848032112943 -37.403010286987353
56.528497664405322 -15.811113797162857 -41.034332910205521
59.343154373154533 -13.779458968806701 -39.832262994257057
57.826699838241296 -12.556487583707964 -41.347453122351411
62.584139945341889 -6.316536233943457 -40.340524680704839
-11.034668622358112 -86.368233065850092 -42.637662590556019
-12.187844584121253 -82.660461562993305 -43.032805709752424
-21.036066877216999 -95.338824896756336 -44.521238747133161
12.044441934968187 -63.395152050530150 -50.619051230741917
16.857098143853971 -55.778997207960785 -49.639405977452604
30.953990950842183 -42.508235794880477 -56.695522455149856
30.772176995230549 -42.013801294384443 -57.843474917751990
95.927569789662073 23.968177236108673 -59.020098415477534
22.809012444565042 -49.834071899540945 -60.572281162673910
106.220155054345739 30.681203111356343 -60.640369057733537
17.174532207555526 -55.298148762353328 -61.670433742568882
13.543014402367811 -58.345437726516700 -64.420243239216092
-6.727437908053358 -79.250304805967232 -62.553966240791659
-8.420087565153318 -83.980538587063663 -64.681111253226518
-9.141036542150538 -81.680016367595556 -65.611847301529238
-7.600114030675257 -80.122656029164531 -66.622057604944459
92.355531363531014 20.133322612561823 -72.450892991090242
94.394302287258569 20.469969722693353 -72.551826229722096
95.854267535750552 22.144865305269668 -74.911101250956662
84.606549136527846 10.063823764754602 -74.785861619035003
100.761240077186088 27.543216767862177 -75.318953258353176
101.099921242024365 27.719021736501620 -76.053810928833940
80.942939514428275 7.215107964638809 -77.212176732111089
102.353695709825061 28.234686229001849 -76.453571286307451
80.334273233276434 7.484065388046259 -78.691687418029431
3.843950172651286 -69.868169510385144 -79.011099109221121
106.590032659080052 32.184914865441414 -80.431427839159596
108.591941214889289 36.351531779964759 -81.839049547224349
80.828946276387356 8.807800107392982 -81.508377744489636
78.620169829634492 7.898201938055736 -81.819895696397779
105.519483894934623 32.574989239059640 -81.322263045508535
109.190606835202914 37.038675372890836 -86.448418358484446
108.251737053239211 37.364560337849042 -86.728543870849137
-5.762675199205704 -78.941494202320442 -86.503961160109625
81.443362915459090 7.296565200209254 -87.448983188999605
109.913639817258243 36.104040946014351 -87.601291283300938
82.177731168921852 8.420475112240176 -88.906967768706053
80.873628032667867 8.300553742598684 -92.092876982500187
106.508266955304308 35.072259609683890 -92.707520214432137
106.816608523033011 35.490760970582585 -93.165991674312650
80.196369153351043 7.788779698667476 -94.804189900497235
107.968543492548179 34.676799668454358 -94.841122146106400
-11.092223425938109 -86.562212125959917 -94.843267347879149
83.265716357865628 9.581873533230356 -99.430547169357851
-34.012661533605360 -107.637903109705888 -100.596364344773292
83.302530462125489 10.984745223712959 -102.205509740255721
-33.025364123336900 -108.792608526549941 -105.659745220960176
-7.445471327428946 -80.891683130421043 -107.372483142587910
-17.357465509547136 -90.342804577655158 -107.453734674359623
-11.170667881893026 -84.347740473860057 -107.431560284694839
-32.329666075662821 -106.802385862423293 -106.235730580577354
-11.876862511872933 -86.442351541731142 -107.876879243820611
-7.169026853617164 -80.481375368313152 -109.314153202396724
-18.013707436319486 -90.742796275489141 -111.121434998918630
-11.853387074922383 -85.405690438192110 -111.881921347527040
-9.549756940844038 -83.741087566045437 -115.372510162202161
-7.303068385525943 -80.791527244995606 -114.324496889698324
-29.654835080463403 -104.167685223693141 -116.593232238061631
-24.526382442457290 -98.651374491495048 -117.422229762119969
-30.760547127458576 -101.468343124905374 -120.932047626873427
-28.384314956860262 -101.806982949567569 -121.033557642583020
37.407282291162566 -35.623260141767730 -237.778486109878969
33.925427252469767 -37.688420562449807 -237.773619599222599
39.784168188214821 -31.808444282171077 -235.290552729880289
44.831200424940114 -27.839571232180266 -235.288801420647957
35.667793821815252 -37.484210369080316 -237.306763178267147
37.077713398740642 -36.273468637127031 -238.925865289204182
38.577621227849612 -34.036961389502892 -239.670125390999857
42.739700368643717 -33.181064648393431 -238.689517480221468
40.238859767211601 -31.804562116556358 -239.778742402751533
39.968094053821225 -32.953907923950339 -240.250433701862534
45.143886704918515 -26.634772697379042 -240.780928646854932
46.928231798786783 -25.651540624206937 -242.180319932877438
51.710351369958218 -20.531288944793136 -240.585141582284592
28.316677199863918 -45.048509835815786 -241.723039171222865
27.759693754950280 -46.484864623448793 -244.042210401188868
49.454907661931593 -23.056339820311141 -244.164360296109351
47.249516692102937 -22.226167026813297 -244.103924569314756
50.763927493795400 -22.965788421427629 -242.291920703201328
47.030923643888379 -25.606320212305622 -245.443516174136022
54.083739596032650 -18.939109082663734 -245.535478173320598
55.402481320945000 -17.330934248241885 -246.789904500451172
27.946458733675875 -43.454555531216982 -245.759345813867299
27.720792187850058 -45.016557092153413 -248.553094652464125
58.624425690880798 -16.381247705733802 -247.803842456058874
56.708942653866778 -16.650309008732368 -248.537554114958908
29.395239524771942 -45.782447049658344 -250.018813513522673
27.348161152489830 -45.125214704983364 -250.151453260172161
25.578917241281687 -45.973262342281963 -249.503778273966191
28.128997618516465 -46.312516626215583 -250.502809769620711
53.249819238575910 -19.335577158230013 -250.489524590464271
27.945436828418789 -45.391208505911251 -250.601121856677878
29.155446819615058 -42.120216869866844 -249.480772690403683
46.983528004758476 -26.828325986044554 -249.491708231828937
30.104702682110585 -44.744440971945345 -250.567208910038715
28.482631344642488 -43.843573160633404 -250.417751297416487
41.184603067056599 -31.087789860574059 -250.738166577319305
56.469825360165565 -14.151060109261245 -250.852059149811254
27.424347107577795 -46.186023616359726 -251.080960563950185
28.184379659124591 -44.531182366603069 -252.633442851237646
57.823057811185400 -15.349411102845631 -250.691605268883535
28.043954044991686 -45.788328885126916 -253.006587820522782
26.189814805037152 -45.242429945633482 -252.465961305224880
40.093230231440089 -31.055112766287390 -251.412423215355801
27.309301317242287 -45.337884201425126 -251.241668135731118
25.988014637378953 -43.804209081823046 -253.662620037371852
27.519598316426642 -45.779257900803103 -252.746510874233110
48.118627193628789 -24.282645809857687 -253.595266265407304
26.443025164035756 -46.770729690098079 -254.429653311764781
55.705924478165876 -18.162388707985876 -255.262345126653543
57.674666388051143 -16.490933322464162 -255.396816044816433
47.182256469501375 -24.865244849863441 -255.617368360176897
28.107239786908149 -46.787209519936503 -257.613780150865409
48.571891343696684 -23.994034431460101 -258.384698629010188
43.844274430807076 -27.450697890696134 -258.884437933396157
55.390467320939145 -16.579159996075123 -259.762536274767058
30.190323565387992 -43.429186564201494 -258.662597330459505
55.324896662118306 -14.880686938143329 -259.381810208521813
30.858246413247681 -42.066099192567137 -262.314779942866267
49.212988080776498 -24.527397827623815 -261.853564981133331
46.963204465298489 -23.374004258768906 -262.075636180489141
56.338279105776635 -15.777784816580462 -261.931061631392197
39.286440599077345 -33.053513465029589 -263.047494998735544
56.706471114342357 -15.621760463410215 -263.011994352810405
27.418333309293001 -45.132474143988382 -264.610482340176191
56.578110023325294 -16.034978436908027 -263.533264624390995
46.129676429498730 -26.388307360298420 -263.868357811126828
34.480353702221777 -39.823254535841897 -266.147674776875817
35.166286639167488 -36.957523328264948 -265.107682830501346
43.917158365552190 -31.125757297200995 -265.557567860153767
54.934523257347259 -17.827603623560925 -265.936601331671454
39.342008977353814 -32.858502163232778 -269.614672242612244
29.002381313190867 -42.036444745475357 -268.883063714199295
56.109045145320380 -16.678456881735869 -268.412017699894989
41.567233859368187 -29.905998580896373 -270.905592030988885
48.965979639992078 -25.515473081754447 -269.463792256662259
54.945289178768384 -19.778954444737995 -271.437498373111737
54.801774390660931 -17.409883202845741 -272.192084685222483
36.541163394393138 -36.515913379139540 -272.232948450015670
56.564247917534580 -17.282991996772708 -271.424712472054011
56.028603410014938 -17.379844695476795 -275.264969124946333
32.222745872809369 -41.350672654689056 -275.546771994226731
51.013912500250633 -22.861831977937566 -274.036625671862851
38.842876763482330 -34.141658487119983 -275.897851538650514
44.826787746447401 -24.698568811281760 -277.506355218720557
48.302320283949228 -21.987348059916915 -278.532793762220706
54.426755816302460 -19.055988326394353 -276.237988881209787
33.544264642694202 -39.571107266446027 -279.296333669359740
52.880740438584603 -20.199447745078867 -278.353502400680156
44.684153437978139 -27.749505909276628 -280.042580392560637
54.538213788682668 -18.939614574549832 -279.971571826035756
46.648116237953971 -26.302782004813668 -280.688760503040896
49.397274366018884 -21.545009369014281 -282.990245160388724
35.586823248040297 -36.605268692324806 -282.099618810233835
47.027905251492676 -25.173528238650004 -287.484702504725931
45.419313964715656 -27.694780006695947 -288.145400102925180
38.925399495442697 -36.495529238653610 -289.034018904955872
38.762292610327506 -31.765704456318812 -290.647324613415094
51.044374613523772 -23.141569178436082 -289.095835909315383
46.463404083646935 -26.051136167981664 -290.594819410743980
40.173233717038570 -32.342734587889730 -289.689222266430022
41.652823991046375 -29.336820122287737 -291.705313819874561
44.153532741492086 -30.557625798827569 -295.222502014420172
40.106936182589422 -31.015799683806982 -294.401952451149270
43.060943812015275 -29.691210564223145 -296.649972163856148
58.916174386588821 -12.870102353664709 -14.878235471037931
64.297706632237563 -6.894343951250059 -15.123194041165304
65.932934066563064 -5.523278725841268 -15.335230914490873
56.552895839746462 -17.036435450440287 -14.387960840094888
62.169156595333767 -10.339252169526588 -15.309152494169142
62.667138948440019 -7.765786896050865 -16.973661137758391
65.229798214192201 -5.019453071760086 -18.197895455177068
56.394280605822885 -14.627944157851472 -17.026455144303615
64.174270521953176 -7.120024026890096 -17.933416562343336
68.515907294964819 -4.600536224978251 -17.409656453162047
54.257318980664657 -17.164149137939738 -18.656546058127361
68.437795535175965 -1.688622154289998 -21.614754582366906
65.755796530721184 -4.237222431050275 -20.667873057721536
69.362647105349808 -1.788311178236098 -23.739933304301392
70.792661391296832 -0.561173670621634 -25.112055768704796
68.634558314441207 -2.650095298166525 -28.591992229277189
68.014035010643468 -3.399558755141756 -27.671590400888178
69.617753527546981 -1.000361678955523 -29.982249234169036
65.206739262672016 -4.538007014180125 -32.221224439591147
67.763933190184346 -3.194371997749432 -33.814779885469207
69.936053267435597 -1.588345142569541 -34.632597846571173
64.995034546660463 -7.283046083675989 -35.499931425847372
66.305810675251237 -5.559389399071308 -36.880632762443888
61.908614275314598 -11.397887905050718 -37.001530183594944
57.274000116464343 -14.799288327116539 -38.558426059120194
64.320393989261717 -9.035289225915621 -40.560328867111181
60.057135841727103 -8.949285319791732 -40.590028597051621
-16.609334660051296 -87.713702109151782 -42.344913273696001
6.995498887043938 -64.374611259085398 -48.900762911912437
23.913197660210940 -47.497762131928042 -52.326010418665838
30.432078033797737 -42.385709982609391 -52.724645677704217
-8.820170467903740 -80.809816600860529 -56.124680827025180
-30.651788604339675 -102.067538381733911 -56.842176889963561
-10.700085583357753 -80.571013203262083 -57.431979084831092
89.869723666648298 17.215848491802880 -57.899975909142540
92.384028425705878 18.919681164240664 -58.345149908566221
-6.228953161032302 -77.401211981599474 -57.539103570638510
98.699652678684686 27.382647266921641 -58.658527219973649
101.387977712510931 28.193904987444114 -58.370704135828703
-6.620753412579163 -78.741417912018093 -58.188965821955527
84.601505245781297 14.272547467042177 -60.169508792731563
95.696649746183070 21.889018201480859 -58.968095261661738
-9.125703507184506 -81.797209231791541 -61.338248051210677
18.179490830283175 -52.862475984995413 -59.802790563982398
83.468845781671178 13.306587631987695 -62.106789101824852
83.865239664118221 10.243882475512313 -63.107646504582327
105.780523521449510 33.845117712129458 -64.309597473347864
-33.599648167984348 -105.973735311484120 -66.754361171016825
81.697911745978388 11.882382057710435 -66.978098715380071
83.728138088930166 11.048424498079505 -69.777739994301029
85.540172510014983 14.801703009525532 -69.582591234178551
90.175841323628120 17.582135248532698 -68.975219024461097
88.555892725688167 16.704170481054671 -70.406994686594828
93.934759544563590 20.740560881780603 -70.765393012640232
8.712252316929835 -62.313963965331212 -71.536912298804836
82.400950243279624 9.428950814834304 -72.556211473467272
98.036761884976968 26.424910031990120 -71.176103244689301
8.278069850398632 -63.044974125009460 -73.349291503194152
100.503004846960707 28.334795492755084 -73.621489913167309
81.990013200867111 11.014863309592849 -75.356045344215886
105.149190560917987 35.630662004936738 -75.662752790553881
108.149785342527920 35.837060231121491 -74.732012517523472
81.159798321819224 9.187358969050697 -76.712749880181434
105.798919878148595 34.221011826555568 -79.076106394246835
109.736155289357754 34.799122434713702 -78.873557545349669
5.740453320205487 -64.787475176247838 -79.599179299688387
-35.683723456160756 -106.852287166863348 -84.887174256288588
81.490433040180775 8.952441852631972 -85.266937532449688
-2.892021074195716 -76.906653611058019 -85.391104913480078
106.907872205022556 34.309708596434987 -87.642673573655003
107.739141025383020 35.647561305063824 -90.599369698584411
80.468641046987216 9.343552864452839 -91.625002848738873
106.621519830532577 33.433913494649246 -92.355597607868503
-11.786663568548320 -83.863428752842509 -94.710168267893181
80.587672138727896 9.253801459881204 -97.052371552907999
84.059256692736028 11.542063331027681 -97.531186944341812
-14.409512224488655 -87.356947952034659 -99.524494112959474
82.183762279404291 11.681506564702937 -99.085984714976249
81.489555340638915 10.972991496933728 -98.405644911216342
-15.070451457627131 -86.775521918652856 -101.893840995548089
81.766600916344174 9.412715871882234 -104.234649261920353
84.152044835379087 13.588934235782208 -103.599135530861020
86.661627545814198 14.816482802221728 -107.148903777313890
85.599886087427720 13.881865675038988 -108.007916119087625
84.602499061088892 14.096058477964601 -106.497982279111554
-10.254156829837040 -82.483584275136138 -107.567988782614535
89.729983905571842 17.827095713581461 -108.872598366350189
88.457373618863400 16.544547442901788 -109.631364470589816
-32.551151397932173 -103.648798359849607 -117.992625899958938
43.870994345244924 -30.131293345671583 -235.857286514921412
40.526647090482349 -31.451230075789095 -236.290050027795644
39.147598953614242 -33.163849802935808 -236.194038079814646
41.612794881982239 -31.190539923578267 -237.273664779071254
44.759900980736205 -27.106833078424483 -238.456625292229177
43.960094902681320 -26.970730588140864 -240.828381610072569
51.500852804379598 -20.481539316521832 -241.771209071630409
53.120424046936627 -18.742787100623094 -242.366139163029146
46.749305476034429 -24.934259231997245 -242.337813615887711
28.394398253067934 -44.228251930183710 -242.308376616623150
34.203279374857473 -36.687443238333032 -241.043726883939740
31.492217371735922 -40.480476255365403 -243.627838868927853
37.795838448007679 -33.618539684334273 -243.098569294582632
31.401688283290085 -40.387485657319743 -242.861169381595033
32.773332527952633 -39.003147779387675 -242.819055256912947
42.279089408869645 -28.196207035191598 -243.478412223837552
52.667032844161135 -19.243633644519974 -243.753888966551671
27.781673559153347 -41.864289860975923 -243.839556700863454
48.241867480188404 -24.349179794112771 -244.437329999277011
48.663745799060919 -22.579030848548989 -242.546263514596376
48.236848742041708 -22.744147619445297 -244.570053996841580
40.131139893809475 -31.838148472545743 -244.517513265768486
28.290485282937759 -43.242764351452387 -244.765875014927843
38.423743140332355 -32.960791087578691 -245.728320941098616
41.153411212797096 -30.620891967006930 -246.192545556177180
45.208556013183639 -26.936129984183260 -245.858331074450575
50.798984569818948 -23.040643369726688 -245.592184169568867
53.880901442363303 -18.208610678150155 -244.968851111425238
28.359999316052601 -45.451476028633614 -247.023241411906184
46.748917449072273 -25.934518480679010 -246.784067519051121
28.607243051247700 -42.960415070882945 -248.179873971988087
27.205533891697357 -43.427492962556563 -245.773969799364437
33.423028470053630 -38.580821595215291 -248.461324690549333
31.059485006473569 -37.974962223548097 -247.824616291378305
44.995672078611875 -27.029014439074565 -249.095528132764997
58.669662868422584 -15.857360052778123 -249.019761201927992
24.756936066577889 -44.707698722767589 -248.933992483080544
55.990508055932395 -14.949608288185191 -248.233957248215205
28.169721700812005 -43.586392364621467 -251.120611367852973
28.192209060999190 -42.569031402930293 -250.428015302569577
51.363342883449548 -21.019899529304901 -249.619651608431951
26.904081218480279 -44.773428894087608 -249.735471491349045
29.052464224948338 -43.383645678531707 -252.045003964206416
29.307112520411419 -42.671416093122119 -251.356007361637126
43.734493107367022 -27.041879715666649 -250.557353228182080
52.250437640471716 -17.709416977076231 -251.743593450563537
26.627366940618092 -45.432115923494244 -251.890725280125025
36.319910939529173 -36.454166853703057 -252.086304509257673
30.378151753189382 -42.054236514961701 -252.848251140475838
34.588277741604180 -38.887598836029042 -253.668638987466835
58.303847501937049 -13.726048365424239 -253.512550780439057
27.054021836081933 -44.676079902814053 -256.366605771027821
53.864619951560492 -18.205208961232309 -255.229810497499813
37.591032932942056 -33.524554767616543 -255.010420441010865
55.290619629008866 -17.435452936990590 -257.386452397695223
55.784730615878296 -14.865343501727383 -259.452576150243601
51.933668109189917 -18.910841942591297 -260.023988887664700
27.786296547170227 -44.643832331635984 -261.459314189345264
37.026097363328006 -33.310303601070764 -260.725820047190780
52.359926175007175 -20.223430827343762 -260.670621611611466
32.871155734663006 -38.535474943196775 -261.237005377435196
53.481175305266078 -19.711300066591370 -264.565845080384236
56.402804722362148 -15.176991361973000 -267.083205448044680
49.706731940916185 -21.269534643803723 -268.362663106387743
31.928909970089592 -38.326351072494631 -271.638587529197480
53.336878930127732 -18.861507575029584 -269.962788976273828
36.397802471418032 -35.590187777649412 -272.041579252341592
48.062196133937114 -22.506057847538465 -271.215318317063350
51.343493381034300 -19.504591507355894 -273.067552813461930
35.706959416817227 -37.392321844549585 -275.819363478596188
54.923768055243478 -15.829736694667538 -276.205098304535397
45.336024104385210 -26.033135515608464 -277.106574442279225
37.646196794313830 -33.500514258409517 -277.152802742814288
40.249568463853613 -32.721581970036965 -280.597672937018501
47.449376782197703 -24.072213805029396 -280.196378476968562
50.569638780086386 -21.734563700356333 -281.044571138818242
37.932787624240149 -33.485938527218529 -282.143181025216791
52.171295892887812 -17.114240292190591 -281.821316055312934
53.307470200573313 -18.194989043770455 -283.232922472245093
43.084440558601599 -26.516551433942723 -285.104993781405199
49.201683727097915 -23.072546422964756 -285.664053004927155
51.500604863945817 -19.709377805193498 -285.388416567619970
52.651454178675451 -20.226084196540548 -287.543858812290068
43.455318379242790 -28.314005324919947 -289.227329736507500
50.268020517287056 -21.423103108662790 -288.720352546944696
47.511904315060590 -23.248502733246436 -290.714939587152230
47.126779376287026 -23.809211319842614 -290.925799525599075
50.004663055308193 -24.330778390022360 -292.678759460289768
46.178957864585740 -27.036106019618671 -293.915021894497954
43.499806091750010 -27.738700187585597 -293.622262531964964
40.735871834868490 -30.568844638574053 -296.440189155052622
42.158089433236441 -29.645185979606929 -296.915513243242344
-13.539664410080919 -83.604544186560346 -43.250682254417448
-18.049870648927683 -89.363103936944071 -43.944722106916672
-8.310982283891979 -79.523154152259096 -44.103284859503106
-3.223155953534047 -73.721348744605820 -47.169136147096246
-0.108710376726797 -70.256210324842215 -48.172167658270467
-26.607418396788077 -96.425744718191609 -46.180406780227635
1.670790247937564 -66.703760647273370 -50.184834347272499
9.179946444522932 -59.091669884003494 -50.187075535386199
-30.654362556056647 -100.950838853085585 -51.229078556167309
21.644394941147009 -51.292872696052619 -52.200455824526550
16.060667446320458 -55.256709157445783 -51.872830451545248
-7.346300283306668 -76.714589395050226 -53.280765041569964
-8.942193569636570 -79.560712628899680 -54.192708124400284
88.613891362429555 20.609050122664172 -56.242893432861585
28.516442766449590 -43.392320954564575 -59.172533159752106
24.782925299494259 -45.054875895704157 -59.464438068410267
-9.201405632253854 -79.652711566699566 -63.392165106600849
106.200084489230250 34.058538019603724 -63.777186678783472
-7.848714571049943 -80.711479007832466 -64.202544354851568
85.865381601745739 15.533557517963549 -65.564428996586315
8.458766658693492 -60.063300594515333 -67.278919740352393
83.711216332548162 12.854487773875986 -67.137122433405423
87.907588117210736 18.739458281273901 -67.937557451256438
83.302616263058979 13.633322988348038 -67.100705930608157
9.381001035955288 -61.593840895759108 -67.568014167642744
82.330130567442623 10.796203171351481 -69.114837752419888
95.910286071751685 24.594928108419165 -70.376004134486351
82.133671197521792 11.135292979773448 -69.535289925850634
98.016119750075035 26.887548619272707 -70.314085027443596
106.060100444649180 37.995177149246629 -71.540594950646678
107.348795485397034 38.588532573559966 -72.788518464821806
79.840727765113584 10.812212964056533 -75.886633158663798
78.353209379342189 8.330902488575999 -76.697009597421328
79.547542509599282 9.709961545594789 -76.084588636000561
79.612870851821469 10.323832390030065 -77.187833532560873
80.405294360026389 10.370559906993059 -80.051816718675283
-0.325421569246657 -74.392615720263194 -83.356036671138838
79.480681041506728 7.927004039422755 -82.205299798349998
80.825194414830406 9.962507147003013 -89.491898484592298
79.811477687895362 9.700855129883516 -93.422032569353348
79.975149214586068 10.071409302414553 -93.574915346820475
79.483770070936103 11.543834870437871 -95.978468752949837
79.356250098166711 10.260888180966052 -98.904833290248831
81.192564816291338 9.085786042897453 -101.454628041011233
-36.169767645776268 -104.174695711089328 -103.807703881074204
81.255253000724736 10.335506823659747 -101.546661581245203
82.915036833208788 12.959245432530739 -104.223090383587859
-17.560326835646176 -88.724448406328662 -104.482090774989672
83.803468771581009 15.993066764492120 -106.330398797282371
84.671940246678744 14.128041509470595 -107.504502909673775
89.765555198455161 18.628721286730567 -106.926102835698813
90.698806546655717 21.899321311944036 -106.892992449261271
-33.078538832600003 -102.639598300081488 -108.073379255207797
92.819607511305563 22.031577405186518 -108.475361976002489
93.434522066378648 22.757626455089273 -108.307718310166962
86.165110403810601 15.123593852777104 -109.770070526555074
91.571539666403126 21.657256412172647 -110.498804143213732
93.567324179449869 23.216619177222665 -109.437282284703727
-24.117029306423117 -95.010449159036597 -115.235373571203425
-29.827487515876534 -97.495754151415895 -117.359793006890257
43.666010396768691 -26.661865595361355 -234.920437564688655
46.118595668055868 -24.105046051288458 -236.286598091230303
47.695302731955380 -24.063613064159579 -236.199796454861428
47.671583854023659 -22.021508524790296 -237.645273153952644
50.023705943918934 -20.588833983040143 -238.951135798049620
49.719821108007494 -19.232865721537284 -239.249341827411087
52.353276548670543 -19.307599010993886 -240.415622871605507
46.424103240142799 -25.367578209597948 -241.142238924302063
30.909491360573810 -38.504947767734095 -243.416241310605614
34.249321951227607 -34.572849182954450 -241.294000881393714
41.253892036456165 -29.717944415139289 -243.546207109706415
47.544359778271165 -24.901121940408157 -244.199053630393934
40.187175999036789 -30.608542063974269 -242.918722932579811
32.085043583453668 -39.501395217073600 -243.255802701998675
45.309003727615206 -25.856437600964785 -243.660141534394739
47.715439763822694 -22.088069145297482 -245.047444602772259
28.534836542055427 -41.970004395586891 -244.355724175661038
41.138963411360585 -29.310730362720115 -247.840454523656348
48.119735367067072 -22.693699218674734 -245.689951992268590
26.158935062765675 -44.045163809644926 -246.359983734374708
37.721599031681301 -32.148198467504521 -246.903621380006285
44.106559641398761 -27.222449400558737 -248.958417764251692
28.018761739421706 -43.447635748034244 -249.582307476784564
25.896215569566568 -44.269125103865910 -249.420100147628403
47.875155581600346 -22.113618896040247 -249.816530022369278
25.802405578123505 -44.270939440480362 -249.899006536102519
41.234702775392812 -29.195323866181827 -251.392500784549640
34.931051118227543 -34.432362634019945 -251.292785444419138
48.186357603020895 -18.057626806307326 -251.745472624428345
48.674890695217762 -21.580387997881715 -253.258454119098332
42.146712971612267 -28.842504042259087 -256.650614703234567
35.826023093019664 -34.459797565700839 -255.968895006365130
29.338037520757787 -41.548193684252190 -255.520756708004200
33.223110916025036 -37.357347492212647 -257.088745202972461
43.320304074801136 -27.409862206671963 -259.505628292105598
50.377394644862875 -19.914566709384442 -259.357634245604686
38.127385814312397 -32.831266140306226 -261.384862776161413
48.722881947819729 -23.264799534736721 -261.839740975424149
42.876527454714079 -26.061989001569295 -261.638204137479192
32.659845794425692 -40.674443035187942 -262.706988376945787
33.534863559661574 -36.843289591969466 -264.765755632952278
39.682281619071752 -32.346710963568157 -269.454860107052298
45.077693916418035 -23.838449060063212 -269.672829198199679
38.089317160080725 -30.689210822471484 -273.079488932292406
26.547188870444511 -43.770293828388844 -53.013858739983590
-7.374710224580065 -77.786368657286445 -56.607657613909588
-10.645475370490164 -79.490897795092920 -55.641887943685497
89.159605065642026 21.767618359507789 -56.649873831393975
88.660451418915287 18.856544525895451 -57.920705798687891
93.650811365770892 23.295180973890240 -56.912070336839946
96.711181023555767 27.365513075329833 -57.891807779740084
-33.398440344793023 -100.682138287088748 -58.115634692242239
87.741220850651999 16.508764213235779 -57.159267548049669
93.566994503885908 24.919074346335918 -60.766292635033587
103.849040599832335 32.656851217076934 -62.128622918894301
-9.755151259097763 -77.790150636405556 -62.271537070166843
12.666352148000000 -56.514963208408687 -61.074508442961864
81.147063699256734 11.371546640503620 -63.608216597208049
87.287741398070196 17.193952893239636 -64.447422499917764
84.836415232278043 16.260146057357598 -64.422710493570449
83.773214371499705 13.620159636536648 -63.257791111663188
-37.144952111823194 -105.911365260352312 -65.874472354977712
90.542655368893008 20.799320219803935 -65.434938698920831
91.203412585255009 23.329562273238157 -66.517011552575653
81.966406695018350 12.929450820949821 -67.712098108280998
96.603374017964242 28.416685460457305 -68.644973293806373
81.083408619539966 9.564022061538273 -70.756141298361399
102.698096974816451 34.273733992928115 -72.598202150681885
5.533339578231723 -62.889493979791098 -76.876822220529021
-37.152592627569078 -105.823109981535211 -76.776217141538169
79.965513614208817 9.698580915628003 -78.958136132159680
-0.608334372252284 -67.555670141853071 -82.628668208792533
77.387878744535030 9.973497507719642 -84.711850050770451
77.450911823249186 9.168324608476912 -86.709991059908916
78.963401656620604 10.381746276170007 -90.438954862173972
80.567631168174927 11.110848218842399 -90.796946989339517
80.621943725161373 11.250888692738624 -90.606280965762153
79.853189598313776 10.962783453587582 -89.828473834102752
77.408068115109188 8.381682868859981 -93.171790448263138
78.120707688926757 9.038553520233036 -92.317286882919490
