# This PCD file was generated using the MATLAB® pcwrite function
# from Computer Vision Toolbox®.
# .PCD v.7 - Point Cloud Data file format
VERSION .7
FIELDS x y z
SIZE 8 8 8
TYPE F F F
COUNT 1 1 1
WIDTH 807
HEIGHT 1
VIEWPOINT 0 0 0 1 0 0 0
POINTS 807
DATA ascii
69.730055411683068 -2.340386947744576 -29.732645850213682
54.737394146977280 -18.619651429702685 -32.971766649844568
67.294060760884221 -7.288052090607597 -28.567004878970998
52.792432901201742 -23.379164849130245 -33.468532877888492
56.919021655584984 -15.587123932206669 -31.167047286720653
49.093829590366163 -24.838710630890247 -34.943027467211877
54.211887186680052 -16.450441447253006 -33.285150802655586
72.059148940004690 -5.213231522809986 -35.954571102333212
65.185726251079274 -7.244675461968972 -34.106724568813810
68.412795513179063 -4.237172560270509 -34.707173575642713
58.638043154098298 -14.827407146382392 -33.224165027064963
61.362698904685679 -11.895493387608166 -33.845412758177787
69.782871538431976 -2.638955652634650 -37.402338274514463
59.528263208414153 -15.020595827980863 -36.436073856356707
54.711673455483997 -18.509352314369924 -34.460998623211744
53.019036602609283 -21.435395999528588 -37.371040437588768
60.630383338939268 -12.645487994663879 -39.970938584485161
67.710959971728442 -4.287876845600945 -33.770688526015313
61.401511968678598 -11.305907031134874 -36.421031379918553
61.348242886465933 -11.375441239479668 -37.654991040696430
67.655270456422855 -5.694939429623569 -36.242688689693658
57.451233188902052 -13.936275659660911 -42.989513960042160
57.813045760097424 -10.961834131920355 -42.150003680561824
58.367285817124881 -12.633220196914884 -42.457671374315758
64.564429574119004 -9.081008720488452 -43.273115409483154
-10.913384894372671 -84.234621514331877 -42.875693948270111
-7.824931921155782 -81.753622639431910 -41.129503517043396
-20.656001321690084 -93.242322527616579 -45.659222880043423
10.840546954261210 -61.742163962685289 -48.913096396309442
17.468669289143676 -55.640583385260172 -51.585425627446639
32.383495958298241 -45.029094705926084 -51.498809856783716
29.110805026360335 -42.105361825974441 -55.371492299672362
98.585497773228283 26.493520364145301 -60.072736772746012
24.257138136791898 -48.637554705212629 -60.760684081172769
106.304008186716445 30.123157306301508 -61.921692042576616
15.522336021801310 -57.100265735466031 -61.332724880755841
13.532912402919608 -60.096910104794667 -63.743225146601766
-4.106430981881465 -81.387979248093785 -62.747696007479909
-9.317898449936976 -87.786656688676146 -64.525310889757506
-10.617295072552450 -83.705159267838937 -65.243131865431280
-7.975660772055037 -79.693100434879454 -65.866950456284471
94.109395274847117 20.821866325031266 -71.454814784140765
97.460814832588781 20.308071098160145 -71.636142253616399
97.121875466374902 23.528105094692059 -73.660979232625763
80.598479830689897 10.449499149869320 -75.024344189318512
100.832234382294729 26.353267739914454 -77.311034896878255
102.173319378663692 27.084642573056396 -76.769210164112735
84.204183539521594 7.955169343053774 -77.382194518405910
101.231335591441351 29.818721696668682 -77.496538700454749
80.899751056493045 8.192368293678383 -80.956178084742788
4.269019006023516 -68.246241008351376 -79.113141768567417
108.050830174019211 29.606683318418199 -80.359915702295694
109.414496716210110 37.386236611417075 -79.852524377425738
83.281203848787271 7.855342346367841 -80.806326122290571
81.994323256515713 7.089648024530490 -79.967266502014610
104.143374500286328 33.574657230148517 -80.039748579196981
110.388202322853402 35.735674396455245 -86.712084132894105
108.918865253668002 34.727224102925206 -84.447237458231072
-5.756391021341878 -78.957196254844789 -84.204215881384968
79.527676501950168 10.320591257662835 -86.870886437056910
109.961693570188601 32.553179803715821 -89.376857211691174
83.208749382941733 8.757777934241536 -88.303322333611945
81.288377538529332 7.671331002906930 -89.455590258441802
107.107744233269443 33.221097612048055 -91.130574929637319
108.587961996132563 34.936068963070355 -95.426720166186328
80.508612572700855 6.914318802543564 -94.430021842300150
108.040690421975768 35.194586257290240 -93.293690329256108
-11.731541125473779 -85.809813438066328 -96.260493266293608
81.128190766347785 8.726916791959539 -99.240517362149149
-34.973337744860544 -107.214235092699525 -97.958893926032232
79.992071996846818 13.220254142310685 -99.407478952775875
-33.111319488333720 -107.449492361986174 -105.916982056430371
-9.486003462893027 -81.757643729574966 -106.385622663022602
-15.728036532321742 -88.984567192458499 -107.413633713780953
-13.279809994993881 -81.542805984160310 -109.038712260864486
-34.513310666790609 -106.100747873071185 -110.448375324850389
-16.213139847209085 -86.561258246563355 -107.405745008039830
-7.091834307719204 -83.306239128869379 -110.302691340633842
-18.665480945789611 -90.253824761176119 -110.349607196900124
-12.734920935460687 -85.334644652587983 -111.605827895046545
-11.128320597599489 -82.394126593663557 -113.266718453142559
-10.954351578629881 -81.423520921710505 -113.936013255819361
-30.105506556424590 -104.594273607343425 -116.911207803350777
-26.212333932591982 -97.896895571106086 -119.785875935864865
-25.804040997395806 -100.897441260705179 -118.748702032547740
-27.549279707396650 -100.506078158528837 -121.044021572098771
36.645183137616115 -34.552570611267306 -234.401440739973793
35.801489789401614 -37.651362252379251 -235.795055767521660
39.189801954866894 -28.279281491114165 -233.902551950679111
44.558875654548736 -28.961341552381892 -237.853780115515974
35.937388233911051 -38.033988906512157 -237.991996104724194
38.878474685950067 -37.875315325567485 -236.331109759463772
37.408797386390326 -33.742322067814513 -237.912655519237262
40.028025429319776 -31.058830567314931 -239.403623160542764
38.749564542722581 -30.272466832067007 -238.120255751711824
41.471531404646107 -32.140479649624972 -233.939990702712294
44.145373566221785 -26.464828478333398 -240.867114530917689
46.573859631646471 -23.454144517947135 -245.403446023855423
48.822518923514856 -23.103783385665054 -239.371928795557039
26.969388215387919 -44.492397306407049 -241.863007651338819
29.518377535730448 -43.790431151839329 -243.055413216715721
49.898135601100883 -25.583078961189194 -240.644644886430768
46.228789938378860 -23.274505049151777 -241.983281522184200
48.886455127988143 -24.625061608786410 -241.288696520996353
45.068328042933466 -28.153085951292546 -245.562928434429892
56.200569974039041 -22.644808620567680 -245.214123113545554
56.987747427871675 -14.978918204444117 -246.737332941279362
28.292642371875750 -44.496726764218117 -245.863412439107123
25.277931397973465 -44.720960625467278 -246.731235162832405
59.045211106262279 -15.598798702808873 -249.363170099905119
54.843678929964838 -16.440193059394602 -249.940835864164029
26.578580152907982 -46.842996177894321 -251.193237728312084
28.874245374922442 -45.750936848521881 -248.896059166560576
23.541414245972494 -44.983997223940165 -251.178436551685650
25.555124162911920 -45.779558931304770 -250.479288018978224
55.274249426990977 -22.137816134530265 -250.207228704569303
29.870472344385711 -46.523168342770099 -250.813951646818822
27.848191189206819 -42.878538719069468 -250.032525626231291
45.817908765611620 -28.386244278888555 -247.159829464168865
28.830417643694606 -46.782118846820616 -250.111952040308751
28.205939273244070 -46.419014671096200 -249.152919570738277
42.508778461191930 -28.108381463848776 -251.498183114176641
57.372672976101846 -17.391570377604573 -252.061533756236770
22.162156720880883 -44.946012781441723 -249.701147578959166
25.586566466893011 -46.279717881360860 -251.461896693248434
57.473954347277456 -14.201428136433387 -254.169788190731111
25.896874666265873 -44.518538072641128 -251.639368896955318
26.666614587418351 -46.487590702843931 -250.126818421883485
44.482914380079450 -29.903657834895682 -252.669929485917748
28.184094989914470 -47.163373510828436 -254.559220724209382
27.097579591885509 -45.819119866100287 -254.571302100139832
30.952615627648193 -46.256645864730409 -255.727659406980735
48.165124864326977 -23.198953597283605 -250.558262042004145
32.015311717975628 -46.504695016602120 -254.971808697586567
54.897267840730905 -17.713895753860811 -253.395886687009295
59.088554600828829 -15.705756503522196 -253.328379370752742
47.290136891976815 -23.459473041304445 -254.974961520734439
31.152194994723217 -45.149513352856076 -258.151759740852015
49.425944516851885 -23.874004253157267 -258.577633313941817
44.619234014991619 -30.164306548631675 -260.728884525887565
55.485632760319533 -17.319534880161680 -255.232593927176964
29.097706099777607 -40.833327882137354 -260.155943599271211
60.006534750840800 -14.843916748615468 -258.904784747161500
29.926417643578294 -38.106152654705021 -263.520900263500039
50.701517556374256 -23.339888510903787 -261.662116404631831
48.038105888097256 -25.157243426218049 -260.060916364978766
57.772956863152778 -14.968165856948811 -263.756394242999079
40.016538783225364 -30.660396802220141 -264.648608068491853
55.745112312424865 -16.710146697104555 -263.884521937944839
29.973852046834455 -42.462244335061662 -263.255905180511490
55.494458792942574 -15.274875836360168 -260.131699901648744
41.895791228508493 -26.115389077425199 -264.551046004211344
32.823961263858884 -37.204736434304230 -266.843624998928078
35.816620465597907 -36.387225689464508 -265.538857997645209
39.951220099812097 -29.927232093417693 -265.910232330958593
53.181605891030941 -18.891831446195209 -268.106614250061114
34.324936754927670 -34.527163744794557 -268.473823909457337
32.666736022546935 -39.405237796031265 -268.763531594033225
58.249285412351689 -16.930171796152873 -269.660033030494844
40.559112837436743 -26.821444528330890 -268.715931521578284
46.447570532280714 -25.006664990234416 -267.512050835047944
54.166192701639375 -21.064374405797242 -270.323946115399110
56.677126646282296 -17.391533953695451 -272.953690359981863
36.512169614693292 -37.520816866839475 -270.883520233342949
56.800568405628496 -17.254471437436738 -272.975025901849165
57.042758032791923 -16.586982789595229 -275.751613840169341
30.843048071211498 -41.742375359505949 -273.837495172744241
50.649078821060044 -22.366390542799042 -276.470706086577820
39.653805573938548 -34.598149388517299 -277.987649310857876
46.307951303462850 -25.012130649983554 -278.562083693409818
49.902186028083044 -23.419853207829757 -277.884147812024423
53.795524153336494 -18.577466123792487 -274.502479278950887
38.024959042635352 -39.037377778122305 -280.839696962716459
53.135550156742376 -20.771365035464903 -279.806264544422675
48.249215287650820 -31.078914476571533 -276.672571466347790
52.297138461477772 -20.370813137022914 -279.690229376291882
47.739255921953827 -27.191335175487580 -276.775938226684957
48.806706381327203 -20.924054535264212 -282.320752256934952
38.474653770462048 -37.712779601459395 -282.436387672861713
49.202860712602579 -24.953704011683961 -289.867128626686736
45.546008828681757 -28.824696516814434 -287.571344469119992
33.813408608911637 -34.747950294755157 -287.884565350815762
40.447737541808920 -31.943204193433374 -289.165425798170190
51.727676626493363 -23.213237447797852 -289.977644174473994
46.428314027192044 -26.733155002128292 -290.707715214966470
38.552819544152626 -32.817454809937374 -288.325356647102296
43.829612055337478 -30.720792939800539 -292.015569112975641
42.793921543281101 -27.887580042097348 -295.655799269334068
42.226616174236987 -31.060759262354715 -295.933548220237412
43.821905765031438 -32.461875124195117 -295.964137012865820
58.707812016318201 -10.992981821486289 -14.082078039359278
63.244513675668713 -7.967867154578836 -16.703473678183620
68.205183502536059 -6.148147996446503 -16.921304619987104
55.497150658915118 -15.402249369028954 -14.150133041937602
60.435872618946824 -11.618574803468755 -13.425975140896258
63.257402755642417 -7.571918688698319 -16.307272917288664
67.675270797137813 -5.203905833289070 -16.570966348413570
57.641040454754311 -14.550993436964827 -16.577565680862751
60.665080336320010 -9.818611975435381 -19.939521348340705
67.462544755339223 -6.004725918904523 -15.116913536927438
55.765909968797963 -15.830801843883876 -18.401163477423207
70.382635767229900 -4.197085105342951 -17.386498965365032
67.862302995814730 -5.473450249754758 -21.858586437672685
70.845587514659442 -1.686014889863134 -27.518771326415123
74.079728330042599 -3.858887232073403 -23.361554819281977
65.952602346071473 -3.030193520169231 -29.719605348763732
70.914501091072552 -3.300746276197390 -28.017821770330180
71.010880558733064 -0.146001266820170 -29.965035854923904
67.615396311962414 -3.676877281800732 -33.172311721476945
69.964747531932801 -1.813510603518217 -33.008101386694896
67.811955006518545 -1.945995961875374 -36.120789678369093
66.056460046839220 -7.031479839564739 -34.203797042640176
68.151959361809389 -5.411218821543612 -38.701078797260813
63.631678763541650 -9.196363555622648 -36.433829056980706
58.613650439386348 -12.277016378721306 -37.166533576059386
63.446223396696361 -7.184462697117825 -39.645522628427130
61.484251135020287 -12.677224731846493 -39.598704221956304
-16.496975651174683 -89.132625950187986 -44.695081554995980
6.284157131255067 -65.956590676629602 -48.551729268969666
25.011969546347718 -48.657713518502227 -50.398119740997835
31.233813199127923 -43.176464683995555 -53.890447751923510
-11.017475895867749 -81.249659626563073 -55.482707047276627
-32.031271545208526 -102.931140072735190 -60.382071620127491
-8.604730043318012 -80.450664781909978 -55.397927629024181
85.974489734551653 15.786644049073889 -61.167972890888812
93.817243768103069 16.762155580831575 -56.215019085538337
-7.630466563030323 -78.095350696827921 -57.363910149516407
98.038272277024731 26.337804484176285 -60.703261173969935
98.522501409152198 29.909419056144507 -56.427967783647127
-7.704830467793364 -76.756213576103136 -57.389948319319657
85.545139548038051 14.532795116173231 -58.071407187877114
93.716692177384786 23.095182519981151 -62.085383920490166
-8.554858253906898 -78.631456810768199 -58.512918862718806
19.872921579903942 -54.957724251077899 -62.333458807563566
85.071089045934770 9.104254733809640 -64.232408661236420
84.182311347762024 7.904283044806812 -61.544780731912773
106.289963523450993 34.722273245178883 -67.299058880000530
-37.810798505217186 -104.978257981933822 -64.946414307827411
83.374476966209812 10.319455717059004 -66.131773292093172
85.670761862310258 12.231756685770483 -68.268398069140432
89.482209960908932 11.954870885076541 -71.949679931984818
90.446846942466536 19.236792097039370 -68.418460230834796
88.123387891422965 17.721353166538652 -67.668267251390205
91.015551151528726 22.100878849024397 -69.611604005696407
11.496490523139371 -61.555119956772202 -70.052931290628052
81.315062282431214 7.653013491931708 -72.489617743035041
97.696550271899298 25.820401848655120 -74.776488502024222
5.118541326944124 -66.340154880984500 -73.472374928741544
102.843454348713990 26.478006249240529 -73.349933397953180
82.169678507890850 11.521327931082862 -76.103969337239661
106.271721450107279 34.703403417344553 -76.087558752822673
106.979054586640217 33.026195104594279 -75.250785813499064
77.533617162039121 12.504860937656215 -75.471072165909462
105.644808387418195 32.720864868536957 -80.744632565391655
105.841469577589564 41.445868376738986 -77.364292218662115
5.244956652992503 -66.174999128854466 -78.571497404522376
-34.892102133111990 -103.680125929767613 -85.485109879667817
81.615871741314379 8.216101696892943 -85.240406643282299
-4.686998663620269 -76.751015859916563 -87.219270278991104
106.019148069294374 37.095083714533118 -87.205216567335668
106.720210449674468 37.261524781155948 -90.251455148804212
77.822340994146728 8.297733208510014 -89.282517114461925
106.787499344363425 35.765419618164316 -89.771626158544152
-10.440344659228138 -82.378991725868914 -93.673771696322206
80.944050475783769 8.711924847165477 -96.925442436223648
79.915874999535404 6.541904009833990 -97.867329349195771
-14.299187503906952 -84.602003944771880 -97.978646500416190
81.806329347072960 12.260118998022776 -100.376794628076297
83.865148236504126 6.614397097327496 -97.209230612938640
-15.189482777774865 -88.256785946974944 -100.444706670253154
79.599967878415868 11.330943142577151 -101.231521872749383
83.662458064432016 14.249372841175235 -101.626090536423945
86.437157604568313 14.580607789926963 -103.650981149391740
84.583742703048088 11.872879309362117 -108.143550761501999
85.037137025581444 16.265874131522381 -107.064535109014329
-10.116029781012758 -83.255450846532540 -108.051221318731052
90.870093094308402 15.521952930949274 -107.483465234725216
86.950518152224674 19.746310911911284 -111.163992598661437
-27.625643978641687 -100.913112737544651 -117.674154466908135
44.217690749551579 -29.389858994409312 -237.013707253040280
42.231082827551582 -32.820050774331541 -236.210004333172094
38.807291584002911 -32.999848770700737 -236.127791556286809
41.127823564026762 -26.183077430084698 -234.638400544542833
45.602035603816127 -24.649495638939214 -239.312059379938233
44.730577339118277 -26.035323124476097 -241.689196846864149
51.853598874231963 -18.208807629262029 -241.648682727675151
54.363918002157853 -22.374110358437299 -240.995391320776037
48.387928742419717 -27.891952644444455 -240.370726407105479
30.113942931261601 -44.629788170343502 -240.160688374350343
37.317358717005348 -37.328425757285565 -241.675278837260549
31.298379289406384 -39.890456836989898 -244.086756829120930
35.441562950827468 -33.674473970716797 -242.981088412097762
29.715681779158480 -43.668972227344526 -241.168221072370812
31.235999970563764 -36.655188632812759 -244.818698167281298
45.608295613498761 -31.372162537596473 -241.717541519354540
52.015158702756302 -16.183783920698534 -242.740184157893935
26.530835158887829 -42.130951263589012 -246.859711853761240
50.439705279316492 -23.975794490090024 -242.710413895360801
45.294708010046079 -20.962025875807480 -243.618490601176973
47.621922962498360 -23.656684122947759 -245.053549695174837
40.665838314455740 -29.195325316537161 -246.294011538918255
28.190557703689109 -40.496928489506757 -244.267324335762652
38.332439535758233 -33.692878061038996 -249.036565080030385
38.087500215665628 -28.634984870111921 -246.498964119061469
43.888819497034923 -28.062540614997165 -244.695170264174834
50.625875441317930 -20.898601809673810 -244.882961692892735
49.905425104524433 -19.649240453839479 -248.499955438114398
26.686271067705210 -45.321757849103278 -246.653864768748463
43.088534800994360 -25.283669303024837 -247.174636890689669
29.480410150436427 -44.617819329682582 -247.260353874967279
27.800032725960833 -43.139839078156008 -247.382954971966029
32.741005146130902 -37.283489570002246 -247.452112772538072
32.765095817748289 -42.033382178296272 -247.660358155697310
46.869045803576000 -26.350513828566672 -249.313444698222327
58.710576997810193 -13.580078904706951 -247.205577756006477
28.521309959100620 -41.241651876651979 -248.702083683400616
57.282579145043194 -14.053356562106709 -250.411385332396719
28.442319371622450 -46.984634371795877 -252.529751661176448
29.299532876779804 -41.247502071857369 -248.576775428098159
51.066043856637783 -20.759544277694900 -247.336996733602177
29.255559810304682 -45.142286190847408 -250.719792591613356
27.961343434345633 -42.071647483463167 -250.485006926401837
29.911623213981645 -42.708387307227234 -248.299282255107812
43.900501152544130 -26.982462389991195 -253.239535681213255
55.705588919806800 -18.031734009241610 -252.036021396739528
26.978563530065603 -43.409207855585983 -251.964285871290031
37.273725552873550 -35.698447721687828 -254.179528575813492
30.049867227013834 -42.496766777753479 -252.126380695537108
34.129948675291523 -36.073073589471882 -255.591748119884500
57.217108102070931 -15.297035238613761 -253.997819051272018
22.502538654484898 -44.671762509039993 -255.270261453893994
53.472255017512985 -19.763124590762519 -255.490761232622532
40.170298269886615 -32.848296730521774 -256.969984016657236
53.277803784833047 -20.852236635824806 -256.445085819008739
55.303790892023244 -13.628267560892931 -260.084004752172063
52.818871414006722 -17.042033225230551 -257.809068592757114
27.306272403803906 -43.834181323576473 -258.763709375561916
35.984076830229547 -34.207468953486220 -262.578370163589284
50.891705864777762 -16.705327963122649 -256.878578956433273
32.188579664816722 -40.711153214863621 -260.185330832970237
52.605400973118670 -18.197898640093957 -263.082866464732206
56.775359862303318 -16.447761324951827 -265.062573899083816
51.235524939288048 -21.676825006658216 -270.317466628352463
31.278655282089968 -38.909473770644851 -269.778288834274463
52.553439814986142 -19.968992415124696 -268.538260057782338
33.247630808631854 -37.212424281993378 -268.983557598673201
48.853915935701330 -22.260589634245907 -271.053368701849422
50.171053005150661 -20.246725289983281 -274.735482088413221
35.379557616046654 -37.145116373100763 -272.650208309916479
55.410498970213148 -13.142425150019681 -273.620376400326791
46.052277141876672 -28.213485203921064 -278.342053013672285
40.940204514667393 -34.302315571132986 -276.206892560827214
38.453627159255802 -33.974532374972490 -279.284005429572574
47.777309312543373 -26.572278031345860 -280.626425724137391
50.950656664570040 -23.211765058512135 -282.189671736207004
39.024138642271630 -32.309942689494186 -279.059540047622022
51.909214474445534 -20.732674773414391 -279.601556348413624
53.347583772661480 -21.055214494775907 -283.673392754431234
44.529631572980925 -29.307186827743614 -283.380438157936112
51.296972545557558 -23.858110535818572 -280.574653446578225
51.804458740140355 -22.349034608503594 -285.775964300527676
49.621800423817973 -23.120111269635093 -287.046778876335225
41.610190051506507 -28.513437801797146 -288.369679737365914
49.677640973451020 -21.650415822784957 -290.705530400941598
47.038838513758016 -24.204705344240669 -291.647233964981751
48.200880422757471 -21.772453842569039 -292.482578889949707
52.252064034500570 -23.174683029500162 -292.602756062463015
45.385270039067642 -26.537216409688750 -295.545708435393635
42.666146366471537 -26.478474434230542 -295.471316136719793
38.091921696547629 -35.234918492357771 -296.775749684171672
43.209141570535905 -30.063573250387652 -295.950525302764163
-13.985645405282908 -85.071360355559790 -45.290237603777463
-15.237345888967733 -90.760881407166124 -44.191549075206737
-6.223923615583437 -78.529897324177412 -44.527671279137046
-1.830445956964269 -72.467840200788757 -45.568170632940571
-2.774961282515413 -69.564348897300363 -47.349774244304278
-23.645958307752281 -97.717879647713602 -47.971300779185455
2.134834521024202 -71.333061081850943 -47.587783550883294
8.880549379766673 -57.776986212778489 -51.951749225185857
-29.637294314920773 -100.907852066486811 -52.748449342146479
20.308845501179800 -53.163866500306121 -51.315924666057086
15.463410818913861 -54.511564532203558 -54.816192045690066
-11.614811106082497 -77.195132614716726 -53.281228922717979
-11.063457452841819 -77.822703964473121 -56.084224118436445
92.724808553553956 23.901600627451682 -59.695866228020527
28.653973721074166 -44.076066819029080 -58.481273977178866
24.980813614672840 -45.615914642614449 -60.877935737722268
-9.917728024271032 -79.423248775723451 -63.567256684713016
104.621161087120967 35.852428404560285 -65.504998651016706
-11.934570672083620 -80.868029723007510 -64.305820328925975
87.257714095136535 18.425392724976614 -62.955228241729486
11.202395555450037 -61.583825060116659 -65.785536410263759
85.719241207778964 12.143362884499250 -69.531365459759854
84.772981695037558 15.601419719419123 -65.152420793519056
82.439374110485588 13.479044909299887 -68.596216070602011
7.349429920393482 -60.593751359199317 -69.055104891452643
79.779028259861732 10.752188262043505 -69.185558496376004
95.289979391560152 25.821279224890368 -69.703367924423574
80.556136948275025 12.790263130915529 -71.328355597961135
100.479134694361804 26.818951551277944 -69.387730135645370
106.870135433804734 37.296034440051137 -70.687120794648251
105.992418667482141 37.662768155020650 -70.666058223272273
79.631595292290584 9.387827590168765 -79.229084819859750
82.160966075604321 9.755985149714206 -75.146281910075899
78.247880613916266 9.373196307794158 -75.996500861240392
79.653395905990863 11.654469692500461 -78.812153294050674
79.809625455430819 13.071050540277056 -79.969654890012009
-4.309193471032203 -73.593613174626441 -80.066816545334206
80.034016439004219 7.267349333921492 -86.419739037865199
78.855755325344660 9.658291449235740 -84.132230425257859
80.338781902367799 7.822267020781560 -93.536570771692567
81.089082793063099 11.681757265992475 -95.213040067402247
82.264711990166717 13.660871406587436 -95.502032797667354
77.110624818256099 9.165221868454335 -98.723274090211618
81.447923923076758 10.388545732288168 -102.527295413004268
-39.449639216821360 -106.008487004165744 -101.511700179915351
80.857380733074947 11.533769786992060 -102.049025201358674
83.497405501849698 9.608607086403547 -104.573026596129239
-17.200596455435122 -87.176570308755757 -103.646185731631562
85.689697778212988 11.370279461655528 -105.528866799269693
83.438541911915266 14.913406060906977 -106.294482551487675
89.198587181065321 20.389332668652571 -105.381147099115339
88.265160039048112 21.608684610881024 -107.552936089945078
-32.571805373190976 -100.536066780260128 -106.984551697732087
93.847351961249259 19.333865092572292 -108.565218434399455
92.731808365974487 25.403707503942652 -107.184031450551444
86.722568831974300 14.450732414713464 -110.620754098092561
93.988347784790363 21.654372691902761 -110.231796731961197
91.893807378587397 23.339825073051284 -111.785985851179476
-20.940434317242332 -94.911029845909610 -114.407417881452616
-28.156216049245920 -98.102009780958937 -121.651956382090532
45.124321261412128 -25.298688558333971 -234.673764575162068
48.462480676796325 -24.029110582752292 -234.892202742573772
51.097119081239860 -20.643315338855452 -237.044746922172266
50.300949733247663 -23.270034883851281 -236.314927772918054
47.479139251157427 -21.397272276898271 -238.386776436343808
47.727877076995149 -19.970608339976877 -241.358808554858570
50.004488931077830 -15.757737445937570 -239.897151729686556
46.720223599612801 -23.420620000391530 -242.206239096080651
31.869752657820417 -36.204014610307425 -241.130249098404931
32.462551838928960 -37.543853103799478 -239.814412531866878
40.213993985324542 -27.879732979580673 -243.846369495089789
49.524182826111364 -24.216048699421460 -243.515449942266599
38.082346491259507 -32.047382078499631 -242.280017731022753
32.173628396395380 -39.491602935421440 -246.662757408250314
44.306430664638029 -24.914258258360420 -242.787445591388206
46.024992400474837 -23.707619443208493 -244.015182757937708
28.449646142412650 -41.705084466761512 -247.943095440856382
39.865223515408644 -27.074618507940013 -243.976611257271912
48.807707981246416 -23.942133910972856 -245.378271404079413
26.403539106523304 -44.380510593498400 -247.300368320650108
39.340414242691367 -33.843892918359764 -245.553154893004631
44.887333243184344 -24.105344232574044 -248.656070321751827
27.989664715831601 -44.456535435140609 -252.147924397104845
27.486406417487125 -43.986330167188960 -250.126082609346980
51.195063409650309 -20.064926210821085 -248.426635925416406
28.720002971921176 -42.513346014903945 -249.051176136244692
37.557055142940058 -29.804419063376926 -251.710284274091748
36.639559239568371 -33.921228935166248 -249.769612700905640
49.856714208630251 -20.984933972560256 -252.633028815752539
49.198891544488923 -23.027978392184711 -254.779594816001406
44.676038503868945 -26.731496734720505 -255.073205155650527
35.170730682362709 -37.050909935819348 -254.520670381917313
30.604264410292647 -37.451190529144604 -255.721498220013530
33.837094312439980 -37.318102293643321 -257.961574135204671
38.239574372455067 -25.072038050341892 -255.912397579797357
50.174378575057226 -20.994370210323815 -259.341545537019215
38.508603218163699 -34.552433063391888 -262.478825101038126
47.710118167771668 -19.137091628190408 -262.594545696004786
43.347818579616188 -28.571357112318985 -263.316101709575150
30.860126686662404 -38.577384110966051 -260.640884217900691
32.698993899616688 -36.245415491719555 -266.005170888032694
38.348750595257940 -31.828449090466790 -268.345428818559697
43.590557677724647 -24.448842712608897 -269.904232244455670
39.329748487040213 -29.189842834471136 -274.841397144111170
25.248227421218225 -44.461946600252155 -54.261781939029255
-7.282347710879931 -78.737279288289997 -55.390494429200729
-8.323966577000256 -81.226358733805611 -55.984324938651469
89.733535081217653 21.796990054057336 -56.106491166993521
87.975781654110051 17.039389528973462 -54.845673189072137
95.104438259816689 22.181859723368937 -57.770814203215025
94.832451231534790 27.175660142638449 -59.504446066870145
-36.070408428888342 -103.863358629379249 -60.528132010095874
83.347903940501439 16.380212050641330 -56.858640107816896
92.946226213671991 23.965111075904982 -60.038723579093130
105.417808179790313 32.392686824586384 -60.526557117956251
-6.343632363094145 -80.059984417756979 -62.346435648867285
13.164666280303345 -57.028529939903152 -62.299777538665317
83.284171500567751 14.090498868770863 -60.578908650707916
83.822186227420218 18.265971208033026 -63.647607062664207
85.949896496284836 15.044859527789161 -63.113124412901087
84.219604607142116 10.473825188315255 -65.948620917314969
-37.092416912715962 -104.585707184894048 -67.234337077208409
89.771055402713316 22.090415152484326 -66.818148840197750
93.374293166693789 23.040668991403738 -68.197953101493979
81.643173107139376 13.386457475958306 -70.853757434654341
96.535260516344081 27.642773307900296 -66.543213748736505
80.281465571241696 9.360524027825612 -69.354110753817480
103.609577257574003 36.022564736703799 -69.807238645210120
4.759738320327772 -64.266187486299103 -79.267068795504429
-35.197492381447887 -101.601076842918445 -76.752094079410909
77.434684004338521 11.518079534994976 -76.483064005062332
-0.660798680821537 -67.873842424013262 -80.778280311686345
79.322535676608069 7.011711892974242 -84.990325193814627
76.042249459786873 3.905420226240043 -85.796434612414572
78.687127337328420 8.441875538811793 -90.748009803487960
80.072134533433058 11.923805446238731 -89.390727920736566
81.584029690741900 12.426279426811316 -89.909736476121324
81.965058040838301 11.081786485281029 -89.260897328249726
76.444800492173243 7.606393643067752 -89.601426950611341
81.717838388072877 9.009600098339254 -92.052105402522031
80.506585032624713 9.815690734917627 -94.044707163808098
81.629608706470890 13.798164782136125 -96.888709699401858
83.532846715717085 13.516638475829231 -98.006469586856994
-19.311123990574803 -85.998212739930082 -103.697180141617906
-33.878482006320255 -104.066048047482724 -106.611773247419947
93.517017383747216 27.100396942477140 -108.676284212724823
87.963822857974250 18.292090795049955 -109.753434878947687
90.403225506275675 20.838954507769614 -107.336535914730092
85.190733487036312 18.258730290056317 -109.750654074254442
88.196471006562462 20.989864515087685 -110.781836243181743
-35.776225959781726 -100.027536589923812 -106.413731450759173
99.400393836179077 28.004370895879731 -109.862313503442522
100.744557060512250 27.579984165911135 -110.979066634244148
88.775998152461256 18.312634143942752 -109.166504674383347
99.381536308354271 33.763159082884627 -108.515099997871360
93.856166379480896 26.904334498673851 -111.946026751432967
-23.516796918533984 -91.999319114049300 -109.930226775253900
-29.518540093913280 -99.455175294820435 -120.690540024462521
30.353847600346416 -41.791600784455973 -243.892810289603517
27.500923553054708 -41.721634974947300 -242.423675428195878
29.294324984988506 -34.973329993115023 -244.660752761760762
34.255469308378458 -34.124234087423346 -245.671634393510828
27.815836217485622 -40.621927751073507 -247.283572705276782
28.692931777774728 -39.934877365680514 -249.444037902662103
34.241587456992143 -34.141493617185695 -248.411108371801475
26.551758988727187 -40.366509123024045 -250.980778715914681
36.168954467293645 -34.610658269044229 -253.087724652631465
-26.190140789944337 -92.019479898050193 -41.802179235912163
-6.397207706233959 -74.799568339978876 -45.349183317018024
5.949676429169757 -64.694341553739676 -49.835790058081521
-31.516422589448979 -100.923752376395470 -53.828912841205039
17.546728446988659 -49.352214307319890 -53.001950483219339
23.425912118593526 -46.024384659432201 -54.102432350848964
26.153702019470543 -41.815643270427152 -54.075240278806817
87.669233551610560 21.403619238441809 -57.369966311799161
-32.843452785452456 -101.753520366843105 -59.587910050504071
85.029385962807908 20.626838381384818 -56.580295768564973
90.583968530761183 23.746747178535422 -56.478615403139322
93.935292475552572 25.098265840691415 -60.315484671523258
83.020016667022588 18.058827666934729 -61.072377303218182
101.665462366560604 30.554923965086285 -57.408046925443536
-13.119765202973060 -76.775775557348538 -58.249688785791996
-10.623580424337437 -76.906004033481224 -60.329668589775842
16.453608176878383 -49.104880465574198 -57.185146211539546
81.322920388278646 14.527062135783201 -61.625973858223993
14.967453740063066 -54.945017965649647 -60.317645592575182
83.272468098910991 17.108883675517372 -60.848177944899064
92.799144498876558 25.448699705927428 -64.755583875737884
105.911629166154171 35.369235153725008 -66.908205040255794
97.237279529356798 25.936390318215771 -68.552353288866897
81.990918430832537 17.173222006992813 -68.298586078439513
100.707487974945366 27.518807881332581 -67.909426688244380
105.081392479644833 37.500332064181599 -70.664977131403106
100.223452009365602 31.745270736469113 -67.746821099429681
77.359600492272676 8.515138920066788 -70.665254486359416
79.343762000950193 15.590929561410618 -72.123379212649056
-37.319841396116978 -105.617735752867716 -74.479440154842948
84.125036108463689 10.794474224429093 -72.771616874709295
76.749664167032464 9.288377079384128 -76.081190105893356
75.573207997069929 9.714690913787791 -76.042142947014241
4.541058655023673 -59.382074481058545 -77.061788182642573
3.039957964376708 -60.846944518981495 -78.369854188565370
80.335713085393593 11.291995006628126 -76.265389121085548
5.775487868800181 -65.549085525443559 -78.395047515512431
82.002356371373068 12.749909521162962 -78.818648451537626
75.871959901616819 8.480296123398173 -80.943449868497197
79.949182493322382 13.635364686929458 -81.449902851242001
-2.324585701856776 -70.319887829323363 -80.549833773041001
77.026237098936733 8.411182395325119 -82.335606654059177
71.930624295674761 6.806859463199689 -86.072896021144075
82.875114286281971 9.815883098820228 -84.901821448285332
81.887259647628440 12.803035293659832 -91.492586891265304
83.336968615817440 11.316643313408761 -86.136018576612429
78.361975625001477 12.704179043093262 -87.408681274299468
81.845100329044712 12.611272299893605 -90.974441199199774
77.552125331245719 10.481448557348273 -90.168586879335777
82.201772221498544 16.196236096486405 -87.142575012061428
75.997406170700785 11.110441377565595 -89.015806727296834
81.649463237397924 11.356160075893341 -89.911059691144331
83.218320807671105 13.327903150921298 -91.942514947772651
79.482638194478611 12.827439602964057 -89.952476115765421
81.050313449260784 13.538373267249550 -91.376370638793006
81.789405874638774 12.502394608535132 -88.569079356937380
81.664202541466253 12.414661554656277 -89.319944514527094
76.002995928543896 7.823711850465159 -93.541051453382437
85.685605654408079 18.225196879581890 -95.746407861701115
82.674946131325214 15.842000933321041 -97.165927351725813
-38.197844499248333 -109.185409241761874 -95.978258405744427
82.280828110955710 15.597669622192971 -98.001594051501058
78.727170345222689 8.557466946660833 -98.789146569383192
76.197492294453639 13.157607649315215 -96.360231215538604
-13.279907343455562 -86.352027609495465 -97.266489861738563
107.747313040478019 35.954409227525744 -99.039479140232885
83.293303268092203 15.432677333919111 -101.714900306338677
80.094695325861593 12.518315367669492 -100.804473448570604
79.713776615184386 13.536048434308393 -99.047246678146124
83.123646091704188 12.981266766132691 -102.476242092328519
82.884242152663305 16.220508928870235 -102.595758714482301
76.947160614077291 10.083584386068253 -100.736088769969129
-19.416937851584063 -85.289947947455431 -102.088667974873431
84.998417524566094 15.728041536537697 -101.272658017765451
102.559113144083923 35.733551547841770 -100.046683945288365
84.227532150686073 15.522544121735178 -103.847525482245047
105.230737905653328 39.228938872989460 -103.140874349985225
76.659680673642271 11.178762870232203 -102.968170369239076
83.194288206273043 16.998942014639205 -102.215641307843981
102.302979284740900 34.778611089186619 -103.500028747960442
81.291772049993909 13.830899394235949 -104.338908328762642
86.476333545651045 18.417486256699114 -103.619120409989947
101.478498799222152 36.184010105706584 -106.276883114526271
-19.881567697651082 -89.883227935656294 -105.280371175904349
87.045023085588781 19.439347577655674 -106.058483996568270
102.861767223792185 33.040705400555808 -106.024677152535133
93.185864179401833 24.330704364237576 -105.788874154554378
81.666603787741550 14.214712665808568 -107.386186653715754
-28.294502869512272 -93.765144676265933 -106.735417811298234
95.400299273697115 24.386852960448074 -113.001488283275677
89.883806677017063 22.004180838975934 -110.901724963135507
96.486300248595043 26.565066593801220 -109.465261262414401
101.574358804241726 34.659435072583896 -109.264096736739234
85.612488125889399 17.899576300777486 -108.330141345727867
95.424155893004581 26.722857303823027 -112.533789702875652
101.569220772722332 31.171619528102340 -111.253638592741595
96.458302030870342 26.772925513893188 -113.607111998579839
-36.417560583888054 -103.054067499470179 -114.707761240583807
-29.330745871123803 -94.799141765959874 -114.958920875367554
-33.724777706795294 -102.491896745722940 -116.482326699968354
-20.209836006505149 -87.519085511492378 -43.884990954351430
-10.825410457422704 -77.711583406194762 -45.571961328764488
-6.055149010093600 -69.733762779417219 -49.755653281900898
-2.824801671030770 -67.552711405640650 -49.799232572533377
-11.074779566503565 -75.277075822855650 -47.623013735549989
-31.064786429581627 -96.736937193011101 -52.282124296327950
-0.810301809881665 -62.610535352932736 -51.806687884663631
28.074670098041526 -35.780422146050242 -57.544663583613243
88.663535291169737 23.755687204370801 -55.405875246337629
-12.350920892270070 -79.911731690040938 -57.539782136972086
89.518562504426797 23.234664827402273 -58.629240707373562
89.121634156403388 26.269742216529714 -55.736644338178500
96.052182780545024 33.865545650256458 -58.208290997551458
83.514131412190153 19.250164897829023 -60.728635604268888
90.210366628286238 23.796966590043819 -59.689860896003822
101.186010325823190 35.057056960429861 -59.332817290996836
89.672117787881135 20.205366794744616 -57.736457157357258
21.654206487873974 -47.034309166950521 -60.330952913185037
93.083663659410050 25.946024090582288 -59.486795679894371
97.256096466115636 34.056779195057963 -58.561781615429283
-36.604076390616754 -100.520305381951914 -58.957600780549171
87.549915439380840 18.948742284667500 -60.814301848574161
83.911349303961330 17.438488705304877 -59.809747210168126
100.356497219431006 39.473608657306904 -60.452914715897784
-36.266250670541567 -103.940329942237383 -64.840028378237491
78.362114010812761 13.455839220072562 -61.302597021456648
102.638581091224111 35.982062069884286 -62.456933444082139
104.561163933422250 33.000919732979114 -64.763602454895718
81.214997846829846 15.722111686634193 -63.672938550120207
89.848883653389208 25.909671362677496 -62.863954640922181
93.256295208779733 27.317376867330967 -61.114772673317788
103.672744285992749 37.238349183480395 -63.521363098951070
95.863101894972147 32.967998971530506 -66.237926795981608
79.779791397528982 11.521643212127531 -65.069189515220586
78.692072101662674 6.766042585099433 -65.050529342402527
82.740260518034219 12.859523172436006 -65.928382249532390
79.576183616066231 16.911970220630991 -64.207507376324912
101.164883919762531 34.302136269653474 -70.621073119390900
103.629858315405087 38.600364912253788 -69.197889775702734
76.578627602094400 12.444493285928854 -66.919128097643508
82.010123821611202 13.942357090643705 -69.385051019221791
81.014931606116292 16.936980919273150 -70.729539770244955
80.324517980841421 12.801621682938052 -68.870447496316785
77.859408466159380 11.649402612882490 -71.174920241202287
83.315784387151012 17.494724796102187 -72.815189989517094
106.469367068958945 40.473646488331433 -72.980428366074349
80.490927428743049 11.487285510776079 -73.744287918336752
104.706681301224890 40.910045403803004 -75.163851150857852
82.045923557460597 13.964227052128312 -73.788030609778588
103.696602414911183 43.167024166393205 -79.291529857696659
77.492975070613852 13.553555058876208 -81.036673375778861
106.769380785643236 41.479154351059940 -80.624915057907629
84.398516631063458 22.181309623738624 -80.056222749033140
81.694341092168955 15.891061277452183 -82.789166514999678
-5.417701687242228 -76.652659614572983 -83.958864999988990
106.908915303449660 39.197083138060691 -84.717423266805596
85.262567890022495 16.483800904443605 -83.587596912377975
-41.286571181060566 -108.095172692559530 -88.286604430667609
78.623075904464969 11.982711014692056 -89.184235426509019
83.323232239513374 16.230428420468105 -89.045408864659791
105.914829065718749 41.726318834816126 -86.022819231333472
108.979397716164726 40.197007438722238 -91.753572991545937
-9.955285217116051 -79.428893071676697 -88.907009923100134
75.597422345188960 13.741935381405550 -88.842646494945029
79.563687143437122 10.700244751269254 -90.221943540671901
86.467729900851211 23.849501365023606 -88.735448604341926
80.859883205350911 13.647887748847547 -90.141309059370514
110.023244760360583 41.508890057127502 -89.908066584295085
-37.732928388515681 -103.463621371204098 -89.834357910057761
92.792923068951481 23.753213358611120 -93.142151607731009
80.207514554308759 12.535604759662583 -95.747058897692128
104.843459087642856 40.874286484964884 -95.543815814443633
108.145270028968255 40.881173824192970 -94.606542852232280
110.316973149782797 41.215549006657817 -97.694384807152517
75.759302701700179 11.907000415954640 -92.411996582447642
82.590657991335931 18.927866965095632 -96.642135496224313
89.293575313650535 22.713671972741164 -96.985925901642716
90.774985924522255 24.268048332742232 -98.144458906585299
77.804620129672145 13.528665903545905 -99.795168738545414
106.509578076924157 37.749117361468080 -98.612631095852564
87.688644389155158 21.240091515498069 -98.422478509137704
95.118244813162747 25.260917809231763 -99.945935014176413
85.223689014796918 20.553601191328347 -101.822613421781682
-20.062809658511028 -84.229646659030593 -105.327914495597071
80.835669365912324 12.780190516192597 -101.180516747421322
87.089895848729356 24.869252607140528 -103.486330350349277
86.640815008167479 20.145491320788253 -106.156267883071052
90.606627217563499 22.214658936152961 -105.804429337178988
78.808690408648815 12.769890397825627 -108.078334411342666
92.227961514785406 22.245924574249912 -105.232685307245291
86.738982359566108 13.436708833749682 -106.147839261643227
80.444893260079922 11.960429290925688 -108.216231775238583
87.182577929757429 20.539433110189165 -105.413298128923529
101.720284917431570 35.476018271367863 -106.221323866328746
81.071124762912390 15.912431697665705 -107.140517568674909
101.654322758691620 34.328064902140390 -111.190044275681259
101.489685795643695 32.217930928014589 -111.592520092100898
81.684212255559729 16.220455801124601 -111.868885721596698
89.266517328840692 22.370591429779978 -108.967702893064498
82.503170266163153 18.985691180143675 -111.849738044067934
90.335247996554315 24.229949610623276 -110.784235099126732
83.036864801649529 16.948493785873541 -110.247627569754059
85.613799150431689 19.157245073585027 -114.700744523498244
95.769666344259264 32.629635799239558 -111.456502393597205
93.983012371021772 26.302164675411589 -111.766539845833648
-32.714887395302881 -94.499937659809589 -116.274761058494093
-17.921692839154922 -81.499571547001935 -47.436625268733067
-14.842398723964610 -80.288321064668168 -44.452093865709941
-24.952282561084861 -88.875196255719388 -43.929867136300949
-11.468689694252234 -74.242857280583607 -48.358856705963284
-7.762443090922840 -74.208423629775339 -50.993174388074870
-8.133649485194450 -76.435227391557831 -47.893629205180062
-14.167142398337177 -79.149281935614894 -49.857957854108413
-8.216879877834810 -71.562502361134904 -48.155780141270732
-8.944068869773824 -76.849694299916379 -54.111247906315633
-11.858826432557340 -78.524822963542249 -53.061182608175685
26.772410837257148 -36.587646852981329 -56.417229296139496
85.630394844709571 17.134887391123200 -59.110239589280120
98.648631478983873 29.875014314160431 -59.265652617343243
94.875652016524640 33.313173617925372 -58.153340903485557
94.227806188202436 31.532731880167926 -57.668689868859417
80.634890418965227 14.718986174044067 -57.027827706083507
103.057675974338039 35.543000568405319 -58.595887220757795
93.348042257030016 30.126427138294105 -59.472218107320991
97.860782262677361 33.245290950881348 -58.988498579549073
18.184872016983938 -45.363962643194718 -61.060411732939706
89.431798353137054 22.274400179244612 -62.919783269333493
99.267928081789321 31.761427766083468 -59.935853891767088
83.180243021180985 17.908692093140289 -59.248142327428432
89.958816991875850 26.770844274928649 -59.755530674920621
82.912952307813939 22.041198413768843 -55.722421647362872
88.108718978503560 18.291710439552677 -63.218884261880085
82.161856445308288 18.109984057361654 -60.952512733067415
83.878875016918556 18.603913677076612 -59.789032950681630
100.693583909132556 33.485289770499996 -64.704145876841238
85.663729369087221 16.750910421604353 -61.439428640041328
92.641307265141933 26.851736662841859 -63.688114128807278
98.119904052099272 31.010424167609365 -62.884771476421228
94.868911463547590 32.104170042005109 -61.002980576957967
80.661751357099391 14.745254780060602 -63.138556789794173
102.883438638472427 38.985127950503966 -62.177246080561567
6.910641186194169 -56.958872207471948 -64.915299845036373
99.591975470122875 34.875602184976060 -60.425168998115858
9.568370129959344 -56.773754654369320 -62.022492691349754
84.801118589120080 18.084761628598891 -67.884154778641687
87.913707173191767 22.809442028661650 -62.441522948081698
100.210219758631553 39.307863652213797 -64.479339691238408
104.765147501989020 39.201998547910904 -68.075381613202438
80.174630260339612 14.619772592539352 -69.274206788881330
77.609098561239477 16.855614670800279 -71.260763001188423
80.721751441281484 16.714405993939664 -69.644237414963285
105.835478860917959 38.407602083728904 -71.765487866244243
83.750548737493375 17.544659616041649 -72.350623584199141
90.327829475013701 26.363788742773163 -70.555165874361307
108.309767569076442 39.767390198192530 -72.377887181283427
82.052321430028172 14.793143673618623 -78.003406385427780
87.050949160875959 20.921054249912185 -75.719059965191917
88.847256442976757 24.906175824089427 -76.447608553405246
-39.787435179390492 -104.928571666365329 -75.446542687331061
2.283150411019801 -64.820006617814741 -76.824928988093689
90.682175703864090 23.958162094068747 -78.085273781701360
105.244262358722366 40.639306757600956 -81.963311970941731
-6.828733469705853 -73.432085291049830 -79.790242819619749
-7.172900475420631 -70.099650378434006 -82.100907010642601
78.979353980314855 12.689776720605543 -80.421162338865884
88.290923825494048 26.126718806558635 -82.114546524929438
-6.818808967893713 -72.173101534116000 -84.821887902653728
102.317400214788819 40.503661232743561 -85.355893142722636
78.810564267330363 16.352814752978052 -85.107860386702740
