# This PCD file was generated using the MATLAB® pcwrite function
# from Computer Vision Toolbox®.
# .PCD v.7 - Point Cloud Data file format
VERSION .7
FIELDS x y z
SIZE 8 8 8
TYPE F F F
COUNT 1 1 1
WIDTH 791
HEIGHT 1
VIEWPOINT 0 0 0 1 0 0 0
POINTS 791
DATA ascii
67.457160487254939 -43.922650658866203 -257.562764909879377
-48.348839391339865 -160.769631238611623 -257.808088932804708
71.661262994642627 -45.677364172234896 -256.822771638328106
-51.367953508044266 -164.610324843767216 -261.628360306625552
69.508439611033353 -43.025120764666141 -267.237674811044599
-48.369638463215857 -157.200036636313229 -270.252900800921168
49.643316163778955 -61.044461461386575 -274.720997931079864
-52.256964161692636 -160.767037231058254 -277.038437486321641
-45.651472943616959 -154.059768841089522 -275.333548204892963
-52.011263894851972 -165.342962309048147 -278.970781517182445
58.780975523051033 -56.413467093921035 -284.350936387008801
65.058528561150041 -47.973344411936388 -280.512439945060180
-44.839245959858090 -164.079896001213655 -283.025076304820345
-43.239796455251671 -163.794690287252678 -282.008727787786711
-54.616474847925645 -167.463475141855270 -283.315812521374880
-49.762084354816011 -156.578170784110512 -281.724497324785204
-44.522268785979641 -157.914479258060879 -279.856023601033314
-51.903609541182007 -168.303613807305140 -290.704905388027271
-44.620624773148556 -160.225947968673722 -286.441644034302669
-42.189088674591758 -151.894521712001421 -289.124172153857103
-44.969428642345378 -159.125205239968437 -292.796001245279911
-53.583546308498271 -168.871348907198609 -291.010737839970432
-43.550106926013640 -156.211362509549531 -290.524430514594144
-55.989190100566226 -165.311372324554895 -290.702118792899455
-48.057693317616483 -163.444215449925196 -289.007051647956189
-51.894419453799202 -162.073055439503463 -298.423178767512866
-47.980994851324859 -162.965772712550887 -300.149677582476897
-48.301413092561894 -163.533933794747469 -296.361772487205030
14.645220798917663 -96.153685795224391 -60.985417291615001
19.243061818145929 -92.464476385714534 -65.240203084860113
8.173494528034400 -101.469491650304391 -68.683031344529340
17.482362754630383 -95.355621884023719 -66.007804920934873
8.548806817000859 -101.910194315884269 -64.803132131369722
26.788908369884457 -86.146479742373458 -69.657996448563793
2.615207274722806 -107.954570332637957 -68.606748623228142
34.639738960031323 -78.972939767999080 -76.924520977413493
32.781997288225753 -80.642318851778171 -73.427175503993624
35.865209066665820 -76.932258926060726 -74.110130279775873
-1.602721319408178 -112.661410386535280 -74.459366283358662
37.141947786027892 -74.558731409764391 -76.969101094028076
-3.326863505822137 -113.266935477660454 -79.835587373742939
-6.817444677581986 -120.177043800045283 -95.752820845331982
2.723881672239033 -109.434973072397526 -101.227803274306950
-0.775343627628954 -109.384140480896733 -104.458977808811369
88.847173273889553 -19.059544530451273 -104.871422443466940
86.083245402796976 -23.218038394994689 -106.935173518812121
-3.336519306169901 -114.070143434911444 -103.984758554617201
91.473815548487735 -24.088548313965223 -107.881537378101541
-1.698875526292464 -114.692831122167192 -110.364219281442800
-3.987817044728769 -118.569130001885213 -106.347034262391873
90.189587924211750 -23.095289665976487 -112.358288271638898
-5.583517832084462 -118.750395102195554 -107.395179243837632
84.081159515291290 -28.885890662326698 -114.697767675579399
84.134365945454050 -22.285480699610815 -114.828730948061562
85.878660351170481 -29.004145944031844 -116.750011033232596
82.155171873430874 -29.182796837986889 -124.623408033691703
78.907920920597604 -27.869887964650520 -123.631521742262976
80.159306568621275 -28.440025494433126 -124.329848198774229
83.038710038820483 -26.406058921947515 -125.747846629041277
79.628836877262628 -32.841840262908896 -130.565283866079852
79.926764925019938 -26.856252179312403 -130.887592251919216
82.216067836481486 -35.459179169940050 -130.220421365137241
76.508112507652996 -35.547461280703388 -136.957851060313857
84.980274600021446 -30.020074574683630 -137.468034006395015
81.355393140699562 -26.086129160883306 -136.034848011023911
79.629150339047570 -33.911926332525169 -141.920514962024555
77.640529586837602 -35.617263507855718 -143.382878908205583
22.806619237504613 -89.836553596743954 -147.320933049759503
76.295430912509218 -36.221491704726333 -146.172429198451880
73.532884259101607 -35.326189421401445 -149.466145211829513
20.724766172887335 -92.147272385338354 -145.092395912680502
73.284105657251885 -37.389270530152189 -149.387913644316228
26.451437816114723 -84.643259049688680 -151.304524944177984
23.704319174593408 -88.761459249965526 -155.009686931462937
73.079377369706691 -39.871674173377023 -155.929186188280880
29.135355432327163 -84.849506630783864 -160.205699561002518
75.592390170685064 -42.695923103208145 -165.071278855806668
10.746106525043187 -98.161200371456403 -158.903488863928374
25.850029595049403 -90.125377962765697 -161.818272252192742
78.552097085379998 -37.752794133388470 -163.580877215790366
8.541391246610051 -104.246672560202938 -161.797147647563520
12.763890157922258 -97.879165838266630 -164.571060861532999
29.564050880486857 -77.200499371270709 -165.932591585340873
54.941645351083480 -62.741255198888545 -166.139986975738168
17.165171714033871 -99.317336435092642 -164.868716524563979
54.967676735199682 -60.372832876868657 -165.608910696430030
32.471652729525772 -77.444242693448444 -171.980124468740087
25.860288497978971 -81.215603515980035 -170.185847734179561
10.419425155856571 -103.845043455790957 -169.946926405210377
76.301396408338903 -34.580113829590495 -174.246402637995914
50.152133005437847 -60.788314853381330 -173.270166804047051
72.563249960283187 -42.751261308589825 -173.704302311781561
47.573236572944325 -64.581906929348435 -172.536801930211197
54.596895182144593 -64.114090219866881 -176.512843741482158
31.041433744727591 -83.829671248324303 -173.270777431072986
33.165814548809244 -73.365379080182962 -177.103935745623687
74.134428468877545 -39.299580088940210 -177.386511610953391
54.491993956906157 -59.298660380637308 -175.894328890300642
37.923033201761932 -70.041899466094634 -173.412479350954612
66.815042964180222 -40.397513445205220 -175.632284166622043
69.377301099062777 -42.158741320237375 -176.880998920032511
31.427575003476409 -75.221292087436126 -175.117404928355427
19.641617816607269 -94.979361691531707 -179.176799798440015
72.549143047877010 -42.073597466815912 -180.812709192150180
26.195761466222905 -89.429783906270387 -180.601454273899520
16.147533020531057 -94.386542025822408 -181.679662424839307
17.467896599647446 -96.089763929808285 -182.049180543740562
42.802225882837604 -65.816715719025822 -178.866779115037701
13.510006447234423 -97.350134664963491 -180.608853285674428
-48.120767696671280 -159.366289179857148 -191.224234341478024
23.828044174347717 -88.631534858525185 -191.366666735048796
66.847940173215804 -42.949423144333110 -188.971449659199180
34.001752008373977 -80.675210497263407 -190.284523325330554
36.484736351011129 -79.598003340010038 -189.636719679688611
38.807011379782502 -73.908376369337958 -188.966539609092706
71.995753145218515 -43.067616125179953 -191.180828206754740
35.955101036661524 -73.234244841007239 -190.011255657924352
27.416619290103021 -83.102143570497716 -190.517175540917947
20.135488845184845 -87.251082703369022 -189.329838182644465
37.150181802955288 -67.831445268409368 -193.849249615493534
-44.666901827057600 -159.257266209078097 -192.328116212453466
68.508470051560977 -46.292659354524794 -194.652617860236319
45.403225785954092 -66.792789314462183 -194.924307382814732
22.476866016510488 -90.030942483121819 -198.048307252850861
39.146834537814136 -73.003459784045262 -197.468749284539427
69.101682553410356 -43.780624293731563 -199.563269665364686
70.675854755159037 -49.508884229419095 -199.859091955984752
31.300577983151992 -84.128206269847794 -197.766510853788787
18.858008145868791 -97.051248618847566 -199.557857235710458
63.303907548847597 -43.429607135831297 -203.993752610540241
-42.513902731622132 -155.121541573048660 -200.636477590155692
-49.795332833658293 -165.420820137383515 -205.736684626408731
43.889254824241974 -75.535226575060562 -199.826675925288470
12.158293606949577 -91.705250304341888 -205.867540967470802
-44.625954898651038 -163.798987894308397 -203.315827812714105
-43.328517216025325 -161.814235494780263 -198.466713820370813
65.517681900346020 -45.781393409732367 -203.433116876199335
12.160102711454584 -101.294482691307365 -201.023080094836757
22.145452241062948 -94.162121663696567 -204.920999996000603
6.682189200259755 -102.902380632442600 -208.027187258601543
12.974915768419640 -96.909041005644895 -205.251221594110206
62.192696739339844 -47.045623216716002 -206.352989082109019
12.616806900027267 -99.737936914229095 -208.018513186749487
5.308664289800669 -113.948165307129202 -211.940821254355654
52.148649751332378 -62.635617711360744 -210.889361833526721
11.886969517519715 -97.553340290857548 -209.242463899866920
43.407250008134490 -69.543090719459244 -208.167179581045161
-0.128609506435609 -116.210092933484432 -207.798201974549357
51.560697303045380 -62.568151170818879 -211.080369586020026
7.197800816505231 -106.512137263449716 -210.854149278763089
-4.399006650674373 -116.276402935857874 -209.735422387021060
39.596477197845140 -69.780498356272517 -216.234704082780723
58.012385253975019 -49.608348051522746 -214.344768981790793
38.669757515766491 -74.346571598914196 -215.613745707009116
-3.682822879371202 -115.200383534949253 -217.312546709734249
53.832085852028918 -58.795960983973977 -213.722762284621012
63.307476041188828 -47.245176331987317 -221.676834874012741
41.095128815250440 -71.866519332570107 -217.706340153491027
37.857155850976547 -72.943291602634446 -220.011130617153100
63.612754621855444 -43.824823177564767 -218.494590701554444
51.796122501652704 -63.845549055394109 -219.465073434877155
64.243686590469096 -41.667290881405222 -220.278028257315810
55.409778478802487 -54.888039573589346 -229.535909984756017
61.654441302975044 -47.789726004804663 -226.609406723116280
48.073577014900359 -61.681799719306760 -224.257823050837999
61.799603299959642 -52.090279911108333 -223.616393475001530
64.574243729881246 -44.847609096499212 -224.571613587212028
-45.323157039247661 -157.233380453469636 -224.549515937240102
53.818467279722455 -54.919243753780712 -226.287331927487941
-51.807022023853122 -161.057709043901696 -227.494318143578568
-47.801497046708448 -162.711868356599069 -223.733184606791099
64.570890037195142 -47.829505753922760 -226.590285802531582
-51.489449446817055 -163.442760577405465 -227.001504065063813
-41.394276824651165 -158.123747546061452 -226.028210089782078
70.574266657597306 -41.181575059518480 -228.367251805764738
-50.122190103974731 -161.666997436665923 -230.341373640286236
55.481327651643277 -54.620320865923347 -236.989455846495531
56.327460133887094 -56.305497447455274 -233.818065181936646
51.033489689587483 -56.412600337583832 -236.311955016187028
58.796842056579088 -54.363185928787097 -241.217368107442582
62.688235556029511 -49.685720247155807 -234.057508700221973
62.903866584744001 -42.103109600392472 -235.713590194698412
63.008101918522257 -51.251670455441300 -237.516985652543383
36.388306406750615 -74.522746099763637 -239.774935313488641
28.763073727916314 -80.684963934475718 -241.939319824416316
37.340125124341419 -72.106202609186084 -238.207273364087428
26.152130283573928 -81.568982872354738 -241.506954551727688
69.187207726001176 -47.575331480600759 -240.777171927615171
38.145805755871685 -78.167499593725836 -239.853404533805531
66.119148270328367 -47.160207341564025 -241.731093109020975
73.067247774362286 -41.099033311847606 -240.744717247739345
21.750049748273554 -88.268786995691670 -245.164280678827112
32.729630144282048 -76.858442176936961 -241.967756669156330
15.981648074124852 -93.357654766919225 -245.757987543607584
21.394895077641639 -89.656893785524332 -244.726519118879537
16.895639612176101 -92.862734908868219 -242.663023403404509
24.184527361201212 -89.063389049827222 -244.495203498255506
23.618742545500456 -87.172260591083301 -243.922869220187522
66.165058526892537 -47.600246671057164 -245.132007763320871
-49.788171425175818 -163.638762924229127 -242.663674532650617
-46.875590301989199 -162.928387924245811 -243.832547867083377
60.396673256939792 -49.205216172728960 -248.426996919181306
58.281018441079453 -56.235788335711305 -249.689124873918786
69.213698411504154 -43.913477326162408 -250.772905703562316
75.205838123557655 -39.549294199536334 -244.263805309954023
-46.114165362645643 -156.628883177777851 -248.868051797146393
-49.319108610541882 -155.905505867884870 -253.451419743770089
-50.907808516365201 -161.525821911993688 -251.753257048841817
-41.773694243752786 -158.950604547639102 -256.630079675957404
51.807260764030858 -60.484166027223601 -255.332368841673656
-53.588795000003529 -168.504377920287084 -255.005322753847821
-48.558189654161716 -164.983813785306012 -257.570538303531407
-39.617433448991136 -155.371080257496288 -255.237199643328040
-40.867067563260598 -148.915618878779838 -261.084449586585322
-37.320416939991667 -153.947745584989462 -265.145282574305668
50.473475627425167 -63.990414089725910 -258.505979508505732
-44.139353260197630 -160.985723918356058 -260.692970116637355
68.344007292788618 -40.155723493125713 -262.014938182300739
69.130263129581309 -43.038797766145677 -263.452347219905846
-46.264821741537695 -164.707480819745086 -263.677157099773979
-45.565624565245727 -157.056693642325314 -269.341883567231434
-49.125094488601647 -165.253362717206841 -264.721561930502332
69.555933483884928 -45.021875954736750 -268.525439372379481
-53.630404715059363 -164.284736351582211 -268.154555612010483
-48.204823891387925 -161.214294917971557 -268.222845358819825
-49.917735440633329 -160.785936024396364 -276.602252926709014
68.934008985938902 -43.773013949443587 -273.184861028509033
69.761799969824850 -44.424453982820879 -272.142404590454362
47.804305416743368 -60.985269889428871 -272.763897576756676
-46.121600229466900 -161.320687869799457 -280.942247284911332
52.182335854554417 -56.476005170068490 -274.662498589409779
61.004753894287440 -49.364037588271778 -277.624805220892085
55.075417873586993 -52.428935062159923 -279.730249031867231
-52.734126046494964 -163.102551559091154 -281.816305110575570
57.493370349588211 -51.580162715862215 -283.202008449484651
-38.651456500352595 -156.258736861652352 -286.962715009699480
-41.695749169326596 -154.482957431381749 -283.540360306657533
-36.571351172713030 -153.845421846841759 -286.791659602582229
-44.266590428354057 -156.175665098449628 -288.639959631108638
-43.425333244621790 -155.879526219019141 -292.412222012187158
-46.032160891875336 -162.468388823144352 -292.530855616906535
-50.685919883135867 -162.270930398627314 -296.440812088853306
-47.662802280067297 -159.845781153058397 -296.408877762675331
-46.756145454801882 -159.917829458385256 -297.765810334631851
-46.820291795568721 -162.972295958376179 -296.724075369699449
-52.174560672608436 -159.582474258724318 -298.864701527316527
16.392654564492716 -97.889205254249006 -60.426333954694037
21.717127633710327 -91.535272519677562 -60.268709739761888
13.484466163570984 -101.305070539754396 -61.184238190320990
6.591578361328923 -108.363614069539864 -62.862152472739346
8.360953130954714 -101.232921965127417 -58.993170881383278
22.309190664067106 -95.721547642022330 -57.188361723004931
22.481780694932684 -86.450683771361312 -64.262380108194748
19.808495846868880 -89.274957665072293 -64.843880075658177
26.844945757529505 -81.221464145135400 -65.949661409446520
0.397144248590932 -112.012547842196639 -62.931177189424147
2.576808640360956 -106.465956851058962 -68.932568063030203
29.963307276179581 -83.306406275538393 -69.040031734452384
-1.520434467527494 -108.939489034212983 -68.548402500875923
35.636505505047467 -80.604167717692306 -72.019966121535901
38.600330508373254 -75.104614764630966 -70.506672879803489
36.862629585893572 -76.884554499504347 -77.409877328735220
-2.662975825813085 -117.756917365331418 -81.830476636185608
32.059701825376749 -81.866115754282774 -85.448920431374006
116.278151018948847 3.115159802931559 -83.911971913185440
26.140097958009317 -83.459714525927339 -85.140860925854284
21.368772006464930 -87.784141572687147 -86.155113235680460
113.984720565870077 1.867181730163555 -91.378145014809249
21.413697095900606 -90.951178643498451 -89.152466534593373
11.684500845725559 -99.898895247026616 -94.521563181262778
90.052638671128619 -19.425280284671409 -102.689293481434802
2.752508514504483 -112.403454505358198 -101.702153168404649
-7.947799008576154 -118.673029401173309 -99.366893147518113
86.863160598230436 -16.948541387645829 -103.390384024438504
94.123992452076237 -20.208766255704358 -110.033356722316526
91.768537626884651 -22.216506742148930 -109.468916129643944
86.526904662504705 -27.940785164464181 -112.841506627761405
88.758540246918926 -20.041384023077121 -113.952355829944779
85.869403677937726 -25.603306788533438 -116.945922268682551
83.923541879783755 -27.113775866875692 -114.213715251218659
83.582735160508363 -27.357283980197693 -118.803501956967267
86.629716638039667 -24.410315446253094 -117.925920758809568
82.535447169317749 -31.589981002148061 -128.198296306061025
86.074931510041111 -24.449234026680546 -129.280130206280091
82.608982668318532 -27.422854731358008 -134.553101577554514
77.824624425632763 -32.271357723057534 -131.362424561863889
74.653049067179666 -36.505217056774356 -139.041978366766472
18.322970313706058 -92.258491714472015 -141.247974441135426
76.497280301035516 -31.577946142235692 -143.571267645470925
79.803620191492868 -40.068661729025713 -149.502574009963780
82.153209728774812 -32.485318299654281 -145.398195509902479
77.814832577989904 -30.039043797199380 -153.138061123390713
81.033946119468965 -36.835073327652040 -150.377649596485014
22.811706013210987 -86.479532932166805 -150.256448792170062
75.960354045323001 -38.128948595613551 -150.605715196990758
23.555806401957533 -86.992022957684483 -153.842228584677628
6.693936123088939 -103.547396136930985 -159.631530517519849
5.521465812203529 -98.704761525327385 -155.540242244125920
24.584001800421046 -81.572691901277310 -159.726476366129560
6.192849547786149 -102.308559593420455 -158.722446739362795
23.054434183103744 -82.929542035767525 -160.089360366859410
76.612269331040409 -36.625292093244411 -162.403912928074362
10.203176420294811 -95.868814595084103 -159.971604542340231
76.165687286229485 -35.225422887591812 -160.283523483061799
76.138128088918762 -34.642490543324357 -164.147801063950027
7.386558648017055 -100.990756627834884 -161.022112689660020
27.130421888794579 -84.536417163093148 -165.475276822320836
55.257327396034398 -48.513461208521591 -161.457068906962348
57.378726886939674 -56.684162193018850 -162.829282908037015
71.313366283538912 -36.109265361945980 -164.670112712526276
27.276102996669746 -79.166902151793977 -167.113942852842115
50.658777975514084 -58.316652610875799 -167.203767851713081
72.418221405273073 -41.453151631793794 -171.438596855135700
27.574353481794020 -82.202159127740160 -171.020772643234608
69.643240059117886 -45.075800223430349 -168.080048435303269
31.507134415739340 -76.059081506951870 -174.037356385478745
32.808366078181649 -81.665351635668117 -171.032087907976575
33.789683345468546 -77.074357637405512 -171.300950797780075
11.033689954198103 -104.256520261177585 -172.582524819930825
10.024661343355424 -98.411032084910303 -173.842986023150246
71.986296501226505 -41.383230644621307 -172.766340024637799
73.762883251657016 -38.233320244963323 -172.455397472313109
16.062439976024983 -96.499009067618005 -174.497438280131945
31.593193456290788 -78.894119650245813 -174.211575667909841
44.284219701719920 -67.173584795447908 -174.478067989989881
33.825651313026789 -78.049364038045056 -177.942381112412761
11.555515433687036 -99.691345038753056 -175.160705173159300
46.660525391324327 -64.718702464336118 -178.628767253435370
13.423314076046060 -96.383190844747006 -176.455056914401780
29.938655302578471 -79.006840491437103 -178.032129045361927
35.195582970592625 -71.071894109540168 -178.255098948843511
73.169259485693729 -39.108091277408889 -177.845411620822375
40.117188410655764 -70.494454126465214 -180.503514549561771
12.462550499182223 -98.365200076710238 -181.150003846668113
67.143750559107644 -41.823199405931938 -181.484480047442332
19.532655957460864 -94.871378083668461 -182.257011637444549
25.331798465854433 -90.380659305435984 -182.965968719307682
36.796162669771562 -75.905340009664414 -184.704375549951408
12.130554129062070 -97.571688003594559 -184.102831144425636
34.953482527551181 -79.342106210118558 -184.385244406311386
36.375416961954969 -71.859704829863546 -183.553726534725428
39.456008312617094 -71.796934934122262 -183.240521654837636
65.735221074311710 -43.014145646421703 -184.860931684448246
15.924446070022825 -89.206373894209946 -189.558477215856328
34.517233812694080 -71.805814448378086 -184.896133892213214
71.292312707856610 -38.792245654998524 -190.135614448649790
21.021944309700114 -89.860535942902914 -186.854477788909378
34.440111958645133 -73.923744479727930 -187.489803824555793
22.522548396913443 -92.076026002722557 -192.372720259725980
66.834473344385671 -40.663598227687324 -187.112024444518937
24.054940166278012 -90.665368471384383 -190.674008847005041
37.351082869548918 -69.231473097792545 -190.737071076586574
34.940353080826114 -75.467468939392560 -189.512485726207899
72.134092493759937 -41.589426975200190 -192.734162901299385
29.516501542241254 -86.387748291764439 -194.831044490642256
-54.230863222302027 -159.377411287039621 -192.972882788569763
21.541253388061786 -90.712193777781849 -193.708597905252873
39.631757536277497 -71.623178834611508 -191.538312238544052
24.053475299664516 -89.365281123109469 -194.906908109618854
37.910917489706428 -77.598871220898744 -190.299406875469487
38.928807275330115 -67.691668133972357 -196.231907718291978
29.208148170850997 -87.737284128720404 -197.626837556105215
32.568386410607793 -87.832694564196814 -198.870596785339188
43.045272214263520 -71.007784892822656 -197.503285960287741
42.063036734408598 -65.970681349736054 -197.342580315897806
-48.792198698501323 -164.718384451012128 -198.993621016753593
20.936935946488124 -90.182928399969683 -195.443132492130616
61.327359108811649 -46.245960621338192 -195.758281654203415
27.078914255893334 -81.008183950387547 -201.115273429119554
65.009024888774690 -42.574194899328155 -205.735906148523327
43.723345008738001 -67.131266915288791 -204.436020519280078
35.986150339791394 -75.567745886625644 -201.337707260185852
39.077001025376681 -65.932089078144173 -202.554438588037101
13.142996220719558 -103.253410990701710 -203.729021809299894
28.982772927930615 -78.950737022733108 -203.233890425519718
46.273818460283444 -66.086096536016015 -207.222018557553554
5.873310437924009 -102.617508853152614 -205.839225429118386
6.977603397332172 -105.271862519481815 -207.250161131412170
24.865029967177762 -82.973883643011021 -206.855729950326293
60.965285863814096 -49.275018934150708 -207.548038586365834
63.682788064386330 -43.852681498856768 -210.966988664139677
8.689284115602566 -102.122996718410320 -209.258796589626371
47.906335073651299 -61.467048596633454 -211.051895778529484
5.872052992457013 -99.340724243013696 -210.533430459167846
46.054191044610448 -62.421375726457569 -210.294796937344699
-48.183435788954128 -159.662329234718698 -209.671023944372564
28.633709391003197 -73.564130608005854 -211.306732178975921
43.619119314113561 -67.065768035478897 -209.232475551208893
62.986174306759899 -44.370789051945792 -209.248334929457002
-5.671100466885218 -117.010458090703182 -206.778500270767125
63.905194817289861 -44.387774871281046 -213.514426113730877
-3.536132059231358 -106.681265643434571 -216.654905483129539
-7.367365071276793 -113.493916620556448 -213.459084308351834
49.266719357233441 -59.502479010047928 -218.680729282794800
49.066219268077454 -59.784705637343478 -214.288767591040710
-50.074190669640537 -156.155236049820985 -217.198490938135933
60.010347370850837 -43.097764884567688 -215.932389922847904
46.846292572852285 -68.356186346979101 -217.883811601544750
38.199686261111282 -72.935149855452238 -220.643604059846894
56.825725608683406 -48.095231017667842 -219.970018031122322
37.205792800959259 -70.096360586531503 -224.667583477369305
52.189095098054345 -58.974353998229674 -219.573096441057203
42.094256046172191 -71.423108276641457 -224.218703220039572
-49.298469018744029 -159.487223096805906 -222.345383426388253
-49.005299955829393 -160.038100761265042 -224.130824072388407
41.822541740321881 -72.120086235835757 -223.079273260126200
53.855563312038605 -57.239409298782924 -222.674286592232789
55.841954125608147 -55.792045441203314 -226.461861808461805
-50.176117562629194 -168.931452348981480 -226.432552664547330
-47.281665957270256 -158.215970246561398 -225.942220250312431
70.405347591990150 -46.685597143864200 -223.396906698142317
-46.645572734397604 -156.444229565197901 -224.711492322432008
-40.728241790755227 -151.386655941116885 -226.267317376988103
53.498754498598423 -59.921649823068847 -225.215353093832363
64.196633423983428 -49.552681267396146 -229.563944487850364
65.594071784873393 -48.477598122820211 -228.224401114920369
-36.571526428071074 -151.685746598647484 -227.625984107986369
-52.375422961448130 -162.768979218350694 -225.774261310612189
61.653605186696886 -51.293329855025540 -228.138091426827629
-37.760190444952421 -150.940495617473829 -226.903653622091980
-55.260636302367836 -163.096026382066015 -232.639010675734482
-44.325198341949481 -152.770668397387908 -231.992317189743744
49.923698479828488 -54.784671560090523 -229.403726935838961
-43.184182428494374 -157.543321214174597 -226.020220353344513
59.834817167219427 -51.576321176728335 -231.352553748452578
-50.881877495246087 -164.592881560490468 -227.753289724793802
-45.884747191740516 -158.958909165182035 -230.682365148660921
68.329498350221726 -44.322748684579402 -237.353684890026898
68.965784894669611 -41.752438818762172 -240.646887644767503
53.436939330793955 -53.255516808329453 -235.088663832098916
-52.328075318367468 -157.393384908574944 -241.435251430954708
36.244172401938826 -74.286751318204679 -237.213375147077045
58.183862343144327 -54.111458902461514 -240.076656614746099
40.021174491480672 -74.136576476237593 -237.064378762527639
41.432165103881573 -72.039855062123934 -241.942463553790162
-49.454560577148740 -158.137236727007263 -242.779694896656594
-46.395346807383426 -159.331117305149633 -241.686566433737653
62.178538223409518 -48.625259694993517 -241.963075999905470
-47.767658636559098 -162.078850083673075 -246.442663290508705
44.324493311205579 -72.074597339909928 -240.921639021899722
16.739126023384923 -93.745947668612217 -242.066290441891255
39.894068637158746 -71.637644120828057 -245.089753204613686
31.873355275175427 -81.566320789051147 -242.342868983616256
11.107736254897242 -96.313513580013776 -249.021519449346329
62.014301867582468 -51.598484130131688 -242.904604022043316
13.473496430428195 -97.603253432807350 -250.544349030235765
63.182257432257380 -51.118986858024201 -246.513378908368566
63.494730822271556 -49.329808602406651 -241.031605522613177
63.786893723453325 -48.722526801594270 -247.576452868979857
15.740287926346879 -99.862721192042883 -251.832205816081540
-52.272398177446348 -160.205045766785389 -242.459927227890347
18.181155113483218 -94.097664523533041 -244.425462084661092
10.553448107743215 -99.862931076102939 -250.154741280667480
15.905872996775562 -98.163535774768917 -249.909547096885973
65.396992130974112 -44.153569041587254 -247.100486726954585
49.402549256392184 -55.824818075973425 -252.216330391780900
48.535297115392346 -61.375089846321387 -254.292463171530670
-51.430086629169615 -163.889832797365131 -252.658837354965925
-46.873539794704627 -156.637517752226671 -253.315481260273259
-42.601382435416781 -157.259563995709868 -256.389536078427227
-41.613145412482766 -152.246302572119390 -255.854078755063142
47.864251887553372 -64.881633920061034 -261.372500638332440
-39.256851908211971 -154.647123217966737 -263.004691166779764
-41.249092550644619 -155.884239592705569 -258.985188578962607
45.218889406085729 -68.224525055397820 -265.904568648118300
42.529735048035249 -62.752716320507638 -270.595597376595208
-47.699805043745307 -162.774887824582720 -274.190326989795437
-53.023343145780622 -158.727310588277163 -270.870839753335190
-51.489287075310372 -162.743233512171798 -274.584843799120051
-46.819878137356319 -156.538307762915593 -280.653419000202177
-50.353697597447308 -161.317619353321447 -276.212887026729163
-50.170677343316072 -164.450362343615978 -280.269986105477756
48.690631351251540 -59.088400540791241 -278.809846596097998
67.156308440429569 -47.806625049838324 -282.320228772909786
63.722532907107841 -51.911281502661296 -279.611238112263266
-47.847381845365874 -157.838606132265937 -283.298757002911600
-52.341637978980273 -162.336996412700927 -280.322557218006182
60.751670881145579 -49.123808082366580 -288.213817966862621
-44.969865000101059 -157.449284163135076 -284.323021088206531
-40.979294030268861 -154.360737323935638 -288.495181753523525
37.887873542185154 -65.203444994595287 -285.290186225103923
25.185340256118344 -85.666890965027790 -287.444734656094568
37.648795798608667 -76.574421840836621 -288.525292937774566
32.473257716039349 -77.926010618427355 -287.895583782308108
41.575930444803781 -74.898132368825443 -288.912758176798945
42.254454912428642 -65.773677762128287 -290.594662476259828
42.195160942893658 -63.863572042147077 -290.398256375243136
-44.745770018205434 -154.650669107250877 -286.551514590661384
61.336629674829631 -49.688937939563274 -288.690821186928247
67.543056011935477 -45.517098268612656 -292.120266989909851
-48.328861144019882 -155.969734213229515 -293.734324259741641
64.587786670436444 -47.346267458687031 -293.063724715172214
-53.449716719815072 -155.465980992886557 -297.306442252339082
-48.098720813910340 -157.344190558751933 -303.844109426929379
-49.355481250112483 -164.842705418930564 -308.854729940892867
-49.486447713164431 -165.167637360528715 -310.067278803243710
-49.891214210760410 -158.809957882474691 -310.702608063670766
-46.541431145661093 -161.252722994215446 -313.433191869895722
-53.346154002912350 -159.581995445867193 -312.455912648418234
9.333658109144515 -97.130176397114013 -56.072884637501730
19.040320220249772 -91.476646605534185 -59.034379354180615
21.702730549598478 -84.524895059792485 -60.057289647501101
3.057883917712448 -103.826699106962295 -62.365582902842284
20.557638138556840 -86.074666605716843 -58.651287779993446
22.647917726928988 -85.124012474952721 -61.115701903805665
26.977472077372834 -83.636790270686632 -62.049344502210182
27.769102705272587 -82.235101575350669 -64.145771694444463
-0.448817331350878 -108.009740676788169 -60.654185121349769
29.092495140756181 -72.681251940470418 -67.770023569241445
30.239050380889026 -74.607257069065639 -71.622470881377538
38.069154599397827 -75.259335177233709 -71.795165174270409
32.111517013192845 -77.135850937642786 -77.652460387278325
108.707490160550336 3.077825632744977 -78.656553320565735
114.237991465174701 6.786879089878942 -78.824168448020686
111.630073244131523 9.005075187282445 -83.052363388200092
113.436168370726094 5.912109794658392 -79.902342134461620
105.411946809515385 -5.937830417280715 -81.355875078316743
114.740341382476259 6.821561277286389 -86.603490056600720
113.130475008634065 6.248373340743392 -87.884809523541179
110.171952546532935 2.466985983637892 -86.446264686339930
116.417153534462642 7.672718977929064 -89.028540128556685
19.026928817918161 -92.085435150862921 -92.481169134626711
111.815919235526678 8.537822864265969 -88.168160391243859
111.004227245782502 -0.808924734441886 -88.787255867673352
118.295954435139521 4.554218950933352 -89.316687374274736
15.742173026494671 -89.225629466802019 -89.492548496229844
115.904071569056256 5.271476202626603 -92.403336136167454
14.444327204946564 -91.757733461537271 -95.763160872530491
117.727097538898335 6.557434750095991 -96.304460926159280
12.775885400253539 -97.656857764979335 -91.627297563154869
93.153495829907257 -21.830563325947860 -101.347593958062632
85.557209306940678 -28.045644517118912 -108.439614121571537
-12.691669187950964 -122.541853530300557 -100.757276471671545
85.388142844036508 -26.139347885387497 -106.417338739498476
-6.627683707034969 -115.748742359375370 -112.213201629731870
86.973845938294133 -19.244031865691301 -108.048768021383495
-10.755411384114712 -118.665394003365407 -114.736088404283933
88.648230193983920 -20.891319657778499 -117.820719966991390
79.985700622798220 -35.146508779991173 -116.401692977204860
79.734351284328483 -21.581613230712346 -125.532083749485679
82.319143831156495 -26.635565478318711 -126.858330863183227
74.103961873438749 -33.834674638943866 -126.742520930292912
77.364508252612580 -33.547462356370922 -127.469211226968142
79.444245050224936 -31.991498978569258 -133.351538373809944
82.333688879933334 -25.717550693531759 -134.723832832579802
17.697721240764128 -91.487800477982134 -136.045382766233331
70.033338691940614 -38.397418443308084 -142.474867650527301
15.536969245539854 -91.571369122373170 -142.087595251388734
24.715340594196473 -88.227240667446637 -146.084529643193946
17.895069267917719 -91.170502024814084 -150.289000644621495
80.316833293544448 -32.972455598373003 -147.293105131070405
21.022010524070240 -86.105158215890640 -147.900964072378343
18.770654016309873 -85.095028349764220 -143.729430578556503
22.791204856731579 -85.471277973841836 -147.986280568028064
135.480903283323670 25.703712223619629 -146.292489028302839
21.668375418226507 -88.564259703778632 -148.857217748524306
24.660246883116596 -84.987835191274485 -155.201219327025285
23.468878655135537 -83.178793221222179 -153.116971784919798
70.011405982202845 -35.075452536610257 -151.384940658126794
18.166138054651231 -93.530345511789676 -150.620013504059386
4.826465003449790 -103.113739954919396 -154.759048972953309
6.722232349104232 -100.314520532859362 -153.407764527498472
134.729944674266306 28.013449891527582 -153.084835644238979
136.966774211232234 22.645514629581569 -158.521247215439814
26.002741270247398 -88.202971514382043 -160.576789214530663
67.799634186395380 -37.897023133150718 -159.856999097332505
135.769304047759960 24.925092685338576 -168.250779780826235
29.816827577171956 -80.396223526373362 -159.698880635200538
53.860954728338427 -52.363643368357735 -161.821728671818136
78.775510233916222 -33.105043166046869 -161.663993226655862
130.366195151528700 17.957419433882919 -164.102126991270836
12.723306180739414 -94.193340183893298 -167.200533680848253
26.945910730984053 -90.000220165887484 -167.981414465843244
8.989055579054373 -98.536335358035288 -164.648656953778669
136.286353308169964 20.370026064910331 -166.121407050366628
51.081784228683752 -53.100079615982864 -168.790884303571914
67.902501135022632 -43.876882489639129 -164.993503167403560
11.209071188221426 -97.144867735759718 -168.125548566078407
44.186584704088290 -62.685584731910858 -172.398655323710642
7.962842838562843 -96.623489315017551 -171.995025808533342
131.930421074057818 24.357961020924417 -169.659942708290345
10.934254680119773 -96.772935665288173 -170.157328464122514
18.388063333728137 -91.422701159666872 -173.146269966217005
44.472123593656619 -68.085893732868954 -173.946095164258196
49.192720893126193 -53.924791741146265 -172.427576527542215
14.126848055030631 -89.748999687132638 -174.760006558676480
133.848811815371960 18.965006721082766 -174.908859953731621
132.997630848228454 21.525979446798061 -172.962648385251640
33.697276594644123 -76.627624098941922 -176.224705904412701
72.941977803616751 -34.977281690421954 -175.104400192816541
126.605280356376156 22.951159667205371 -176.726911863185705
27.924384707264906 -80.334350041244775 -175.692703338163767
43.443258626913185 -65.591807197416557 -174.384726072841318
48.196319323569803 -60.690082265002609 -173.566931414033945
35.666816217495899 -72.780569679461323 -178.677370661843696
73.821518028001748 -36.997700860820750 -176.960742325198169
15.141279651373130 -92.162832979211572 -178.424946001826669
70.937442692410244 -41.981226224400991 -175.434786986240994
18.602206267327752 -95.818911141398317 -177.693158260049927
45.214650000644745 -60.930452417556133 -176.012456428279819
136.562495516594367 25.514177205691226 -177.403977064846913
44.019315711571259 -66.149881904151187 -177.891300834875153
130.651652044829973 21.335917200728584 -176.724453973835836
37.345116427403866 -71.649787852110379 -180.777832332882582
69.431694486346643 -41.890473199525609 -178.836745195722472
134.646191283178638 14.472611099059371 -182.988479022996415
14.211096248893966 -93.009857724053461 -182.505348897610190
132.604262554849385 20.394962463362802 -185.053503334629795
15.382943229006827 -90.835096684808192 -182.765580873168233
69.003454671751214 -42.098372284862158 -181.895242851620765
22.520153895977394 -92.889661456789085 -179.608200397762744
31.836370965121098 -80.324911425545039 -184.116859150624464
39.494944481993052 -70.168197292518045 -182.303637205824344
34.799120966209053 -72.652827459080484 -182.980622461657589
68.595894985643341 -38.136377830434462 -181.177624799691415
42.425624984992361 -71.160530303026476 -184.875835308550222
-45.951320366922836 -159.704983011878909 -188.571980937522795
19.549449189210119 -89.748576887557803 -185.926281283016550
24.918273649337472 -89.101523193675050 -182.317190336611105
126.279544418847337 20.318321245262823 -184.291166466098417
13.361343963434619 -92.384079606513609 -188.924855974713466
15.486885674781457 -95.915869900648062 -187.907855719661484
133.457804816758028 22.476538143195100 -186.095186340999476
34.135051363564493 -72.467201428952038 -185.225979404945519
66.613193519085954 -38.140178788617902 -184.626428630540772
-47.406225727052949 -156.387053160716562 -187.199888041195408
125.199333778574896 18.643033677992371 -190.216821381188453
23.358258344826947 -85.305233953455527 -189.698461645684972
69.059353630590493 -40.407420493170676 -187.587059687633996
20.865341518590366 -89.259527050195317 -197.989157014698776
18.958745942353342 -87.028351779686929 -192.747725465034108
-49.234932949552743 -157.821828234054038 -192.957935726533776
125.370291912307920 16.386980859885107 -192.877849358917871
20.771835700779562 -84.527332283711814 -195.430978724730551
61.632547580792732 -42.454168589693062 -194.222665981515632
-41.433627825033753 -154.911686932588140 -192.848296058653688
-51.095755596215987 -162.823239470194920 -194.085058591482692
24.127407738242916 -83.837391528138085 -198.306343875256090
123.559988930313608 15.480050829506979 -191.125581221622099
-43.742516291013111 -154.575634164428180 -197.597907933841213
22.389982620788452 -84.590060085009526 -198.066463911523272
-42.036618006182785 -151.869009218425731 -194.879055098279309
21.367266494751114 -88.225456793910652 -197.996062808155244
43.118752477507535 -66.923056850638119 -195.675651599848209
45.086884987625368 -65.680849617152631 -197.891775905070688
65.622515573057044 -42.839820839849203 -197.641980753468346
-44.449535912249324 -149.782888040685918 -195.249253226408968
32.386512176826216 -83.879244108469621 -198.482338825814196
29.025612759786860 -79.768030223816112 -199.598041135514052
68.487592193369778 -47.490058309780764 -197.114610172481520
36.282661523324983 -72.354417625016040 -198.744383066351077
127.421926701507090 19.738276015491586 -205.510515708751910
62.487948023149507 -49.263242020350106 -200.027240029165085
124.332171289800613 18.548032624676733 -196.879479302777270
41.126636035409042 -74.059160231890900 -200.273914153578346
-48.380562730689249 -157.672757577314059 -204.008227984702415
127.634582841300372 15.172387008489235 -204.655887339290530
-55.170472186653924 -159.416964536388434 -202.643975182855854
22.747839332568248 -85.898790484863440 -202.298194282828007
62.442420090101642 -45.261249067366073 -201.568398860159022
-42.674007182530630 -153.031468212630955 -198.846700991852884
66.035147216094643 -44.805986843733223 -202.805779134571509
43.119368235860790 -63.993780936054854 -204.061256319662249
-53.780342724267662 -160.630069360928246 -200.700583849769231
29.462316404757512 -85.171283620816155 -203.815070250276250
30.473930961893178 -82.400806427236958 -202.871599594962134
-47.939748181058313 -155.893647501949857 -205.232301019227236
-46.465739630370116 -156.240804993576631 -210.968343887543398
61.610578157900918 -52.346759384227461 -207.059544325825982
-53.619560535106793 -161.861165142940820 -206.141102431553975
125.047791604872558 14.351017262243097 -205.391474581887678
-51.429985866772547 -159.971890596772511 -206.417122018973117
62.879688209073443 -45.708940013095123 -207.961083661926807
120.673885223212963 13.061822421680260 -204.875789297621964
127.720443641684952 12.742521353585051 -207.136228769844990
6.776647106900191 -103.287370810171083 -208.954230491172751
-43.770231255505045 -155.216744924745683 -208.081191314216426
3.891894239573672 -109.979584897632989 -208.838075981360333
34.333367066256834 -76.711460944396649 -209.117022078336902
43.791293352756064 -66.169574120703572 -206.683843754721750
43.602734089661901 -60.876415550093427 -208.827865207099649
31.314837235760958 -80.817448375090905 -209.405316996191601
-53.296210671533110 -160.175321794780558 -211.273714336421904
-1.358472842532227 -114.587133790483449 -213.027093386220656
7.258466727303616 -102.795770520750324 -209.797880380624946
32.658259232806216 -77.725615735247914 -210.793795034557121
118.858559480269008 8.774980515389975 -210.618649825398109
47.910135046617725 -61.772788983017357 -208.704490674850433
117.641517903379338 11.274561031171375 -211.087247132010845
-50.049865288972100 -160.731279554170413 -210.672612338409607
4.736911873070033 -104.702294327594302 -213.810900732399375
29.554669773856578 -79.961207576034155 -214.085956614610069
35.509768145853251 -74.012217350449603 -214.522626098654712
60.238131549073110 -47.792361576418315 -211.813369482695180
32.991493642418646 -78.823736070218871 -213.894086604357398
38.773541230433537 -72.228957873028349 -218.291275699357470
119.938881170044851 10.336918867758236 -210.387914359907626
-5.915172066704798 -118.392309978161308 -215.297553254925873
44.363374865449195 -61.988941902565898 -219.610058502246545
121.036596349406139 6.943355316393659 -216.753592006223357
-7.188098096739295 -121.269471657006036 -214.627319188945506
1.707807927528184 -112.936255246665979 -216.690169501269509
68.947450917387741 -38.675020075244056 -218.778031727503105
65.568042367928669 -40.698538288830967 -216.331232977924628
31.885986667950331 -68.615564515738342 -216.627085109336321
115.026261090410145 8.418932843973266 -218.859051108792272
-50.926513345158057 -157.448586670523099 -214.554218923821878
-4.124752463355002 -113.505514704401335 -215.250868661286148
-7.031242267797977 -116.827875144411465 -217.631204558636000
-47.313907470589633 -154.829304555589658 -218.507799703628280
51.915167147938938 -61.544294053300398 -219.965646467988023
47.799064666540630 -55.889359660861615 -220.649880835161781
-56.085922300046114 -160.437368270845553 -220.979091473197030
40.083320197838198 -64.547294417812964 -219.539749938945647
45.623229114256127 -62.111914712455011 -218.181092402057089
67.396421224862578 -43.003323217744139 -221.703681913923361
70.505739515433604 -40.448166131409714 -219.426781686346970
46.171786814982738 -66.182165015889694 -225.359919467809391
49.552500509416774 -61.885852666818749 -225.596391888438262
57.029467359379957 -51.541874700711745 -226.253420307823149
-55.054249394801289 -164.189212418370857 -229.031416849605336
-43.307609938451328 -153.491059877142902 -226.793405576973583
46.290961445850733 -63.044985682676689 -230.933182132179837
-37.946147288707081 -150.284567734160163 -229.364368764412461
50.005611686664849 -54.819603563431578 -228.276366603073512
60.991438091425557 -48.560896945904723 -231.886367486756910
60.161066028894147 -54.428844137238862 -228.059396654315577
52.743215131101351 -59.797294654999554 -230.633507327945637
-45.263872919397222 -151.368867624279602 -230.740365907830608
-42.678692521444646 -150.211538099696668 -233.462268648632460
58.223577172289581 -48.607207531522576 -232.348187850941684
57.537283812173349 -51.818687871744665 -234.648204539294483
55.162294664840083 -51.566861039720550 -231.049101275121672
-48.923240075290003 -156.193204647827685 -237.427959638337938
-52.098382406893833 -163.016424471082900 -233.952320170738062
55.589535526682951 -53.599820391135950 -237.342794739604130
63.886547259322207 -50.673390886150536 -236.440501042115869
62.763919765536201 -48.608489913851443 -239.777121436605228
43.055873658253681 -70.866002194229807 -238.656863841341874
26.797727356931077 -75.777422304543975 -238.431300403588665
57.019232132206064 -46.720981299539602 -243.569763116743559
59.708103916109664 -51.720773285758717 -243.290613496846873
24.186310697343963 -83.802899791153735 -239.558136043757344
42.233516067281791 -69.248128110757577 -242.264709901145665
20.138880400989201 -89.440997229234029 -242.936587746548810
52.902280319427696 -47.963111649823787 -241.308110966247256
-48.621093332016351 -161.248307482574660 -240.553085242539254
-49.533354682208682 -156.553326163435713 -240.026548069571504
36.744656564836824 -66.829831926018343 -241.790895836310852
59.548628894691198 -49.409769323774370 -243.628506426345183
37.016741120814707 -76.549289568784630 -241.662737314686183
69.232816303792859 -47.345483610685051 -244.043641642956544
14.551809369377416 -95.940235975171490 -245.273767453050169
28.918206770058639 -78.782960756998463 -243.944471559150372
63.070458425308480 -45.172179980246121 -243.920555122264119
-48.596141183404335 -159.744109177247083 -244.128499830558155
-52.208827859415358 -159.058124869062709 -246.221785267355131
62.807581258013450 -46.345360092978645 -246.185693838798073
-47.526967340100072 -158.045185745304195 -245.924522147946533
20.270330198718586 -86.353154305238846 -244.879163977228558
9.127620356034104 -100.436483656774712 -243.641660952719178
70.716455774358224 -42.612510231356062 -252.090763113013480
63.475886664129746 -40.273739855796109 -242.539239571136108
69.709559691603545 -37.831714793352454 -248.008720671744214
69.324158443193923 -42.075559520784296 -244.746120650825361
10.774233371096802 -103.861543537023891 -246.323485916868094
14.560650296397540 -95.280812305876580 -252.893319115206452
9.240029496531770 -104.394887352903325 -251.848629325619328
67.760154824153645 -43.757860787291868 -252.653180711135661
-47.595465911475259 -161.115932719620446 -253.752880669783252
-48.237833970439276 -165.331841697227446 -247.361665551075049
-45.214095302495011 -152.550312140029519 -256.676612994741447
-54.286346760152568 -164.334885358190206 -253.472412175550062
46.174132872626501 -65.713082179403102 -259.156588098941086
-41.331951604072223 -151.850918021763022 -260.760253220638560
46.238564350786312 -62.635295371447540 -259.494954995255966
70.091495040383535 -41.656334733946217 -254.753540887124558
-40.941201011827864 -152.831588733481681 -260.944188766757520
46.958058797283933 -62.187047772221021 -266.907700975804630
-47.241953608958916 -160.009218996489864 -266.072935885452182
-48.401711732696000 -154.103814385827349 -266.899435836261262
-50.460813214446524 -160.637063670164906 -266.314799843334697
68.666342996971068 -40.353188081684344 -265.320709135602272
-51.778203814458770 -161.439060029028639 -266.912058441118916
68.511341032823111 -42.505452206292262 -268.743745451842130
-46.097916428946519 -158.138358242569296 -270.240584618150649
50.729240197430748 -59.849919630948030 -276.868682268684893
49.757016862772971 -59.072173153021829 -277.609739050119344
64.353539488990563 -39.060082095957405 -283.784927255886259
55.136652000505350 -54.897116437986256 -280.500632750189993
65.810618842321659 -46.422100846152972 -283.587270798621432
