# This PCD file was generated using the MATLAB® pcwrite function
# from Computer Vision Toolbox®.
# .PCD v.7 - Point Cloud Data file format
VERSION .7
FIELDS x y z
SIZE 8 8 8
TYPE F F F
COUNT 1 1 1
WIDTH 791
HEIGHT 1
VIEWPOINT 0 0 0 1 0 0 0
POINTS 791
DATA ascii
41.994279687500445 -62.097792502406087 -292.658229106026738
42.458548577319057 -58.703889092668724 -292.594855694412502
46.058469397623561 -54.971183217458595 -292.223022290081531
-35.737536965054993 -138.974601337161204 -291.070984258977148
51.148660227126328 -53.204331682762088 -291.199879613746134
56.472605395920475 -49.626186078148393 -293.746411092054302
64.486741134258224 -40.608032347469795 -290.545838630062462
59.784592491419957 -45.254104266562081 -293.621621138548790
61.939918085083349 -41.732709147906434 -295.975310536880556
-61.237595653901288 -165.134508261171590 -293.468041090007489
-50.275651130699217 -155.815510714127413 -311.891012199869238
71.269938180628174 -33.934696412076654 -15.254455955050714
71.534216172813132 -28.278899142370545 -16.910496401933379
69.269969935804198 -30.804744387492338 -18.970214485396095
68.467679965004820 -34.564126421252233 -21.239212364277460
66.198607938959341 -35.151861773901402 -23.057177591687001
65.906011576619079 -35.839581347812107 -26.381857194985805
69.423032652521997 -32.923744635971467 -26.632923616391427
67.290591992363986 -34.441600976440647 -27.937982352149930
65.827264054601812 -36.285609389634530 -33.274817420210994
70.036491587228028 -33.589760522759946 -30.463108385369978
72.385397873218309 -27.756802505590318 -35.109801400744956
79.141379706046592 -19.486783207596538 -33.214427470903360
68.783307811478011 -33.730089214529393 -35.663056575446966
73.345862208091461 -29.066860980590249 -38.195122574488011
76.746773042757624 -26.997585545034145 -36.543623712721484
70.450956757632170 -32.803203867241471 -40.483827235261160
77.867251284544992 -25.657542963450954 -38.885447657764068
72.824650309109131 -28.587017152588292 -40.650247279398613
75.018830698685704 -24.077134181923682 -40.892206022566604
11.246445023535760 -91.328072755798487 -51.680504591869621
18.450797169789450 -82.791776156896162 -51.810755804563250
26.785933047050769 -72.625032215235947 -54.140004465511041
-5.568030447617336 -107.435051007108967 -55.998667664293301
31.230226293056500 -72.455916213997213 -57.848975592222637
-4.755603431701575 -110.057330222444321 -59.653464311819448
33.781819546005131 -66.616121503664189 -60.192448616420165
-13.879319222104096 -114.342918136383261 -66.353157114560545
39.736439658264956 -63.296670930862390 -65.239399391982829
110.167015324748945 5.821413881166592 -68.476217918729247
113.426506176198600 11.391076496531706 -67.895294580875216
107.337334264505429 5.896293452317171 -68.732698283983297
40.861972641536326 -61.462096332799653 -67.796628383563771
113.094543871458939 13.881336829843660 -68.617174031592015
-13.217258274727808 -115.635413926376913 -72.466184561988456
117.976157378326661 12.999586959731273 -75.608966818245435
101.624466411584280 0.207734368267907 -74.236887492495782
119.028419186902568 15.476108309187451 -71.433995239552530
-15.165863014971125 -117.784063102597116 -76.983101859598008
33.914796319466220 -70.764487084427358 -75.904433705702033
30.141685554784026 -70.039690433752000 -78.383944766847094
123.294341708903872 18.167451720302559 -80.133517233752158
102.010770957735602 -0.496354309500514 -81.651853760915529
20.737522380154559 -79.360844581889850 -84.573083269704298
16.005312307308110 -84.345218993208917 -86.863492806112646
121.950253612736347 17.949207763080111 -85.466290846232681
120.720483594513055 18.540166102570424 -88.432299555612715
-12.708395809079862 -119.206796036153520 -87.485533283248330
119.753212300917568 18.904895512559040 -91.876909857583371
120.387920379642367 20.321488570837744 -94.890777288485523
92.820491611746036 -10.168676371862075 -95.816614570235700
85.440064244325924 -16.141999505916040 -98.488116009635888
90.500581146595579 -11.329075211407249 -96.862692288518474
-3.869973630458882 -103.813495564980471 -99.972380528869337
118.077912576213166 15.104800139259279 -98.605027093570754
1.881980357346663 -101.160981969858753 -97.995527408146600
-3.866797676869157 -104.674814997949952 -100.199034497619948
-3.175211755122725 -104.136694734656658 -102.229458600807476
107.175165262644271 5.065034361606371 -103.876798803224887
116.691526303201883 15.214159972551634 -103.312067315294868
-5.858084755958274 -108.861892311617751 -101.246375679467903
83.678894348990482 -21.386897467482413 -104.414312798211540
89.419407228860123 -13.570561712367049 -103.142122141894205
80.593490407780251 -18.700062033061293 -104.911720816616821
85.296537043882424 -14.599887255793412 -112.064894108307655
129.627069461578429 25.041754376946091 -110.202193053206699
77.990049400760441 -27.714075138876396 -111.515099286355678
-13.578911028527353 -118.498118114269801 -115.491896252678146
127.934530807978518 23.309832441766449 -114.418059240441892
86.759772487194283 -15.300273770627541 -115.242234169329038
77.900452944589119 -24.434831754294937 -116.854307023024205
-10.685536096503023 -112.599549359909375 -115.567190305218134
125.979432858743778 23.279936883519532 -117.604661721442397
80.676530367979680 -21.751525048614042 -114.798873067792329
-14.659066135628029 -118.006712112781045 -118.262745421051306
133.659778044779102 26.399528070878020 -117.717929112794735
130.146507777136691 24.648163636031455 -119.728933361353427
83.247215801173823 -20.179030022851737 -122.562974917858980
131.938792215199754 28.571564738881683 -124.115678314767749
83.965840219505480 -23.540623979329656 -128.245026636215897
80.760061486130894 -23.577506489046556 -128.603608766168861
129.459117048964401 24.937420563258446 -127.490518828568327
70.741112687978614 -29.050030854437718 -134.347895112106130
129.850436909863333 27.953376338340778 -128.171743504545191
12.057444195198615 -91.349350968198337 -130.510477010225628
16.240860934180816 -87.238229985598451 -130.570845512636225
129.082066975320458 26.275290971808229 -132.746055882616815
130.256315406805413 25.897055333648169 -132.833513503862662
-3.409748024033247 -106.887107423340666 -135.356402375457009
-3.027559849700557 -104.390857800008504 -136.028478476795044
134.971056077004164 30.357477969171235 -135.781585260438476
11.872337285681647 -93.673903705120324 -136.698038518817810
16.930079393570772 -86.059634765384999 -135.499657613929827
131.036984206643126 29.798037217554313 -136.411783616789052
79.363182804368250 -22.398385365027263 -136.931238711847044
128.688858547943198 24.581640517271296 -137.358415136309020
8.952969077680931 -91.105448646381717 -137.824607728594884
0.710057045271775 -100.726858009539882 -139.990955393669083
131.539225422033581 28.437601532582541 -140.883759632168704
21.395629164322262 -80.706357872249214 -141.829192207355220
0.759406494099295 -101.540198302845397 -143.633266569790351
131.320647127169991 31.242023622001895 -146.037731660749330
3.037306865861277 -100.232466524461344 -145.549027991800500
68.714662815690602 -33.236118830315533 -144.548861667782830
13.361488724939191 -89.476154286507807 -144.730243036928698
1.170964801069435 -101.093947081215731 -148.098237983489781
20.242639714593921 -83.258793908085607 -150.346451916542406
128.064338142900056 27.160975280311284 -147.418577776459500
73.564312723931678 -29.912248038285931 -145.514436340387107
69.085567754225238 -33.750653723972050 -149.711061048129437
131.075360727510940 25.099058222851482 -151.298052179958432
129.692040925817082 29.232181811430685 -149.602752866698012
1.891237192337336 -99.456195843924959 -151.483815066548374
1.772483742831710 -99.972084296611115 -153.393601590380030
58.324987681307789 -44.184137107549333 -153.651783640818053
62.212970985169513 -41.816754818375649 -153.639464721965254
131.627395329631725 27.482766041973367 -155.480475592998005
2.475788634004686 -97.570328005022887 -154.831978869239293
6.564545664855157 -95.186360933750819 -154.157546896059017
133.478735405708704 31.569018917780010 -154.826889478198524
15.435059718270766 -86.282296952662875 -151.329225748950478
25.465118570288531 -77.457326639056404 -155.003584747890898
66.348834670547248 -35.929897682002718 -155.906667662283013
14.334574227987076 -87.081691442017643 -155.529479588420912
64.508334431057008 -35.682735907101630 -156.716287537169023
64.236616546664891 -43.075071193325712 -159.043860386887388
10.425217988912774 -95.968032539413173 -157.597896349230524
63.246480273270791 -38.499627953739456 -157.290546091303241
131.752985122039462 29.053629985668508 -157.648983586167105
131.122367787449235 30.158111179156521 -161.517584457168397
59.604767237247152 -45.955207704439339 -159.410623451365865
61.744851833295847 -42.432086332441820 -155.886962822762740
3.983859797766375 -103.011946915662435 -160.182950728485338
23.687865688114403 -75.034076816393977 -159.786296345996817
16.572514255423737 -85.246374464770426 -159.495328361853211
68.030474864224985 -32.367740404500452 -162.227082231096091
128.651286934418181 26.003275042014515 -160.521679554474019
16.641832359549124 -85.484015664755077 -161.995294435772081
131.920871189572637 30.588193704286404 -160.421844373300814
50.946330072791220 -48.718525308083528 -160.436855798507196
130.042325611811890 24.995586049978094 -161.586110188867707
3.455395660616779 -99.735914173826259 -163.376909570815684
26.684627883164541 -73.049490700594532 -163.000195613768085
6.705481677286713 -96.895659707416243 -162.840425346367482
132.066846631525237 27.679101264957019 -165.282646827664223
21.946793556446540 -82.180800652221279 -165.115588215240535
53.588943913974859 -52.251879992111036 -166.427895994550767
52.874022388327617 -49.179784322981384 -164.462476705931238
4.255372609516745 -95.900321854379769 -166.839629115579783
5.525288029769510 -94.499767147855152 -164.169865367059856
30.154885087038558 -76.268625702458834 -165.162744893079804
70.950030376309002 -31.442192169902217 -168.091171861360380
126.976198903533557 24.971255218383178 -168.101457429952319
131.335277350546193 28.817279116019495 -165.276367466400956
8.469088316150419 -95.205755439880434 -168.984896420841153
30.172858962252459 -73.212820858198427 -169.475780630781031
130.451361791427786 26.664763674471576 -167.828664415576384
6.812185584378248 -95.202710175538044 -168.390307484728794
21.572392041537157 -81.749694857978284 -169.911003847737902
21.850992876096491 -81.195708174010079 -170.010503551170842
131.641777249647703 28.936546827926417 -169.013818342027434
8.489131404109871 -96.042022954712948 -172.503975927592364
32.959393792991619 -69.237447276211199 -170.933798107873486
132.149167859058679 28.124874286421907 -170.737834702899022
126.861381499920057 24.528019267971846 -177.091025194085375
-52.114231464317072 -156.876028738365932 -173.860463726302953
-48.338289429118632 -152.474475330491032 -176.829000239102584
125.790115918794612 21.776026149450086 -174.485904886336442
126.258319256211578 23.657360985305964 -178.073052551152102
34.373372022573527 -68.930877524826982 -176.851402201742957
61.058840891433341 -38.213979875234472 -179.820492500647816
62.904147783379926 -42.277477061402486 -179.244501832835311
128.356200821849512 27.205243940512442 -180.589848154566312
25.965315647232977 -75.807568590363417 -182.480191514897854
28.077423443442271 -78.588815995159322 -181.903540935412195
70.780409950319992 -34.178878837636489 -182.114518924120347
127.734884786922336 25.325438401432308 -180.242287181281228
-49.219466025109014 -153.475438910013196 -182.532357633378240
71.898027972419200 -32.055439752564951 -184.380255313981621
70.544010132574144 -33.172560735867854 -187.319170183858631
37.181028942146817 -65.605152952953887 -186.619351423781723
30.986051476592955 -73.026704880139960 -189.482714396496931
-55.835765961422837 -157.342122227719813 -189.926931698187360
59.280852291405765 -42.918786137526240 -187.733569945010885
129.678107164277321 26.717241943537317 -188.712817204895401
-53.148675748084074 -153.031423212859011 -190.366837949348877
124.601396416055294 24.806545940511565 -186.482398602289038
34.575643927114491 -71.816910477110440 -191.241345161642926
126.906743672697104 21.220846195345441 -191.877464379841911
-53.204237684214092 -158.732701080549674 -191.965069959492183
-51.825430145329584 -158.789824653070099 -195.051065052851669
67.903353654094346 -35.045025283689171 -194.327406949186070
121.101674114490876 15.475476559607563 -194.041009717070352
127.246065889422269 22.022936777067105 -194.695014869240339
31.379166827569595 -66.358553050176326 -197.065967132900653
-42.476886433134602 -142.393066773977750 -193.551707319121590
-40.762356946470575 -140.326702506333845 -197.167016442151748
-38.699942344708042 -139.532266241968983 -193.964154114630873
66.877323176251551 -38.217989618536308 -194.902632309864117
-52.231644903424396 -155.301446310326469 -198.375652113607231
60.704221928181056 -40.840649700235552 -195.459806864507385
-47.296983853565983 -151.001809137024935 -196.148356635133666
41.508890008929392 -64.699892286337203 -199.649206480918082
-41.034696401614639 -145.543955017881473 -197.852833662752261
120.286995324991324 18.726090639895471 -200.740934359542621
-46.589151216321675 -149.176386909385997 -199.054070063314668
119.656231875329524 19.039590885127819 -197.703559467428676
-43.287785603664737 -145.680933684736431 -201.787758148743876
44.332676276751698 -60.013557965606047 -204.170787027467895
34.232138034938764 -66.974557424837229 -199.868449926283773
-43.348656298561878 -141.529573683157111 -203.981173650660025
-36.112414088847615 -140.565256546592337 -204.449728114781834
118.494936649314482 18.292562803127080 -204.446718379817128
69.315117309407739 -37.846609965741486 -205.636413881699525
-52.294680365451164 -155.592424831433021 -205.984380909813495
-52.845136133114266 -151.316843224224584 -206.753887423519842
44.576221042475886 -57.725011964636764 -206.259672735241566
62.957538485075645 -37.336463136880695 -206.618213362435370
-66.537201482066990 -168.656572627642561 -207.108968984261338
58.320630176348537 -43.691342155301527 -208.969831541764989
36.679586677873871 -64.175376485547190 -210.170303110718805
-64.300941826278404 -164.845457657624536 -210.689783869309053
65.477774574365753 -38.761613925602603 -208.742794766232151
116.599772388158243 15.972151698406881 -210.769408015319925
0.184608281283151 -106.733031116083026 -209.946057400128979
113.135082904877805 11.554849890501950 -213.175109623051952
-4.781092871272725 -106.550567600820727 -210.805160907437312
48.464992718448180 -55.769885318721983 -208.348675779495721
115.877811247176837 13.080838697367488 -210.196266860649132
-60.840412576377283 -163.469962809649189 -213.448315025283307
116.761951478632795 14.470340592539385 -211.215795617005654
30.012719155702143 -73.322141247535200 -215.577666651921902
-6.244694000764687 -109.264759335502333 -210.606728188467287
32.384830572672314 -68.741297990824719 -213.041873891424444
109.611249484923846 8.564672597118136 -213.005057754304204
-15.253690643175176 -115.576031433382653 -215.199630535985392
65.300002925518058 -38.132373077841947 -214.838634707138112
-63.198728737438479 -166.941623369789141 -215.022284073423691
37.922465652406416 -60.672076898274625 -217.105992348361241
-50.247178772967594 -153.156470472361889 -217.177833691350145
-57.126235006201803 -157.884336097389735 -216.207195136576331
110.775182463830120 10.527181176980971 -215.487101975867802
-54.550550795401065 -156.114599499725585 -214.722741891370930
-66.612059311614203 -169.386708078428654 -220.165066974491197
34.821226027402830 -64.033587473074320 -217.397788803785915
-12.776991333481515 -112.750842904359459 -218.413876761339253
59.446914951786198 -44.496419147339083 -219.458308154940170
-60.308300210569932 -161.313194219922678 -215.309623721494745
110.789440923598846 7.566102529217063 -217.894042221444778
32.270773141897017 -69.196703291550406 -219.971803397040020
48.605114472393218 -53.158966520689788 -217.928704476664279
66.149546821949926 -37.482159257983241 -218.817220301295976
113.123344932215588 8.897833413478660 -220.435994730743005
110.504516944406333 9.799054682663016 -222.076755873524860
105.163183648438974 5.716273307607374 -222.885322042973570
-63.333147260454673 -167.886532323652574 -221.979656512397895
-24.024303307202647 -126.918731279911739 -221.165614868832364
-17.626514960083497 -121.065792805301072 -221.039699954053049
-57.067855667105150 -158.185885481188990 -223.048389419744069
112.518813185444102 11.938639165133976 -222.091112997656523
-64.119947141607497 -167.335634980594847 -223.127797885079985
-55.354513120557577 -159.543875527180518 -221.971546729435403
-55.601326256700659 -161.070376128876973 -225.278007498695729
41.352910306198787 -60.268964093519024 -224.390173256325426
51.993016532596322 -52.468659141288512 -222.206578288253070
104.775763177732159 1.652423949740554 -221.151928381539932
110.266662502018718 5.636748481502297 -222.850958476315071
-58.411664296496902 -159.569147874378075 -222.298717532510494
-26.639213831839854 -126.221915539400030 -223.960740497452008
-21.171999094742574 -122.151169923596910 -224.106937141804138
-63.969867958314531 -165.244342086667160 -223.089328405298147
-43.909937076383663 -144.073160317966909 -225.039758780649692
43.295711735504348 -59.545773681872220 -227.976736755670146
46.985441869622122 -58.617894897061369 -224.405405874391192
-36.413315946328751 -140.080303231429383 -226.415287180481585
-31.193442007210521 -132.840475411952013 -224.810896609154184
-29.471838032982017 -127.472084859622015 -225.167785537312767
40.810777635366776 -65.004529575779003 -226.806135874357636
106.035820365540332 5.273089139251535 -224.902410486734595
113.048941774952468 9.734483179456175 -225.659427965806856
-55.479074260413796 -160.422934590096844 -225.402686642811403
-46.778577596833564 -153.730967443775768 -226.636661532465610
-65.837215688701434 -168.261365109123346 -227.592322163669991
-52.336308911294743 -157.488695106554673 -227.443461310421242
-25.740808963903710 -127.776787404369827 -225.457431364302721
40.390570296834817 -62.658022508112573 -226.463362457340537
66.717025001901092 -39.940617100120761 -227.279647092113322
-60.157061126638638 -161.090685088962658 -226.391214954657443
-54.190320708245828 -156.302042380336616 -228.925529662706481
56.298091262104961 -48.626974262638775 -226.817935056392912
54.799187497513749 -48.598642330562960 -226.668020628618621
-38.378490220332139 -139.837917662028474 -227.093716337258485
-64.849281855899619 -166.061248839401657 -227.021426310520866
103.439903234719651 1.692218156737183 -227.360869075784620
-62.658537565101931 -163.769203406046898 -228.342396563121696
-29.042865366968282 -130.517277172536581 -229.561817854105442
43.480845844239610 -58.730048944928988 -229.522623929650109
62.307426068271006 -40.722720647151583 -229.038355887835905
-30.234013736129903 -129.676921569913532 -229.962894368326459
42.185035240298575 -62.442582545763734 -229.431282169092697
45.211581785504826 -54.210344004803474 -230.046421257911902
-51.434914566624059 -153.103302690202895 -232.612380592493338
-35.067049400026605 -139.065701353899328 -229.360306982737768
-54.655090983821033 -154.039118708475854 -227.809128930231481
-51.810705779147831 -155.378240620717548 -232.246951644670986
56.373366948379271 -43.962470642397754 -231.069493056587788
-34.807598742667452 -137.997330099824524 -230.763561217731336
44.031296475431716 -56.556896593662408 -230.863222383190930
108.067721252983958 5.370163356813241 -231.173981954249825
43.030195461596499 -55.442189446618968 -228.542310071455120
-49.407410354141540 -150.776866473547329 -231.433719044854257
-35.945031301138400 -138.648395332050541 -231.794799899559649
42.996052570567613 -61.921893090451178 -232.443615416195883
-44.540097792713283 -144.011151964838263 -235.640117442048620
-63.309374515274094 -168.807789593784236 -236.125869552253334
-55.827440988617958 -161.473980220304668 -232.667483568442123
-56.473671983914741 -158.801397538952756 -235.390010623566013
-49.771984594530608 -154.736972012171066 -234.442235883103280
98.307224513447053 -4.822548540284781 -236.052088902075610
99.215528907374008 -5.181258508312826 -235.265540107446526
53.206052614718423 -52.851245892912409 -234.969773423136161
60.858484937361794 -44.820087869180867 -236.314446819092922
64.660141860419927 -40.584724623338921 -236.013928968026221
-55.257367902911177 -159.623239127489512 -236.940376921037341
106.412511240707943 2.621863735521051 -234.199430437639791
56.159457675041850 -47.039497287599573 -235.798644865847848
39.274676220521123 -66.700029265037699 -237.012416703218690
64.710275643617223 -39.549489797619877 -239.787496605076626
98.790482917078791 -3.620679826088155 -237.263322356797545
100.051246103581363 -4.472368461874255 -236.097490103610397
45.757377485146911 -55.070502281154695 -237.248818866280089
51.007006743455435 -55.617912838457443 -244.211256047504946
34.697092739844749 -65.134456216429342 -236.754049950523495
52.612047002230760 -51.106264730790784 -242.091322936844733
62.080658442231773 -42.036228140643573 -240.780637252729804
34.746052981410685 -67.517911684353194 -237.756059738525579
49.931384914805335 -51.687377621556280 -240.951802545765673
52.857812144119890 -50.146010183312086 -241.422943666736160
55.554461701455452 -44.932622562280578 -243.419731453057352
38.251517922045707 -65.090083668227720 -243.610525953207173
40.449912554883070 -61.229938863309165 -244.081415471990255
91.470664959856464 -12.462498473129529 -243.427934774984209
57.724694385889279 -41.838040437506017 -245.213885240642725
-66.081142163166987 -168.292486276750793 -245.276296246861904
-53.417209926578870 -150.493824886547117 -244.709397521857113
53.711329815018829 -50.412048075871624 -242.130896656342060
45.981920403249880 -55.930372944819204 -243.277736237968668
94.366428418303073 -7.923070036924827 -242.280045184929406
45.484240925155930 -56.331116257574216 -243.965134383443285
48.052890705501468 -57.767984888844509 -248.012677037865870
88.185995483419475 -15.055882823907451 -245.305922170775204
5.272622700949296 -96.891119539875532 -247.981954211245807
10.917165883879276 -88.297764984372506 -245.585569782834909
45.683117971371047 -58.697146336607432 -248.772462086056095
87.028460122394947 -15.470511318459396 -249.884728465642723
-4.677338831708564 -105.076219030033684 -247.387155455989443
90.653767480602539 -13.333098913710030 -246.825291711790271
6.775824366740215 -91.433876846357492 -250.252641829702441
42.907486448337700 -60.909696066594520 -247.833226504132483
85.280148623511167 -15.855734911044033 -246.986198611857901
-5.645397551739387 -107.624249687484976 -246.421668650776951
42.807956445315270 -60.622573714427126 -250.375995321220870
4.996795722145252 -97.892966698216583 -254.255681859629107
66.841767589665679 -37.349450115198614 -252.270413602904000
-50.903676153997722 -154.992136555769548 -254.454917993081381
41.689226611507010 -60.008672642225967 -253.335891691385200
48.296649378379229 -61.740379893026052 -252.086708715297789
66.197834271490294 -32.726840491538319 -251.166873912649891
-13.363062827972017 -118.388225983742544 -254.808243794776985
-50.369397320089796 -155.765681263904924 -252.176038309539365
-35.633290488497444 -138.016948164251971 -255.668308673915760
-17.565128821717007 -125.865828440490645 -253.928870110334060
-5.748445733461113 -111.033473846197694 -254.835877242082631
-48.376703791820219 -151.965866964423839 -253.602867871265801
-23.077283389574898 -125.408073643366706 -254.175520253824203
-18.015075299253176 -125.502832188849681 -257.039573504361329
-10.476506284598665 -113.507495229995314 -257.982748547463359
-28.955806416672939 -134.275270566185071 -256.804911697094269
-26.835388467151663 -127.634892887035292 -258.599259596701359
-19.933283962621932 -121.898126788224431 -261.348169271830386
-24.528983407340711 -128.664407459337752 -259.580742551296339
-27.469362349502724 -125.484373854359887 -259.606356780880049
-27.612474876226770 -127.432547507729808 -259.691471956108956
-49.410210024912466 -153.095828587571191 -262.238465131732198
-34.112286739108917 -134.804779260274614 -261.952478348926206
-45.580158380798515 -146.790355610398734 -262.208210597362836
66.547750733594327 -37.388010043735122 -262.382232883191648
-66.731545656689732 -170.108250282086317 -264.664131551853131
-39.340107130162842 -139.449773892555584 -263.780381585614464
-49.858367294774659 -153.496609837122861 -267.423639038285728
69.701543032475215 -34.052401409822096 -269.373893854985795
41.493842736911816 -61.463453746117672 -271.202563399046767
-51.424863327476686 -156.493919078444975 -271.255630002156352
-65.981931927533111 -172.724245797644500 -274.662784242293299
64.379118066102777 -37.392089464855488 -279.137116505909262
44.939953684999580 -58.335851005477132 -280.148357911146547
62.094610611746155 -40.149334828517368 -281.497149457859109
-49.639942815312182 -153.244198143094934 -284.409762914401369
46.125643211145743 -55.169740432057800 -284.286998189692099
-42.101351882972203 -144.827674527865582 -284.738906329196539
-51.219616737997157 -150.834590753157272 -285.066938942531408
-38.929208304154784 -140.302125406174753 -285.501091988373332
61.551227075008207 -43.426103613823052 -285.823165584943638
-46.606815817696202 -144.277473798055013 -285.265516041544743
11.215596956640193 -98.318442000404971 -288.010175327755462
15.967816988188972 -89.529521547449519 -287.505644094718321
-38.458773670652242 -139.756156277341944 -287.918227923710390
4.096209556181546 -100.056464079793386 -288.845876328103145
-17.004944031123497 -121.617720222434997 -285.399779786154397
-11.537271409730469 -118.607875595390794 -285.656243911674323
25.031644801710712 -81.655913155016904 -287.274976650360145
28.795354510843037 -72.633505086268812 -287.404176707905094
34.175984207822502 -70.250708169865064 -284.903922194377856
-67.952648506255230 -169.226778871854719 -283.705369489931684
-28.422914241382770 -134.546811151215678 -285.114629815311787
-29.430357411174608 -129.777182818276799 -286.801445940379494
25.522943949796712 -74.990723358133295 -284.509430178280695
33.971490537340181 -70.191442331840136 -286.198870473803993
40.816773510389503 -64.483224135867928 -286.027218744133961
56.414401381446311 -42.510164211382673 -288.880408989635896
54.435309569618759 -44.371885302001381 -293.594414277640340
12.809840401056421 -90.112540805214920 -293.245287439094568
13.490703958495340 -87.285824163372268 -291.828590019459057
26.320217182813078 -78.997131546256384 -290.461711255796843
25.360864942695219 -78.316600149424858 -289.560355558185961
36.761862057111763 -68.947547820003166 -289.827599217411034
32.864979342344732 -65.443128539109509 -290.905121335808929
41.637529457378342 -63.533220164549576 -290.963665806289384
42.745374252218511 -59.203731794181536 -292.872907600225119
62.982915800833567 -41.917452523928610 -292.198079628889161
-10.466819217355919 -112.708756548276526 -291.723997822648755
-63.552129633012498 -166.643597776216382 -294.535071225575507
-14.175541911327571 -119.200415567521375 -292.553006797664466
51.164409248893215 -51.101757762877156 -291.274315734510708
54.271187379155734 -46.978570709339579 -292.101990677049628
-47.698242375834901 -151.767992305754944 -291.634574530659677
61.064091585117360 -40.732444300081610 -293.198970678596822
-44.565379228526012 -146.871204029140699 -293.690668151120974
-50.937643916646984 -152.874440307803070 -294.053617686500615
-56.565617614196491 -163.160079965640023 -297.260213712081793
-56.574435583166604 -159.356372966000862 -298.932619766055211
-60.760750235524988 -161.013695449830806 -300.289235424529750
-59.694707020159264 -161.635873900627217 -308.915939465701513
-59.899114850991353 -162.271778779500721 -311.871893236957931
-55.257069204775860 -157.030336026368843 -312.230132112719218
-52.991721678552636 -157.543769022788211 -310.034699933024967
73.610384341309640 -28.554742149788471 -13.331969096216801
78.540946820747152 -22.260100414266461 -12.704883386925397
71.767515951057888 -29.215122090907592 -13.639348708291390
83.248352405901187 -21.098362997051357 -18.956594064513059
73.177901760287980 -25.905305715745026 -15.943592831612335
79.046179642273458 -24.534111873214020 -16.468881005693827
68.219801625626530 -29.793082341992722 -16.433617773947827
84.195140049258796 -19.777616652434460 -18.402643800387501
77.741111289820054 -22.467980116901433 -19.891432973941662
86.273794600975194 -20.122382727920698 -18.221704745096925
82.784430468152920 -20.074360656162799 -20.569628926366516
81.541864543685037 -17.335274860895915 -23.886660359507243
83.121010804019292 -22.448011999155938 -23.497148771197104
86.202888795340897 -16.405205483004387 -24.848426940296729
66.980720484963271 -36.429521455777241 -22.866235818071889
84.627203318016541 -19.792924947331294 -27.208380278932786
86.483400135421860 -19.777216108943762 -30.066640280719120
64.737979764140590 -35.824027873629305 -28.586217216845593
81.834793534647233 -17.923197409984123 -31.806357503523277
80.902934522824978 -22.043773519291491 -34.217447532170226
86.210409034186341 -17.628958729574670 -39.397059233505601
67.705913045202394 -32.988380671953998 -38.496935008459801
81.041597472335994 -19.390990515662640 -37.180001456105430
79.469934146353566 -22.769061801210505 -38.563229287575396
76.981833053509476 -23.179103448481065 -41.111524592552875
7.671143812260730 -94.752037009079899 -51.307041774470036
9.442724761973649 -90.121783081324793 -47.616824932424798
17.004750898997148 -85.115305755421005 -51.734587296492400
4.617161792522443 -101.133692202066086 -48.677832235925820
-1.000024633688781 -102.156770363462243 -53.639229783888773
21.732256814621852 -79.417125722182433 -51.801317219431951
113.646397481824309 12.357493876704627 -68.464312011581626
114.020979124472319 12.279495287614207 -69.982850738511985
110.360200099881055 9.171294455624542 -70.076374753748425
117.281961522170846 16.759016463469923 -73.571173920603499
42.489387468846388 -65.767489477828562 -72.546387845234307
26.916952113573050 -75.406411356853198 -75.717043030866904
33.764439978487403 -69.541488135503826 -76.491262849691267
30.247885453551692 -71.411443372401749 -79.455192371357299
21.312728459831614 -81.389007469041871 -77.868724145940561
122.445907928257071 20.281763189776665 -78.928440961994468
17.878347841746265 -85.780216803917995 -87.475351722972590
92.245316438091379 -6.654342941091580 -86.446701507945136
92.123541450606567 -10.287426544623738 -81.753562454100305
88.490126286866143 -12.043138328625579 -87.934577419601624
100.086248855509879 0.040149861989632 -90.151334040593753
9.654533568601389 -91.796178879623525 -91.839693961030520
90.161382884644851 -10.529701151022143 -92.296691628877156
7.172038735019468 -95.513161334469288 -91.204327546262121
-13.542204116990098 -119.047914351716045 -93.523694046485602
82.719552602380432 -17.830122135640249 -95.177989843811616
125.489873189570986 24.652124198789561 -97.492919043340720
5.800651154450551 -96.966111709901739 -97.563891491232283
127.419241840271042 25.718052962693893 -99.125912203409356
121.121561426260627 20.660692263439888 -97.417910346885435
79.830222853603999 -15.826933724885942 -97.374972836841522
123.190184828883815 22.093082358722935 -98.595881398397793
88.750710712000554 -13.195572218324457 -99.594846491298924
99.413442681685240 -0.748632644780509 -100.825569404858939
130.321660756535749 24.181199766016306 -100.767454701723068
79.018971399914221 -20.364190937255348 -103.984636463929547
103.806607499913923 6.161544186466005 -102.434306377461581
117.313931478506319 17.081579411927848 -101.546113798951225
122.761349953788496 18.649846593891521 -105.040269875882132
90.727146567966017 -13.102877518821224 -105.698742862504929
79.242819375293450 -20.694346057450201 -105.503042291630109
87.491265390929556 -15.211996774258386 -105.718207006324505
131.198471593443600 27.411961435251609 -107.252658650600509
127.213305178081882 21.586664392162014 -108.940317899146905
76.791703625229658 -25.161123886833387 -106.818969732699657
82.643972113036895 -14.349478878551649 -108.020275270995739
123.975226538426483 23.468102365957815 -110.335804220062229
127.952018620528335 26.473901148132825 -109.288326263580217
132.002065991539894 29.407027185439951 -113.583078780073350
80.952551397803433 -17.954857692527568 -113.424262369256269
75.987670262064967 -25.670894969773343 -117.151722380896800
-13.841098892899870 -115.724309954149888 -119.745565760334358
83.670548661239124 -17.612779232419083 -116.311962730235450
131.788611918203003 26.943156745282355 -119.681646217113453
82.344713609640507 -18.525695277786745 -121.317230812277330
129.230920073428194 26.357141856901833 -120.853164285124180
133.274502187024751 30.252988450829363 -121.476063606165710
71.943399341985810 -27.093687610783732 -121.924321177686437
79.224328238180291 -23.571100407906918 -124.736573572705836
75.269776108404173 -26.016381473967890 -126.685785945742197
81.823791430626287 -20.677136121991435 -128.893805024612362
131.500684505739940 29.043824040397961 -127.379974028973550
129.935954222757488 29.460177355354361 -126.692765453408953
131.444148168693488 34.534497868482461 -128.825638560504729
8.258167764655704 -94.241257905521707 -126.667369502276230
77.406729345333417 -21.040785011927245 -127.201571709904442
-2.661208235635623 -100.995522902420291 -128.326536790605246
132.459559053753310 31.765900896547745 -128.115236699906177
128.267003864473850 28.427474841735282 -130.192576390674844
12.415243906785816 -87.726808237994675 -130.117664109315456
79.772996659907491 -22.706231319752437 -130.507859886394158
73.768649711536156 -29.905288766336817 -131.955189745821258
9.391575713641931 -92.107974993584705 -132.798364511491542
72.406871436871882 -30.027217107469127 -133.854898083890220
14.087661456535491 -87.659036283429117 -134.814442098113773
74.350134458093351 -26.994855703248412 -134.736238724891336
131.113593533918873 27.264927340297554 -134.257923680058184
2.210960663134701 -102.674199714526779 -138.177872698885210
129.932594230730388 29.179543243082197 -139.254657960313693
17.618438512726716 -83.849709148955171 -135.706789050779548
-5.284171180970305 -105.382174213866492 -137.006513911309270
11.503324849431950 -90.883419600754422 -139.002985092982669
70.824667609354933 -29.394526915878753 -134.413727930349552
0.390854433677801 -100.955812890391101 -141.526510641767572
71.746474952766320 -33.777436888155350 -141.351783212390700
72.473719545665460 -26.739736803308084 -141.703801108693796
20.023926158646461 -82.365201580196754 -142.888213889901294
131.218200746367188 26.622590418519234 -140.149075394793101
132.915369118672430 31.507463192667092 -139.429995141513132
18.542747738192784 -82.854815661651585 -141.898317428613922
77.596515486846542 -25.843668020267266 -142.279747084959467
-2.941113205879552 -106.115894243623600 -144.177212313501173
0.782847244666423 -100.674636559095887 -142.805837761294470
17.434107201276923 -82.431143877406001 -143.857369691959150
22.268651563270655 -81.307023568131640 -148.015295141293592
77.246025063304089 -24.476386642957429 -145.124997442269432
132.910459225920818 33.008298467338342 -146.724093936773812
0.734265137278697 -100.851622553751497 -147.819613960467933
3.911722152979621 -100.041452343171414 -148.703119679776421
-1.758454371974224 -101.884885237835519 -150.003894502855417
-1.938024345290458 -101.396225209448090 -150.321627604090111
16.757398378103385 -89.773052999273432 -150.419394168348532
62.372098967766590 -38.374645698991365 -149.573869381958303
60.595890806927983 -41.896688041245419 -151.634053206454013
64.607936940390914 -34.818092923834556 -149.800186222499178
65.363995293844653 -33.293367314473002 -150.627349458130055
59.305686960011784 -39.048885087643903 -150.465900816018518
0.615571347039701 -103.244538649581727 -154.752618551807501
21.582217724766402 -81.651798658849685 -154.962703401427859
66.587655203437848 -34.667243660399230 -153.789636055718631
133.924664475377824 30.625291649608418 -153.821454586872022
55.666251849570948 -45.092657008224279 -153.596862277174182
4.437847417534448 -96.282080818876977 -155.123819204237378
15.309377667676259 -87.417180694757249 -154.656552940430089
62.706250539705195 -40.363888659911652 -156.169904720866242
72.726591471303976 -30.061779229721811 -155.077498049486820
51.686129990691569 -49.174211765303191 -160.210748016576133
72.204885032216211 -28.626937016022389 -160.925107180855889
69.129985401778214 -27.736853278331740 -161.651106960929127
7.187940957019664 -94.923036414301151 -162.586729110609781
24.363382033673886 -75.564479872408469 -157.572935124256105
126.048171522278395 26.908508192375709 -162.028645110630578
58.002050589677189 -44.226574977251111 -161.060533997217618
52.422536698334262 -45.477758451647055 -160.871894935197304
1.531865565800047 -98.248274872581163 -161.159946451669356
4.621185209152796 -96.334563119139986 -164.446199147587038
52.372497373990598 -49.744427720577434 -163.186378321894750
16.057509920851878 -84.306954288277552 -162.528043059223307
24.811297276413097 -73.217884746349256 -162.556052036186514
131.854802596341045 29.927232467915331 -165.836335771661055
70.362915274257503 -30.948585178444556 -167.069534832627966
65.331849405785420 -36.131997108538542 -169.856032781138282
23.591249843064436 -79.154428833621736 -171.448664904441472
71.038930180563838 -31.586885870453770 -172.007345683928463
31.118619313615980 -75.043251731069375 -171.735917238317882
131.824059040758300 30.401672038168350 -171.714653524066790
64.923116562411849 -36.613678334801733 -173.550592747574598
123.967112248331503 23.974216210406652 -174.964397229606277
23.813062327364527 -77.217388898118585 -174.451070791073704
61.071204146537127 -39.433123430232143 -175.694603148012106
129.215364346446506 28.924622323374294 -173.972872015741757
29.972507871085291 -72.477873052650310 -174.566899004398977
27.675579235126168 -78.268102993400788 -177.553664211276924
-53.867103689626489 -156.906402339333397 -177.399894052801557
-52.836478990623228 -151.738080501918375 -178.604628090971858
33.947968834695473 -72.257534392302688 -179.120195045645403
124.997573412579300 20.940219234514483 -178.606058030703792
69.864616796835534 -31.629978207340084 -179.311143948318062
128.336987612347258 26.120301049558396 -178.277887028584075
-51.063600829563669 -151.546531915768924 -181.289600162727140
-50.661236392610981 -150.234429134532405 -180.483051399241873
24.888756797091808 -76.595538246123454 -181.890148313400260
36.719803220231576 -66.171135221968100 -183.719964780682290
65.158817292913767 -39.617652002066627 -182.600782176942857
27.810277635415314 -75.280619368296641 -182.822223585854857
30.070620330371490 -70.093919335479626 -185.440227552066574
66.946870964887339 -34.226700771924186 -186.345709899961463
122.677630935593683 22.333974933301654 -185.211286179803068
-50.025188830743225 -146.944605207371126 -187.574500100857279
27.237413834808567 -69.991564992140397 -182.833462145724951
69.456257342404925 -32.284492300800906 -188.049101469636241
37.119921171498227 -67.322591033126173 -189.797514675881644
127.070004493375208 27.287574891656508 -191.358098994560862
30.445035820657868 -68.016795803948114 -192.264052020775949
66.130511335626977 -34.852761254148049 -192.025972257047641
-51.528749036654212 -152.214579622213250 -193.089399758638621
60.487654725925410 -44.070378292508366 -193.396915121901657
58.416300859685933 -40.624096377987868 -193.845108884334110
31.674562660723360 -68.076279006721265 -194.178429984681799
66.711799118765128 -33.994628997291066 -194.668059360918676
-57.484681762616042 -161.476624430302536 -195.310373842729348
-57.361193917784554 -158.108314326715714 -193.479566054621870
-37.066822816098799 -137.960942524966271 -194.891682896249705
-33.045783095440143 -131.002398050699071 -197.133209375039343
-48.728039874689827 -150.844262062690433 -197.810433023475838
-49.911061402011228 -148.776094498662076 -193.920496663217705
120.071870096795337 17.321153670626170 -195.406322257381873
-63.398835016384076 -161.037300821923225 -196.917148543397104
-34.997218975546971 -135.980656264477943 -196.925590775088835
-32.626112701808701 -128.325391930997512 -197.689443385574322
-55.124318393983813 -157.764563407346287 -195.560432609103941
-36.660018981956043 -136.760743618189451 -195.091887060068274
125.548209194873678 24.302172016421839 -196.920245609556275
-65.331151938683533 -164.709853020815103 -197.920948772399527
-55.749213880709071 -161.365874077241585 -198.783323032054966
63.284377297140246 -38.282016568698538 -198.657502366243733
-53.203753838373046 -153.975298994250863 -197.904063337061672
-54.246024524432855 -155.262168944977475 -199.453892500068605
56.758841407932813 -44.068572079609886 -198.841261336239143
-50.969394220023077 -153.653760548904074 -203.437099968501286
-36.476648436269663 -136.719137545738363 -199.792755446660493
-31.177084863694517 -129.489930266023634 -201.106803783878235
-65.653477515140310 -168.137297544035277 -203.839678353958220
-57.973087154126226 -161.487031278394937 -199.799914068079545
118.371421278266084 16.110449253906452 -200.290464835332472
-52.826584606400139 -154.713476552508155 -198.627269229575944
-28.591104511797948 -130.366683198438949 -199.634744057804028
40.322101634199633 -61.115171075631750 -202.986513794595481
-59.540328810868736 -158.435913169668709 -200.478608854474857
-47.588747331406807 -150.232641232985486 -204.232872819900848
34.254183549303463 -63.880446340384701 -202.383202421860744
124.187945524448992 21.332514938319186 -202.361910753459739
-64.933491960093775 -169.950961641781333 -200.883046808659998
-64.290603328265917 -169.037984630807586 -203.563386079579487
-37.081104863771650 -138.717192548166878 -204.826109081386505
-57.374220380306667 -160.521148799170817 -202.471041708378465
58.430697348570320 -44.030639473524168 -204.785629315665773
-63.080634838175904 -163.146455921140813 -205.941391072327548
-56.655804910199770 -156.264964242995063 -202.221713748683698
121.618327637402373 19.921990783876936 -203.550537964156717
-54.953947267657703 -155.978434949726960 -204.638851760633315
36.523174483515177 -64.987391406305207 -206.765801397148323
117.649945332705542 13.071001580331252 -206.028895388439167
-60.727957607765710 -163.320052902915990 -209.140272263978460
66.687740817965832 -37.843162278592466 -208.668629415583553
-4.628769261664738 -110.958694693624352 -209.156785547567324
-5.069000523995449 -102.465625028866882 -212.117938092518330
56.253773234923393 -47.426608289567248 -210.249050702371051
-56.434597443813793 -158.518481720358551 -210.749874109539064
-5.030833775478486 -107.707713080817015 -211.011143785246276
119.208458746374077 14.006735235030307 -209.202942003052584
57.945886193389313 -45.336520815997439 -214.673898002883135
63.376501700787898 -39.319010011616669 -209.405043809514780
-56.340614943901706 -158.615709330460987 -214.000955527273078
112.618938109202887 10.714714111449318 -213.327350836631354
-14.965877923170931 -113.690100477695026 -213.176075159384112
40.800237699929312 -61.715323011736857 -213.546945900278445
45.707815949984919 -54.798133381137902 -216.346052542617173
61.089839782978871 -42.277271230982571 -215.026275200142749
-12.809896372686373 -114.037656221363548 -215.572334200586198
118.974449180059054 17.865311374497111 -215.325186020015963
111.265866224488235 10.000779751128555 -215.207427246640179
-19.737224069354319 -121.480432225090738 -216.823351694120959
-12.586916018738469 -109.692252918489345 -216.113992290822267
35.443311291381463 -69.023847521571980 -217.936161127256440
-20.975772077469134 -123.628218672524355 -215.619045907823420
40.093669771480265 -61.525058126469737 -217.851146584948651
54.459456919497967 -43.770186839367994 -217.034369287491273
107.520367007762829 6.164205846610347 -219.647532097356759
111.953251516037270 14.943729899015795 -217.968549712262018
54.063823424194645 -46.239376909605994 -223.775234371091273
112.110407568533418 9.394328676811257 -218.488713311774035
31.056056806293753 -63.532826534073251 -222.268975477073212
53.578969599127369 -51.524192001335898 -222.004425490597214
34.421594089523140 -66.779236851711900 -220.391526993204906
53.970986456933169 -45.371885118723135 -223.205951554213726
59.596637676761624 -40.029161340833987 -219.778368265284712
50.932112434870042 -54.837169250113497 -220.833080079100569
107.655932010155865 8.804585464493941 -223.721182049615066
-19.324094013642771 -121.868703393816773 -220.905742200057091
-49.305159049255217 -154.471163062012948 -224.667320567375441
34.320419884230155 -65.716960939431473 -221.195482789757307
38.564417691627753 -61.314856031442048 -222.616948583953217
-51.571356591832100 -150.864356125488172 -221.765717167307429
-35.058971128342399 -136.478677215139442 -224.682265494821280
42.912797037028085 -56.387073146190474 -224.245138266887750
42.658481146018836 -57.944518937178387 -225.582273081127312
-50.672313506534884 -147.760550731417112 -226.217848067835064
35.366242744186955 -63.562724460542817 -227.856494370231388
-21.121802218468094 -123.027986779783902 -226.157548062054104
52.248020395160701 -46.754762965626618 -226.069319289151650
59.452287663765610 -42.315280952017332 -229.199372065524585
-30.007868459842673 -129.717120853908796 -226.642689105156762
55.152877707982071 -44.483841436087957 -225.678044799973065
-31.274006813743775 -136.154901630008311 -226.701613180150247
-27.216984391564630 -128.546681336074499 -229.338157692851269
53.968962904065322 -48.298783106471589 -228.120737427992907
104.736795902097171 6.294683731257605 -226.415370499324865
-25.970001310964896 -124.980183577536522 -229.143338295256740
108.010743591288829 3.002708877737826 -228.520653336677697
41.723968339583415 -54.286739823519675 -229.551123614361302
41.812046619788781 -60.607037284031826 -231.623023248977546
60.123971261645636 -43.725367579710095 -229.268084518565956
101.809087851590348 2.214790292171729 -229.890472216415532
58.094708743671042 -44.605713348580245 -232.288209646463599
40.514801384046585 -60.006105237600266 -230.255412361479046
-29.672081153678956 -129.715609185927093 -232.249751687180833
103.018519679386372 -0.247515656001170 -230.119126079017065
-36.881008351848841 -136.184748366538969 -230.997236908822430
-49.503156174794071 -153.524897335089918 -232.143018377064521
42.253997122829730 -58.910596173229074 -233.700574582606549
-51.680560556608810 -148.652546251601336 -231.479566118395525
51.315942557577728 -50.456505201663234 -232.453038010680558
59.866071590103637 -40.387630482790719 -231.443765646671324
40.888898392191265 -60.007560934811060 -232.767579224131026
94.662850825050512 -4.154069777304931 -233.754375678881217
-35.213022867200969 -141.580729205915446 -235.113225769866830
60.437737495203010 -39.705089363433643 -231.017100598248788
-42.811908175947998 -145.782992485329032 -232.404282948717224
-51.095130675036060 -154.203551306921554 -234.139058330901946
94.617504686855767 -5.227839300154271 -236.482892335820367
102.968253674422527 -2.653213135982052 -235.019314385743087
-66.500942492130179 -170.383052489730062 -235.389907981522867
41.567412880009250 -60.477751121611576 -236.863501312509243
42.950336478216869 -59.357427806918530 -239.442209780733663
47.256276330744519 -53.430370138645522 -239.122482677731398
45.471298512631499 -54.594598928914138 -240.585922395068394
57.299510715988170 -42.762258213413624 -238.024601413714038
95.047893847875216 -8.754668368168472 -237.980024723397236
-66.347132479751025 -169.405069553532115 -239.575215943627825
50.071522725892557 -49.728185642689098 -237.394468922608553
100.113353867681042 -0.548175686546972 -238.112526581180219
60.979727591617483 -38.493786370709671 -243.691725125228544
97.668238298617297 -7.377094233441391 -241.526751278991441
41.887999023565477 -53.724365782121666 -240.002920689244917
38.611951634954288 -63.554396282194659 -242.759439717000987
41.437839868364435 -60.424574142738265 -242.003786540897096
55.972884626520752 -45.960665861760233 -244.849280531859023
62.135346247301314 -41.427651348102771 -242.801231157948820
51.645717018355079 -46.895747619173910 -242.077964109550351
