# This PCD file was generated using the MATLAB® pcwrite function
# from Computer Vision Toolbox®.
# .PCD v.7 - Point Cloud Data file format
VERSION .7
FIELDS x y z
SIZE 8 8 8
TYPE F F F
COUNT 1 1 1
WIDTH 784
HEIGHT 1
VIEWPOINT 0 0 0 1 0 0 0
POINTS 784
DATA ascii
71.898322221435222 -63.458599139165926 -104.386047496248679
-77.637322143829891 -64.011923839106117 -110.319545410895728
-86.580604635402835 -66.207289496162645 -110.568186643960772
93.786724039431306 -66.303425880405129 -110.671919065871407
43.732903045642928 -64.735269210560361 -111.469269380503675
99.534070753727249 -59.261121056238395 -103.350894180763333
43.047781306326613 -61.206401113273699 -118.243740179502723
110.190506613519545 -60.127351116870074 -108.467120501255252
-82.847856172022290 -63.093310749744404 -115.476704057754603
105.681079167041474 -62.900247719670375 -107.723032384380573
-87.597936158393480 -63.295803477134953 -124.494226325097159
-58.796962950263371 -66.464696917110501 -134.917038216609427
-53.418344040911016 -65.413801161439537 -131.681717451723472
-75.953624915574920 -63.567180137514541 -135.838142044929583
-52.798731924592794 -65.527626551529082 -135.542175650352533
-86.898219122603706 -66.785801531189193 -136.763078198260843
-76.161709000537002 -65.488839416087444 -137.520838303772024
-86.213876949458580 -62.793767775134157 -134.691360772739131
-60.327977985091358 -69.384201475156331 -147.107134859240489
-74.938935501373692 -63.099712157918987 -145.519885088720343
-56.681283531035056 -65.017370771729887 -147.248539529771534
-62.977706036187321 -64.364965462552036 -144.432500521657943
19.715045805206902 -68.877885402108262 -142.279446519837762
-88.754901321697503 -65.905054383037836 -150.897726833079417
-50.299379918762021 -66.536729294860393 -151.532449784656166
-100.088848663224582 -61.801224586348724 -155.074037464303728
-97.330764429276456 -67.241175044482191 -155.578876733554949
15.617618444469326 -62.726886559644484 -157.277414753990087
11.324620587917231 -63.896961656039650 -160.825518500820209
-98.652904352987605 -64.824927158597291 -166.023682911862807
-98.922518504011322 -66.402188056596501 -164.772898772488702
-100.521213010312152 -64.884892602239262 -174.556943557797098
21.876937341596577 -64.002835968469341 -172.569460984284660
-109.313698358165425 -68.609324436902455 -177.653619258102566
21.763060587962844 -61.412278735228156 -171.856521983285660
-147.569806376273078 -67.538139177868189 -183.274383243804095
17.955671560737898 -64.052670582555095 -179.905791262490538
22.814715738337995 -62.731200875764330 -189.926372882519473
-152.112886721925832 -66.252046480536592 -193.574780087815384
24.337503234439037 -63.433952143559551 -183.988848992737189
17.714587802027680 -63.048656040468629 -178.352091585792550
-137.788024085920767 -71.317252275472086 -196.280949636114457
-151.991639319400747 -67.764436019982369 -193.344820364175462
21.407471989507684 -63.292286904222678 -193.994605016937442
17.857849762466248 -62.755059616527760 -195.652029279282687
-143.512657812901921 -67.057941000432848 -201.145079957739654
-107.565484781331577 -67.924006494379100 -204.068954256932074
19.366132157387952 -61.430158915962025 -200.607485999067563
-123.319492067873938 -66.496810805281598 -202.801984278778122
11.186356659789773 -66.068858904022662 -204.077796035880340
-131.418785810679850 -64.215034402905630 -197.809320584857232
-151.259671005049341 -70.582564656484863 -200.229518474733936
-162.123207115831775 -67.243085959253662 -202.964533177774285
-158.344015976687785 -63.413201304642371 -207.669294841735763
-22.104160540990414 -65.696530498876200 -206.019240788184845
-164.092748491310431 -70.906981736179361 -208.923602598185909
-24.341885893568524 -66.919064584433215 -194.134072596265867
-10.975519613160060 -65.844669371541372 -204.391817304801407
14.401427932177384 -68.206537324569112 -195.340132812323702
-162.822898425516911 -65.078632509378153 -208.555880786126181
-110.768226313877591 -64.432009494925438 -206.691622826356109
-14.935894861206108 -62.686778271178639 -207.493447391759389
-156.661638382750681 -70.014040160584557 -205.611446161688775
14.833681527665956 -62.303447006749849 -205.158940106919488
-166.127388244974753 -70.538753735096762 -209.970678253120099
-120.954797145765895 -67.092200900198449 -210.707223662078519
-116.469664333921116 -66.387252654123131 -210.156457182349499
-121.796167188674133 -64.930721069348849 -212.717848612673777
-10.838840478945102 -66.628405602803909 -208.687304225546939
-12.327450002703848 -66.825420334561741 -211.517060010580053
-165.270074947317511 -66.783767346460223 -217.094808448866189
-158.321401301927011 -66.940354754652958 -219.822857791719741
-163.717221183452182 -67.659841311176592 -227.961715367417128
-142.689961950571728 -64.819427580918656 -223.733183121524746
-144.452785023939981 -70.076640481945972 -228.001333836761148
-3.447698334500600 -61.123608325772111 -225.042553641315777
-9.982006007302203 -63.105207603514458 -225.216947839018161
-96.785821920701210 -68.588459770374456 -225.787857330622074
-9.129470814885082 -66.192866064892968 -230.562066973272692
-165.523072852280364 -70.790835266627525 -232.009932403090630
-111.326911293277703 -62.865651296006007 -235.427103860469998
1.179102414761353 -62.685187004253038 -231.696326836589265
5.976856420981946 -64.467541885463888 -235.188680324119531
-111.591065617281913 -68.807437398457822 -237.356948164602301
2.268582670028351 -64.360280187127742 -236.636224413652485
-114.511049840940728 -68.075014312036288 -239.240427789554246
-3.486286646490704 -64.897517475928282 -237.763415889833368
-1.920405822034844 -63.544605300820251 -238.521819663047154
-0.833111638103304 -67.186270817905125 -238.651621251280659
71.059477569998606 -61.905978906510555 -236.225803934455399
-11.513734689651223 -64.846938078838122 -243.020961666867095
6.282558208413008 -60.608679063345946 -243.719766207843406
14.374690141242450 -63.600308155003020 -245.014817968534146
7.490184802284354 -64.417012223525020 -244.535596896259619
0.346839370890073 -62.398078854128642 -245.656504033306476
65.339626393307157 -64.739836449800407 -236.244159654640100
69.667193808528992 -64.388689854674098 -238.673837012397087
9.857034949904588 -68.311023550036509 -247.055812402913290
58.485230167755809 -66.568813651640525 -246.218981353101100
58.050817826762838 -65.252917187705933 -246.668607580021785
45.708359477368667 -63.975924491170844 -246.899819550322917
40.496574810622654 -63.405158745710779 -251.010127759127897
38.414977545258949 -63.800431221454176 -255.271897923489576
-136.321446186541749 -65.644458370825745 -257.263233922700863
-7.526347940814752 -63.312381498678548 -256.995919001056222
27.387990528540879 -62.074972153195631 -260.285675280119221
52.739372377816444 -66.614498649921501 -253.647601380247210
27.535828227736197 -61.832187129623620 -260.923514342280043
-100.577232722657101 -68.610180086206768 -265.491632464360009
35.251502165587240 -66.081177736071069 -260.949598873363527
-150.150476624737166 -66.255904892003485 -267.147939150686682
-112.811747305628444 -66.674347739575794 -267.148203601951195
-104.795468450443593 -69.976305825076992 -263.450470312973835
-4.456038775901312 -61.714647735757850 -266.046495711422551
-145.671096434182118 -71.674324431102846 -264.991690855171839
32.124510149926536 -60.360025086204871 -264.336618286793112
-109.409170104952125 -63.788295844265335 -263.995818619519582
29.383923245091466 -64.926480527030847 -266.890094042917610
-136.710630873343035 -66.023500479906758 -269.614466640708372
-118.179730672326770 -66.571077798844286 -267.159899500077472
-107.310251297451487 -68.811526949035866 -265.854690491611734
-114.277668293164822 -64.247942642053829 -274.049883931802867
-131.038592446176182 -70.564554358960351 -270.331532730243680
31.477748335373178 -63.226940957888630 -266.031269071628515
-115.408348717254540 -66.890846229602488 -268.946147876511020
-141.861994169596670 -69.948424684144683 -270.658838966825385
-3.083219609914984 -64.574500889966970 -273.754246626672000
-148.368216004045280 -68.480753917353837 -290.634556945418922
-9.888268038671477 -66.251873674451261 -286.730052200696377
-0.419021923267081 -64.194423949564126 -288.795735190624157
-134.774065882339869 -68.611235562591162 -291.135043273417239
-125.202613053374250 -70.974761774485344 -294.409832875409336
-135.316392070357068 -69.165660655246981 -297.801719229248988
-121.000649431471118 -69.940956446529114 -298.353049883579388
-150.470443603219707 -71.885028781789856 -300.693911112711874
-150.245582176714976 -71.226253207345934 -308.379858000394449
-145.405119485489251 -70.581307942611218 -308.912269051030478
-150.403348820543954 -66.355192039628506 -310.379023726510411
-141.014475995661115 -68.940557160438033 -307.041565514092497
-147.824674058584719 -69.597549170764736 -308.651330372321354
-147.345437866571245 -67.374049003561097 -317.359438041808176
20.089442471174372 -66.277268519933855 -33.414361549612245
44.245153725828629 -62.703038742830103 -38.608103993089941
27.175439369255887 -67.873906022730083 -45.272116085219949
29.179415337248034 -66.417325043173747 -42.149479847193341
-47.159314155587488 -61.578617672819689 -47.791053275921278
-80.854572353749887 -63.164692649958667 -53.395302063301806
79.304894321330607 -60.041017597937454 -65.245402821448806
75.358242116686569 -62.681096679763769 -66.789361517131908
70.827705384071578 -59.699121753416108 -73.436424230637314
-96.623136028569832 -67.172064626164769 -80.527402680429248
99.742955077455491 -62.770858515845489 -81.367563166684121
-39.926828900678508 -58.932781321016918 -85.655738083321481
66.311778328135887 -64.053795405578384 -80.278942362137997
-48.113851884153256 -61.459184187881021 -84.008142688813862
-50.302565457776829 -65.176199541042905 -89.498004436067177
48.445310454609803 -63.012468598692138 -92.769681235540517
100.698307960180927 -62.803058627783827 -90.094548587873177
66.380186996993331 -61.538979430523725 -98.342683430293903
59.036613241723877 -62.088093387896251 -97.847731972586345
47.734679419348645 -63.065935559493198 -101.623343882564171
53.415094957648748 -60.752477648207204 -99.529623042066575
103.232910328138331 -60.628709075138957 -99.911784835454057
67.686197067436098 -62.455204793665075 -106.818977735458660
45.946093298890020 -58.583185792362940 -109.362367034364695
76.195716872374817 -64.386820003973313 -111.825734590236223
90.189026317288068 -54.382392743798889 -109.773626247059539
-74.064672931628166 -62.876208446368778 -109.359496816477147
-87.948502236335059 -66.079829960385922 -115.308575226527765
-82.394809165877405 -65.694809897990311 -119.157670801448106
-60.716931908264350 -63.074972757323692 -124.722834060565958
-58.198678087737385 -66.743348439035969 -131.891061748855577
-94.670715786879214 -65.575192693059435 -127.608877114438087
-76.849303427674613 -62.148753709142852 -128.113301806733830
-77.678020784738777 -67.272694353219890 -138.442120546354943
-61.134341258942079 -64.033282698535075 -132.317204284606163
-90.426893230479124 -62.286748034785234 -134.653378574031024
-91.510725884864286 -65.816309450882471 -133.592233063133108
-47.625854363512765 -68.403109699972333 -140.683395541495088
-54.419478114727532 -62.096680333029170 -142.429756013525775
-76.731036446832661 -64.043191130292186 -147.553267744522344
-52.830743968603265 -65.790355019762700 -148.497693549277642
-77.904062640734338 -63.409454083504357 -150.764753888945847
22.249068796609027 -64.040059112490667 -140.748705484513437
-55.922774023673448 -66.889956911033920 -153.192368589485028
-55.082568174831316 -64.561547546379941 -148.306169963080549
9.345355099367524 -64.294524901877764 -161.331003687038958
15.938643442569077 -60.552626977383269 -155.423582089313413
-142.024634548836303 -64.613030724357827 -183.541518706291498
-109.842522432915672 -66.303191920361385 -183.498794115856157
-107.636977854185744 -67.303911226052378 -193.189937930180037
-149.080156363528772 -68.255253411150946 -201.655076953272555
-112.940470058773542 -65.784057884581429 -191.397751326521529
-153.334684367319539 -64.881492237030287 -200.131015056706730
-114.139275629127297 -64.693413484299725 -204.545186959530923
-149.708850027261661 -67.653132622802900 -204.367237816297660
-151.708654143819615 -66.766294750900940 -211.853840032692887
-146.696394602218533 -69.481619013857809 -221.271508304762676
-145.735711370266046 -68.707459555685830 -230.023046754133020
-152.427888051088246 -67.148549280060777 -231.930690548935019
-107.088242931520284 -66.744709534451161 -226.698412473471876
-101.052304343810789 -62.811505473145203 -231.554445453092967
-125.373437123776029 -64.685265784749220 -231.907931411353559
-107.385698894845348 -63.375440986055224 -234.335857244151242
-154.031190851074172 -70.562676129181426 -236.735107794598719
1.004141518777182 -64.384341934266686 -232.145716251149111
-132.408300263850776 -64.453512949565749 -241.854165064631786
-152.268383369740462 -69.853528092828228 -240.730527040091204
-131.263313880086656 -69.800495861209868 -243.584929913513747
-8.026357464374229 -63.929264438421939 -241.868114024284495
8.476069626758793 -64.678178142090701 -244.801176300353546
65.111352299112966 -62.409582580300182 -241.016212122439811
19.071205210926447 -64.881908181980251 -253.454938256047456
62.448170219573967 -65.122352931072498 -248.770467269511869
43.738196206660142 -63.890697256044561 -254.806811711290720
54.278371652711321 -59.192710032100877 -250.297261742539291
-147.139039178543840 -68.657219122951190 -259.652627648374846
-151.718286929880293 -66.814131111787290 -261.742764617541184
43.658859531285131 -61.285635065486304 -260.197017908223700
35.846297136498265 -65.087208233321533 -261.922105073608293
46.476550156841306 -62.475986422902722 -251.734921994702376
-147.295051038744134 -70.187713268156756 -262.235065093701280
-131.284029043181476 -67.907206153596817 -263.052724929618932
-126.623541136272934 -64.450761345557098 -261.576073620204113
-133.115780702113454 -66.998349345988075 -262.349427184776005
-140.693083900409704 -65.787693701527871 -265.436408607882868
-123.571186915469355 -65.614195065250925 -265.029887840830213
-140.097228524261169 -67.400282874210163 -266.393684964884244
-120.513942194012657 -68.293414597619616 -270.127624693508551
-125.191671554506826 -62.205918719879122 -271.427644630431416
-123.995121347300937 -70.226536793998392 -270.323325511010694
-115.989580856310852 -68.561325770366906 -268.346804137121808
-4.354566727504789 -64.597732258756409 -269.543519780223960
28.672551052883101 -62.206215137913489 -263.755902001570917
-146.019921223224003 -67.365651397069712 -268.921631349641189
24.854736991757527 -62.178510005201645 -271.551187170570302
-4.149229236529571 -65.821798799587370 -271.955305726293716
19.310499419329684 -66.767970347196538 -289.857396569291666
-140.669480416196166 -67.146274238193556 -295.694485482784614
-124.038902395435656 -64.669968532726827 -296.725188303058871
-132.932212965842183 -64.048687537449027 -294.008806331950836
-155.860817110425273 -67.658515861562279 -295.900627618703197
-122.988951751688944 -66.680631494561126 -292.924291467403464
-115.535113128371535 -65.137539290459216 -295.862243669677582
-127.800556027835114 -65.182634217626386 -301.674662678596349
-143.413505342338112 -71.001301983565966 -304.741116753689880
25.844748126940853 -64.105089678940502 -17.633297741099355
31.822927132849038 -68.893587650639304 -20.763918510214342
34.332122773244883 -66.552505560842235 -18.220832345877540
46.921211816138047 -58.085513859588005 -26.756647028366142
22.858469094895256 -63.864924605803878 -32.872345080756297
21.946217553045788 -68.197150642807543 -39.312848428532348
-36.190945430434518 -60.384293916049657 -54.682541112528057
-87.307724018148150 -61.692601974359320 -59.987967299777125
-18.501227516425864 -63.205308899808429 -62.303289644633459
69.015588126645525 -57.888806120291932 -67.122050641797983
96.453422842214437 -56.370879717014631 -70.692833143708967
62.026021825946771 -61.944218889456138 -82.416385844497583
58.410403684777108 -59.118588077048528 -82.370016636314588
102.172868907169558 -62.225626156656091 -87.839849301953294
-65.694544650311883 -62.746406000628724 -94.424102609273959
-63.181639128665445 -63.918175830882532 -99.859858913599041
48.255097143626422 -58.839021887604915 -97.099872963354827
-67.397581887887384 -63.180931722394121 -104.499768797542103
-72.000082508405370 -66.026272134223547 -104.689066929459429
-104.224684113222310 -59.130281373778416 -104.205618459803247
-75.221515964048393 -63.733182749779132 -104.592013395268992
44.530695325377366 -60.575170675757008 -101.681667243407517
-71.792887346649223 -61.158815140252173 -110.545352424112167
48.791562487496201 -62.469832827296415 -103.546191901249500
95.673047279778643 -62.005455358698768 -105.532810102327446
87.744553179151751 -61.213596450789751 -110.660068410013920
-77.778438096392932 -61.866282220841455 -118.097906352370259
-81.591258026674524 -66.615676535931385 -120.361071012701629
-62.363078612308449 -63.811743916364023 -124.670811768536495
-96.934311810061018 -63.081505408629241 -123.452373330677773
-78.155632562228618 -63.435484151727096 -134.589242680059897
-95.710720928746412 -62.746785071424213 -125.664478555957842
-61.389449188741047 -62.656735876882692 -125.437559099389759
-63.109809581319659 -60.390829801669469 -121.810891948974344
-88.815159191828371 -64.488141737063941 -136.259823615795426
-61.854510477443988 -67.040848328088629 -134.525423997842012
-86.851108043920021 -62.877024662748894 -136.748724640969527
-75.587152035815876 -70.882736163377743 -137.763952119380292
-67.771262974166461 -62.133257119397697 -140.057538836727304
-61.533374007349387 -59.724417246684553 -140.428612208202225
-52.023254032985086 -63.543586467983204 -139.323047665425548
-90.728486073105728 -67.873078940564653 -138.442399427717390
-97.877472059755064 -65.995337233625108 -145.805408199660292
-87.344553493947075 -68.304207995480851 -138.712140933397279
19.062842426092736 -64.959677692319417 -150.270250135291093
-47.631971792592360 -64.134684151336984 -149.539326443133888
12.799017201160758 -57.910245614540592 -153.402700573364683
-100.139828029456822 -64.318608748295347 -169.702927613083176
-101.273499544459639 -65.904914789891592 -181.851228595832197
-102.293835940297868 -63.456376476702403 -175.916259803444120
-111.390137556565378 -65.723150878657975 -168.889750077366386
-103.614734216145763 -67.794943030382143 -187.043362139385607
-111.473779365174096 -64.638224814179438 -183.643397434814830
-140.335332813370087 -66.894758286195284 -192.697135969399795
-111.086993011414336 -63.524164275465154 -193.662289809263171
-135.783061781566431 -64.362695476308943 -202.461905374437976
-146.405668232548834 -68.674128181578766 -206.782244028848169
-122.944671248378029 -68.875902052769646 -204.205221328008861
-152.178206934974952 -69.028446512320116 -206.331539543154577
-147.126449101889619 -66.817289336349745 -210.666423972151193
-119.662171913154566 -66.344738357769813 -204.858772896621844
-131.063702567557129 -67.006032438338408 -208.552201297485198
-143.964343242207718 -64.096587026046763 -216.720787228323132
-131.784361036422098 -66.275364141504141 -231.263847234543277
-113.663979829838581 -62.606592376106875 -236.206867576712909
-144.268083263917362 -64.594361431808821 -236.532776413826980
-117.058544476412067 -66.710290973738765 -235.407810383076708
-112.540312699096006 -66.650798820242628 -234.328607916114322
-122.198380043976641 -63.511038496089782 -242.137645980885566
-124.626158727207752 -70.845535850745108 -240.641707817051127
-118.505015798007463 -63.806113525363273 -238.156502204157647
2.880021576688065 -61.275847628955134 -238.032744695112115
-151.625277413945611 -68.424650737420592 -243.557006186616690
6.064286578036956 -65.884033868751743 -235.403842294273687
5.445773841445167 -64.601104891660697 -240.043884136140804
0.484493738841529 -62.829081863863394 -244.746801920073409
16.220168948285888 -61.808990688752715 -243.230121586081196
-144.233030306531589 -65.715101727547946 -240.290335971283895
-4.256760892185568 -63.655283276689914 -251.398360752617805
23.691019074748592 -62.190415698185404 -247.831539687491500
46.865654062188597 -58.948193467879605 -250.231318555362833
49.910578938998952 -61.271123022891558 -250.483910542714824
-145.104626271557265 -67.486246449999300 -260.196392420654661
-4.481132940472207 -61.894435635017331 -257.795759771724477
29.373612131786359 -65.414769652598864 -261.993866309085263
-131.834098613250177 -63.041270373601549 -262.633850884429080
-122.707180763801915 -61.595265554573245 -267.935922247260976
-124.929870195974758 -62.875378599363941 -266.919032757117748
28.627884513709056 -61.974157048919437 -263.285727928757979
-134.794416400088465 -66.461311648319025 -267.684341018713155
29.903872883518854 -58.041842618597158 -264.456208600865409
32.015233674847487 -60.870321480961024 -266.575132699300070
-151.228353484431892 -70.132141449947525 -272.817122214029382
-144.875132376106365 -69.252990249691763 -296.303037220871374
-148.281220611449157 -65.243870850427271 -292.985214003544684
-144.058319780527682 -64.674699164203545 -299.069201383560539
10.241031260721947 -61.736368140051241 -296.854912479771315
-158.285419330453180 -65.734779827850772 -300.719518558595041
41.598238932586440 -63.680013195195940 -29.543278006906604
32.871133752340228 -64.977542658886151 -45.510533604313395
-68.584247350916456 -59.386555822122659 -48.232671962917692
-77.303335521034825 -60.325887711310159 -50.378554360338391
-31.031203365308492 -61.170713511610458 -52.730050890971654
-23.641323637484483 -64.171980438664249 -60.681549614659545
-17.261393419198583 -56.056595885549243 -70.190589184551271
-27.167005498714097 -63.064607748786145 -71.615492061075912
61.978184632170567 -59.707594614106867 -76.177374097180476
-101.652216115366883 -60.115868280933256 -80.912032359244520
-52.027406692200906 -61.127170394628791 -89.613340177515582
52.767080813090772 -60.426592700826816 -90.145995479111747
54.857079411195507 -56.179287823566867 -91.995765694569869
63.926565920738312 -62.795999006838599 -93.081705382185319
102.982116713329361 -56.831422169568278 -93.203189569228087
52.858580234869251 -56.932404129499595 -97.417706703438370
99.002113268417645 -61.227347122596171 -98.247814181958830
-82.567191812712537 -66.481192235664750 -108.684031017513718
-98.119146498338864 -61.041279338387383 -108.350212732584325
72.338771016952805 -59.661769271727081 -110.563197206757764
-77.826830579293784 -62.707979527799537 -110.728162303775363
-75.872531963585914 -64.818080565861962 -125.895947879352221
-85.539720799624632 -63.650040273259094 -128.682353650266407
-56.198070537445780 -63.422498070843275 -132.810107394719040
-81.403297470484318 -63.280547898291999 -132.380883781372745
-60.245478483238180 -64.580316962880985 -133.951955852511844
-82.525870650593220 -68.000520941056465 -140.210220862669360
-76.242407812942957 -63.304456095864609 -138.415831696029329
-81.526252642253183 -58.297022781802461 -133.030356189473224
-86.897265056443729 -63.635774110918774 -137.507141217479614
-65.852883654116766 -64.265697399872550 -136.969368957227942
-89.764530644319223 -61.912894910686717 -142.117266108777898
-49.032017141917002 -63.697368217648830 -141.473128910112706
-57.454372555535208 -62.604105889519474 -148.048765789250268
23.162251029237829 -60.798743978061509 -140.085050160689065
-58.040044553058557 -59.014092775303254 -141.143057764713973
16.136280131669984 -61.778877866782523 -152.898777892380963
20.263140360330141 -65.412687826930110 -151.390361139363733
16.099339157578171 -60.345399097273500 -154.234799001941383
-97.798707699428604 -64.061597234570456 -150.764352356278607
-92.221490566900457 -61.949201441511576 -158.028961988912499
-94.680109058454150 -61.843646060417754 -158.369890711931475
-106.836315924975850 -65.936696151865874 -164.570573727429064
-97.965517127422629 -64.988182239086981 -163.349574810585949
-151.693044252852445 -70.507404430649046 -177.947477308527652
-152.648575031761254 -66.276518008640650 -183.631298569060988
-106.560921406205892 -67.749450792906003 -186.523128810557779
-142.128843623925178 -61.706743485377672 -185.977973892009203
-111.720937871923581 -62.707926373178495 -184.864959597613364
-152.155569162255802 -62.012198446664755 -189.683149468713140
-109.149605583447311 -63.195629259770271 -199.259361785807840
-105.360532862557704 -63.672205538658915 -195.954132626478298
-143.020206160140134 -68.276803456700264 -203.248608640861477
-133.448170200283471 -61.837469324828405 -204.628692104904388
-109.016870079686015 -62.171966321759982 -204.531437259430817
-114.387578548395396 -63.779085150860709 -202.954890843880605
-111.352738952226815 -64.203272150885340 -208.958709659871630
-114.450744865255842 -65.006574282524326 -206.250141185532641
-132.149157167625162 -63.779612747952683 -205.021850622749753
-134.285945505962303 -68.866535030790985 -209.221013807598808
-135.187101909712311 -62.958908187484880 -210.094042339776053
-123.124898009164269 -64.694333453700068 -207.510098357198245
-126.788451389557423 -62.433937833424565 -210.091663324955050
-117.043886427855426 -60.312088400509055 -210.966888964354069
-143.095541141844848 -67.584111746367796 -222.238482183129264
-146.567578721860883 -67.835626523120609 -229.188403650679163
-150.081355224958116 -63.366277545430918 -232.846424030083568
-140.538010574522275 -66.404180163658324 -234.475930599520183
-132.519934878564811 -63.733597678531865 -230.564210971894624
-119.580348155746606 -63.292119397643674 -232.283709022818044
-141.763584823201228 -65.211708442716883 -235.979254355344835
-146.134056945865808 -68.999320511099313 -235.716564438028684
-133.117332015778914 -64.720348174135808 -234.607999423885559
-131.854792508176160 -63.718539947052946 -234.741225505304953
-145.874805192293735 -67.405487739211964 -235.688759246879698
-129.765341214102705 -65.950374215174435 -234.712954752943148
-126.551559166237325 -65.266051833072993 -235.885176834718834
-6.324292899056360 -68.198626734353283 -240.767795341426762
3.537304691629167 -61.051681078411463 -242.258443900786432
13.063564036507863 -60.521502983426998 -242.627248349754495
11.327183535491749 -63.686585099193195 -249.006001605159241
-4.756541486247876 -61.574229382203285 -249.803956375236709
-8.833211836594067 -64.352993615685094 -251.945763388910734
44.955229796686233 -64.313839163470519 -254.764184069648053
49.328041552405395 -63.409933997393679 -253.742044679120710
-142.069047075057483 -65.417212804309997 -262.334580382669685
43.545555035431605 -60.445001344631279 -257.783058665993337
37.035436270715550 -58.957614198392875 -257.725722553521848
-152.635635029281474 -67.749741457438986 -270.004960727876210
-148.398794139565666 -63.049542781172306 -267.560229664135363
-145.014106653601146 -72.107744119524625 -267.032959061537383
4.458431701352843 -61.459980180573012 -269.872272397048562
-150.527226961808879 -64.751791292573913 -274.159132738599567
2.571198972383563 -63.195817054989448 -279.255411154337480
-146.049226312208532 -65.024767099887882 -283.406268167899498
-144.503018669676436 -65.013486327021042 -291.025003342308366
-151.969931383134337 -65.205103073437471 -290.089494060527556
-146.780378971158285 -65.527114146829206 -286.211701286268351
-146.780064821508148 -66.280320558668038 -291.001148222727863
-153.014396198116685 -64.473565067813567 -293.537871075953433
-148.921717937097895 -64.342275902383889 -295.012743285629710
-148.333611057192826 -67.821853836612576 -291.704182339843044
-146.111796318046572 -65.911373135147329 -293.228574624287489
-140.875694367607480 -64.659182089971281 -295.792810775015369
19.208581302497308 -64.467797167551240 -293.732672691265350
-149.027812428179345 -64.964639095927211 -296.655302640555249
-154.946539764466280 -66.858673027732294 -294.662025281920990
-149.360853136943433 -67.553523314147441 -293.557582485121543
-149.162538297744362 -63.511062725633707 -300.239067088934405
-146.087319987905801 -62.744274413569514 -294.726560017290012
-144.349241732782190 -65.245391151479438 -300.908945767654473
2.502178308634740 -59.204522544539458 -297.966836920790286
-143.166390543957505 -65.155995678757606 -298.770602934284909
-144.117241534676879 -64.803627415887902 -299.935637108257311
28.505589315408809 -54.486495341389507 -22.486157169802908
37.080653199948308 -62.150511789837111 -23.785405427335075
40.280986763465833 -57.345654020965853 -25.163871979853013
17.560804601837162 -68.842996569116522 -33.948639808414150
27.056401585242291 -58.690250433043715 -35.478747613054288
35.970237567814372 -67.009301863661889 -34.902387202625000
-62.277585393640443 -57.769070718255122 -48.932564589089523
-52.035449587531552 -60.125624746493941 -49.545050685369631
83.429643303715054 -57.838300623470680 -63.773233046499215
-98.730427253508736 -60.072411760130436 -71.290997233974352
95.385460228685872 -59.373754503075645 -72.845885014536364
62.421304002010615 -57.209667713472598 -72.565807991625860
99.469283150615667 -61.967555494361051 -79.242538862350557
62.412385044516142 -60.623608911859961 -82.193538866564339
-42.962193766770021 -63.547940554725514 -82.271604161686938
58.577402423925001 -56.569078364695159 -85.187563091565934
-58.102083265207220 -54.462873689384423 -85.675268101218919
63.531367921734905 -62.798534851555402 -89.153625123625531
57.353178729470812 -57.710503006137827 -84.419164095284302
-101.189130260093265 -63.171579483856064 -87.866065367078292
53.063733158392481 -59.009845571522817 -91.826530952824498
50.256218189443409 -60.556015205419726 -99.054567459360626
62.527014663076592 -59.332631797823979 -95.513275617097449
50.332968335488644 -57.759853422251695 -99.698636818362658
-83.691265338382351 -60.334597099637136 -111.584926419452515
81.345896115346207 -61.031064245451830 -109.741885832805934
-82.360816494973136 -65.538905745779417 -122.334506404062793
-74.797573445593144 -61.468994851622625 -114.323713176859158
-82.919588955984239 -63.018982175923000 -126.514497930831368
-90.997183189704685 -61.186321947948059 -117.561652611434013
-92.244669175243104 -67.222150351407137 -121.632421112326952
-76.831005136002233 -64.189003128492189 -132.057997227434214
-54.861367608354833 -56.031506915655534 -133.628882469894933
-79.907943706998225 -62.393502289763902 -137.501296552447116
-54.910743249160369 -58.994768144794349 -136.869955193355167
-89.179037419744390 -62.395288734632317 -140.517819068683963
28.071580860822063 -59.025260792185009 -141.218078544206520
18.481994245775393 -61.037390297445668 -143.676994484066370
-95.262999497450295 -62.998435534638190 -139.095427203741195
18.247106101109985 -57.999135451155595 -153.971837602616631
-92.790351870862054 -62.075101897321360 -152.835086760580481
-94.471535193892436 -61.523054238373064 -151.029924764764786
13.379641149523273 -61.099724477420111 -156.927144281872927
-98.431396457840265 -61.890867380093610 -150.851533631002411
-95.603942764541472 -62.511526501536324 -154.564355824941686
-100.256544924235556 -63.149897070647839 -164.616576275426354
-100.953403197357432 -58.842132814850487 -166.005417369448082
-109.053061874284140 -60.554255309365232 -183.360291728672735
-107.791962251446847 -65.275564672864277 -178.372000284662448
-103.181491936322658 -58.119503566051698 -172.763796869482832
-104.210418759510134 -60.660385966282846 -179.469790647712159
-142.668894906256583 -64.445074989861027 -183.447028680231284
-106.961042863322206 -64.382739155846053 -185.399077250093939
-143.337435988814036 -61.373915174698254 -194.748720930180582
-150.137307570898599 -63.724619927256299 -193.071613740465295
-146.296230305084606 -67.535803979652400 -196.197729638035980
-124.381153191060747 -61.360622877053004 -201.231677909919085
-128.917197794711427 -59.872902254334122 -208.755866223237746
-123.711912096321129 -63.468615352728889 -203.666087461918835
-139.764601335385692 -67.393618061469596 -210.032692442615257
-123.149331493664818 -63.177726586372202 -212.958539063166540
-142.904083194943894 -66.738432770185497 -212.198779842049845
-148.632742894077893 -66.366097677977606 -212.435414735595515
-152.914558660657292 -62.902024220106398 -235.500081018221010
-140.294517394287283 -67.245374864299805 -241.017003198113855
-123.921441706771816 -65.338950161455756 -237.547323286986995
-152.346771124165144 -61.378312203890857 -239.302189694384793
-3.401726586526358 -63.772439666005525 -243.092488095799951
15.949288684751821 -60.904638697310048 -242.631063005571008
-3.442353392572244 -60.801942525964762 -248.902828267287759
-145.576902157735901 -66.423377562060509 -251.197871956555730
-1.944393945626992 -61.932129798033031 -249.620060104618432
-145.715408058316257 -67.983029734947820 -263.823295338545847
-5.392590641456472 -61.169633326780016 -256.588724424491829
-150.556043619471950 -62.675255100166211 -261.369908100399016
26.859087390896594 -66.253780541775413 -255.906585457287093
-151.469396025204361 -63.094468868811447 -259.518493136293898
-146.832867332350759 -64.982572760250562 -261.912954966405039
-152.268078149830700 -62.493426494973022 -261.624367488507971
-149.011346984195768 -62.963376850285783 -263.610925434963463
35.367709230417240 -62.300031358160510 -259.976472875672471
28.865699269480899 -58.279572147196859 -265.527179053557518
-142.782671436801792 -62.329434902508467 -266.227305446374658
-147.443771320136875 -64.792306827949531 -265.505164713373517
-152.991985038913612 -62.984249216802255 -270.302951701018969
-144.534974491954273 -62.213665306296207 -267.655010911327395
27.535426573448390 -59.335376607021033 -265.301591112735935
27.932515134043189 -60.620510239515923 -266.378329181137872
-147.564032320077189 -68.004078627583652 -271.623078468092501
-141.863059396893163 -64.203795834218909 -269.352617486582062
-148.974992952458251 -61.231847859511348 -269.481313431699562
-145.116915168258430 -62.547440225603196 -269.498130187387460
-143.340546765581649 -62.418321855966340 -274.205325075635528
-149.068706822122806 -60.167389530937072 -276.723858281874755
-147.770290363708654 -62.816696213933824 -271.284916278084609
-149.625724711454779 -64.026630006703627 -288.307039409710455
-148.503452817271864 -61.446082097634942 -289.535056604848194
-145.032658025019003 -63.399182346778275 -288.547581171440413
21.583922537524256 -63.961357995210705 -285.464358133631436
-153.038727476817485 -64.863015542830567 -288.175754365594571
-148.746657335927864 -63.669254905272609 -290.839285730873485
0.256289109286676 -64.442727239866741 -296.653693414456200
8.023060081353286 -62.777172679681726 -295.541553007902792
-146.674506054858568 -67.762088480768043 -302.116907170635159
24.312554091331588 -65.535948697716648 -25.750416414891070
41.553359132823886 -56.747329850532950 -33.359591652046618
45.943136808180739 -64.016536359667299 -35.510331245541202
36.703604530739696 -58.757750608323931 -33.689249165313981
21.956748446170533 -64.676385364931718 -41.825258746576701
39.818798101002258 -64.750957056159237 -39.579686072898319
77.213106236770926 -59.642695664955667 -60.539425646848869
72.017356443620073 -57.655738466289684 -63.226103474050170
-17.409663740512677 -65.357331404851735 -69.951169217853959
62.493049013302070 -54.317560874334433 -72.868550430104037
-28.257337121427589 -63.411003941957873 -79.438941589444951
-35.189384806176470 -65.639851067371666 -84.716690430982752
-55.226605185980496 -60.243782471945721 -84.219333402046857
-53.598924327691584 -61.774713574293742 -83.417358356803376
63.846649942898495 -61.142246476805795 -88.227387774606882
99.372078753177931 -58.342114039629699 -89.907443171245561
-62.605314537004084 -58.950937698602459 -90.945710656075548
52.299316474693072 -57.171599882886355 -97.753179656793691
56.516556085144849 -53.581439921246080 -94.419065426091876
102.579953415451129 -59.205724573759724 -95.683204129181618
-66.919471972642015 -59.800872076396928 -103.468851265250876
53.467401676106512 -57.172544444515964 -96.826800668794363
-71.622961723955683 -58.059424774318998 -112.720637020453580
67.372147422194786 -60.541815424938832 -99.145997916901251
66.511700783033774 -58.833154689932087 -105.476643365907023
-74.779700389190168 -63.334695111061279 -111.970267649422098
-101.726377674987930 -58.288808090003435 -116.661599187700986
-73.797295861271436 -58.560062056269473 -111.397230267804019
-84.636453769860395 -61.555325046026795 -118.282762507418198
-68.253037967514956 -58.242295795807642 -120.756343635830305
-83.250691823350195 -59.058120506832154 -117.200557952160537
-79.366561508839766 -58.069525004036358 -123.266523733276003
-74.893925150837788 -61.366588996700699 -126.280458700092922
-66.208405299789405 -64.289346841708451 -127.816362704630293
-85.764985255263099 -64.067617036296340 -131.576559908127592
31.376468442793872 -57.538154333032324 -130.396199516260168
-55.577796490075691 -58.268460283862225 -132.400945464013262
24.769107967711768 -56.575797577405758 -134.184152560364510
30.476033803461039 -59.569854453903517 -136.873977393907239
33.462234759759014 -59.015621918479027 -141.276418638543646
-48.465429183630313 -61.707249848949303 -140.523737316164130
18.201711860719545 -56.883024260496306 -150.187595036451853
23.534480955327005 -61.044424601677036 -147.451971133132872
-145.624701150306095 -61.676679066938789 -186.349302099280607
-148.635797235660192 -62.395542242548672 -181.178598407054295
-154.378439152824654 -63.792254721310897 -185.709912373499407
-147.053782750237389 -60.569797323113377 -192.891866947781722
-150.524622079245830 -64.667370672995759 -195.887791723038646
-146.651159060361806 -66.506118620183017 -200.854253988882022
-143.703058768136572 -61.690236071024387 -200.289711689414020
-147.478441503053858 -58.508393113615256 -205.457808352325031
-124.046726352072284 -59.193858702344670 -209.734029288702430
-134.239682310587341 -63.993916177446550 -209.543109638559429
-148.307246785929379 -64.616324788105189 -218.849948652537222
-145.398116001234229 -61.162608869958802 -227.376060683891836
-152.634355791111801 -61.624102018651172 -232.861219297784913
-146.225327845958873 -60.848130243025253 -236.866625582618838
-155.453313061102534 -59.935467503888944 -233.896390721350969
-146.097675653165481 -62.121347975243154 -236.376455228215349
-151.518760726042785 -59.915978585585222 -236.971034214715189
-146.672682813407334 -60.603797421579429 -240.288803665523488
-145.070785163278373 -61.856141643007021 -239.644573051661325
-142.904113325637070 -61.966977270296539 -242.209851743557834
-152.275375481919042 -64.039188638517231 -240.849830646017580
8.593040595702384 -58.889569597453416 -241.928768640835386
-9.818906035343332 -62.678017092793652 -245.673099687221651
-150.222678511162087 -62.327396915476584 -240.915149525750650
-150.177803142344743 -64.516083935656013 -243.764718683719423
-151.421329453468559 -65.052262737346879 -245.713651176698363
12.278247267028320 -61.323048268244506 -249.579166666340086
-147.055141684556503 -62.400309391797961 -246.793593060857091
-145.861395820045885 -63.388645636324455 -264.266320549931550
1.158234981402885 -61.374303815605643 -256.433310760745826
-147.755304669285522 -60.554817563453881 -259.683303777610604
-148.571854484701390 -58.087932727437192 -260.191675819026671
-143.633734860929309 -60.374289288516408 -263.598465321488106
-139.635337749369796 -62.798038109471293 -264.467874562953000
25.202153123989838 -57.759895827152747 -266.137947315764166
-146.456376858178913 -62.806391357761214 -276.223617285325020
24.564893747107021 -59.968661449681406 -272.284597118123656
16.852355098773337 -64.670651561308347 -287.581364507379078
5.178850705761988 -59.426763379752941 -294.581222745066384
7.632941381668971 -57.044781791799146 -295.145568515674711
26.217939505830515 -55.343876708358344 -23.201469012623811
42.490994357066747 -66.938522211505131 -42.486599844816354
31.471303477653343 -63.129538007181651 -43.609533118072484
-46.453029496682710 -58.587423152205787 -51.896245734723770
-94.502131692851094 -59.628756183652328 -60.793425173246710
-97.684515554489337 -59.229729503683814 -66.267703089444311
-23.448589138485055 -59.512403560332729 -70.139680898887917
101.012810001055726 -57.014324661767773 -73.591352577816039
103.309640727966496 -51.289141535023198 -80.011074690146302
103.098478924954719 -57.372343968330505 -80.142789865345804
-53.043459568230539 -59.599044310472351 -88.844945185862628
-64.402217682962146 -58.540614537125862 -89.600092279650184
55.871083493325571 -54.919681748085836 -92.638109561535330
50.987866850691489 -55.873860652612230 -96.419106340226634
-67.116769707871867 -56.890684523238939 -105.072819298883616
-103.049546237455303 -55.981896035503219 -109.814668246706788
78.848439289570052 -62.268539233508761 -108.966371234457597
-76.573347337092798 -62.476265073369007 -116.637919311240836
-65.254613671298046 -58.693396016902625 -120.293600366762959
-84.566661830452176 -58.395351633631975 -121.677519742523472
-88.581028402554551 -58.521454510287484 -115.221533653891214
-82.641521607619609 -61.274417426145376 -123.397355408473587
-73.161075667137482 -60.780483645334471 -115.146148760303191
-63.077658919285007 -62.044056388191166 -124.089251748607211
-81.617926742149535 -60.406035735444746 -120.801464464614114
-80.632216134961880 -56.790989540401142 -123.557206250330552
-65.715766651309167 -56.863715336789568 -125.963220779425058
-84.959907759132903 -59.794642159494245 -124.101715210072697
-76.165988146406562 -58.878527789648260 -127.759386191847952
-78.101495903024897 -60.200066554925144 -131.029494060105833
-79.285415603916249 -61.486177783997306 -134.676609030588708
32.230059188966102 -57.348252322672110 -132.305887213332539
-57.021706617072972 -61.719943997758648 -135.337554731652006
24.536655459325090 -57.576515965479302 -137.233127691935778
19.632813013129578 -58.734746458508695 -143.532302784272957
-144.482845097004969 -59.988503726590295 -202.650252305775297
-138.743913782998334 -60.755432658674266 -206.245666514594944
-156.518328689608779 -58.673893509905469 -209.281802368596544
-147.803891029116528 -61.677164445315583 -207.333483465391851
-152.313522672918481 -66.269159439770078 -212.712309216449171
-148.187977885595245 -59.875309515193834 -208.426960548995822
-140.725582703203656 -61.138405577269623 -210.167903785703118
-149.911527914798313 -61.535770282676424 -211.573351977028636
-149.727606926339718 -60.734953466700375 -231.769759243593796
-144.681161364025002 -60.478099945659892 -231.603842693774027
-146.821933337897832 -59.802444235689705 -228.809125192021156
-143.927529935514116 -61.619154332890218 -229.631029217265933
-147.583963796887957 -63.042240739291643 -234.707927777570717
-141.567325004075457 -64.439875998398676 -230.505640650968189
-144.147836567718656 -64.300102297019961 -232.829288687247129
-144.133924019481725 -58.739225044616916 -231.925699062314891
-139.482864834693885 -62.075550475612673 -239.073988646748546
-143.973000594939521 -61.285603540460968 -238.779100542508928
-146.628061550136010 -62.752646040331001 -240.022230250962366
-146.909042651239218 -60.191989134022876 -240.497272717343151
3.290051717457231 -59.489256644563682 -243.861154868654580
17.446785209475355 -59.989938574064240 -243.851378148449214
23.435701475530543 -57.472835697715446 -253.806023439404356
28.107935018041680 -58.129391000671234 -263.172755224750347
8.822565589289724 -56.870187703698043 -270.241202584899099
22.671970553151993 -62.245107556055956 -281.239883353736502
4.441729340936810 -57.776630463227356 -285.349890336083263
5.998913282251010 -56.354357592017578 -295.253108742701443
15.552416715900428 -60.832460804818481 -295.824854994441068
44.660702421255870 -63.242717888381989 -22.948659144664596
30.005009237731230 -55.803568306275849 -41.404469675509382
-33.077399501467944 -59.279262892827958 -51.961448259746945
-22.329777063130955 -55.078562767202520 -55.919862438530330
-15.122915911512735 -60.020101967468207 -57.572275001217790
93.040899253175766 -55.609418190273928 -64.798359632754057
-103.537483525723985 -56.089712284398686 -73.411230284296948
100.726600582985242 -58.286201902029305 -76.797876393058417
53.720848617643192 -56.685572988616570 -89.416797567627825
63.838329265586466 -54.024355822653533 -91.935221881978237
-68.447363688711874 -59.500328947684608 -93.221662460452620
52.309480962718631 -58.996745170175259 -96.205138817825087
62.647104208621009 -56.100858766208887 -92.766941190760733
101.692161285377694 -54.990872331490621 -99.308135929201356
-65.645497529250605 -59.889469791142034 -102.632676367267152
-67.944020567896246 -58.840617210898330 -104.007696184214083
72.574044295341196 -52.610958173575042 -111.370235743919523
-80.054192944331589 -56.749534022630279 -113.660236861592878
-60.478210543765307 -60.278895337518023 -116.300439651576070
36.094872495046204 -56.930137520642440 -120.183739849112555
-84.920598105296762 -60.047267814465371 -130.134484058202503
38.245474985249551 -56.346844930052526 -123.898682772041681
-91.394580434539478 -62.046708003909373 -123.238694605959367
-101.340832663181601 -62.587034963778649 -125.299982657582049
-67.774124419265547 -61.228685500027211 -125.938037711593651
36.732541715260425 -59.388459965934786 -128.053137423329304
-63.688359474294224 -59.278556373625847 -135.748559547581891
-60.307255926503323 -57.069104145137459 -138.653319474877918
-56.111916012986249 -61.356753442546477 -144.493490921706496
-143.470504449283538 -60.916778115884966 -203.847089819767092
-144.709746540594892 -61.504454757724460 -198.925914281021619
-148.337788010924754 -59.601168449652178 -201.853785593890905
-153.718171549949972 -61.444349135692448 -203.281259891679071
-146.467285509206448 -59.007851263367414 -206.910886253224135
-142.155669621140163 -62.509242248701653 -201.482289728835326
-140.384761417459146 -58.334563763845857 -205.910805524626682
-146.452557379113813 -61.636585086816993 -207.737199216069143
-143.455464553466129 -58.974097208484991 -211.399628180217121
-153.227766994669565 -61.285543491122681 -209.569949144239246
-142.811286419259972 -58.542756889788464 -212.624232864003972
-144.750672521339766 -61.741934277210035 -215.075844098233432
-147.384502059495219 -58.938806729349707 -210.782925415277759
-148.769378541017829 -61.543724613493936 -210.940522642841330
-146.588099185976660 -59.165516104503283 -231.301020019625298
-1.738360561759073 -60.514118449211836 -242.830696228642921
4.590686248522097 -56.508736392713523 -244.912776638142077
16.400350325589699 -59.912446149477560 -245.805141446955247
7.755135140053625 -59.146613117811953 -248.470128497639536
22.027522589859998 -59.404259848335542 -251.102291754063970
1.936290906948607 -61.014674749295537 -262.250711775243587
8.792647973662788 -55.403468564778002 -276.570879055577848
28.203753991904218 -56.836267084110418 -277.022541185978014
21.359746005312164 -59.555724835515633 -286.027781402847779
27.271268475788176 -61.600611901842157 -13.409302570784590
-66.845427654011047 -58.981788185138768 -49.861957216635773
-40.322709261158529 -56.446736241287972 -49.881045403865429
66.727680472124717 -55.459112856795151 -64.010245771906099
-28.649847878259656 -60.311343835448696 -75.072424650258498
-38.832897708478349 -56.777807347311601 -84.543943287790214
-45.257855891816639 -57.591324835446919 -83.502823731014075
59.791888228132620 -50.766076947528319 -90.021504465450732
104.799196936123835 -52.273649249103379 -91.336272285769269
68.642096887359628 -59.203257277327410 -96.550025557444727
-72.014949541805436 -57.176902881195204 -102.749231296582380
103.025805455274337 -56.462552363322430 -102.080391212148683
96.658890626981673 -55.432814194525832 -106.995340869025569
-70.497866228186410 -56.177094173251227 -111.902329730549653
79.690812223657261 -55.468836552982829 -110.648826832716821
93.298681254028864 -55.817555870319261 -110.586379318634826
-61.698627985931218 -55.420856344906475 -119.043044696240941
43.663012575878909 -53.816256106142646 -117.927816161538203
-65.815944707144467 -59.312030066101940 -127.041537526419063
-79.634261947496043 -61.749964147409017 -118.930219218854575
-59.456177657776841 -60.420520811508567 -124.002737837309141
-78.381968993348863 -58.333460047501084 -120.599613632819356
