# This PCD file was generated using the MATLAB® pcwrite function
# from Computer Vision Toolbox®.
# .PCD v.7 - Point Cloud Data file format
VERSION .7
FIELDS x y z
SIZE 8 8 8
TYPE F F F
COUNT 1 1 1
WIDTH 858
HEIGHT 1
VIEWPOINT 0 0 0 1 0 0 0
POINTS 858
DATA ascii
-0.299302446177289 0.068842725060983 0.636773254241251
0.577249713700156 0.100159238839531 0.362638885123332
0.492550213023122 0.092924462224947 0.455037896868423
0.484616825790476 0.096018161455333 0.476685009985294
0.026772451337366 -0.048318810925305 -0.601675230465950
0.150718985078189 -0.046075773956937 -0.609209646509883
0.476806937798061 -0.006494395396742 -0.332862487513652
-0.155524783874346 0.069141407376072 0.581000919283477
0.305348483101084 0.021222008777366 0.806767876967064
0.280855725904122 0.026586951431798 0.791609443462048
0.003949723441403 -0.038295014253618 0.598098151404582
-0.536967021379635 -0.050263332702490 -0.254769683568854
0.064039558990778 -0.041286609339592 0.549565079392070
0.638941125665242 0.111619767719656 0.310399684566124
0.561636716135260 0.105880342501084 0.386068343076662
0.561862937569089 -0.035462696603276 0.516183884005925
0.544702505665614 -0.021488442170490 0.533079069133310
-0.197214333348312 0.070034524837781 0.403779572553876
0.100636926930633 0.071755674975432 -0.487102865161799
0.088552843791199 0.064130141676214 -0.512126972732680
0.222726956888098 0.076729010021845 -0.493012434223167
0.499662792229988 -0.034090249704314 -0.322760856533579
-0.306972077832930 -0.045776840397512 0.524840685326062
-0.273534659122660 0.192391643224269 0.593033364802404
0.477505917146334 -0.022223023689981 0.417209893193845
0.559653091406880 -0.040859224691421 0.502700253896012
0.606081118533512 0.096581900896186 0.304581370983015
0.518451510893377 0.101468574827385 0.388143733647239
0.538149091706354 -0.040551304207791 0.492587470512631
0.518580893976045 -0.025038180431787 0.507437567666548
0.351752300910929 -0.042898049565231 0.338939270523314
0.652399106893468 -0.028148021918498 0.474726961678735
0.281684634605947 0.016033003739566 0.203797004804626
0.293842629631511 0.015420404574600 0.175344335589844
-0.544423683348049 -0.052434881775729 -0.403336639089872
-0.051876868275431 -0.039802898347668 0.484917761343639
-0.169113287863733 -0.018257004058382 0.423024220072872
-0.177704589514119 -0.030282032407817 0.412318052056301
0.428511622992158 -0.032654726634386 0.361482927591832
0.599224271402378 -0.024589125012574 0.529085822380937
0.646884995164218 -0.023629774530329 0.496610444876857
0.276018555560486 -0.039370825132614 0.139429727642159
0.488296697556579 -0.020028014998549 -0.305040266850905
0.177929907686244 -0.004996458011263 -0.602334032151129
0.477725808822369 0.014359780487324 0.472021629202473
0.170131109908525 0.017410585737503 -0.605072771243162
0.617958755479216 -0.039228511076222 0.364277086366651
-0.328383496906138 -0.049408604670604 0.363119536075431
0.452559859518158 0.036347202668925 0.407276220129617
0.440724019049349 0.031888837451940 0.431355917857519
0.174817746095004 0.027706721046549 -0.462848725289734
0.444677691270054 -0.029717645034807 0.366779113561143
-0.163147643359585 0.022125559721938 0.453089264493873
-0.326777611810531 0.195738043257428 0.445254952612757
0.595792646867573 -0.030001660490486 0.342090024311636
0.375735304958396 -0.033141824664722 0.685900306431629
0.704279952252561 -0.032925658487159 0.337977041530280
0.412133505285001 -0.019101958413102 0.753935661564198
0.053683692995677 -0.043236306106461 -0.290303245744419
0.264434771668246 -0.031814223300754 -0.087453260437925
-0.335371616744765 -0.038677978377404 0.345436105865171
0.359410588838307 -0.033838074767664 0.686449873272122
0.711670928259224 -0.032813852706409 0.316852216472662
-0.154888140638453 -0.022533886919247 0.186973986017919
0.682749779466918 -0.034755471260355 0.301228466598758
0.310742986824460 -0.036670676702689 0.673567771523234
0.686591605916536 -0.030751169470721 0.276442506371137
-0.076509702179850 0.122191462202266 0.601723532070843
-0.134936375915634 -0.018014797595320 0.434224562139323
0.151432619602939 0.077543841671583 -0.484743179988281
0.692293103762582 -0.033861015946721 0.247636563187217
0.693502185199660 -0.022872939129610 0.235740077538539
0.697021369881279 -0.033604747651428 0.211409656303181
0.733279484138492 -0.022551218571987 0.209096527777010
0.042075015181247 -0.038572817162973 0.501944009074475
0.339556112794106 -0.026127514030603 0.197561456925453
0.017239221954373 -0.013008114647681 0.508128184023519
-0.248559728517367 0.022897788023241 0.306861995146529
0.336275882799853 -0.027680535864928 0.184274078681880
-0.286723367189833 0.065752205167096 0.294463660883839
-0.701850412395250 -0.046603168313393 -0.210746256309062
0.189295864894277 -0.041843516418014 -0.121633054649216
-0.115509218318429 -0.045025079187008 0.188461987529018
0.363526330125628 0.058993271435602 0.699631192652870
0.188176589541733 -0.030002283343135 -0.251442685759881
-0.252696942620323 -0.035906717769848 0.190834418466313
0.339416406643489 0.033506343597884 0.269838115680693
-0.088717127120553 -0.029564797238674 0.138238315095668
0.182182553779597 -0.027551353050476 -0.299854790051991
0.004716460628468 -0.032586612708937 -0.118359851843615
0.303755379968832 -0.026311834435364 -0.432060641400782
0.029524981893311 -0.011257842039024 -0.118637654695196
0.380275910784080 0.039498329363241 0.271858374540085
-0.241572707416222 -0.033553584923808 0.144191305942941
0.141645617795812 -0.024870228173326 -0.255610812311885
0.294620169287682 -0.031569120665722 0.079497582289858
0.260057118487433 -0.029458187721577 0.116516727336305
0.290192626298200 -0.018831661822184 0.057682428576661
0.090810434238394 -0.042747454242938 -0.185558421910606
-0.186404328708851 -0.046011060659693 0.107634368751279
-0.035571510142186 -0.039060515611421 0.075509082035012
0.708887568297255 -0.034179058666051 0.061439056719660
-0.256988024812442 0.229368768361229 0.537061732829912
-0.099886800932026 -0.034391425508430 0.094736016669251
-0.093627452513622 -0.016295243433600 0.125295368842122
-0.271326625419914 -0.021469593166207 0.307341621687482
0.231382849016015 -0.033321711574859 -0.389199115818612
0.660532025616411 -0.034385995355133 -0.112026407092642
0.044951005240046 -0.024712814776392 -0.194375558850063
0.698437298817637 -0.034598792644279 -0.071987473135416
-0.205037456129602 -0.036827548530277 0.075412639130707
0.062910118305874 -0.026708041335988 -0.204076906618554
0.311150961216998 -0.034855436347275 0.093724807184312
0.245786536306231 -0.034400010092337 0.024818765510576
0.211160599640720 -0.029815990455547 0.075966672045768
-0.166159348305301 -0.047111950623304 0.053442952603432
-0.202602450907212 -0.039451772894154 0.066624039464437
0.056366760756076 -0.035475946589677 -0.199027928490936
0.231205332600482 -0.008859257616994 -0.380454958432844
0.390166159537840 0.077132180727233 0.762496127658355
-0.046533422593645 -0.033751990275145 0.055743387027838
0.249975830548015 -0.007483065085994 -0.018486168828470
0.158387034843265 -0.036325789152403 0.045171898812760
-0.142544084736295 0.111407950850521 0.465446946995319
0.011944112036534 -0.044205675110607 -0.029185151551459
-0.014851880064628 -0.033833953450704 0.032495896508357
-0.027685419031890 -0.031356022343066 0.016593172737241
-0.034153701777088 -0.019878114722656 0.029253967219559
0.230730641343719 -0.027059235346876 0.119433124209092
0.140705251486957 -0.040804578950519 0.035969186165619
0.227424778909862 -0.011418104498282 0.100639550780499
0.718767520158162 -0.032915503472969 -0.007569140139272
0.302014118644038 0.071614879893771 0.690332783616916
0.709106939872547 -0.019567197262149 -0.001655925397318
0.709503141467977 -0.017547837621687 0.014371876852141
0.370481175205983 -0.012080329887068 -0.406888278802222
0.209948603689943 -0.017627060132347 -0.222846154005071
0.011157446033273 -0.032668827928534 -0.044992743551093
-0.052929454472138 -0.043894614610899 0.003812322600299
0.021008117786164 -0.025153531722970 -0.043948677821693
-0.048609486615729 -0.018839372004221 0.033547176714831
0.243264571337263 -0.026281528020851 0.003287496543486
0.246897406754933 -0.015365941095039 0.028864095396487
0.700411201831061 -0.037709516909932 -0.021461026628804
-0.034997981446033 -0.041647918490274 -0.049851053402824
-0.051366605022740 -0.042312935053460 -0.020076157667513
-0.050627255672057 -0.025012922478208 0.000138982943598
-0.216847603602101 -0.018653211856444 0.169259627082467
-0.015461571205898 -0.021016100753429 -0.049086733475276
-0.043205824722611 -0.037671330828745 -0.580549001376057
-0.019246173965593 -0.045804401998589 -0.569394547533660
-0.593467214289117 -0.050036185936416 -0.013688599343973
-0.576705822516677 -0.018322029197914 -0.016903515962123
-0.602085934886546 -0.014105882454504 0.003901557606121
-0.631143352491033 -0.003390697892295 -0.024470213572462
-0.269862715204598 -0.000978818428686 0.347923686612614
-0.622565956246104 -0.007763108454329 0.003390229474372
0.146669924392383 0.011489641048882 -0.440188827690456
0.037921184455934 -0.038115766646132 -0.057240067738131
-0.052324425288702 -0.030950407858032 0.039130843917027
0.015885702849194 -0.021065727224335 -0.047406478160189
0.362030118079070 -0.031630876803628 -0.408028619670831
0.206854723703809 -0.029446993609648 -0.232075023771565
-0.225561216638752 -0.037059266138692 0.204516658901392
-0.232039039507748 -0.036850718627816 0.170521292371833
-0.014012329644013 -0.039219724900292 -0.061835321329768
-0.047723589050358 -0.031301943920803 -0.016992400933372
-0.623054770347703 -0.048721137431673 -0.031528918394306
-0.636500948776497 -0.026475942226755 -0.042550259326352
-0.582016465586212 -0.006857339395386 -0.034914354495192
0.052976592460154 0.015553119948907 0.547096757797063
0.026121994439881 0.027217303667513 0.551069059152314
-0.283867871603721 0.222407022981833 0.539895255460931
0.400972331332321 -0.016969095479051 -0.402353702927679
-0.023744906729997 -0.041872293106545 -0.069642139178501
-0.009267409814381 -0.025403519764421 -0.075688584312905
0.652639371916790 -0.031065516940840 -0.089155799566264
-0.119906714379895 -0.036720814160099 0.202622739225098
0.203077736663578 -0.038626374536842 -0.113304616429696
0.263466718108756 -0.041410322903954 -0.092553978044219
0.658073996654484 -0.020723701406428 -0.131302730364955
-0.525248607131323 -0.051025983992248 -0.117468972537013
-0.492750566993715 -0.051707866588627 -0.122892475994601
-0.645312856617957 -0.014612149619381 -0.249342888193768
-0.412545737324426 -0.005290980973588 -0.082255684650809
0.033635082117705 -0.038817120502559 -0.178079606106569
-0.181510498748694 -0.041860907295226 0.033029391906775
0.082829156127624 0.077167922858219 -0.358809055663698
0.195186096582345 -0.033319432208020 -0.358614652127978
0.653408376577033 -0.031745394467063 -0.163832980961496
-0.201017225112051 -0.033176223615710 -0.589596051582380
-0.601287336183743 -0.049481825752672 -0.172442079120414
-0.611588548471756 0.014952418839011 -0.166412850908567
0.225321930698985 -0.043280811079976 -0.186271693403139
0.598015487271119 -0.034386483886421 -0.244408316874042
0.218833260249811 -0.037046752553190 -0.210469384484372
0.684682289418131 0.031425110519536 0.433164835502985
-0.216021900992071 -0.039857400104484 0.087034608079658
0.070692953260052 -0.038194119534673 -0.224014979930214
0.627932574651792 0.059273693134403 0.385508068528360
-0.363806063213214 -0.038226648639321 -0.214011173826508
-0.565702963293697 -0.033710538226632 -0.404097096274594
-0.358419931644984 0.028917206653902 0.405115357846004
-0.247555966890149 -0.038357741354881 0.169817186418393
0.148819009450909 -0.044663068223449 -0.256949290602589
0.014439435811265 -0.038348554314685 -0.246400633463915
-0.467927089685831 -0.047294622232925 -0.593221019701254
-0.645968065373303 -0.020865497099201 -0.447254912380937
0.566359869094046 -0.028170840702057 -0.278657817014397
0.044860136930633 -0.031340503389548 -0.248329212293339
0.216714744810073 -0.033682926413874 -0.070922842463033
-0.473882655008520 -0.006907619122446 -0.113040051668553
0.105115916389585 -0.038001327195522 -0.274958723401537
0.097685146527485 -0.013094973776525 -0.260394522441038
0.545265012728995 -0.033586971926945 -0.284558566163736
-0.553500301438470 -0.048444797091458 -0.281449454025675
0.671661280070642 0.069198902740940 0.392520575158309
0.171528864370481 -0.040271565970204 -0.332975588322239
0.216417810832168 -0.029753946993068 -0.294888081203442
-0.245138421051007 -0.036190731257439 -0.569263627324529
-0.600007880591249 -0.018026233111985 -0.206782118623401
-0.626351076967072 0.004324100623005 -0.208500198791735
-0.665449466560783 -0.048783957339861 -0.294233225111946
0.401677243228339 -0.007546048405843 0.776565263633803
-0.603279959235432 -0.046068755349809 -0.315369174852576
0.066399945275424 -0.029967049152700 -0.324327297453934
-0.704108505935220 -0.049543841765875 -0.285640395811481
0.181130855942395 -0.042818315694536 -0.202500764555669
-0.350992586533699 -0.042503268318093 -0.593951886724113
-0.631234996856822 -0.051904844139778 -0.319793015077281
-0.654840402250190 -0.030682727248164 -0.324074469779104
-0.029218380579761 0.065386515028207 0.538553917203640
0.399117470682726 0.004920434775329 0.778506181563518
0.256007305749496 0.021670884755034 0.166758686329438
0.434356189940138 -0.038360515422500 -0.369568212518411
0.194729321658466 -0.015005378872541 -0.159006405732654
-0.159670840026762 -0.017229293790672 0.204370203757780
0.009974487662067 -0.043681444912489 -0.334889546826225
0.283411131016462 0.004276165538679 0.792312110582087
0.299517072401380 0.008474860124316 0.803986668695493
-0.322075513795244 -0.038479741618432 0.497676541390815
0.485304349800625 -0.036766518104826 -0.347434328274247
-0.661084486938264 -0.051081847484788 -0.344542381451155
0.324777849882089 0.030406214332831 0.784740150398625
-0.021784245446388 0.098867074365345 0.561626086786771
0.102111072565132 -0.033779054006064 -0.331669258111448
0.081163771823170 -0.006652646423730 -0.338447947973409
0.021817798308822 -0.045639592132826 -0.350235292486525
0.028528734359540 0.052333273486388 0.566697248825280
-0.533302562722973 -0.035725586791295 -0.143700169470902
-0.712172146295266 -0.044948848240877 -0.314342502117302
-0.690498023117263 -0.052746444917488 -0.341226263701457
0.179401972404998 -0.040981707267833 -0.354804650251365
-0.716543875399705 -0.035851082974567 -0.337685450117585
-0.088632957512350 -0.037705824953908 -0.575858313285817
-0.587651562456686 -0.026566045010813 -0.067530725675313
-0.617404298264212 0.005090047051304 -0.054662760468834
0.046007689935040 0.054072819107751 -0.351295939511825
0.133215973819320 -0.043331300188649 -0.355249026200908
0.069000372376897 0.034919228220650 0.622594079757634
0.222753065631007 -0.034407676044231 -0.360523962643329
0.112768741522966 -0.043195709331643 -0.358913894252561
-0.349571890803552 -0.024664698783086 0.114922926360063
0.082590644758525 -0.018041854711783 -0.351543894485009
-0.558062443686288 -0.008139314453859 -0.107920630997259
0.102680880082363 0.047335577131447 0.569164304671638
-0.645863792052295 -0.050427556221064 -0.348626099577979
-0.632081305417471 -0.011045352116900 -0.344572994811910
-0.611743004957358 -0.003368758315487 -0.328918112394071
-0.303570998545987 0.105293707711503 0.306671961397024
0.028710560060292 0.078468434971669 0.569770485256803
-0.665241810152354 -0.051560637665459 -0.350240842259601
-0.253767777108971 -0.052077251472402 -0.373691455599704
-0.164552132423361 -0.039662349691309 -0.366822036774095
-0.343724510822888 -0.043655957177423 -0.205217529434871
-0.368624637199364 -0.049111255737285 -0.410663092336288
0.057302597362690 -0.042363136243674 -0.433198885443915
-0.178890542349674 -0.032208690989981 -0.574412533831431
-0.580777854555990 -0.033966590293209 -0.141657695913499
-0.589073032529287 -0.030047097571836 -0.152205257529908
-0.623229093214795 -0.005507093010538 -0.153629563985204
-0.339487959791507 -0.036272049425757 -0.392123912622585
-0.280916232844964 -0.047927136758923 -0.567794725640602
-0.621025660964778 0.002703286163660 -0.259962918405436
-0.497485976656906 0.006511359886387 -0.129833195086960
-0.346796611308790 -0.042943606984458 -0.567049271113310
-0.341786192553278 -0.027453274079804 -0.587457552697292
-0.602467631106038 -0.027025321731509 -0.324689521835569
-0.446944161214595 -0.003481477169722 -0.139504955977192
-0.631011827596377 -0.004980765696286 -0.314971552539791
0.394111655471946 -0.028799998015466 0.783464562734169
0.084001068338975 0.035247643162568 -0.532974648784569
0.553460999865282 0.043178382625766 0.396181579552154
0.191645096145120 -0.030125946611880 -0.580693030374554
-0.394267345068569 -0.026503178041963 0.017133929331349
0.201727719508806 -0.010759234517141 -0.584470479673408
-0.285361096335398 -0.047206262188938 -0.592083972033140
-0.410046287712435 -0.027208459668714 -0.093309574618458
-0.582009786778534 -0.022714441638738 -0.253319456891476
-0.640395379538479 0.006397069166202 -0.247050615774640
-0.502795697783545 0.007053045768976 -0.127092404177333
-0.619687189530862 0.013153536194107 -0.242521139653584
-0.601337674219800 -0.046758241225127 -0.235100784557322
-0.266381322803802 -0.036210713324474 -0.591293379406126
-0.620698093265971 0.012916581770380 -0.239142699990702
-0.571973475637374 -0.047566444648375 -0.592382393917583
-0.640541673789348 -0.020999673484398 -0.534867458653592
0.133237588504242 -0.038685896703403 -0.605654784683067
0.126697104157758 0.007444340191444 -0.577338168959091
0.630579599302731 0.021563230340028 0.319606966551171
0.501104649635113 -0.031642167324174 0.410947650095372
0.085040999529334 -0.015647059253002 -0.522089766172715
0.474222014336210 0.072918341956782 0.384174119849212
0.201188480933098 -0.039511164983683 -0.614035206718748
-0.390415452069237 0.005223696095205 0.037221018523147
0.192176686122919 0.036034374607875 -0.588160230532157
0.300046579805776 -0.036665142432925 0.782129614932227
-0.158359518155151 0.023058391598884 0.324016961949108
0.291789120301272 -0.036151209248596 0.762715857312165
0.083232016167293 -0.008305127538475 -0.404849470305269
0.275021248830546 -0.037835759623595 0.753097488529583
-0.203407943980842 -0.029505264213564 0.636940396742326
-0.061431587181843 0.126009606830123 0.569992110949468
0.707848189574537 -0.025586634569160 0.281482324666957
0.316112079783863 -0.033344729175215 0.691728169983437
0.044664715577829 0.034824600759841 -0.498667089446435
0.727794036346387 -0.029133705057588 0.253504390680330
0.279721692282063 -0.037468042212244 0.722341622685368
0.055385418300689 0.029707270253299 -0.484031235122457
0.713078247117379 -0.026576297287227 0.255031221110409
0.291038790197963 -0.037353243424660 0.698488164345994
0.721906526841011 -0.034862154385124 0.274654708028251
-0.009228584404713 -0.034040381746214 0.609897677052087
0.126573689972644 0.001077842551603 -0.442506651163832
0.148451957501607 0.008533287210449 -0.461869156221984
0.522607103178313 0.013280369747753 0.550977777205308
0.052209445768922 0.046081211031242 -0.403263495099077
0.223916058764755 0.060973941178674 -0.594630696333940
0.216380011798184 0.071939064308508 -0.595298502991940
0.631364263355879 -0.033471049038118 0.496962964192350
-0.063654524244392 -0.039326603509406 0.472358567670174
0.665784019868664 -0.021537765359120 0.410947325723114
-0.231140517255093 0.028580267447259 0.663832229744329
-0.164448257203643 -0.036695684202412 0.417107225907899
0.069970658903425 -0.032383326529981 -0.525412491840800
0.669392828288966 -0.031634827414924 0.370276993031903
0.177140273066560 -0.039428545072307 -0.608521135092176
0.573098746255574 -0.036275172472616 0.360628942064616
0.161388745675045 0.029367148205810 -0.591549638425399
0.671110145094763 -0.029570737464595 0.340367683725060
0.329348708835231 -0.028125152694451 0.685257732076717
0.701232593938679 -0.028998668413010 0.302880779422326
0.302692336821882 -0.036243061384305 0.240405611984534
0.313369870127223 -0.039854929916925 0.238324753520872
0.294004922246173 -0.035028638056917 0.215029232666444
0.201820685454529 -0.030135141014421 -0.254740189898547
-0.251882274335993 -0.037009384934527 0.211526999973498
0.201507290646706 -0.025422758505614 -0.205198210449626
-0.379799313384368 -0.020933201128981 0.021119675832517
-0.156906605763381 -0.034732520633858 0.171609368190276
0.130632052933732 -0.036341420461858 -0.236529073708440
-0.225973685471170 -0.040346703699107 0.150875373336022
0.321950251268013 0.039822059713593 0.212862117198443
0.323923203455847 -0.025975140281526 -0.434411863123097
-0.202825954675646 -0.036167965092694 0.150952266235060
-0.078179321879357 -0.045735792052129 0.157493845163390
0.284265290043680 -0.037501204467498 0.161364122853537
0.345202688850628 0.007640524812123 -0.410513558403575
0.109117335535357 -0.036403227906079 -0.198238582258632
-0.209789303532656 -0.039658161094584 0.131777288920569
0.095003336459123 -0.016793385973409 -0.196924743395013
-0.242556712301978 0.171995795334582 0.351527268100798
0.196937782926576 -0.032203955250824 0.107739438839822
0.273750358109117 -0.023545440832320 0.024112763105506
0.186466279347473 -0.019792392973293 0.096871305036376
0.265663526531846 -0.010007647947645 0.006511891156390
0.492351821074567 -0.015096054326971 0.395079125512509
-0.349817719197873 0.036806440775228 0.315256695414321
0.690366182894991 -0.033924861642605 0.037707046376279
0.704557707465099 -0.033350510077321 0.011214714451053
0.695935246810514 -0.017772048508499 -0.009527285399779
-0.074386670247857 -0.040327343208421 0.045246496469859
0.027152826979678 -0.031394730413867 -0.075523267730103
0.013952270041565 -0.014934863960518 -0.078366940113041
-0.065713773067391 -0.041690768452765 0.005948930416548
0.032497342724690 -0.022705047513977 -0.072015263183038
-0.067165297633672 -0.021306841424122 0.040422727831154
0.282988505403812 -0.033358753510100 -0.018616070525694
0.702562322046028 -0.028658656385590 -0.055022676310120
0.273096479892553 -0.030528166884689 -0.010594570918609
0.268229499487566 -0.017787384579107 -0.040056799487830
0.276079849349341 -0.034035993970448 -0.046456529335457
0.266119724562816 -0.011995518384588 -0.018693295473783
0.221124942666537 -0.039789671616000 -0.056652029650339
0.132708671622153 0.032012300737939 -0.352399408605899
-0.630610338129026 -0.035958508277291 -0.056949901432479
-0.624932285206891 -0.011756990796276 -0.066665635209628
-0.593288868624329 -0.000557312937244 -0.058238667817243
-0.677316496150437 -0.043583805063297 -0.119748960798504
-0.631352038574323 -0.041504414964556 -0.091245692135195
0.008823748956915 -0.011282275911460 0.502797887265676
-0.626283197885091 -0.013343391609510 -0.074578885136785
-0.598931330370523 -0.007211619983291 -0.085046170649973
-0.446553346494027 -0.026895162290470 -0.258654232423291
0.376717642579202 -0.024728040453688 0.713699959622402
0.241136264537025 -0.031395741241076 -0.124253492461469
-0.548839861786357 -0.046379076749521 -0.121386023287861
-0.626836508284178 -0.043198901628299 -0.161174929924236
-0.638431621444059 -0.024745809533549 -0.162522548368948
-0.562387875753217 -0.037100985497981 -0.289959833717488
-0.692551591148316 -0.046359851188337 -0.164050731138535
-0.695924443776803 -0.045439644276889 -0.160650028270009
-0.710853688677234 -0.042415506134276 -0.269597970981731
0.008289139049619 -0.036638351588727 -0.229033946832054
0.226656209256780 -0.032284263733283 -0.220170494039614
-0.220577061944080 -0.037764655847086 0.191352481162834
0.179709662422232 -0.038145083631465 -0.229092083594782
0.328203801543581 0.029711348596560 0.256713747842327
0.027419831693705 -0.018817856584393 0.609123574720378
-0.703553083107871 -0.046447614859041 -0.227105146950955
-0.360504161145171 0.001489477033462 0.066628197851128
0.073090826591027 -0.033659047797218 -0.246756925462386
-0.646032841253474 -0.046761655585464 -0.241301219789029
-0.630061741685738 -0.017172206410749 -0.230590629871508
-0.606378804611906 0.000390566439377 -0.223354564794690
0.059010150035305 -0.039329993117872 -0.266772391789400
0.247394358292512 -0.013224634278963 -0.098667323695991
-0.261034036840874 0.023348258087797 0.274978548599845
-0.466633073274932 -0.045377347778557 -0.274499461664541
-0.536949785947205 -0.047282526201750 -0.292705616241641
-0.655467185693564 -0.037934422948751 -0.090673238490768
0.221220653374641 -0.032391483270364 -0.330295402280435
0.203680155684158 0.075449468864105 -0.353410213659099
-0.155526415663653 0.069256086290274 0.659448699920632
0.099996146119336 -0.042245581808823 -0.350396338822204
-0.354743201931272 -0.017291785434803 0.131023197884816
-0.192149837457671 -0.037026310641819 -0.376855545204057
0.193796066347457 0.079415891573328 -0.383777127133324
-0.193597774075676 0.227012880328419 0.534830535305113
0.081021483450102 -0.037808603979099 -0.382329892502870
0.565027585200363 -0.015201525481790 -0.256887303246049
0.207959234291331 -0.032137144060135 -0.565772313660116
-0.559263410171668 -0.035818571509123 -0.553221449405195
-0.558405199179053 -0.016362150573112 -0.576799226480724
-0.629603111126506 0.001943815844779 -0.530876004343731
0.219330630053648 0.046370958544665 -0.351061627201194
0.232365552191924 0.070048408045014 -0.360853346891263
-0.260536552984092 -0.041623111629676 -0.567452037035307
-0.267780695537728 -0.026726704231795 -0.580923344714871
-0.597768922603266 -0.023042441647515 -0.235053987581381
-0.627682950327141 0.003165833348218 -0.228065641234112
-0.191326551698535 -0.036496830435555 -0.569488138174915
-0.594353550713744 -0.022628562925408 -0.159666433094277
-0.623453013819212 0.008066525217796 -0.169407098787745
-0.019989960046729 -0.035690282385815 -0.586673931887547
-0.047014188437528 -0.038368817128495 -0.578110360553371
-0.576924872249764 -0.030274435954170 -0.001689687780795
-0.605297844250541 -0.020983759981308 -0.017363072503863
-0.623501872657362 0.003660594474790 -0.021953444691447
0.344057314657345 -0.027700704608038 0.812924455172222
0.340323179330902 -0.033068605246374 0.806833832486376
-0.152141601232651 0.024628125375771 0.284786352640722
0.679555499859683 0.022822417908611 0.395080319687545
0.362260187751691 -0.032513146577139 0.797970442458861
-0.135554439963111 0.028204107337921 0.264874984444389
0.681618677727729 0.022938370579954 0.409363703481083
0.375554765825954 -0.031500296825537 0.796777665387936
0.346494023638557 -0.030870046596872 0.789053840593812
-0.142825296693894 0.019939101794790 0.292863177683748
0.374425723828630 -0.030359449799657 0.774575774835095
0.397018339662513 -0.031654757547707 0.764663826276505
0.377151709859304 -0.027353514048182 0.766923779087248
0.671772342502641 -0.010902010856558 0.435919902721282
-0.191395671678442 0.010970306873385 0.252724110058807
0.393047351522189 -0.032298609232659 0.718743007547114
0.397972743116172 -0.031931836793763 0.736434234139163
0.394497684724574 -0.030925410574462 0.695081030718728
0.077500336002470 -0.033233679516256 0.549015060976269
0.496717908294830 -0.026893399514922 0.440994016422714
-0.133328547196648 -0.042278027290088 0.424953342980052
0.143519611466604 0.076101907806074 -0.501110502775650
0.289629111644554 -0.011870200604963 0.678307999148064
0.696651503190259 -0.025985598286660 0.368971936314333
-0.144298258056569 -0.017915936079084 0.150539145443896
0.189182667611422 -0.022360553377478 -0.143548685475134
0.692897762506354 -0.029053303908012 0.321778186766482
0.289856289338502 -0.035100621789286 0.052341326078031
0.252285161981368 -0.043115033264561 0.099683143662291
0.246366770030272 -0.010231634924484 0.119973507853786
0.566483045202090 0.066787850781272 0.486031139692977
0.178271209306867 -0.031458565590837 0.058807519665545
0.389481497978637 0.051153638574311 0.319749980210684
0.689031904580888 -0.025742554000017 0.014837860191694
0.722089272612834 -0.024155203543577 0.018791918815620
0.229495439316677 -0.032779156705257 0.007505852815259
0.660914930447291 -0.028858602331057 -0.072187194651634
-0.249164679642049 0.236732524539330 0.496733770537519
-0.627316289455336 -0.045942578776054 -0.053067959516672
-0.637086768515329 -0.023849967610538 -0.053919128755918
0.067749575009901 0.040573155214878 0.566169788492726
-0.344215001121518 0.004092883397683 0.148335679561589
0.104757846795436 0.076635713564849 0.605504449099462
-0.531466412764187 -0.036358982085020 -0.099577446356737
-0.469616861437778 -0.040434441199831 -0.104780437052635
-0.550125701599673 -0.035696267840784 -0.137064677728928
-0.664915942686044 -0.044215606745336 -0.165025290028447
-0.646238798511933 -0.043740944670293 -0.171735170157176
-0.626114763461517 -0.012914771615845 -0.158600589455029
-0.604414349076441 0.003411418051619 -0.168180753246905
0.221130363285424 -0.007573213200754 -0.124645719886076
-0.237060733707462 -0.032776493938203 0.134488063140212
0.119000569056946 -0.036216775550584 -0.240024380299907
0.084707624154687 -0.017950791143365 -0.249979823771763
-0.119040233563453 -0.021024016053697 0.144249808055913
0.025083249947284 -0.033227460954433 -0.248054772408132
-0.553243197085681 -0.038407339519530 -0.253865033255729
0.299083180738191 0.010949823745879 -0.444343930693459
0.017041791708042 0.005310151214343 0.631255428986755
0.049087703696914 0.029080924912788 0.627045346154167
0.193039741567024 -0.032700184176148 -0.283340498759280
0.379589292584865 0.027226724872660 0.284784991597904
0.379545233065295 0.026349474168113 0.744989123728747
0.067919368240107 -0.028427210010017 -0.369691198986454
0.633113182717331 0.065254414728616 0.563223560315914
-0.610632872012255 -0.037373039324227 -0.537252296686534
-0.565885051339094 -0.023336792349556 -0.563622652947759
-0.335644216217167 0.034816054015868 0.584102980359950
0.226709106242657 0.079855049424863 -0.397768716996136
0.584192359887880 0.041982065558274 0.318808449184410
0.244586396380872 0.048692637830615 -0.393613251323962
0.127661140290753 -0.032266055973028 -0.601043647086975
0.630388430229715 -0.003346815511566 0.328150293140227
-0.371406793174447 -0.037891190910419 -0.593867067187917
-0.643682913318245 -0.030529870211437 -0.335967301287735
-0.052541045587146 -0.029666442957666 0.629598219360752
-0.002383416107674 -0.031974949686049 0.609200898278713
0.344587640933796 -0.027487907917345 0.288606144804647
0.039033976795595 -0.031284249479494 0.586661736495412
-0.313840790363898 -0.035778169257940 0.536483696419468
0.096631008805040 0.061982670083168 -0.336353516223474
0.662329607573389 -0.021487743902943 0.463744946815223
0.239600757633863 0.009391856491564 -0.535698029321099
0.223367971517387 0.001236626258378 -0.561331499587580
0.209786173665095 0.051819023837012 -0.587289324370621
0.225691285709681 0.073642895064448 -0.594788385345356
-0.056718035361778 -0.027917001562394 0.486165372370688
-0.355469733586919 -0.026995356429438 -0.237746176081283
-0.352061361611094 0.004076581206062 0.423771512356344
0.673997396161926 -0.001812975223936 0.359503852269220
0.703033157471281 -0.016369833786006 0.354249433681780
0.401622712032234 -0.011050439763424 0.699491034572512
-0.361650475640637 0.094338850783624 0.436914981518041
0.512260542440580 -0.020222282466690 0.361352048337513
0.562616016742239 0.087566867238179 0.575384951722728
0.651389740291802 0.086688493436294 0.494372873665184
-0.338039367126774 -0.033228368848413 0.371272126905501
0.709865044171215 -0.007337231407992 0.301309076213778
0.323107591950990 -0.019295050163589 0.689960620748243
-0.594705137619771 0.004476157865692 -0.034272284258809
0.030070363402768 0.015800107044563 0.542677801911314
0.053329476482610 0.026868714624212 0.556187834073604
-0.293986880565733 -0.047644411018855 0.309463189312241
0.381533958870387 -0.023700309552651 -0.410691592512575
0.337753656321220 -0.028063845623403 0.273620267264455
-0.273271206192327 -0.033633432080427 0.287033118668077
-0.090456419954190 -0.027410490815680 0.123490271000305
-0.255809716514880 -0.034172232794773 0.292236131521267
-0.100739762412509 -0.021517667335419 0.093152917386430
0.661116740548557 0.118300347308283 0.425408995747725
-0.277721775005595 -0.034495322747999 0.253571143546644
-0.121401282123104 0.009789764812863 0.665119374063963
0.305555508364850 -0.027651764202006 0.142379691589361
0.218474412753517 -0.025346156832616 0.091030083904825
0.238508062194579 -0.009185587867382 0.106718547737232
0.267436151941428 -0.024720073977875 0.078233387674499
-0.067982375388208 -0.030360245729297 0.074500629677361
0.556619093281511 0.059766456752999 0.576423450667098
0.262328424335445 -0.024319734306334 0.060176395732394
-0.072364111566852 0.026732341506806 0.475366900887963
0.684607265692790 -0.019689300087804 -0.073430199179931
-0.413755144401353 -0.030910525896477 -0.095027138530036
-0.702537273369924 -0.034156408854676 -0.124357138547280
0.194345063699710 -0.026636767683325 -0.186053366109476
-0.200249599838192 0.202060253816611 0.401498958199101
-0.376263409265786 -0.033194924145094 -0.221729416856194
-0.227841329248151 -0.032773741265950 -0.376799694093230
0.709126847869241 -0.016114461000138 0.035170990130111
-0.359194206129306 0.034892830193766 0.402821052834864
-0.207960999744836 0.104013161985228 0.652404722848815
0.655376985749616 0.007686682678529 0.523832236719392
0.089885677672917 -0.027141324918206 -0.278661982123253
0.115225486480546 -0.020767656487555 -0.269907301657514
0.145163225811496 0.015771252893492 -0.562348307329588
0.146935426779148 0.020235119996589 -0.583719942077351
0.507416930348119 -0.021882049200316 -0.288421980339424
-0.404877264501361 0.003885513073249 -0.003058589484662
0.199956882122845 -0.018604728094666 -0.252412081553006
-0.241351437912830 -0.016113360666694 0.216374131882900
0.073441968418746 -0.024002877459417 -0.306630665752688
0.111881533761766 0.079585432005540 -0.355565209110259
0.190792688489190 -0.014574724377138 -0.362515122044610
-0.150620011542423 -0.006776023901388 0.659034936057186
0.335465519325263 -0.028117368274871 -0.411624370426162
0.237520136036626 0.007746392048532 -0.366694567326388
-0.368087461447624 -0.036135309177987 -0.427077023315507
0.056505131254995 -0.026860759092567 -0.463202516962234
-0.391889557815264 -0.025502363228228 0.000782891470145
0.140051697459310 -0.029819712755836 -0.602360698047496
0.106969032291668 0.015172877271040 -0.340320312951376
-0.329989689412467 0.003526137035694 0.136102797682392
0.322672059141662 -0.004318156959779 0.784841067176490
-0.153361475101189 0.004219347063472 0.294841552611191
0.374824761674421 -0.009979265838981 0.710133269878759
-0.238237147208169 -0.023788721939415 0.630758842745075
0.216807695491131 0.015187238699439 -0.570048213242109
0.565495975282951 0.033855501476996 0.322359455606631
-0.280349548867068 -0.029410575127251 0.593320881487062
0.092812393257150 -0.009345420598848 0.568200667699872
-0.182491913693027 0.049219617958482 0.260459064751513
0.060841008416121 0.057251957049049 -0.355799298339010
0.097677543572901 0.030545333523987 0.606350271050493
0.557829350825837 0.025235435260138 0.569480366256479
0.168675004301291 0.024732709023382 -0.448913589176681
0.108812494483515 0.080399771177018 -0.415780302466118
0.623918385880876 -0.014143574738632 0.530682507425645
0.081942694368652 -0.018021528222544 0.532752425397659
-0.349967761238044 0.077081466422196 0.564313626785543
-0.344867225807700 -0.009209182118923 0.472612301465379
0.461318572189221 -0.013642886553192 -0.365056960395759
0.576755646356142 0.055099673059500 0.453392050606344
0.486603977264387 0.049896800888913 0.377777695295412
0.264616090899821 0.026441747483336 -0.464789007932175
0.472097169867008 -0.024107301482005 0.429476492735478
-0.266918148993324 0.133650905645730 0.345361909307019
0.133767648649417 -0.008409799273564 -0.608561527944182
0.129760883766399 0.011627418864740 -0.591884068989817
0.623585623974736 0.033486640777534 0.314171143762912
0.216399673498921 0.078072694994884 -0.441094251891834
0.133916390125445 0.064633096513470 -0.539146664043906
0.497535855838176 0.071336632125263 0.496066466903297
0.593740822152844 0.074794305610156 0.570998487200041
0.491556367013499 -0.019447022484130 0.414162325350789
0.579928560420368 -0.006033918250878 0.332774819705418
-0.354303098992968 0.038072317236910 0.346115321800997
-0.345049333705824 -0.015578422561909 0.416106136169622
0.393699283435618 -0.018318877455745 -0.367194399130467
0.583219837444584 0.057984173990395 0.390838515534376
-0.180798752809466 -0.011002434453540 0.400788728385744
0.694438763134604 -0.002738219315753 0.347128597318410
0.377564203807401 -0.005240126882168 0.675507782287825
0.383548353951823 -0.002914526367485 0.349016604082062
0.540237868160916 -0.006053422716269 0.547159613305757
0.372066422536020 -0.014351196796733 0.361231130536185
0.470220828181417 0.087486260042603 0.512620711022041
0.094626205050514 0.068701846669200 -0.494556084159001
0.115060734965941 0.071912836020917 -0.510366759852412
-0.347350945662091 0.159286769186870 0.510729356757955
0.117266321517815 0.051142509532816 -0.608731603058932
-0.335263685057522 0.072238899826342 0.596425779047203
-0.345219270214618 -0.017512187316983 0.347705154526745
0.243714042768050 0.036367133633334 -0.404903563661230
0.580959188321657 0.049315305688484 0.325711984512134
0.494670679802929 0.056459775999628 0.411301554122572
0.474949153281131 0.076660310711501 0.500866319857365
0.385662819572890 -0.017145196298485 0.333186657099811
0.472237501243359 -0.005654161819113 0.412217039383518
0.675838692304042 -0.008939700930219 0.330675071306931
0.347621839666004 -0.019749484671323 0.315656483316204
0.404729077719954 -0.011916798315489 0.411511941939258
0.439603728130778 -0.004356479909664 0.383148137852635
-0.244949797010447 -0.030657361226595 0.318806686737535
0.404554545024745 0.036297163154976 0.327409460956611
0.053925561223916 0.050838024058072 -0.417159864962435
-0.307502245162521 -0.016015577621108 0.297093119025878
0.352519398917044 -0.018786507364857 0.261371485010204
0.638946524234835 0.113848550028589 0.353481113464303
-0.195467205733235 0.082732463413861 0.401399963505602
0.389151796347425 -0.018488617478645 0.305320071071167
0.466816121874164 -0.002594338068607 0.392459522917293
0.257342465834645 0.009945281096235 -0.425194513493545
0.115041916602185 0.000312988425250 -0.568620235196341
0.077623962512460 0.045707552909488 -0.544021171143206
0.561330130834728 0.069707613506127 0.380253979895508
0.284466222334762 -0.024644366065614 -0.442654697642345
-0.246498565687894 -0.019688187700929 0.236302264360144
-0.512402284176740 -0.004425429157582 -0.291124096987297
-0.285759238383734 -0.025262330057491 0.278457412908000
-0.065074727000018 -0.018718833617638 0.058843364034494
0.686707753245066 0.103212551769004 0.403545398002955
-0.466673587970336 -0.008408061757995 -0.281570277700759
-0.253795125212683 -0.025652258871463 0.277709143651675
0.323938138890657 -0.016695327774019 0.234740678296261
-0.363270778849804 -0.026617361296533 -0.424321112307584
0.345697118616560 -0.019914155925797 0.237594956253408
0.725350324186755 -0.013559814771658 0.232035813665468
0.261134067304067 -0.013501811968804 0.720365291101886
-0.176292002692015 -0.009241256430245 0.224940260540484
0.217518056283880 -0.016787699714081 -0.195519582532255
0.085465420522543 0.071629331340892 0.576860784439039
-0.137375964747802 -0.014909411674238 0.237734937660834
0.230952836661358 -0.023163741595795 -0.133980143297776
0.721317275095634 -0.010860257887860 0.208288065316847
-0.063757032892056 0.094486833155534 0.487135130009147
0.715490208155180 -0.011150848721030 0.187494279997622
-0.704122388373029 -0.021979125767494 -0.185609036593487
0.051162973673499 -0.006713180602098 0.527299171313672
-0.316046940925844 -0.026510427340396 0.195721673735357
0.175120215301810 -0.009461720356787 -0.313080010647547
0.496021889152537 0.090609290914791 0.346667186647075
-0.052207538634642 0.022645130730428 0.477187564474555
0.300402898508993 -0.016190622745490 0.172502391525412
-0.241369144438406 -0.027684552694684 0.192950885416501
0.345957862592639 0.021260377327462 0.258652801613639
0.137354502295331 -0.007263559708255 -0.296495236597372
0.053352592022595 -0.004914850135224 0.608044974035737
-0.222439559711336 -0.014919168508993 0.186451411229136
0.181663164706507 -0.020386099952545 -0.228516910205417
0.369523881444658 -0.019416201974794 -0.418666179738249
0.713283148513275 -0.012847088882026 0.163853231300226
0.721736488010552 -0.013980605218220 0.130505157073942
0.724580628161241 -0.014505178571428 0.137517037822481
-0.133740940218148 -0.017181940448316 0.162042801146052
-0.147998065970933 -0.030835097916737 0.151459041207035
0.243978268105706 0.048579431808954 -0.371566137607050
0.212882540410837 0.078999252302990 -0.380185899629956
-0.203911541550530 -0.027848802077364 0.136712722291203
0.717186649976761 -0.016380764414698 0.044507713984064
0.186570299558558 -0.023371352139186 0.069660984536171
0.257200099095749 -0.017905871309907 0.077107599966606
-0.167053692806031 0.057633192350973 0.576254222101238
0.221943886603019 -0.030040998475607 0.074946808126746
0.269726718888416 -0.010988815524355 0.050734653472663
-0.069198274602697 -0.004388588010294 0.477323367266744
0.151248545145708 0.012123330000045 -0.607128035799387
0.459922112362630 0.079768774168393 0.409749091491716
-0.405886309734690 -0.029149635840048 -0.026920729917665
0.206388283524521 -0.022442630060345 -0.081962648844947
-0.429463963387563 -0.027321421420785 -0.065301650361913
0.332016845941072 0.021435487872642 0.223398279479025
0.022933361546426 -0.025900314065328 -0.114290694332399
-0.291510354106147 -0.014224564068389 0.198936881791637
0.015553790132072 -0.017792870342345 -0.117788638016822
0.312052538004192 -0.012022718282275 -0.423733748316786
0.206253031248891 -0.023466952330919 -0.129981988953352
-0.121418393437762 -0.007752318203184 0.208846596033497
0.245534448936971 -0.018331821120147 -0.120937909275682
0.207985938778567 -0.010333721083146 -0.141563437658097
0.045479188161748 -0.012613592881487 -0.174276414968885
0.613903624862651 -0.018308510574798 -0.192108830979048
0.197676235360169 -0.013211963034559 -0.188605248996070
-0.172009110170539 -0.017326916759032 0.214263023048124
-0.047059411353346 0.074291377291596 0.513100053674302
0.582267669641648 -0.017416760930482 -0.231863901054931
0.135602597842175 0.073398758784882 -0.414006216101235
0.067247435623606 -0.016885907443656 -0.221355189854968
0.123812845429201 0.081859020890370 -0.383458701650423
0.213656292323144 -0.018669204001235 -0.217971328312655
0.682195184082850 0.014972684301713 0.424507996531190
-0.709955698153398 -0.033055742907428 -0.200987845969965
-0.115236680441406 -0.013517026790087 0.194179577178468
0.075650499372828 0.050864773645434 0.621144967616144
-0.708153782689481 -0.025739167926602 -0.232789785584145
-0.410812820284213 -0.023456281835942 -0.274519646102159
-0.308533067243285 -0.026559710833248 -0.390301642084332
0.069274624017670 -0.019800448393983 -0.327588206404304
0.427501149578770 -0.008622221840043 -0.385160884294700
-0.712961790574457 -0.030421827404700 -0.342010015170097
0.316091597103144 -0.009878577253644 -0.407250397859304
0.242624627840348 0.031289418791343 -0.363423397087333
-0.356297534944932 -0.028896870539072 -0.397659372973811
0.345057725674281 0.037116779135017 0.235059216969872
-0.542909054797386 -0.019413376775986 -0.402148529287179
-0.046154060387915 -0.024312340432798 0.491935377116220
-0.108437323016057 0.075477225727813 0.462362510031941
0.284795572108901 0.031825714721998 0.178642151225730
0.278084446311888 0.028077912634990 0.196000607005139
0.455202600714858 -0.013924774632938 0.394880548347942
-0.466339129116360 -0.021956455159395 -0.413031146724491
0.068521714135373 -0.020102836334185 -0.453841096446738
0.219575236655996 -0.021064084891175 -0.559064257217835
0.240761557382686 -0.012594883092259 -0.527373064986262
0.206318341581054 0.055381176651513 -0.607411556761507
-0.356741049604997 0.068880543230548 0.515724491477141
-0.343983094419134 -0.016874098388401 0.424885017141480
0.410179217704771 -0.011111824386773 -0.358448004680422
0.588855592177688 0.046870811728972 0.416540103151132
0.332756394104548 -0.015914613845012 0.813285521343730
0.275999433601423 -0.013983089273954 0.784531247580437
0.275320866893357 0.014446020710542 0.784300655445774
-0.378676292109326 -0.001636324855440 0.083363414651234
0.381989619749898 -0.008400031369663 0.733052065097924
0.259290123460940 0.012692229602352 0.742398608629123
0.289422488241716 -0.024056829396828 0.739859099299719
0.064672089118073 -0.019029708818448 -0.419174832425091
0.381631106076140 -0.022327681523546 0.727019077705197
0.367072687246341 -0.007398454357440 0.701288539071077
-0.144791908149928 0.161076021335803 0.575310992394000
0.313142325902808 -0.018366935149473 0.666601240553689
0.693912255475583 -0.007380298864421 0.283661954509519
0.094583834700871 -0.005049872566919 0.549028570830883
0.105013165664208 0.059775377524487 -0.330978660356959
0.671186819017047 -0.004073923024082 0.475681216582492
-0.158920734853774 0.053286024203078 0.300055353311994
0.434261817015269 -0.001367919571879 0.438260570731161
0.460812837409866 -0.015868802365935 0.401956029564897
0.140258216605996 0.008772128208600 -0.534090642542055
0.151998566338668 0.068017499526602 -0.597628282531918
0.341242835294043 0.007225003173315 0.812051649172145
-0.157669797695152 -0.010302483874773 0.276056622200846
0.165559094350241 0.069451808834520 -0.335045688919123
0.684932781183259 0.104976481435228 0.507256740103417
0.688349564105829 -0.019200216565974 0.375757800922136
0.667678107689935 -0.011634488188778 0.347921289968841
0.706679236579619 -0.007397365208036 0.253013288339745
-0.332584790524089 -0.023328050472572 0.274408867469540
0.676225987083626 0.103176074981227 0.430032821432211
-0.296452850731383 -0.026682301604616 0.252245898558432
-0.124414616861672 0.024431453307968 0.668056376045335
0.728467803514178 -0.014147916477805 0.191200547780193
0.099562803678445 0.019702677975469 0.557516233994290
0.026297169690995 0.029331489544554 0.632437274749453
-0.281213890250311 -0.020096361384029 0.219332454678414
0.315054209986120 -0.019526764013492 -0.411900449696566
-0.094316727517865 -0.019327003263215 0.183575439955930
-0.153793116105000 -0.018279417928367 0.164556218600448
0.275569948165576 0.074587858921613 -0.382323977567159
-0.382245586412858 -0.025863840179582 0.038722277579682
0.196350220344399 -0.015222371628425 -0.209609482623025
0.316632816381286 -0.020471857184201 0.151652235765776
0.287323378973439 -0.015213638329735 0.137859984488713
-0.192607520526034 0.044831409276939 0.669360778050337
-0.095118337807749 -0.013892020345121 0.139407090223953
0.157941507361607 0.056050770679670 -0.353516053476181
0.309442759238670 -0.020356003894652 0.129976880493636
-0.241835913655365 0.227646507702458 0.442475063661508
-0.256343513131006 0.223698220176292 0.429943576608332
0.194444379899653 0.074194327832513 -0.346741053725613
0.157244769789678 0.072518686603391 -0.380611892832707
-0.031806170377384 0.115542844154560 0.561603028116929
-0.332238508220224 -0.018264978047878 0.124278107516790
0.265889300013104 -0.012237106080459 0.070831242194720
-0.356972089771403 -0.024497097809430 0.087779928599450
0.072214173150197 -0.019769509397165 -0.348265206756269
-0.176981527531925 -0.013073836017683 0.247240043509426
0.089848782730153 0.048523072587682 0.567425718517855
-0.179479778874985 0.220851714159521 0.503554446893316
-0.370063274897982 -0.018557472916840 0.094756841330682
0.068671871732209 -0.009641080090010 -0.383114323743506
-0.057978075839677 -0.019186363409363 0.064507674958254
0.284970606687396 -0.015201070665536 0.061013413440602
-0.383745214317221 -0.022499860957827 0.059962290646908
0.376184570321031 0.013861754645410 0.758776794052296
-0.038174732297344 -0.023806260396699 0.053582857144007
-0.349396931414485 -0.000631688915064 0.451588289040256
-0.339029375670177 0.130533943315913 0.573645339926430
-0.559876611627104 -0.027550555694637 -0.440879845976151
0.257252777199929 -0.010637860997056 0.153541959988901
-0.416009953159402 -0.020911507211279 -0.006869257666292
