# This PCD file was generated using the MATLAB® pcwrite function
# from Computer Vision Toolbox®.
# .PCD v.7 - Point Cloud Data file format
VERSION .7
FIELDS x y z
SIZE 4 4 4
TYPE F F F
COUNT 1 1 1
WIDTH 1442
HEIGHT 1
VIEWPOINT 0 0 0 1 0 0 0
POINTS 1442
DATA ascii
-29.429411 -42.294113 -56.134636
-22.761133 -42.395584 -55.894447
-18.860231 -41.364716 -55.889729
-10.919523 -41.991474 -55.913658
-94.169350 -42.746773 -56.394958
-40.815948 -41.657017 -57.107952
-38.532360 -41.541096 -56.630962
-32.794514 -41.445671 -56.408699
-31.647072 -41.691818 -56.166977
-30.275475 -41.799992 -56.585213
-28.745657 -41.852921 -56.725220
-27.044704 -41.761326 -57.017128
-25.535295 -41.162960 -56.492920
-23.762321 -41.759659 -56.149124
-11.141358 -42.165535 -56.401424
-11.342843 -41.643204 -56.476933
-94.435005 -42.331928 -57.002056
-26.186531 -41.955276 -56.583916
-10.568980 -42.323254 -57.245541
-95.065117 -42.640354 -57.904991
-94.867546 -42.588161 -58.000111
-10.338279 -42.314220 -58.094135
-95.808273 -42.217072 -58.473785
-10.491858 -42.284996 -58.189636
-11.191069 -41.922043 -58.804047
-96.166214 -42.441368 -58.493504
-13.589337 -41.790371 -59.203781
-12.138359 -42.229958 -59.087078
-12.785026 -42.278522 -58.691395
-95.828194 -41.669197 -59.171658
-14.457991 -41.603664 -59.352562
-13.331320 -42.278904 -59.199802
-13.652345 -42.020439 -59.577419
-96.765236 -42.673512 -59.132248
-14.953840 -42.385754 -59.786442
-96.567802 -42.367695 -60.422569
-17.025108 -42.473434 -60.630165
-16.443398 -42.495384 -59.985622
-16.351728 -42.054253 -60.322395
-97.025391 -42.575462 -60.142776
-17.701382 -42.390217 -60.736164
-31.497217 -41.620613 -61.096359
-22.028706 -42.380882 -61.333729
-21.459497 -42.266708 -61.105461
-20.033377 -42.017467 -61.283012
-97.661430 -42.260208 -61.628620
-97.208107 -42.387287 -61.126568
-33.015640 -41.820271 -61.096489
-32.124882 -42.000923 -61.632061
-29.609903 -41.929516 -61.158920
-28.291334 -42.189877 -61.431087
-27.586443 -41.654594 -61.199806
-27.376657 -42.122524 -61.729027
-25.673010 -42.458927 -61.641884
-24.873543 -42.274597 -61.406273
-23.879101 -42.242676 -61.690399
-22.547371 -42.340179 -61.048599
-98.096504 -42.536591 -62.125946
-34.723763 -41.756001 -62.032520
-97.814789 -42.546692 -62.291340
-35.290398 -42.315491 -63.119247
-97.968269 -42.774742 -62.822674
-35.257240 -42.390900 -62.870312
-98.175316 -42.341675 -63.727005
-35.826828 -42.306412 -63.175545
-36.350681 -42.281914 -63.774906
-98.234695 -42.178825 -64.040482
-36.409313 -42.264545 -64.364601
-98.543137 -42.506184 -64.170944
-36.428444 -42.338703 -64.380333
-98.890953 -42.119194 -64.985130
-37.411438 -42.606037 -65.073532
95.654526 -42.543674 -65.355728
96.193336 -42.436737 -65.117767
97.106972 -42.519142 -65.061821
-37.519192 -42.513683 -65.568855
96.111107 -42.199448 -65.785576
97.573265 -42.399628 -65.463966
-98.858894 -42.303524 -65.565872
-37.828148 -42.388477 -66.190147
96.035583 -42.471016 -65.944176
97.763763 -42.136852 -65.933090
-37.976303 -42.597305 -66.898308
95.416245 -42.300755 -66.509056
96.133171 -42.606171 -66.614723
-38.357525 -42.101269 -67.274002
95.163040 -42.472919 -66.787224
97.200089 -42.554592 -66.772751
98.563011 -42.643528 -66.943916
96.091293 -42.566906 -66.895264
98.158783 -41.861607 -67.144783
-99.721085 -42.333107 -67.705170
-38.609406 -42.702595 -67.774261
95.325836 -42.575569 -67.640503
97.598610 -42.281174 -67.502205
99.036926 -42.335854 -67.526154
-99.407005 -42.276855 -68.199539
-38.286655 -42.459282 -68.035316
94.806343 -42.213856 -68.180061
95.856567 -41.912880 -68.130089
97.105232 -42.147755 -68.398010
97.919289 -41.977089 -68.093155
99.293839 -42.476940 -67.821533
97.146240 -42.238804 -68.740143
98.488388 -42.650753 -68.670609
99.370354 -42.325260 -68.605034
100.288864 -42.289787 -68.779068
-99.074013 -42.451569 -68.614952
-39.124672 -42.137962 -69.512726
96.283752 -42.109604 -68.326340
97.581131 -42.293930 -69.191116
-99.542671 -42.309380 -69.548058
95.508995 -42.615250 -69.517975
97.870705 -42.384087 -69.613487
99.417259 -42.230537 -69.238007
99.965218 -41.720818 -69.181404
-39.531612 -42.503010 -69.837799
96.718475 -42.407852 -69.738159
98.309174 -42.314869 -69.838890
99.275940 -41.950405 -69.526184
-99.539909 -42.016121 -69.780319
96.115402 -42.599098 -70.018456
98.939568 -42.522221 -70.476692
100.063683 -42.336147 -69.521736
-99.577583 -41.849812 -70.379692
-39.178604 -42.475452 -69.759216
96.966484 -42.273464 -70.552452
98.259293 -41.766502 -69.801270
100.434708 -42.184879 -70.588165
-40.030590 -42.257442 -70.980011
96.228386 -42.818283 -70.808395
98.149239 -41.837219 -70.938103
99.324387 -42.304493 -71.153069
-99.499825 -41.569759 -71.365303
98.172150 -42.068249 -71.375519
99.884712 -42.598888 -70.655090
-40.139931 -43.286102 -71.478493
96.242264 -42.510071 -71.646866
97.991310 -42.659992 -71.558167
99.151161 -42.566380 -71.558418
100.749664 -42.352318 -71.734940
101.151001 -42.257439 -71.667648
-99.981171 -42.486076 -71.358292
-40.497822 -42.347271 -72.572021
99.506935 -41.870605 -72.042221
99.911514 -41.912811 -72.217590
-54.527901 -41.732769 -73.018806
-40.337566 -42.691929 -72.182449
96.193665 -42.031372 -72.559822
97.399506 -41.826809 -72.464249
100.654793 -42.763477 -72.212036
100.518547 -42.635181 -73.036301
-100.651199 -42.308743 -73.134422
-55.593315 -41.565659 -73.112595
-40.700745 -42.570042 -73.004227
96.308342 -42.299129 -73.431458
95.936859 -42.943867 -72.834145
97.173035 -42.043110 -73.314491
99.145309 -42.583172 -72.782516
-53.898842 -41.910774 -73.651176
-40.742138 -42.196770 -73.204987
97.532043 -42.623608 -74.184540
99.394188 -42.247860 -73.244843
101.332214 -42.459675 -73.162125
-55.442898 -41.924923 -73.871880
-54.630146 -42.007774 -74.137695
-42.054588 -42.052883 -74.131584
98.673218 -42.340317 -74.004562
100.030907 -42.095856 -73.881889
-43.217018 -41.631313 -74.065056
-41.233063 -42.637100 -74.338692
97.007027 -42.490612 -74.571304
99.876076 -42.231922 -74.006485
100.792778 -42.277382 -74.132431
-100.163940 -42.711685 -74.171120
-55.086849 -41.865791 -73.798256
-54.067745 -41.796101 -74.748833
-53.497601 -42.046871 -74.340492
-43.036709 -41.730183 -74.385773
-41.668579 -42.400291 -75.122536
96.346535 -42.398090 -74.645256
98.267532 -42.080990 -74.409073
101.021469 -42.220005 -74.737457
-54.349842 -42.494484 -75.002495
-55.462749 -42.079853 -75.137360
-52.461014 -42.274574 -74.787788
-43.707451 -41.806755 -74.603088
-42.143322 -42.797600 -75.646919
-42.469532 -42.593025 -74.487915
98.563530 -42.706825 -74.412552
100.370003 -42.072945 -74.875168
-99.854897 -43.402786 -74.641823
-55.620094 -42.581966 -75.278358
-52.344898 -41.965038 -75.477005
-44.845798 -41.626282 -75.159843
-43.869766 -42.174305 -75.143364
97.652939 -42.229397 -75.755806
101.590668 -42.544556 -75.942734
-56.229797 -41.951248 -75.997375
-53.506321 -42.708878 -75.784607
-52.941692 -42.306164 -76.201210
-51.347450 -42.242783 -75.687286
-49.996799 -41.308769 -75.873024
-43.983082 -42.795258 -75.959015
98.147041 -42.183697 -75.948738
99.934647 -41.924652 -75.410194
-49.546040 -41.401867 -76.147957
-46.074051 -41.703945 -76.074844
99.726288 -41.720345 -75.712593
101.046791 -42.078293 -76.297531
-100.349838 -42.889816 -76.759865
-56.089405 -42.078461 -76.219185
-52.886742 -42.243160 -75.983383
-51.315067 -42.136566 -75.890991
-50.382553 -42.576046 -76.875381
-48.486027 -41.579620 -76.276886
-46.321331 -41.390121 -76.801750
-45.952740 -42.331924 -76.485397
98.343369 -42.494858 -76.715508
99.397598 -42.194981 -76.621628
-100.065796 -42.214081 -76.984070
-49.460091 -41.795830 -77.170685
-48.071102 -41.899509 -77.304840
97.470802 -42.438480 -77.000908
99.068741 -42.642010 -77.129135
101.793152 -42.289497 -76.839378
101.443901 -42.203114 -76.507576
-56.729015 -42.024704 -77.480484
-57.103096 -41.046219 -76.807571
-49.607727 -42.149796 -77.278656
-48.590202 -42.058102 -77.210144
-47.511051 -41.877819 -77.834793
100.380615 -42.553120 -77.430016
100.926086 -42.548264 -77.492195
-99.902122 -42.323521 -77.784309
-49.600266 -42.385532 -77.789246
-48.474556 -41.876118 -78.124100
98.852806 -42.594185 -78.076218
-100.414703 -42.131180 -78.097527
-57.565617 -41.851597 -77.860268
98.318512 -42.860771 -78.248764
100.462914 -42.300896 -78.000603
101.475822 -42.573574 -78.367126
100.986145 -42.319023 -77.862076
-100.064003 -42.060364 -78.258102
-57.111572 -42.642128 -78.052521
98.772873 -42.107243 -78.225784
99.978088 -42.727005 -78.636314
-57.346275 -42.412331 -78.789673
98.173233 -42.265469 -79.347221
-100.327415 -42.855465 -79.311356
-99.848297 -41.594742 -79.167625
99.506210 -42.451603 -79.282310
99.989670 -42.484306 -78.974731
101.474136 -42.310925 -78.727791
-99.758759 -42.490368 -80.337540
-99.904510 -41.829220 -80.001106
100.234154 -42.348270 -79.818848
-57.173466 -42.302479 -79.540459
99.718925 -42.824123 -80.970238
102.032791 -42.492188 -79.990593
-100.637344 -41.830097 -80.753258
101.653786 -42.413342 -80.415283
101.208366 -42.110691 -79.803032
-57.351978 -42.313877 -80.523926
99.939049 -42.429955 -81.079636
101.242683 -42.339352 -80.782738
-57.555172 -42.720455 -81.297668
101.024750 -42.245899 -81.845451
-100.045326 -41.344021 -81.815369
-99.938644 -42.586006 -82.762787
-57.841587 -42.999493 -82.042686
-100.125381 -42.140022 -83.174774
-100.021622 -42.547344 -83.680519
-99.943405 -41.702652 -84.289986
-58.153133 -42.550777 -83.797539
-58.514309 -41.283859 -84.327049
-99.683975 -42.057861 -85.239250
-58.318993 -42.471478 -86.035255
-100.228584 -42.546059 -85.969971
-58.430248 -42.770771 -86.433563
-58.279205 -42.365852 -86.897728
-58.710068 -43.372002 -87.585762
-99.912140 -42.514576 -87.559593
-59.370850 -42.332626 -87.791504
-100.075935 -42.881245 -88.285019
-59.557251 -43.005428 -89.207558
-59.916935 -42.870556 -89.594086
-99.903496 -41.642338 -90.255020
-60.470318 -42.575100 -90.058174
-61.244884 -41.820374 -90.413399
-61.468590 -42.625011 -90.917839
-61.824562 -42.116795 -91.739418
-61.943737 -41.812805 -91.615257
-100.083580 -42.368393 -91.338181
-62.141571 -42.201370 -92.452133
-99.914551 -42.406082 -92.556061
-63.023788 -42.580612 -92.561531
-63.032303 -42.482204 -92.924080
-99.954857 -42.097160 -93.668663
-63.786015 -42.337948 -93.606689
-99.508995 -42.842930 -93.846039
-64.140076 -42.586708 -94.515289
-64.710274 -42.313965 -94.741547
-99.374504 -42.860909 -94.700050
-99.282410 -41.425606 -94.544312
-64.758667 -41.907993 -94.834908
-99.581764 -42.328945 -95.229790
-65.322929 -42.495483 -95.467339
-99.583313 -42.197231 -95.780098
-99.165901 -42.106544 -95.923752
-66.029800 -42.227581 -95.393448
-98.751320 -42.461624 -96.439384
-66.537514 -42.063259 -96.591438
-66.289330 -41.191990 -97.139862
-99.129341 -42.553951 -97.139351
-68.285133 -42.763580 -97.867966
-98.596466 -42.597290 -98.777863
-69.300751 -43.212799 -98.630653
-69.778244 -42.377750 -99.147598
-98.611000 -42.507206 -99.914627
-69.950363 -42.388695 -99.948959
-69.198662 -41.612991 -99.717545
-98.585861 -42.255798 -100.283920
-98.173019 -42.577530 -100.623055
-71.382355 -42.434284 -100.846153
-72.138283 -42.510509 -101.500977
-72.290451 -42.385086 -101.737755
-73.050812 -42.635242 -102.148323
-74.387688 -42.414673 -103.059288
-98.011566 -41.887535 -102.580078
-75.280846 -41.651726 -103.185005
-97.522331 -42.694458 -104.172409
-76.378296 -42.047424 -103.901726
-76.962425 -42.416592 -104.351692
-97.804382 -42.300266 -104.455482
-78.311562 -42.650070 -104.411385
-78.580696 -42.312912 -105.033005
-97.089890 -42.834568 -105.271866
-80.199806 -42.896267 -105.813614
-96.990791 -42.433735 -105.928947
-80.628471 -42.610455 -105.954849
-96.895256 -42.587902 -106.597260
-81.567131 -41.658749 -106.912338
-96.748314 -42.095360 -108.019249
-82.174431 -42.995132 -107.326736
-82.731392 -42.456791 -107.545334
-96.182014 -41.852657 -107.652603
-83.704361 -42.297340 -107.980743
-83.674393 -42.312534 -108.251793
-96.208588 -42.847092 -108.393768
-95.891945 -42.128643 -108.859268
-84.419540 -42.622719 -108.652985
-95.736931 -42.517673 -110.102943
-84.657333 -42.594040 -109.069405
-95.199013 -42.517845 -109.897804
-95.458153 -42.068001 -110.564178
-86.304703 -42.674290 -110.849556
-95.071838 -42.140987 -111.025764
-86.409576 -42.437218 -111.717102
-94.980003 -42.282364 -111.798584
-87.136658 -42.069916 -111.951553
-94.570572 -42.600292 -112.308670
-94.009712 -42.442673 -112.497185
-87.492615 -42.253933 -112.541267
-87.430481 -42.369835 -112.377831
-93.817650 -42.150314 -112.977783
-87.683487 -42.549541 -112.947525
-93.761726 -42.547775 -113.595276
-93.123985 -42.418652 -113.926918
-93.612289 -41.910530 -112.558243
-88.152130 -42.570709 -113.646088
-88.342285 -41.422810 -113.290062
-92.442421 -41.762859 -113.408272
-92.348534 -42.793236 -113.994354
-91.469803 -41.830456 -114.162804
-88.282524 -42.349453 -113.873627
-89.665627 -42.685116 -114.254097
-91.309494 -42.537659 -114.629120
-90.507423 -42.695538 -115.103783
-90.636360 -41.952747 -114.207710
-76.239830 -41.495441 -47.389454
-72.981941 -41.707245 -47.148331
-72.431396 -41.376896 -47.537884
-70.133820 -41.059772 -47.098194
-77.917778 -41.268723 -47.626865
-72.182625 -41.610107 -47.108067
-70.464287 -40.822628 -47.080479
-68.343346 -41.181282 -47.395180
-67.164932 -41.360893 -47.851913
-79.629906 -41.218735 -47.964409
-79.436806 -40.772442 -47.656376
-78.099785 -40.719845 -48.013096
-68.703468 -40.529591 -47.974396
-68.169029 -40.777512 -47.660011
-81.759308 -41.034809 -48.171291
-80.749062 -41.389168 -48.119240
-78.833603 -40.806145 -48.412804
-66.857140 -41.004341 -48.401524
-66.148682 -41.369350 -47.936779
-64.511261 -41.689026 -48.434555
-83.151718 -41.782928 -48.494610
-65.275116 -40.940022 -48.613663
-63.364471 -41.887974 -48.875538
-83.920967 -41.483082 -48.717781
-63.529942 -41.068710 -48.493114
-63.087044 -41.421249 -49.337486
-62.477882 -41.134174 -49.649208
-63.027756 -40.776184 -48.882481
-85.201157 -41.501801 -49.827042
-61.737411 -41.632195 -49.635941
-63.047054 -40.437607 -49.731018
-61.074883 -41.295765 -49.813057
-85.793007 -41.223145 -50.371540
-60.741852 -40.688396 -49.939770
-60.265942 -41.486782 -50.157673
-59.371868 -41.145126 -50.171989
-58.183853 -41.731861 -50.455952
-57.504181 -41.618271 -50.561966
-87.499214 -41.507317 -50.795898
-58.311626 -40.912628 -50.847694
-56.066456 -41.547131 -50.658623
-56.775436 -41.049660 -50.829254
-88.533997 -41.213608 -51.448982
-89.178154 -41.429436 -51.972496
-56.318554 -40.711605 -51.328724
-54.772163 -41.923573 -51.104206
-55.225002 -41.149197 -51.380211
-55.315956 -40.705486 -51.659576
-53.783665 -41.104401 -51.711010
-54.502872 -41.153217 -51.978443
-89.165520 -41.693577 -51.941479
-53.012882 -40.853470 -52.433876
-51.724030 -41.738251 -52.473579
-52.623104 -41.119713 -51.883148
-90.239395 -42.263184 -52.283867
-53.561821 -40.656971 -52.554882
-52.403740 -41.113453 -52.624996
-51.474453 -41.158722 -52.687317
-50.572308 -41.042809 -52.633781
-51.882568 -40.611740 -52.994652
-50.964962 -40.407288 -53.079021
-48.620140 -41.675892 -52.788960
-49.565571 -41.212421 -52.819683
-90.856071 -41.006634 -53.650055
-90.443878 -40.472523 -53.474560
-48.736877 -40.869801 -53.510506
-47.878948 -41.062809 -54.014122
-48.845730 -40.321941 -53.518105
-48.113468 -40.946926 -53.651794
-46.964649 -41.240318 -53.254601
-92.098618 -41.774231 -54.627846
-46.668888 -40.622292 -54.210243
-92.240784 -41.500797 -54.553829
-44.732948 -41.278824 -54.689800
-46.163998 -41.083717 -54.594425
-92.621765 -40.743790 -55.205475
-46.092632 -40.997517 -54.665131
-44.033501 -41.644085 -55.081181
-45.013382 -40.598843 -54.290928
-43.542488 -41.553604 -55.182491
-93.435753 -41.645050 -55.404179
-93.571480 -41.215183 -55.380836
-44.991726 -40.643505 -55.055664
-18.026340 -42.078365 -55.568451
-16.987125 -41.551613 -55.756992
-16.004183 -41.751717 -55.932175
-14.018823 -41.156788 -56.111839
-93.807266 -41.276398 -55.983585
-42.613010 -41.140175 -55.964024
-23.183823 -41.161243 -56.624176
-21.044056 -41.576584 -56.194096
-18.060762 -41.588661 -56.063152
-17.047260 -40.692577 -56.269142
-16.240932 -40.880707 -56.448757
-14.474102 -41.479652 -56.130985
-12.209307 -41.239613 -56.272793
-94.454201 -41.367290 -56.499493
-42.893661 -41.197220 -56.818268
-42.147167 -41.191715 -56.770203
-35.136204 -41.436043 -56.668545
-34.176079 -41.838890 -56.634224
-29.779873 -41.593605 -56.602425
-28.960730 -41.051392 -56.632240
-25.648085 -41.388615 -56.811447
-24.588940 -41.347675 -56.479927
-20.170156 -40.726322 -56.288570
-18.751753 -40.456352 -56.277172
-17.056704 -40.445549 -56.588020
-16.609221 -40.587677 -56.361675
-13.594949 -40.626965 -55.988068
-12.571722 -41.261116 -56.600235
-94.403023 -41.709625 -56.917652
-94.583633 -41.249611 -56.893131
-43.416798 -40.785603 -57.121464
-38.322708 -40.549805 -57.189091
-36.220398 -41.172199 -56.587212
-31.522175 -41.450878 -56.530777
-26.365913 -41.471718 -57.295517
-25.027182 -41.592403 -56.913841
-23.966492 -41.139828 -57.320755
-22.127783 -40.538593 -56.894848
-16.257162 -40.622643 -56.831951
-15.620758 -40.653587 -56.829414
-13.298297 -40.584961 -57.123764
-11.652947 -41.834915 -57.450432
-12.108161 -40.801327 -57.403984
-94.834808 -41.587757 -57.684059
-41.976803 -40.954567 -57.237324
-41.141323 -40.453873 -57.381397
-39.542542 -40.500156 -57.606277
-37.477306 -40.887146 -57.472057
-34.570850 -40.755436 -57.028900
-33.296741 -40.788261 -56.864723
-31.091217 -40.675606 -57.145363
-29.411758 -40.802532 -57.809246
-28.778746 -40.745991 -57.795975
-27.652681 -40.696377 -57.492058
-25.601685 -40.769131 -57.139637
-24.734797 -40.823769 -57.653706
-15.753385 -40.780418 -57.303585
-13.247529 -40.764969 -57.480961
-95.423462 -41.481220 -57.503548
-39.739960 -40.728004 -57.740589
-35.255047 -40.527824 -57.669781
-31.782780 -40.529572 -58.067123
-29.965960 -40.834225 -58.334953
-28.901114 -40.876690 -57.841129
-26.430616 -40.871193 -57.798958
-13.611150 -40.281750 -58.111000
-11.089650 -41.898205 -57.833111
-12.148199 -40.997234 -57.688248
-95.566666 -41.086967 -57.797440
-40.994030 -40.785057 -57.630608
-35.546227 -40.256599 -58.639751
-27.661440 -40.544468 -58.073738
-26.845879 -41.049114 -57.924625
-14.313375 -40.651291 -57.866104
-13.646092 -40.860851 -58.158703
-11.758481 -41.620876 -58.386681
-12.856429 -40.797195 -58.108551
-95.682449 -41.412430 -58.093597
-42.208427 -40.855240 -57.681915
-27.809748 -40.851891 -58.707233
-14.925793 -40.748219 -58.530033
-13.334996 -40.350410 -58.512711
-12.545058 -41.108379 -58.292942
-96.199348 -41.289795 -58.958321
-15.548166 -40.497818 -59.049019
-14.387449 -40.890594 -59.280319
-27.677357 -40.715694 -59.120075
-15.706879 -41.238293 -59.455093
-96.462051 -40.860851 -59.879658
-14.846644 -42.052956 -59.476593
-16.444775 -41.472767 -59.780823
-96.264671 -41.261482 -60.148445
-34.210938 -40.492199 -60.077877
-31.815426 -40.640289 -60.013367
-28.452206 -40.691059 -60.222363
-27.583710 -40.871685 -59.789913
-96.956543 -41.623219 -60.856316
-34.624836 -40.764488 -60.678406
-33.178047 -41.062958 -60.247513
-32.544991 -41.506695 -61.066059
-32.046558 -40.226826 -60.375290
-30.835550 -40.662567 -60.469273
-29.138079 -40.718124 -60.442822
-28.657677 -40.819981 -60.640377
-27.144449 -41.123077 -60.178631
-16.868729 -41.535580 -60.847126
-16.946899 -40.385422 -60.555950
-96.855057 -41.729702 -60.907364
-33.420597 -41.090893 -61.139534
-30.657625 -41.357971 -61.051247
-29.194031 -41.280235 -61.247536
-28.408791 -41.076969 -61.079399
-27.953558 -41.013901 -61.024525
-21.337500 -41.390205 -60.897129
-20.172062 -41.040112 -61.435360
-18.047472 -41.459282 -60.994083
-18.990896 -41.593880 -61.072807
-35.420738 -40.500614 -61.024525
-34.339954 -41.269432 -61.175392
-26.682240 -41.676304 -61.522625
-26.362265 -41.029915 -61.217777
-25.849144 -41.209953 -61.709736
-24.425402 -41.517563 -61.373535
-23.790537 -41.457752 -61.217541
-22.711430 -41.099995 -61.416641
-97.915421 -41.378201 -61.760803
-35.168278 -40.857525 -61.800934
-97.501823 -41.448666 -62.642345
-35.397663 -41.420845 -62.056591
-97.484390 -41.025238 -62.316723
-35.963139 -41.328823 -62.372959
-36.793102 -41.042507 -62.411949
-97.852127 -41.259533 -62.751095
-35.967117 -41.545788 -62.883846
-36.859303 -41.343029 -63.370785
-37.193291 -40.753647 -63.001152
-97.989815 -41.288471 -64.247185
-37.372620 -41.642284 -64.079964
-37.069088 -41.346241 -63.699615
-38.382328 -40.514885 -64.103157
-98.032593 -41.161598 -64.733887
-38.419601 -40.542259 -64.698822
-37.711700 -41.332294 -64.999496
-38.770569 -41.165539 -65.838142
-99.278313 -41.596653 -66.044250
-38.216980 -41.309093 -66.858284
-99.229378 -42.201702 -67.034294
-38.660782 -41.107719 -66.604996
-99.561310 -41.580566 -68.161659
-39.230225 -41.538395 -67.620331
-39.604343 -41.291210 -68.185585
-99.035812 -41.331188 -68.738853
-39.268230 -41.652248 -68.703850
-99.492790 -41.210892 -69.061714
-40.156998 -41.150909 -69.144676
-54.627758 -40.490726 -69.758919
-39.579460 -41.646107 -69.655106
-99.319389 -41.572678 -69.714249
-54.127441 -40.640991 -70.406685
-40.386333 -41.476799 -70.455551
-41.080513 -40.580894 -70.671844
-55.318436 -40.571236 -71.506378
-52.852882 -41.086369 -71.284653
-40.737720 -41.577141 -71.169487
-54.358753 -40.946323 -71.345100
-55.313690 -40.939316 -72.102867
-54.248741 -41.250992 -72.284294
-53.686569 -40.676487 -71.861938
-52.014587 -40.574883 -72.094398
-40.762417 -41.595264 -71.503960
-54.116711 -41.491508 -72.349129
-55.194668 -40.972870 -71.989929
-53.599743 -41.344028 -72.033356
-52.115070 -41.001694 -72.561348
-41.657162 -40.603363 -72.290161
-40.789120 -41.159824 -72.080383
-54.873699 -41.526882 -73.030632
-50.441776 -40.771492 -72.796318
-43.138931 -40.710430 -72.481979
-53.179798 -41.824299 -72.720963
-42.810184 -40.483616 -72.759575
-41.255989 -41.325085 -73.556686
-41.853966 -40.817894 -72.888390
-56.333336 -40.591400 -72.924110
-52.808998 -41.222385 -73.158806
-52.460331 -40.851444 -73.180664
-51.447334 -41.028465 -73.256065
-44.061634 -40.784027 -73.442398
-42.928066 -40.668484 -73.454948
-42.087139 -41.741699 -73.123932
-99.809937 -41.159225 -73.386139
-51.617058 -40.895916 -74.379204
-50.549179 -40.937416 -73.981247
-44.045906 -41.000412 -73.258461
-42.999004 -41.773876 -73.952705
-55.924091 -41.424110 -74.272484
-56.397343 -41.614540 -74.206520
-52.237782 -41.169060 -73.819046
-44.481289 -41.148743 -74.343399
-43.769707 -41.291737 -74.457306
-57.313980 -40.417450 -74.405426
-51.343605 -41.225716 -74.920883
-50.366020 -40.957844 -74.819031
-46.144882 -40.640781 -73.802010
-44.728855 -41.229721 -74.658333
-57.514351 -40.678085 -74.910400
-49.917469 -40.616505 -74.669212
-48.399910 -40.145561 -74.913193
-46.563900 -40.958939 -75.000191
-45.426399 -41.135513 -74.896591
-45.695778 -41.396351 -75.191551
-55.735718 -41.211491 -75.245232
-50.420742 -41.752102 -75.105385
-47.953468 -41.030880 -75.566246
-46.391087 -41.226116 -75.102837
-45.906441 -41.577091 -75.687630
-100.084610 -40.227188 -76.287781
-56.616123 -41.322781 -75.620972
-49.827900 -40.704983 -75.726799
-48.499744 -40.841568 -75.453491
-47.725777 -40.444183 -75.603394
-46.700851 -41.561302 -75.667534
-47.036228 -41.305183 -75.909973
-47.260132 -41.378086 -76.724380
-100.112938 -40.314098 -76.746750
-57.089211 -40.995308 -76.341103
-57.514919 -41.507607 -78.172722
-57.163483 -41.300888 -78.267632
-57.161537 -41.460999 -78.887756
-57.670998 -41.284538 -79.125015
-57.795338 -40.769909 -81.015175
-57.425667 -42.653252 -82.160278
-99.982254 -42.125587 -82.397079
-57.531830 -41.429909 -82.544975
-57.783104 -41.292873 -85.331612
-99.610359 -42.491653 -85.795937
-100.451248 -41.015533 -86.167328
-100.153030 -40.715401 -86.358086
-58.351486 -40.406132 -86.718765
-99.935966 -41.050339 -86.745026
-99.532524 -40.738701 -87.516014
-58.683926 -41.915245 -87.407196
-59.374550 -42.482601 -88.757980
-100.013573 -40.544872 -88.808899
-59.701714 -42.404545 -89.213150
-59.681702 -40.560352 -89.476204
-99.567604 -41.436321 -89.111061
-61.069485 -41.769146 -91.132637
-99.746468 -41.588833 -91.161209
-99.588478 -40.868893 -91.462181
-62.268612 -41.395283 -92.422455
-61.828922 -40.639919 -91.854408
-99.266701 -41.674343 -92.651833
-98.915390 -40.943790 -93.087296
-61.922955 -41.355526 -92.297508
-62.630280 -41.505203 -93.056816
-99.377342 -41.474113 -93.035439
-63.733097 -42.344147 -93.438728
-63.693882 -41.399323 -94.267944
-98.962669 -41.587570 -93.867035
-64.326675 -41.175751 -94.128151
-64.326057 -40.705704 -94.931236
-64.285828 -41.728127 -94.879662
-99.127525 -41.448059 -95.478180
-65.127609 -41.229607 -95.730766
-65.076714 -41.711193 -95.706207
-66.017830 -41.723511 -96.076347
-98.783409 -40.351898 -96.880409
-98.398186 -41.461205 -97.354485
-98.554710 -41.361191 -97.747734
-66.938889 -42.709595 -97.543221
-67.567719 -41.468552 -97.880066
-66.903351 -42.403622 -97.076630
-98.775009 -41.035133 -98.114326
-68.251022 -41.398941 -99.046707
-67.501915 -41.073891 -98.434822
-98.289398 -41.729164 -99.161484
-97.894203 -40.924725 -99.061966
-68.965431 -42.591347 -98.700844
-98.052650 -41.186436 -99.647507
-97.864655 -40.494495 -99.488167
-68.759079 -41.191299 -99.822815
-98.154449 -41.611801 -99.741913
-70.062340 -41.267658 -100.188736
-70.590096 -42.257343 -99.961731
-71.181511 -42.150253 -100.360374
-70.538803 -40.861717 -100.888367
-98.335739 -41.681641 -100.807938
-71.414238 -41.625607 -100.752937
-71.572037 -41.791267 -101.285713
-72.604240 -41.375839 -101.594276
-98.155403 -41.378277 -101.016266
-72.647141 -41.262352 -102.183388
-97.784241 -41.225601 -102.275375
-73.866356 -41.659344 -102.566833
-97.863472 -41.540524 -102.745476
-74.329552 -41.280834 -102.863403
-75.225876 -41.512375 -102.980049
-74.470657 -40.794239 -102.911034
-98.117485 -41.664333 -103.383163
-76.361801 -41.104210 -103.117584
-97.189423 -41.561588 -104.250580
-76.807579 -41.592224 -104.481613
-97.121071 -41.696838 -104.177345
-78.343536 -41.645119 -104.570541
-97.205437 -41.403709 -104.592224
-78.832275 -41.780060 -105.006752
-96.187408 -41.349495 -105.372650
-79.227058 -42.048756 -105.529617
-80.702751 -41.510529 -105.509514
-97.184097 -40.812782 -106.034210
-81.216293 -40.904617 -106.151550
-96.853844 -41.534401 -106.299545
-81.694489 -41.809998 -107.083427
-96.325645 -41.415215 -107.006538
-82.494278 -41.910091 -106.593048
-82.757729 -41.381355 -107.695763
-96.262825 -41.415108 -107.845406
-82.915878 -41.345028 -107.462517
-95.877335 -41.430832 -108.480560
-84.061234 -41.312668 -108.033844
-95.611458 -41.574356 -108.670517
-95.853508 -41.739857 -108.924179
-95.255745 -40.897049 -108.917740
-84.720428 -41.456604 -109.055466
-95.470390 -41.401489 -108.810822
-95.279495 -41.630180 -109.207352
-85.507797 -41.603325 -109.165993
-85.577766 -41.865482 -110.009247
-95.370796 -41.028774 -110.080200
-94.288849 -40.572414 -110.050697
-85.586189 -41.519070 -110.289871
-95.223381 -41.556217 -110.471535
-86.074005 -41.717892 -110.459229
-94.371048 -41.456341 -111.146423
-94.767609 -41.564785 -110.632805
-86.304619 -41.815269 -110.941132
-86.968376 -41.601280 -111.555359
-94.663078 -41.352272 -111.674011
-86.723770 -41.520557 -111.760513
-93.640305 -41.533649 -112.056160
-93.710381 -41.053108 -112.404022
-87.856743 -41.556969 -112.843788
-87.163979 -41.666531 -111.917587
-93.149986 -41.017815 -112.686386
-92.654167 -40.394169 -112.627258
-92.704926 -41.015549 -113.078140
-88.111565 -41.246059 -112.736816
-88.399513 -40.508453 -112.857773
-92.401108 -41.136963 -113.588326
-91.153114 -40.767101 -113.303673
-91.773193 -41.634956 -113.484589
-90.743126 -41.505280 -113.903542
-90.369583 -41.217064 -113.815865
-89.332016 -41.382915 -113.425583
-75.548004 -41.049240 -47.129780
-74.333183 -40.720024 -47.656567
-72.376137 -40.439709 -47.315662
-70.647118 -40.057747 -47.449623
-76.977692 -40.513214 -47.616283
-76.511581 -40.455631 -47.766167
-74.645966 -40.105648 -47.712845
-74.114563 -39.648052 -47.617519
-71.597153 -39.899586 -47.942558
-70.885933 -39.943287 -47.833328
-69.520866 -40.438019 -48.052372
-80.350929 -41.132412 -48.103836
-78.207092 -40.133434 -47.891319
-78.039589 -39.939449 -48.301819
-69.576347 -40.091015 -47.952415
-67.728081 -40.489784 -48.555256
-81.347168 -40.569641 -48.466667
-67.762520 -39.849117 -48.182793
-66.734154 -40.144585 -48.234871
-82.726425 -40.534168 -48.570065
-82.173721 -39.928135 -48.599838
-66.509926 -39.670135 -49.123905
-65.597725 -40.530594 -49.203075
-65.713150 -40.336155 -49.234550
-63.914459 -40.364960 -49.464867
-65.056763 -40.832359 -49.382980
-85.135345 -41.176388 -49.572403
-64.768074 -39.216747 -50.003590
-64.121819 -39.978920 -49.836929
-84.631226 -40.201519 -49.863335
-62.618656 -39.726563 -50.305222
-62.388607 -40.384457 -50.223148
-85.732323 -40.579044 -50.795898
-61.871723 -39.917648 -50.348000
-60.950558 -40.488377 -50.308556
-62.181297 -39.795399 -50.783085
-59.958786 -39.773438 -50.675064
-59.126209 -40.300533 -50.756344
-87.526245 -40.780281 -51.476906
-59.100567 -39.968605 -50.886868
-57.926575 -40.252510 -51.238552
-88.338058 -40.640526 -52.273663
-58.212582 -39.952446 -51.898113
-56.894302 -40.606705 -51.654266
-55.292027 -40.561016 -52.117390
-88.464760 -40.203461 -51.728302
-58.198845 -39.486729 -52.345512
-56.690510 -39.810600 -51.825127
-56.350727 -40.200462 -51.957565
-55.287361 -40.573280 -52.148571
-54.176208 -40.671059 -52.086037
-89.697495 -41.088490 -52.451653
-56.955132 -39.433525 -52.263058
-55.655060 -40.200695 -52.014854
-54.541859 -40.248856 -52.582706
-90.197983 -40.454098 -52.981384
-54.156673 -39.766602 -53.031147
-53.458927 -40.128735 -52.958828
-50.017117 -40.203178 -52.999378
-52.411282 -39.930592 -53.424160
-51.441811 -39.849712 -53.080959
-50.544033 -40.415779 -53.392246
-49.417641 -40.283733 -53.438290
-91.382050 -40.418758 -53.596134
-90.659531 -39.911739 -53.950462
-52.008919 -39.684563 -53.692593
-50.518921 -39.706951 -53.774048
-49.407276 -40.120060 -53.678097
-47.545059 -40.587975 -54.585236
-91.448959 -40.256630 -54.283493
-91.129761 -40.029774 -53.958378
-49.656769 -39.763344 -54.621464
-48.740318 -39.954517 -54.431778
-46.381359 -40.676262 -54.529160
-91.389587 -40.294125 -54.350895
-47.562500 -39.501659 -54.420170
-92.349007 -40.902340 -54.794018
-46.927742 -39.738785 -54.854515
-47.798946 -39.602985 -55.174465
-44.708557 -40.609131 -55.554508
-44.997578 -40.193569 -55.200260
-93.220734 -40.530228 -55.770546
-93.813568 -40.566925 -56.173290
-45.822598 -39.529556 -55.918430
-46.269966 -39.621014 -55.676197
-44.170532 -40.686871 -55.711819
-44.826149 -39.980839 -55.948009
-43.486343 -40.580238 -56.342796
-93.934593 -40.524940 -56.886009
-44.797276 -39.688206 -56.679501
-19.084156 -40.890797 -56.570080
-94.196129 -40.555527 -56.852257
-43.853367 -39.844273 -56.560902
-21.371700 -40.414463 -56.797966
-20.524017 -39.940571 -56.861935
-19.172375 -39.647003 -56.740700
-17.492483 -40.265697 -56.937050
-93.991119 -40.669582 -57.349018
-93.860191 -39.532387 -57.660580
-43.508957 -40.535164 -57.356045
-24.093039 -40.218788 -57.421925
-23.050713 -40.274807 -57.690712
-21.149611 -39.924995 -57.357559
-20.107260 -39.462425 -57.173054
-18.947834 -39.572109 -57.062675
-16.089417 -40.375721 -57.119907
-94.868645 -40.608730 -58.034477
-43.045124 -40.297817 -57.608025
-31.114599 -40.294498 -58.228607
-30.802019 -40.813263 -58.084377
-25.542252 -40.124016 -57.938580
-24.817089 -39.373158 -57.667149
-22.448698 -39.185425 -57.555161
-15.269223 -40.489182 -57.504776
-15.823087 -39.832870 -58.019913
-95.402092 -40.555138 -58.571651
-95.382553 -40.735638 -58.800552
-43.773338 -39.160294 -58.077621
-41.861622 -40.465183 -58.686966
-42.817497 -40.025909 -58.071453
-39.435280 -40.270046 -58.011635
-38.435223 -40.625973 -58.074337
-32.550499 -40.538315 -58.494480
-29.340254 -40.144268 -58.361271
-26.370602 -40.310791 -57.892818
-26.562159 -40.208462 -58.939022
-25.629751 -40.017517 -57.982929
-15.390645 -40.512512 -58.043667
-40.709824 -40.423473 -58.724316
-40.047550 -40.321934 -58.355392
-38.935223 -40.375912 -58.978962
-37.710941 -39.775043 -58.897793
-36.557610 -40.165279 -58.450024
-34.470615 -40.351036 -58.557178
-32.348446 -40.338215 -58.501247
-31.845543 -40.624195 -58.582172
-30.500109 -39.904190 -58.385757
-28.645428 -40.825207 -58.651970
-29.507418 -40.459843 -58.621189
-95.827599 -40.727222 -59.372231
-43.093765 -40.148140 -58.307796
-41.817276 -40.482353 -58.961617
-41.201073 -40.587574 -59.402374
-40.095280 -39.891304 -59.193951
-39.065060 -40.051567 -59.037357
-37.703686 -39.947197 -58.943516
-36.081161 -40.214428 -58.980736
-33.486423 -40.735825 -58.975277
-32.517025 -40.114407 -59.191818
-31.441601 -39.901814 -59.327190
-30.678499 -40.334476 -59.263885
-29.856070 -40.263359 -59.413158
-27.205261 -40.558537 -58.770756
-96.196663 -40.857822 -59.050514
-42.941441 -39.593918 -60.126842
-39.995247 -39.888935 -59.514355
-38.609146 -39.891323 -59.902687
-37.692852 -39.919533 -59.454845
-36.201656 -39.917645 -59.422123
-35.587051 -40.144581 -59.364258
-33.669689 -40.058838 -59.398979
-32.245171 -39.937683 -59.413136
-32.028759 -40.242790 -59.372295
-30.573500 -39.951210 -59.650753
-29.075113 -40.084087 -59.360371
-29.229504 -40.344578 -59.315704
-27.546738 -40.369137 -59.731224
-15.771892 -40.119747 -59.543243
-96.232964 -40.630787 -59.359367
-96.713326 -40.192284 -60.405487
-42.085880 -40.258919 -59.578777
-41.261440 -40.365738 -59.514099
-33.193329 -40.722076 -59.981144
-34.299816 -40.413948 -59.784931
-32.225060 -40.464928 -59.748409
-31.616238 -39.914642 -59.694653
-30.634251 -40.044231 -59.745491
-29.645798 -40.178677 -59.718243
-15.949112 -40.625729 -59.113087
-39.957508 -40.012550 -60.268917
-36.584839 -40.279533 -60.314217
-35.070503 -40.037422 -59.903648
-31.121078 -40.118446 -60.261116
-16.553638 -40.846561 -60.048264
-17.378941 -39.582985 -60.163174
-96.778908 -40.355717 -60.470486
-42.055008 -39.606464 -60.058865
-40.253521 -39.707867 -60.490059
-39.308411 -39.642570 -60.004917
-38.121902 -39.595444 -60.670509
-37.358353 -39.929821 -60.449425
-36.103409 -39.850883 -60.472485
-34.831989 -40.669785 -60.647423
-27.125895 -39.742336 -60.596645
-25.772749 -39.334980 -60.691402
-18.533934 -40.741947 -60.752792
-96.579056 -40.409256 -61.193356
-41.951286 -39.292927 -60.888657
-40.250408 -39.924065 -61.005222
-39.225368 -39.979115 -61.030827
-38.238754 -39.559067 -61.118599
-37.538696 -40.220776 -61.137169
-34.998154 -40.505589 -60.845749
-36.065620 -40.174614 -61.121334
-26.660627 -40.387722 -60.571068
-25.647175 -40.623695 -61.060600
-25.312605 -39.789108 -61.305107
-24.700686 -40.565216 -61.713608
-24.158932 -40.327759 -60.969826
-24.644917 -39.584721 -60.424641
-22.952995 -40.285366 -61.166721
-20.780331 -40.260372 -61.708229
-19.774908 -40.398159 -60.410755
-19.062984 -40.316521 -61.333759
-97.625725 -40.805828 -61.902988
-39.591640 -39.347511 -61.754745
-38.092785 -40.005520 -61.439098
-37.098473 -39.990219 -61.211674
-36.263138 -40.342670 -61.676514
-36.167625 -40.116924 -61.044086
-97.192192 -40.537144 -61.882568
-40.143314 -39.247524 -61.482994
-38.003052 -39.885811 -61.746574
-37.679798 -39.835003 -61.662777
-41.815971 -40.002239 -62.282234
-39.445297 -39.842083 -62.020599
-38.138927 -39.967869 -62.091038
-36.939365 -40.287067 -62.142715
-97.204971 -40.197266 -62.851212
-39.094986 -39.634487 -62.670441
-38.152260 -39.961403 -62.614269
-36.275894 -40.286987 -61.809071
-36.974777 -40.555130 -62.535225
-97.559769 -40.582336 -62.801643
-39.161156 -39.790684 -62.863434
-38.019810 -39.716331 -62.771915
-97.941025 -40.926308 -63.340683
-38.237411 -40.187851 -63.240711
-98.107391 -40.527733 -64.155945
-39.033234 -39.936916 -63.061630
-38.141865 -40.587627 -63.541603
-38.795975 -39.584175 -64.306992
-40.209393 -40.017052 -63.988270
-39.377880 -39.982471 -64.948151
-98.116829 -40.177971 -64.524857
-39.081898 -40.074844 -64.732994
-40.122955 -40.179596 -65.252037
-38.898060 -40.617615 -65.954361
-38.899628 -40.707088 -65.592140
-98.634689 -40.647961 -65.654526
-39.801460 -39.776634 -65.748001
-98.493446 -39.834465 -65.786461
-39.083931 -40.763081 -66.500664
-39.997688 -40.315865 -66.996552
-40.424606 -40.282238 -66.641396
-98.977730 -41.061657 -67.020828
-54.006310 -39.708740 -67.370750
-39.715233 -40.154655 -67.350281
-40.842453 -39.854446 -67.792084
-40.151253 -40.244717 -67.636147
-40.119583 -40.387798 -68.453888
-54.340824 -39.701569 -68.147583
-53.265602 -39.531063 -68.507927
-40.824841 -39.696278 -67.895340
-55.468628 -39.435043 -68.884171
-40.671810 -40.195999 -69.557953
-54.658405 -39.842842 -68.600189
-53.654102 -40.092232 -68.650421
-99.173401 -40.461552 -68.937668
-55.394516 -39.799026 -69.267723
-53.521690 -40.271587 -69.466660
-52.139462 -39.508312 -69.179634
-40.767979 -39.534523 -69.104462
-99.031082 -40.830582 -69.912308
-55.477825 -40.604252 -70.116264
-55.027016 -40.117710 -69.567009
-54.563328 -40.192516 -69.063179
-53.146370 -40.370167 -70.057739
-42.257683 -39.330940 -69.608887
-40.669086 -40.343674 -69.582085
-56.224796 -39.543285 -70.048851
-52.651207 -39.748501 -69.577225
-40.724838 -40.262623 -70.185219
-99.318398 -40.298534 -70.518433
-55.163063 -40.233921 -70.657440
-52.281734 -39.765862 -70.564697
-41.907242 -39.632519 -70.426117
-56.397694 -40.408875 -71.624802
-55.886005 -39.582783 -70.542068
-53.150433 -40.308399 -70.791054
-52.710999 -40.363506 -71.215477
-51.905727 -39.439053 -70.933746
-42.874428 -39.648510 -71.068855
-42.034809 -39.967735 -71.301117
-99.354103 -40.640076 -71.148270
-52.219326 -40.740788 -71.315353
-51.367645 -40.171997 -71.044106
-41.343525 -40.827965 -71.452744
-99.476021 -40.136547 -71.687729
-56.272320 -40.774281 -71.809280
-51.884079 -39.929615 -71.665634
-43.353294 -40.247124 -71.511307
-41.844189 -39.983994 -71.806068
-56.587040 -40.565784 -71.990959
-51.353420 -40.640144 -72.107094
-49.510574 -39.138268 -72.390068
-45.677017 -39.813267 -72.089417
-44.165966 -40.435463 -71.636047
-42.628239 -40.675968 -72.206673
-100.304123 -40.826267 -72.689224
-50.328724 -39.843361 -72.402832
-44.668064 -40.193821 -72.525810
-44.175945 -40.404457 -72.362961
-43.952869 -40.205063 -72.682472
-56.183178 -40.436768 -72.936348
-49.692165 -39.898041 -72.806801
-47.888794 -39.497253 -72.846802
-46.550484 -39.381290 -72.895966
-45.615929 -39.770935 -72.783546
-45.083138 -39.962551 -73.151192
-49.398102 -39.944576 -73.355042
-49.022373 -39.949612 -73.708794
-47.553459 -39.761410 -73.297440
-44.897888 -40.710068 -73.430435
-45.374023 -39.860764 -73.704407
-56.922775 -40.362377 -73.611107
-57.304417 -39.648884 -73.809807
-50.838287 -40.698246 -73.045181
-49.817471 -40.557129 -74.046982
-46.758507 -40.002007 -73.699776
-45.516125 -40.286579 -73.892006
-99.565338 -39.373337 -73.762451
-57.085182 -40.383488 -74.140106
-47.756538 -40.381134 -74.313515
-47.728710 -40.633881 -74.223183
-46.809086 -40.509010 -74.418221
-47.113323 -40.351509 -74.112350
-57.020191 -40.660191 -75.346039
-57.330902 -40.287487 -76.486404
-99.884926 -41.147530 -77.269180
-57.409340 -40.570461 -76.594383
-99.972496 -41.270802 -77.289284
-57.185585 -41.185966 -77.691177
-57.648647 -40.845379 -78.326653
-99.886147 -40.329216 -78.208290
-100.103630 -39.703403 -78.742813
-57.569622 -40.556961 -79.225174
-57.868500 -40.524117 -79.065445
-58.115200 -41.034370 -80.594200
-100.147621 -41.822475 -80.582809
-57.803795 -41.214043 -80.701363
-100.284645 -41.927612 -81.302544
-57.851322 -40.585201 -82.031364
-57.817383 -41.140919 -83.571846
-58.158886 -40.893631 -84.077026
-58.383152 -41.192707 -84.005722
-58.235886 -41.028172 -85.738487
-58.267506 -41.141998 -86.257256
-58.876060 -41.690044 -86.812500
-58.711205 -41.229298 -87.166321
-58.891613 -39.650986 -87.675545
-58.762123 -40.885147 -87.877586
-99.590599 -40.338291 -87.803818
-59.166504 -42.144142 -88.348885
-59.628284 -40.324421 -89.025696
-99.306442 -40.416950 -89.258202
-60.040077 -41.285473 -89.735733
-99.397545 -40.334194 -90.440109
-60.661434 -40.552624 -90.188461
-99.081085 -39.679703 -90.120140
-61.263062 -39.826237 -91.069847
-99.224632 -40.039284 -91.214340
-61.007435 -40.546848 -91.199524
-61.417046 -40.536350 -91.356590
-98.793625 -40.405521 -91.818810
-98.594177 -39.366146 -92.592346
-62.011608 -40.500149 -92.156296
-62.185928 -40.547283 -93.141922
-62.606106 -40.602402 -93.116608
-63.245850 -41.132660 -93.259224
-98.745712 -39.349171 -94.226143
-63.449146 -40.733456 -94.217842
-63.599010 -40.418045 -94.825844
-98.691284 -40.371727 -95.408356
-64.884949 -40.654892 -96.063889
-98.863708 -40.435642 -95.617821
-65.551956 -40.736336 -96.405182
-65.924751 -40.607895 -96.898682
-98.444397 -40.438972 -97.025772
-65.911697 -40.441910 -97.588402
-98.482452 -40.595654 -97.956047
-97.936333 -40.181843 -97.920158
-66.793381 -40.402618 -97.836845
-98.553162 -40.403698 -98.195374
-67.476479 -40.457741 -98.061272
-69.189934 -40.992573 -99.145775
-68.429245 -39.753769 -99.862816
-69.212204 -41.135761 -99.996391
-98.125656 -40.341808 -99.883797
-69.811264 -40.665176 -100.247734
-98.128578 -40.438427 -100.881447
-71.149567 -40.772522 -101.419418
-97.539833 -40.759079 -101.386024
-72.062294 -40.907936 -101.836403
-97.744965 -40.562710 -102.216026
-97.495285 -39.807823 -102.232117
-72.565964 -40.586838 -102.459854
-97.411453 -40.228195 -103.062668
-72.777519 -40.160236 -102.560234
-96.852440 -39.734501 -102.377014
-97.044525 -40.604584 -103.530029
-75.300407 -40.231976 -103.279686
-76.098610 -40.331825 -103.257118
-97.051476 -40.100861 -103.626007
-76.494682 -40.305901 -104.230637
-96.715317 -40.821075 -104.888992
-78.503220 -39.772259 -105.151062
-96.713860 -40.496273 -105.191032
-79.461349 -40.134579 -105.495148
-96.674217 -40.551250 -105.711670
-96.032730 -39.699379 -105.644753
-80.508965 -40.513706 -105.308311
-96.163498 -40.520912 -106.218811
-80.862862 -40.211140 -105.917175
-96.039314 -41.090961 -107.076256
-81.914322 -40.424744 -106.441849
-95.746155 -40.192829 -106.879631
-82.529884 -40.197678 -107.691299
-82.629219 -40.517071 -107.689255
-96.076889 -40.987110 -107.514038
-83.511551 -40.714291 -107.879974
-95.669876 -40.529385 -108.035828
-95.096283 -41.080383 -108.375366
-84.319992 -39.726864 -108.719734
-95.200287 -40.559235 -109.107475
-84.240288 -40.027069 -109.095261
-84.962654 -40.771389 -109.600563
-94.853195 -40.460133 -108.795441
-95.212570 -40.101418 -109.481224
-85.433197 -40.683979 -110.098236
-85.859604 -40.846188 -110.123749
-94.187958 -40.842957 -110.441673
-85.791992 -40.445057 -110.355156
-93.943687 -40.658215 -111.037041
-86.267258 -40.158039 -110.776878
-93.649826 -41.031231 -111.274208
-86.845474 -40.430103 -111.127335
-93.157021 -40.502419 -111.785553
-86.898972 -40.657822 -111.948700
-87.421219 -40.241352 -111.733856
-92.695518 -39.770557 -111.947037
-91.541862 -39.751930 -112.379906
-91.372696 -39.532433 -112.991974
-89.515182 -39.251324 -113.046844
-88.331970 -40.321823 -112.617981
-88.902382 -39.784248 -112.615318
-91.690933 -40.582798 -113.371223
-91.097267 -40.957520 -113.146423
-90.564865 -40.234646 -112.478027
-89.332565 -40.544563 -113.385445
-89.668243 -39.806530 -112.807045
-76.549957 -39.918179 -47.929497
-75.651123 -39.368488 -48.082443
-74.069687 -39.595165 -48.214050
-73.014458 -39.730404 -48.325649
-71.792259 -39.731163 -48.082291
-70.357567 -39.772507 -48.574154
-79.029541 -39.684757 -48.128574
-80.434036 -39.217506 -48.539772
-76.290268 -38.579350 -48.517723
-70.487404 -38.798481 -48.531879
-69.163361 -39.648617 -48.322617
-67.355568 -39.567837 -48.825569
-81.980324 -39.967609 -49.365013
-81.921104 -39.119637 -49.089813
-80.711037 -39.351566 -48.832706
-70.263275 -38.481815 -49.268440
-68.486893 -38.896534 -49.275913
-83.019745 -39.873756 -49.308540
-81.079910 -38.831421 -49.574322
-67.961563 -39.140430 -49.205036
-66.715546 -39.355160 -49.202999
-65.343399 -40.254227 -49.344463
-83.886314 -39.497475 -49.491642
-67.305695 -38.694351 -49.514568
-65.478203 -39.014076 -49.902306
-64.569138 -39.533916 -50.040512
-65.362236 -38.974083 -50.323879
-62.782646 -39.652836 -50.570057
-85.277611 -39.598633 -50.207050
-63.746063 -38.772175 -50.696907
-86.027222 -39.731960 -50.683640
-63.087982 -38.789394 -50.888550
-61.848717 -39.058987 -50.670528
-87.249092 -39.382656 -51.599304
-60.071754 -39.485775 -51.228771
-60.563644 -39.772976 -51.399956
-87.482750 -39.870396 -52.368408
-60.687260 -38.841652 -51.714077
-59.556862 -39.488235 -51.412392
-59.993683 -39.729755 -52.007076
-88.000893 -39.665478 -51.858547
-87.048920 -38.241886 -52.091579
-60.469990 -38.721024 -52.065750
-59.042118 -39.138836 -52.139191
-89.042381 -39.512615 -52.748363
-89.524452 -39.685863 -53.182789
-57.903198 -39.017635 -52.646015
-57.515060 -38.572536 -53.042103
-56.315353 -39.976250 -53.293049
-55.978012 -39.864098 -52.998932
-89.933464 -39.389664 -53.471752
-57.374630 -38.745117 -53.444458
-56.710243 -39.059959 -53.704597
-55.538193 -39.112846 -53.256531
-53.061142 -39.127460 -53.424061
-54.180904 -39.139454 -53.499104
-56.342369 -38.732925 -53.685116
-55.247158 -38.931747 -54.013622
-54.465313 -38.845676 -53.953579
-53.750267 -38.915951 -54.226254
-90.762932 -39.391445 -54.361610
-53.636963 -38.353931 -54.086815
-50.910999 -39.946232 -54.120365
-51.414478 -39.087082 -54.306614
-51.877060 -38.717670 -54.166019
-50.470654 -39.015751 -54.606907
-48.856747 -39.788128 -54.723190
-49.672379 -39.216267 -54.531170
-92.017105 -39.395050 -54.901077
-91.456596 -40.016590 -54.952831
-49.559498 -38.658577 -54.945835
-48.746082 -39.096653 -54.980038
-92.614952 -39.784470 -55.966431
-50.002693 -38.597218 -55.705227
-92.612282 -39.427414 -55.733765
-48.159885 -38.694813 -55.379620
-47.056278 -39.668777 -55.518772
-92.872917 -39.748775 -56.047092
-93.584831 -39.577675 -56.522556
-47.461834 -38.633430 -56.700806
-46.989700 -38.961285 -56.201191
-44.920578 -39.449001 -57.242107
-45.969780 -39.699722 -56.244587
-93.969185 -40.007954 -57.291870
-46.379593 -38.458515 -57.208279
-45.793049 -39.019802 -57.054646
-18.432650 -39.029678 -57.684250
-94.224075 -39.694344 -57.628765
-45.598423 -38.527863 -57.359516
-45.037224 -39.075024 -57.301765
-20.024530 -39.511650 -57.420349
-18.087734 -39.628170 -56.882629
-16.848522 -39.541195 -56.639198
-94.415916 -39.750839 -57.797718
-44.129841 -39.707691 -57.252789
-44.928482 -39.041824 -57.714462
-24.104874 -39.347870 -58.069134
-22.010719 -39.815681 -57.550354
-20.838602 -39.390862 -57.906906
-20.221924 -39.081314 -57.865547
-19.191959 -39.195316 -57.684566
-17.677931 -38.903969 -58.027065
-17.401533 -39.187515 -57.719669
-94.089752 -38.553093 -57.954094
-44.373386 -38.252010 -58.241970
-24.635517 -39.812675 -58.254463
-22.532583 -39.137550 -58.183849
-21.670572 -38.693382 -58.376854
-20.180649 -38.916767 -58.604641
-19.024904 -38.675900 -58.092396
-18.240929 -38.820957 -57.903656
-16.439117 -39.704777 -58.109009
-94.815414 -40.034843 -58.040321
-45.170898 -38.499184 -58.617218
-44.069157 -39.525482 -58.799515
-25.631496 -39.740505 -58.662178
-24.528664 -38.985443 -58.386570
-22.970181 -38.677349 -58.276917
-22.124889 -39.143169 -58.555843
-20.187021 -39.006477 -58.565609
-16.793400 -39.601238 -58.364147
-17.057274 -38.745071 -58.751762
-95.627953 -39.898594 -59.558357
-43.554283 -39.864464 -59.095306
-26.369598 -39.916889 -59.314716
-25.864115 -39.037277 -58.772072
-24.740345 -39.053207 -58.762836
-23.470564 -38.644684 -59.171684
-22.069427 -38.532112 -58.877735
-18.329556 -38.392139 -59.305122
-16.115953 -39.846558 -58.755047
-17.072248 -39.451145 -58.827869
-95.698906 -39.333725 -59.277145
-95.345734 -39.118790 -59.257915
-44.231567 -39.220325 -59.002026
-26.492882 -39.915955 -59.106766
-25.850586 -39.087872 -59.535858
-24.891926 -38.674507 -59.193645
-19.839315 -38.539234 -58.629158
-18.785738 -38.488815 -59.410679
-17.994390 -38.911301 -59.429405
-16.301779 -39.269588 -59.408909
-16.879913 -38.853321 -59.318825
-96.144867 -39.156292 -60.355789
-44.134136 -38.661209 -60.022770
-26.843931 -40.022526 -60.042797
-23.778578 -38.767822 -58.959274
-22.942829 -39.072678 -59.657108
-20.129831 -38.606014 -60.164562
-19.046610 -38.731403 -59.469009
-17.877033 -38.777439 -59.707134
-17.582611 -38.878609 -59.714382
-96.699173 -39.497978 -60.415466
-25.661310 -39.361568 -59.804359
-25.054796 -38.459908 -60.226940
-23.163008 -39.181904 -60.038879
-21.205542 -38.641136 -60.129215
-20.066097 -39.029369 -60.205128
-19.005850 -38.402718 -59.959007
-17.995434 -39.253906 -60.298782
-42.246006 -39.532021 -60.870888
-24.549767 -39.057667 -60.849918
