# This PCD file was generated using the MATLAB® pcwrite function
# from Computer Vision Toolbox®.
# .PCD v.7 - Point Cloud Data file format
VERSION .7
FIELDS x y z
SIZE 4 4 4
TYPE F F F
COUNT 1 1 1
WIDTH 1407
HEIGHT 1
VIEWPOINT 0 0 0 1 0 0 0
POINTS 1407
DATA ascii
17.387362 -72.895401 -228.306183
72.309273 -74.047943 -228.159317
75.689034 -73.833115 -228.640137
80.133324 -73.501793 -228.214966
82.485214 -73.756531 -229.039520
-166.179352 -72.039200 -229.354263
-164.372787 -72.816826 -229.009933
-163.598328 -73.624359 -229.343582
-162.413086 -72.453255 -228.287537
-160.996399 -72.353111 -229.157745
-154.255280 -72.337196 -228.242676
-148.783463 -72.005165 -228.209900
-146.803085 -72.590088 -228.522751
-146.207306 -72.504456 -228.708893
-121.422462 -72.250954 -228.078873
-118.211525 -73.610176 -228.901688
-116.195663 -72.718323 -228.219650
-115.454666 -72.630234 -229.576050
-113.249924 -72.297707 -228.850113
-112.555397 -72.349602 -227.722351
-111.591652 -72.103127 -229.290527
-14.391324 -72.795097 -228.907257
-9.261014 -73.428314 -229.287109
-8.437460 -73.634026 -229.502792
-3.997588 -72.180092 -229.269516
5.111514 -72.310509 -229.646072
6.308853 -73.221230 -228.208572
9.634094 -72.601715 -229.087158
10.018148 -72.403549 -229.073730
14.410994 -71.560371 -228.705093
15.716942 -72.879135 -229.282501
16.307482 -71.518814 -228.670746
76.059662 -72.800240 -228.992126
79.542786 -74.123466 -229.077011
82.295959 -71.843086 -230.238785
82.590446 -73.050606 -228.880035
-164.904922 -72.658646 -229.093842
-162.951355 -72.953163 -230.114059
-161.934219 -73.398758 -228.872101
-159.721313 -72.504593 -229.907562
-159.037521 -72.776749 -228.785080
-157.783768 -72.093880 -228.710922
-156.236343 -72.537651 -229.046875
-155.188782 -73.031418 -229.120346
-150.108612 -72.644089 -230.298813
-148.205505 -71.906029 -229.406952
-148.332047 -72.248619 -228.775604
-146.328171 -73.142792 -229.567032
-123.205200 -73.241699 -230.729309
-123.337303 -72.204124 -229.191589
-119.052727 -71.996490 -230.116196
-116.465538 -73.173302 -229.035919
-115.261345 -73.226318 -229.279724
-114.066589 -72.728409 -228.652481
-113.646973 -71.408615 -229.113251
-112.502014 -72.188110 -229.530197
-111.466072 -73.151360 -229.918137
-16.838644 -73.933289 -229.790878
-14.404649 -73.148643 -229.901352
-4.614853 -73.167824 -229.282440
6.621244 -72.516365 -229.788513
8.990029 -73.036537 -229.987305
71.761353 -72.101891 -229.103882
75.213036 -72.517975 -229.055069
75.626160 -72.392471 -228.478043
77.879219 -72.834381 -229.538528
81.061966 -73.042976 -230.136002
-166.181503 -71.946304 -229.332077
-158.797882 -72.963501 -229.388565
-155.716217 -72.364708 -229.351654
-148.898102 -72.196342 -229.761169
-148.659042 -72.831139 -229.404404
-148.191238 -73.128983 -229.394623
-146.314880 -73.478874 -230.698044
-146.702011 -73.582291 -229.380478
-122.879898 -72.788704 -230.313385
-121.845177 -72.792091 -229.761139
-117.894173 -71.644638 -229.912247
-115.295624 -72.819031 -229.667236
-114.232903 -72.919647 -230.105835
-113.738853 -72.076286 -229.334946
-17.126427 -72.976112 -230.173889
-13.317144 -72.578568 -230.193176
-9.060598 -72.899719 -229.801270
-4.003092 -73.152649 -229.572998
3.504725 -73.221909 -229.497055
9.855293 -72.542259 -229.784286
15.593028 -72.907257 -229.330276
17.893805 -73.281303 -229.395111
71.942284 -72.495010 -229.137466
75.340942 -73.150238 -229.531937
81.607040 -72.921265 -230.080093
81.364746 -73.077179 -229.714279
-165.487839 -71.951523 -230.322174
-162.105072 -73.573898 -230.060883
-159.441635 -73.302345 -229.939590
-158.284637 -72.911110 -230.902039
-155.040359 -73.555557 -230.080551
-156.029861 -72.086670 -229.508774
-149.017456 -72.872307 -231.426025
-148.559052 -72.842804 -229.730515
-147.409164 -72.780167 -230.501663
-147.926498 -72.248222 -230.206848
-123.499573 -72.808113 -229.726151
-123.773071 -73.031204 -230.671524
-120.146927 -72.735939 -230.493927
-118.680382 -72.266640 -231.053741
-117.065704 -72.716705 -229.758591
-116.216942 -72.005150 -230.042297
-114.735374 -72.775719 -230.615005
-114.127068 -72.709984 -229.883545
-16.585526 -72.554367 -230.581406
-12.185675 -72.125671 -229.984863
-9.344525 -72.428818 -230.493179
4.226567 -71.497032 -229.981201
15.307042 -72.500710 -230.899963
17.423176 -71.762085 -230.270218
70.670631 -72.903999 -229.837326
74.370087 -73.554108 -230.101395
74.647209 -73.083031 -230.447327
77.846802 -73.433014 -230.066193
-163.896530 -72.599602 -230.719589
-162.546310 -73.165466 -230.156845
-158.839569 -72.601952 -230.394379
-156.851913 -73.176392 -229.897491
-154.771851 -72.618484 -230.134186
-154.795303 -72.293510 -230.164551
-148.938385 -72.463531 -230.641388
-148.669205 -72.414642 -230.055115
-146.856964 -72.640167 -230.778076
-147.976700 -72.783546 -230.149231
-147.968475 -72.559547 -230.895065
-123.764938 -73.286720 -230.736893
-123.351349 -72.147293 -230.329422
-121.519890 -72.547699 -231.346359
-119.128464 -73.008904 -230.080429
-116.489853 -72.509140 -230.517807
-115.832253 -72.381485 -230.331512
-113.823647 -72.269966 -230.782333
-16.009886 -72.668709 -230.191620
-11.194180 -72.673416 -230.497238
-8.117970 -72.928932 -229.779312
4.976318 -72.669891 -230.078735
10.208653 -73.250374 -230.133163
15.492748 -71.708984 -231.007095
70.633362 -73.149353 -230.076279
73.918106 -72.721481 -230.379471
-165.859894 -73.138214 -230.835007
-164.136597 -73.562576 -231.929337
-164.868179 -72.410271 -229.333603
-162.081726 -73.677582 -231.311386
-159.341522 -72.794960 -231.076721
-155.370377 -72.800179 -231.210052
-155.602173 -72.091896 -231.422607
-136.342239 -72.504974 -231.749573
-123.221031 -73.067680 -230.499359
-122.681671 -72.832680 -231.048126
-121.101944 -72.168373 -230.979385
-118.257454 -72.602722 -230.520554
-117.283844 -72.568626 -230.829880
-115.121101 -72.401154 -230.932068
-114.317329 -71.772545 -230.744476
-15.396585 -72.322968 -231.159164
-11.243613 -72.457222 -230.893768
-8.007960 -73.427101 -230.540039
-7.360863 -71.962021 -230.729248
-2.837980 -72.262909 -231.243896
-2.910842 -72.746521 -231.799683
-2.370694 -71.336426 -231.507690
5.130180 -73.222908 -230.928223
10.094316 -73.099365 -231.703812
17.442011 -73.410248 -230.529083
18.476444 -71.819351 -230.754684
74.104912 -72.528542 -231.494492
77.423080 -72.359535 -230.652756
79.903252 -73.081711 -231.454315
-156.621216 -72.395302 -230.962097
-154.392868 -73.150375 -231.668686
-141.092163 -72.715744 -232.235504
-140.626633 -72.889908 -232.006104
-139.424469 -73.476456 -231.755661
-138.018433 -72.591789 -231.147903
-136.895706 -73.066978 -231.556808
-135.578934 -73.063286 -230.611588
-124.614883 -72.927147 -231.698654
-15.605698 -73.380768 -231.076462
-10.628755 -72.872520 -231.653488
-9.855203 -72.433701 -231.322464
-8.703729 -73.248558 -231.227066
-8.230537 -72.717484 -230.649933
15.187953 -72.910988 -231.702042
17.890162 -72.864052 -231.075287
69.191963 -73.339966 -230.573257
69.210091 -71.917877 -231.415268
73.572052 -72.519951 -230.689774
74.339035 -72.550049 -230.965454
79.970169 -73.524620 -231.257568
-166.010040 -72.117416 -231.044708
-155.888428 -72.653374 -231.289063
-154.647049 -73.073669 -230.843933
-139.444397 -72.772461 -231.231979
-136.757690 -73.502846 -231.296738
-135.106659 -72.662582 -231.899384
-134.555283 -72.171188 -231.348969
-124.380272 -73.367722 -231.998123
-14.486663 -73.662369 -232.072708
-13.970374 -73.348328 -231.650070
-9.831896 -72.235291 -231.387360
-8.069138 -72.234818 -232.841431
-6.549839 -71.383240 -232.040451
9.322725 -72.691658 -231.513992
10.204809 -72.360474 -231.775421
13.400812 -72.140007 -232.137787
18.012547 -73.214577 -232.321518
73.481026 -73.045815 -232.119492
75.457771 -72.286942 -232.129929
78.813522 -72.931595 -232.037155
-162.595657 -72.723053 -232.006592
-160.834915 -73.114532 -232.440521
-159.713455 -72.673775 -231.048981
-157.471466 -71.794952 -231.565720
-155.600769 -72.495232 -231.973251
-154.202682 -73.024857 -232.687073
-141.645416 -73.213280 -231.869476
-141.429214 -73.233604 -232.507309
-140.904343 -72.890411 -232.274429
-140.867935 -72.851418 -231.636978
-137.829834 -72.492111 -232.258331
-135.442230 -72.430115 -231.603012
-134.298889 -72.461502 -231.941635
-134.155411 -72.653481 -232.627609
-123.801834 -73.286125 -232.150040
-14.207479 -72.544273 -231.858734
-9.925158 -72.553886 -231.651260
-8.532773 -73.151993 -231.992203
-6.114127 -71.384773 -232.288971
-2.356745 -73.483276 -231.140594
5.384405 -72.711494 -232.094376
9.762633 -72.928291 -231.777328
9.974771 -72.047058 -231.885300
15.627517 -72.828873 -231.823532
17.685987 -72.321777 -232.866562
68.466736 -73.121292 -233.014572
73.285927 -72.835396 -232.941223
72.147629 -72.356422 -232.284714
78.102806 -72.696724 -231.927231
-165.323105 -72.670738 -232.938599
-165.723007 -72.832077 -232.602417
-162.616821 -73.223328 -232.997421
-160.639847 -73.208755 -232.307129
-154.738876 -73.070534 -232.608017
-133.300049 -72.602661 -232.470612
-134.185730 -71.798988 -232.691528
-124.702347 -72.094086 -232.729538
-13.535019 -73.266876 -232.009964
-7.476421 -72.008820 -232.139099
-7.073581 -72.190315 -231.988693
-1.403518 -73.782616 -233.254471
5.895133 -72.837715 -233.226273
6.009258 -72.750381 -233.459808
15.430805 -72.971397 -232.724030
68.259064 -73.777992 -233.310898
72.677750 -72.407356 -232.217880
72.195389 -72.695061 -232.573669
74.553001 -72.864487 -232.722244
79.215584 -73.849754 -233.451401
-158.834442 -71.975876 -233.644928
-158.074768 -73.065399 -232.095474
-153.723465 -73.362442 -233.213135
-154.320084 -72.492554 -232.768478
-153.071548 -73.153603 -233.118774
-142.200134 -72.521538 -232.700882
-124.167290 -73.074959 -232.786041
-12.891758 -73.219879 -232.745514
-12.717992 -72.571114 -232.814896
-6.965767 -70.973442 -232.717789
-7.060683 -72.322220 -233.954651
-1.712629 -72.164078 -232.984085
10.225921 -73.093513 -232.915085
11.042023 -71.842621 -232.996826
14.618487 -72.999229 -232.947342
67.648811 -72.449348 -232.794357
71.351555 -72.984749 -233.507996
72.520599 -73.220879 -232.837723
73.576424 -72.755661 -233.086349
73.251213 -72.952850 -233.203156
78.520821 -73.058167 -232.836456
-165.382172 -72.550255 -233.356400
-165.817215 -72.205841 -232.831772
-157.713745 -72.597557 -232.038895
-155.340988 -72.777367 -233.159485
-142.554474 -73.168800 -232.877914
-132.859879 -72.024590 -233.652390
-131.531937 -73.315521 -233.634308
-129.744431 -71.832878 -232.480743
-125.467201 -73.093948 -233.754272
-124.585640 -72.352989 -233.176178
-11.702928 -73.270012 -234.127060
10.287805 -72.614983 -233.532761
14.390225 -72.993057 -232.003632
14.380616 -72.633087 -233.051514
18.142452 -72.136391 -233.054855
66.657059 -73.092522 -233.699554
67.315025 -72.867722 -232.977539
72.110741 -72.282478 -233.233765
74.397118 -72.272362 -233.953720
77.763329 -72.389130 -234.059402
-160.559799 -73.281456 -233.071060
-156.924759 -72.489983 -233.618362
-155.499252 -72.818893 -233.114090
-154.236740 -73.152626 -234.202942
-153.231094 -73.005898 -233.721359
-153.331482 -73.028458 -233.188507
-143.483612 -72.699600 -233.315277
-132.365784 -72.162209 -233.565964
-131.365189 -72.359062 -234.039474
-129.601257 -72.995583 -233.483551
-128.401321 -72.741287 -233.599792
-127.062836 -73.360603 -234.297028
-124.847908 -72.689774 -233.661362
5.907477 -73.407768 -233.525436
9.626700 -72.340309 -233.766281
11.893483 -72.150490 -233.702194
13.081923 -71.865166 -233.489822
14.144620 -72.916695 -233.474228
14.897878 -72.200233 -234.329453
18.070875 -72.943092 -234.361710
67.635773 -73.244217 -233.606781
72.197205 -72.061569 -233.867508
71.344131 -71.783234 -233.524887
73.339195 -72.383629 -233.687607
76.967422 -73.163933 -234.242126
-160.157318 -72.341972 -234.760803
-159.334869 -73.029877 -234.618835
-155.911072 -73.649582 -233.743927
-153.711975 -72.712044 -234.728104
-153.929916 -72.546509 -233.937943
-143.014648 -73.180634 -234.499481
-128.462402 -71.972366 -234.496567
-127.885193 -73.018814 -234.089462
-126.221649 -71.674324 -234.597336
-125.170403 -72.600861 -233.840897
-10.272196 -72.533798 -234.052567
11.060441 -72.310127 -234.416412
11.779595 -73.046120 -234.114029
13.036360 -72.901382 -233.389725
12.358966 -71.998375 -233.813324
14.722312 -72.347115 -233.985626
66.723709 -73.350266 -233.688156
70.760727 -72.094543 -234.847855
71.578201 -72.870079 -234.244675
72.932899 -72.343903 -234.362808
73.440247 -72.217407 -233.420364
76.736061 -73.053947 -234.229187
-165.702454 -73.338364 -235.242645
-165.511475 -73.156265 -233.384583
-158.880035 -72.557678 -235.212738
-156.889313 -73.216103 -234.691849
-154.904236 -72.178024 -234.016663
-152.304764 -73.385963 -234.260925
-152.535614 -72.793343 -234.537796
-150.725143 -73.263695 -234.925461
-10.333899 -72.896935 -235.379822
-0.543498 -73.123024 -234.594009
6.117549 -73.208694 -235.062805
12.175009 -71.207832 -234.319824
13.118916 -72.733376 -233.623322
14.238811 -72.670494 -235.376740
18.806814 -72.579575 -234.036530
65.920662 -73.193283 -233.705658
66.105576 -72.089104 -234.188797
70.295288 -72.302147 -234.926666
71.152473 -72.920471 -234.966003
72.523163 -72.532921 -235.121490
-166.641434 -72.688263 -235.537796
-157.961731 -73.431297 -234.068817
-154.854279 -72.662308 -235.376678
-153.187286 -72.724449 -235.050720
-151.614258 -73.454231 -234.832550
-144.949142 -72.990303 -234.903885
5.635122 -72.979904 -234.465393
13.648575 -72.379440 -235.165909
15.586123 -72.520302 -235.096405
18.159533 -73.056725 -235.365860
65.545547 -73.489906 -236.083496
69.410156 -72.634781 -235.066437
70.698326 -72.533356 -234.965439
71.327377 -72.669327 -234.258057
73.128799 -72.584579 -233.956757
75.917061 -72.909492 -234.542053
-165.501053 -73.109406 -235.461761
-159.175827 -72.738396 -235.269409
-156.951233 -73.081306 -234.866043
-156.335876 -72.867134 -234.293518
-154.778931 -73.047409 -235.131897
-153.312546 -72.821724 -235.272568
-150.938965 -73.617905 -235.352661
-145.064621 -72.566002 -234.602173
-7.398700 -73.939079 -234.961533
0.365898 -72.940994 -236.301605
6.951326 -72.739929 -235.799728
6.215554 -71.976860 -234.644257
10.496471 -73.266098 -234.542236
10.295977 -72.893448 -235.520126
12.719913 -72.053772 -235.481918
14.861384 -72.422302 -234.293747
66.692833 -72.968933 -235.718735
64.255562 -71.577179 -235.176224
70.667862 -72.848274 -235.700439
70.428368 -72.899582 -235.144241
71.271515 -72.080681 -235.011566
75.131233 -72.348907 -234.848892
-156.003555 -73.130600 -236.554443
-152.346802 -72.240440 -235.654556
-145.298187 -73.173828 -235.114975
0.847802 -73.613174 -235.783203
11.629157 -72.360901 -235.950485
12.202917 -72.006165 -235.084381
13.627852 -72.419571 -235.317215
14.665294 -72.752815 -236.187698
15.770505 -73.167519 -235.618546
18.367666 -72.786446 -234.593338
64.953079 -72.444954 -235.391068
68.773819 -72.204521 -237.058151
69.727531 -72.734337 -235.570847
70.179512 -71.728104 -235.131958
71.034134 -72.468277 -235.991272
73.986557 -72.992233 -235.355164
-166.221756 -72.063080 -236.576035
-158.122314 -72.809021 -236.333603
-8.582094 -72.395653 -235.167786
0.742518 -73.017265 -236.307266
15.105420 -72.563538 -236.025909
65.171349 -73.044243 -236.763992
67.631203 -72.226082 -235.522385
70.007401 -73.067757 -236.315689
70.157990 -72.578415 -236.624420
74.461700 -74.156624 -235.885300
-156.816742 -72.320755 -236.950775
-153.319870 -73.236946 -235.155487
-151.099075 -72.777832 -236.905075
-151.624878 -72.167313 -237.412659
-144.784058 -72.372246 -236.659241
13.124619 -73.046349 -235.803833
15.718597 -73.214981 -237.183136
19.031006 -72.801659 -237.355438
63.982830 -73.374115 -236.793076
68.207443 -72.159378 -236.407379
70.764702 -73.113968 -237.242645
69.762405 -72.124779 -236.112122
74.097519 -73.229881 -236.845993
-164.989761 -72.800697 -236.895615
-165.944443 -72.655716 -236.929794
-153.648758 -73.056152 -237.018219
-152.633057 -71.831001 -236.959305
-151.058548 -73.365646 -237.382904
-17.743567 -72.905952 -237.823761
-17.528631 -73.106445 -237.026810
-15.931004 -73.508224 -236.789642
-15.639081 -73.159492 -237.232315
-12.746862 -73.351128 -237.557999
-11.825223 -73.270699 -237.315063
-7.300392 -73.296700 -236.321472
0.964615 -72.444336 -237.305389
7.082665 -72.286034 -237.086075
12.071004 -73.744102 -236.691513
14.705263 -72.133003 -236.898361
19.622486 -72.999748 -237.061523
66.993355 -72.531677 -237.170334
68.970818 -73.195457 -237.064392
69.666397 -71.864510 -237.501572
73.939178 -72.314011 -237.560181
-164.844391 -72.481178 -237.184158
-154.849640 -73.015327 -237.013763
-144.652390 -73.393944 -236.820618
-19.937614 -72.913841 -237.855194
-18.755251 -72.569717 -237.776566
-11.657767 -72.969406 -237.810730
-5.652838 -72.469696 -238.322403
6.939183 -72.565620 -237.437943
12.300058 -71.981003 -235.952850
13.557188 -72.174644 -237.481979
14.138291 -72.457863 -238.390274
15.444656 -72.997711 -237.447403
61.596363 -71.801414 -236.843964
67.276581 -71.713608 -237.298508
68.275307 -72.249924 -237.746384
72.996704 -73.147911 -236.708191
72.791260 -72.341087 -237.640686
-21.154240 -72.384323 -237.713074
-18.373766 -72.416611 -238.007339
-10.915843 -72.882111 -238.162766
-10.366564 -71.963028 -237.799057
-5.217813 -72.518761 -236.979095
1.751845 -72.545990 -237.656052
7.023203 -73.328087 -237.616882
15.478803 -73.242584 -238.028336
62.864456 -72.261147 -237.133728
67.440056 -73.330009 -237.336304
68.782433 -71.800301 -237.971054
-165.929779 -72.562927 -237.344940
-154.446655 -72.254608 -237.658142
-152.984238 -73.639877 -238.096069
-153.577042 -73.134438 -238.144562
-151.655319 -72.987999 -238.415909
-144.576813 -72.859619 -238.269348
-22.283209 -72.090614 -237.607117
-21.335606 -73.156586 -238.329742
-20.020021 -72.653503 -237.780655
-9.495617 -73.133186 -238.312088
-4.597874 -73.628349 -238.457352
0.421325 -72.647156 -238.101395
7.388463 -71.586868 -238.067429
8.495912 -72.094154 -237.624481
12.345439 -73.222870 -237.698898
13.182835 -73.055473 -237.949158
13.841795 -72.867889 -238.703629
61.506924 -73.337967 -238.043594
66.572426 -71.960579 -238.300720
66.726616 -72.458672 -238.156677
66.531143 -72.270493 -237.864639
-165.762421 -72.245148 -238.706985
-145.935455 -73.241287 -238.440948
-21.954000 -72.289520 -238.288925
-20.998085 -72.827034 -237.699112
-19.760117 -72.094002 -237.737961
-10.292042 -72.614433 -238.560318
-8.306723 -72.967575 -238.287811
-4.414636 -72.935852 -238.687805
-3.781508 -74.234749 -238.482758
-2.527254 -72.820084 -239.289368
-1.891824 -73.575157 -238.439240
7.039721 -72.900223 -238.644760
7.212270 -72.046631 -238.292633
12.190342 -72.138206 -237.145935
19.472290 -73.283035 -238.139175
61.891632 -72.390137 -237.887619
66.220772 -72.341675 -238.332275
67.410484 -72.121902 -238.101196
71.495270 -73.354294 -238.387817
-151.157272 -73.227684 -237.966568
-23.898628 -73.326584 -238.999374
-22.647669 -72.434425 -238.320770
-21.425133 -72.174370 -239.229340
-9.112927 -72.681183 -238.979492
-8.159636 -71.739975 -238.137009
-3.943266 -72.356079 -238.945618
-2.094915 -72.296211 -238.989258
-1.904527 -71.784470 -238.306839
0.476548 -73.424301 -238.629425
15.815661 -73.698730 -239.187195
61.057964 -73.202637 -238.612305
64.866493 -71.841782 -239.153519
70.476234 -73.323303 -238.687805
-153.528152 -73.554115 -239.020493
-153.175095 -72.859100 -239.252319
-151.744690 -73.312515 -239.981720
-145.180496 -72.521599 -239.285263
-22.423075 -72.785889 -238.828491
-22.104414 -72.577499 -239.487137
-8.027781 -71.940941 -238.696243
-3.042702 -72.782761 -239.491669
0.525003 -72.232491 -239.164520
7.663711 -72.898079 -238.645233
12.556103 -73.361336 -239.439774
12.022923 -72.802032 -238.413940
61.837891 -73.551262 -239.231400
69.889671 -73.163872 -239.346710
-165.911804 -72.997879 -238.812408
-145.916367 -73.083984 -240.555923
-24.338009 -72.001511 -239.178864
-21.808910 -72.992393 -240.545609
-22.348486 -72.930405 -240.372879
-9.969766 -72.833199 -239.966034
-7.968798 -72.609451 -240.092514
-5.083213 -72.254288 -239.764999
-3.309633 -72.156708 -238.913071
-3.071530 -72.087128 -239.391068
-1.662671 -73.262405 -239.834335
-0.019662 -72.838425 -239.657501
7.827647 -72.919006 -239.752869
13.337198 -72.689034 -239.824249
14.840564 -72.939148 -239.776276
18.382626 -72.334930 -239.913208
-20.877302 -72.505783 -240.542648
-9.781527 -72.089897 -240.168213
-7.985933 -72.832352 -239.718994
-5.907619 -71.893494 -239.656952
-4.720721 -73.059402 -240.435349
-3.907093 -72.231201 -239.378387
-3.174473 -72.332672 -239.563248
-0.608912 -73.045776 -239.947128
8.525661 -72.969055 -241.225449
13.874022 -72.309700 -240.914063
14.530145 -72.997734 -241.308655
19.393808 -73.297501 -239.584320
60.810795 -72.826447 -240.456024
-166.159805 -72.786079 -240.375870
-152.271988 -73.441414 -239.693726
-145.461319 -72.717674 -240.825745
-21.342268 -71.398308 -240.634018
-21.672819 -71.504089 -240.613708
-9.778080 -72.956940 -240.361588
-7.751122 -71.803131 -240.875168
-5.453513 -73.187614 -241.377411
-4.865024 -72.130516 -240.815094
-3.638288 -72.874847 -240.213181
-2.494668 -71.972939 -239.748428
-1.135970 -73.073959 -239.904083
-1.454155 -72.897247 -239.670380
1.402240 -73.898163 -240.154633
7.448364 -72.239731 -240.746826
19.136896 -73.367348 -241.363068
59.523022 -73.018333 -240.287491
59.147129 -72.867828 -240.990707
67.489792 -72.994415 -240.838287
68.158157 -72.669754 -239.854172
-152.412994 -73.272385 -241.245621
-145.059402 -72.954445 -241.146835
-23.264063 -73.064415 -240.932434
-22.092024 -73.335075 -240.904953
-9.388144 -73.360939 -241.386734
-6.000852 -73.876801 -240.627151
-1.958811 -72.270859 -240.720078
-0.937607 -72.685242 -241.892273
-0.606359 -73.049431 -241.156754
1.658419 -73.209518 -240.306046
7.840101 -72.853523 -240.545822
58.953331 -72.544403 -240.517838
67.412827 -73.503944 -240.846085
-21.153694 -71.771637 -241.115097
-20.789719 -72.200005 -240.789307
-11.347383 -72.688019 -241.815826
-10.371339 -72.187195 -240.859207
-6.279496 -73.012924 -241.637482
-2.096645 -72.742043 -241.289520
-1.404981 -72.525230 -241.028214
1.559553 -72.226418 -240.999008
8.859965 -71.922859 -240.992554
59.125679 -71.893692 -241.560745
66.822823 -72.184227 -240.952133
-166.328400 -73.087585 -241.557800
-19.808790 -71.956665 -242.765442
-13.645411 -72.389908 -242.211426
-12.024796 -72.418800 -241.492188
-2.184155 -72.397453 -242.202164
-0.585355 -72.669586 -241.172775
-0.425185 -72.760170 -242.315567
2.145401 -72.601784 -241.416656
7.945427 -72.607338 -241.119232
18.516520 -71.512054 -241.872849
57.261635 -71.709793 -241.843719
58.827930 -71.921730 -241.984055
65.266235 -73.041878 -241.519043
66.434204 -71.487556 -242.589172
-165.958191 -72.595161 -241.047531
-145.445099 -72.580666 -241.996063
-20.285204 -72.978416 -242.351639
-19.563366 -72.467606 -242.154037
-20.615625 -72.322289 -241.971634
-20.152288 -72.157654 -242.999420
-19.626692 -71.941635 -242.215958
-18.452522 -71.992233 -242.043976
-16.586721 -72.923080 -241.944305
-16.159018 -72.793922 -242.654861
-14.897773 -73.121124 -241.949753
-14.908363 -73.024796 -242.282913
-14.144015 -72.263580 -241.944305
-6.637605 -72.546089 -241.709885
-8.327050 -71.792168 -243.032089
-0.757495 -72.527916 -241.866714
9.396276 -72.209801 -242.390991
18.033741 -72.727898 -241.900330
18.238342 -73.116127 -242.613525
18.227106 -73.306709 -242.384293
64.057121 -73.416351 -243.005066
-144.999786 -72.316040 -242.493042
-7.602300 -71.957863 -243.577805
-6.847199 -73.044815 -243.133621
-1.759241 -72.893318 -242.478683
-0.021133 -72.770676 -242.326584
-1.216311 -71.586411 -241.920883
-0.466336 -72.661736 -242.565842
1.858660 -73.179413 -243.316971
3.050344 -72.667282 -243.300262
3.129880 -72.053688 -242.424332
4.881681 -74.311752 -242.885757
4.746704 -72.082100 -242.874557
10.403130 -72.313896 -242.452087
56.424847 -72.586899 -243.239822
57.417870 -73.183777 -242.069687
66.215599 -72.202721 -242.989853
-165.744156 -72.626129 -241.982178
-144.942245 -73.321465 -242.739334
-7.496392 -72.443184 -243.649765
-7.375773 -72.212395 -243.192871
-0.774635 -73.150070 -243.097534
-0.157561 -72.468582 -242.752533
2.554452 -72.725220 -242.820648
2.198379 -72.547638 -242.894958
5.874766 -72.543854 -243.068436
7.301729 -73.694618 -243.688614
10.864792 -72.700867 -242.798019
10.790502 -72.049606 -243.554428
18.428057 -72.801567 -243.012054
18.639832 -71.739296 -242.465561
55.459606 -72.371658 -243.715256
56.079937 -72.577469 -243.320892
56.913372 -73.408119 -243.311722
65.384239 -72.822479 -243.130234
-165.913971 -73.080986 -242.985657
-8.014777 -72.356125 -243.900589
-6.418133 -73.134262 -244.312927
-0.825409 -73.413803 -243.430466
0.363217 -73.143738 -243.675507
7.208755 -73.141899 -242.728882
7.978249 -72.818039 -244.040741
10.838233 -72.479156 -243.067795
18.285238 -71.673813 -243.926529
18.378757 -72.431084 -242.994965
55.928883 -72.149300 -242.961334
56.600349 -71.937912 -244.162613
63.665298 -71.982193 -243.520386
-166.101303 -72.789513 -243.768524
-145.132568 -72.792458 -243.674683
-8.963186 -72.053391 -243.943375
-7.428516 -71.368790 -243.699081
0.969261 -73.147217 -244.002655
8.117728 -71.917587 -243.295700
9.762760 -72.383377 -244.522141
9.411119 -72.845230 -242.962921
10.111296 -72.764671 -243.845520
11.391629 -71.683479 -244.145966
18.547174 -73.125465 -245.065079
55.782326 -71.714851 -243.615021
55.019787 -71.989105 -243.354568
63.155846 -73.985710 -243.688416
63.823475 -71.911316 -243.379257
-166.247360 -72.657906 -244.772705
-166.484177 -71.816483 -244.069992
-8.114291 -72.997444 -244.017242
-7.549062 -72.175110 -244.196732
-6.528312 -72.635368 -244.459671
-5.105369 -73.255203 -244.304611
11.063962 -71.800354 -243.669785
17.842903 -71.402344 -243.921646
54.783611 -72.670540 -244.515732
56.513306 -74.126923 -243.282120
56.008026 -72.450386 -243.838501
60.344639 -73.626305 -244.265228
61.141594 -73.711998 -244.163803
63.130360 -72.602867 -244.548569
-166.151611 -72.752502 -244.649857
-145.132248 -72.430779 -243.346832
-56.748299 -72.903000 -244.422684
-56.139576 -73.080002 -244.823563
-6.349926 -72.200882 -244.948761
-4.772810 -73.194328 -243.447723
53.018253 -72.729836 -244.427368
53.939220 -72.580482 -244.299988
56.973396 -73.117538 -245.313110
60.820805 -72.615334 -243.456970
62.505234 -72.574394 -244.144608
-61.747608 -73.310791 -244.908737
-58.332443 -73.435341 -245.414871
-60.076939 -73.684952 -245.561676
-57.156940 -72.713226 -244.833115
-56.136890 -72.681519 -245.493439
-9.243916 -73.553436 -245.388275
-7.993282 -72.585373 -244.214706
-7.066282 -72.549278 -244.748093
-3.785108 -72.651840 -245.398849
-5.170603 -72.872803 -245.182648
18.729208 -71.730667 -245.246536
53.302528 -71.499664 -245.319580
54.775154 -72.428604 -245.500885
59.515579 -74.189987 -245.659058
60.777088 -73.049767 -244.933823
60.657558 -72.259163 -244.838470
-167.256516 -71.668678 -245.987259
-145.666168 -73.241257 -244.386932
-62.779449 -72.445686 -245.812195
-64.439903 -72.454941 -245.708374
-61.035648 -73.030312 -244.941330
-61.226311 -72.239471 -245.029694
-60.196102 -72.118507 -244.977203
-59.794285 -73.332932 -246.010406
-56.612278 -71.863930 -245.642441
-56.118439 -72.465599 -244.871826
-55.171803 -72.313324 -245.137787
-9.750590 -72.696938 -244.854065
-9.287587 -72.112915 -245.034454
-7.328436 -73.012680 -245.276947
-5.765925 -73.161713 -245.943817
-4.659236 -73.213020 -245.896561
-4.573102 -72.416901 -245.529648
52.443897 -73.050110 -244.507004
54.311157 -72.443756 -245.728607
58.015446 -73.649559 -245.809006
60.066036 -71.673935 -245.598404
61.705471 -72.779213 -245.208328
-165.861526 -73.024025 -245.343216
-66.414398 -73.211838 -245.871155
-64.691185 -73.050591 -245.631348
-65.713890 -73.350334 -246.293198
-64.454994 -71.798248 -245.460907
-62.574295 -72.332733 -246.335617
-61.195393 -72.377625 -245.797348
-61.206612 -72.726891 -245.013519
-55.917633 -72.607353 -245.081177
-8.978051 -73.104927 -246.510727
-6.633313 -72.532120 -245.881516
18.526257 -71.565857 -245.692856
19.937647 -73.180099 -246.719955
19.170057 -71.539528 -246.723419
51.052292 -71.909927 -246.210144
51.468273 -73.377182 -246.303955
53.613388 -73.287254 -244.760345
54.188854 -72.033745 -246.295380
55.314320 -73.169029 -246.137543
56.802479 -72.637550 -246.266724
58.276749 -73.134178 -245.240479
59.043221 -72.166191 -245.888290
-68.062660 -73.219414 -246.447861
-67.416351 -73.663307 -245.553467
-67.135727 -72.258377 -245.677475
-65.255714 -72.869461 -246.657867
-64.831497 -72.131851 -246.366058
-63.344700 -71.886604 -246.907471
-62.377430 -72.153183 -245.798111
-61.032887 -71.702782 -246.522858
-59.658760 -71.253304 -246.074509
-58.142284 -73.033531 -246.379456
-57.830540 -72.280907 -245.987854
-56.566456 -71.905952 -246.122742
-11.310018 -72.285751 -246.363632
-9.021378 -72.701042 -246.938538
-7.500487 -73.972069 -245.611282
-5.975450 -73.126350 -246.365372
19.981256 -72.769936 -246.504913
19.276432 -73.602394 -247.008575
51.849968 -72.413773 -246.511703
52.818916 -72.529999 -245.869568
56.126259 -72.530029 -245.457947
57.973484 -72.778244 -246.669357
58.672520 -72.409393 -246.107208
-166.420883 -73.025558 -246.963348
-146.309555 -72.109825 -246.686325
-70.263115 -72.990128 -247.854630
-69.107941 -72.262001 -246.154861
-68.455811 -72.179832 -246.132385
-68.176010 -72.756714 -246.904739
-67.453224 -71.961327 -246.371964
-59.380566 -71.970345 -247.157578
-57.776398 -72.478691 -246.445724
-57.304546 -72.890976 -246.093903
-55.209198 -72.065681 -246.427933
-54.083359 -72.694122 -246.721558
-54.966187 -72.531250 -246.404053
-10.057489 -72.058762 -245.990158
-9.790915 -72.410744 -246.665695
17.095003 -72.942070 -246.355240
18.377245 -72.708397 -246.057877
18.061493 -71.979057 -246.687790
19.587797 -73.006088 -245.628662
50.219910 -71.115379 -246.941940
51.647930 -72.924957 -246.490387
52.418461 -72.434990 -247.028671
53.214870 -72.057121 -246.457611
53.472885 -73.573906 -246.480301
55.291447 -73.380165 -246.074905
55.699379 -71.998466 -246.546829
-167.195953 -71.872330 -246.112122
-72.394882 -73.258209 -247.961914
-71.960289 -72.361626 -246.725784
-70.851440 -72.894356 -247.139740
-69.891029 -71.155731 -246.804688
-55.642673 -72.817841 -247.390305
-11.293279 -72.320564 -247.401031
-10.675406 -72.199173 -246.550278
-8.058043 -72.747871 -247.147812
-9.029519 -72.873436 -247.152298
17.649649 -72.822998 -246.278671
17.753796 -72.069443 -247.415634
50.235928 -72.914970 -247.457962
51.392132 -72.296371 -247.248779
52.120358 -73.582970 -246.626678
55.592728 -72.491768 -246.745605
56.189728 -73.017776 -247.091660
57.216965 -72.605072 -247.084290
-145.792130 -72.913452 -247.054245
-73.392731 -72.951637 -246.725311
-74.934105 -73.001480 -246.633636
-59.866085 -72.511055 -247.622391
-58.547096 -72.529945 -246.560196
-56.750858 -73.037193 -247.009705
-56.272358 -72.355812 -246.893234
-9.090840 -73.641083 -247.407684
16.166618 -72.918564 -247.952988
50.582272 -71.927139 -247.261581
52.138294 -72.794556 -247.354324
54.043549 -72.776443 -247.366989
53.938400 -72.360413 -247.200272
55.272053 -72.940956 -247.769028
57.175797 -72.781593 -247.193619
57.033745 -71.597534 -247.852783
-166.239990 -73.113823 -247.566788
-144.912506 -73.052902 -248.535355
-76.639839 -72.751251 -247.081360
-75.232559 -73.360542 -247.389786
-61.265705 -71.591148 -247.473007
-61.197395 -71.776047 -248.160477
-58.112812 -72.589340 -248.233414
-57.659164 -71.868477 -247.599304
-10.999570 -72.425034 -247.753281
-7.892191 -72.875412 -248.288345
-9.239287 -73.668068 -247.439850
16.765558 -73.189415 -247.933395
49.737221 -72.052757 -248.371658
51.172474 -72.462402 -248.008041
53.772301 -72.369591 -247.948288
54.831654 -72.579460 -247.368164
-166.453629 -72.535263 -247.747238
-145.601059 -72.468628 -248.844849
-78.048180 -72.178307 -248.509720
-76.880211 -72.003799 -248.057739
-60.470253 -71.933708 -248.732422
-59.619499 -72.610985 -248.296982
-10.114146 -72.079262 -248.008957
-10.097734 -72.498161 -247.670959
17.393658 -73.221573 -248.407410
49.633221 -72.327049 -248.407379
50.109428 -72.217957 -248.178864
50.162354 -72.348824 -247.673538
51.590538 -72.129402 -248.329178
51.565086 -73.075455 -247.522827
53.669662 -72.257416 -248.433899
54.135773 -72.275337 -247.275925
-166.278580 -72.686279 -248.311020
-167.031815 -72.078018 -248.323639
-78.678185 -73.078629 -248.430832
-62.354477 -72.027496 -248.066315
-60.670292 -72.033989 -249.192856
-59.016445 -72.787796 -248.844421
-59.392113 -72.877304 -248.630432
-10.683464 -71.607872 -248.616226
-9.472187 -73.357841 -248.419586
48.587921 -72.402672 -248.665253
50.713795 -71.608398 -249.235687
51.553978 -72.410538 -248.481720
52.791779 -71.725990 -249.025360
-166.722336 -73.424416 -249.067657
-78.985611 -72.329834 -248.897797
-81.708939 -72.407883 -249.297073
-79.669991 -71.715950 -248.657410
-62.132504 -71.736664 -248.533493
-59.175293 -72.588760 -248.995605
-61.470814 -72.649605 -249.052460
-10.795480 -72.141624 -249.067337
-9.709208 -72.509552 -248.762131
48.229546 -71.796478 -249.354538
50.062550 -72.619041 -248.711472
50.606674 -72.974373 -248.747208
51.034584 -72.359390 -249.021729
52.305172 -72.022026 -248.591858
-81.691338 -73.226593 -249.274933
-62.403774 -72.177711 -248.538513
-12.931933 -71.894661 -249.515640
-12.681121 -72.783089 -249.367920
-9.436676 -72.989662 -249.340164
-10.539286 -72.525200 -249.085876
19.008261 -72.750031 -249.500183
49.668739 -72.504700 -249.293808
-166.278702 -73.006760 -249.211044
-146.037720 -72.492371 -249.529358
-83.189491 -72.933281 -249.395538
-65.340553 -72.406776 -250.117447
-62.640381 -73.270981 -250.109192
-64.281693 -72.842705 -250.124130
-61.804379 -73.418938 -248.629883
-62.902916 -73.398399 -249.873138
-62.404846 -72.723709 -250.344437
-11.288949 -72.022812 -249.467880
-10.313104 -72.909256 -249.668289
20.160200 -73.516716 -250.765045
20.439100 -73.884956 -250.773895
47.834415 -72.198364 -250.250610
49.162655 -72.053024 -249.596313
-166.538864 -72.504883 -250.076996
-166.803574 -71.975029 -249.844894
-145.133453 -72.573181 -250.462265
-65.479355 -71.740005 -250.187683
-63.679234 -72.829170 -250.357361
-14.133526 -72.812798 -249.330276
-13.196856 -72.073318 -250.074936
-12.957636 -72.825584 -250.824799
-11.625866 -72.405540 -250.075333
-9.696775 -72.798691 -249.603363
-11.273666 -72.927711 -251.122986
-145.617142 -72.975021 -251.160629
-85.566566 -72.555145 -251.005188
-65.608894 -72.461533 -250.325043
-65.744484 -72.757240 -250.440369
-64.868759 -72.759766 -250.202103
-64.527107 -72.279388 -249.842819
-14.134069 -73.235046 -251.085495
-12.692323 -73.670425 -250.298706
-12.728971 -73.114815 -250.884537
-10.328996 -72.832184 -250.792618
20.227510 -73.406769 -250.519333
-167.138046 -73.153824 -250.613327
-88.230553 -73.640648 -250.640808
-86.629982 -72.498962 -251.307205
-86.641350 -73.286285 -251.709930
-67.216484 -71.613327 -251.292358
-66.548203 -73.305038 -251.289307
-67.737747 -72.784691 -250.872955
-10.860114 -72.136497 -251.906189
-11.011298 -72.683517 -250.424561
-166.855057 -73.166077 -252.378647
-144.850601 -72.666061 -251.338898
-90.182442 -73.167725 -251.716492
-90.251999 -72.297752 -251.930618
-88.580696 -72.579453 -251.785400
-68.259857 -72.754921 -250.739487
-69.188850 -72.088356 -251.374115
-13.682890 -72.367805 -251.304077
-13.780683 -72.289787 -250.864365
-11.616678 -72.974205 -250.786896
21.866909 -72.388496 -251.227158
-145.650787 -73.676758 -251.610336
-89.909233 -73.888023 -252.056732
-68.969749 -71.821663 -252.119858
-69.364380 -72.821114 -252.140442
-69.861435 -72.784836 -252.524826
-13.745784 -71.938255 -251.596207
-13.079090 -73.765564 -251.280746
-11.939346 -72.290207 -251.593887
20.652861 -73.018784 -250.972412
-167.979233 -72.695198 -252.659622
-89.607086 -73.761208 -252.040161
-90.414703 -72.698448 -251.001450
-71.538254 -72.801826 -251.805237
-71.392921 -72.432457 -252.551331
-12.589425 -72.786438 -251.688065
-12.043843 -72.642899 -252.060547
21.524689 -72.607567 -252.510742
-166.431274 -73.524948 -252.434631
-145.094254 -72.873642 -252.823380
-94.108299 -72.998955 -253.156494
-92.012733 -72.426582 -253.397461
-72.667542 -73.149994 -253.688095
-73.436005 -72.731964 -251.862839
-12.584252 -72.827278 -252.401489
-12.253192 -72.531357 -252.917175
-12.989728 -73.091576 -251.551575
-166.275299 -73.650391 -252.664337
-144.833679 -73.791008 -252.989365
-145.453003 -72.288811 -252.591599
-94.259750 -73.066963 -253.070740
-74.371986 -72.689743 -252.492691
-12.110620 -72.439247 -253.274963
-13.359942 -71.887672 -252.127090
22.459024 -72.249908 -253.065628
-166.595627 -73.253021 -253.696655
-166.258392 -72.331253 -254.620621
-145.604095 -73.692055 -253.905823
-144.240921 -72.956726 -253.114441
-95.086975 -71.755997 -253.290222
-94.050690 -73.752914 -254.054901
-74.593430 -72.410522 -253.284256
-76.027077 -72.893295 -253.598053
-13.484361 -71.633179 -253.579239
21.745323 -72.304573 -253.939987
-143.707550 -72.500397 -254.073563
-144.716965 -72.980637 -254.197556
-97.258781 -71.876091 -253.897644
-96.015503 -72.647812 -253.941086
-95.429131 -72.525948 -252.573914
-94.882240 -73.562386 -253.466751
-95.655670 -72.558083 -253.800400
-95.579941 -72.629921 -254.125504
-77.394211 -73.458405 -253.378708
-78.291527 -73.174194 -254.455063
-12.954028 -73.205482 -254.288116
-13.698867 -73.575912 -253.095917
21.905396 -73.422668 -253.290314
-127.486336 -72.880409 -254.889465
-125.401207 -72.596466 -254.486282
-99.192879 -71.059990 -254.375229
-97.000664 -73.035767 -254.467468
-98.490303 -73.110756 -253.802155
-78.996254 -73.132256 -254.084534
-12.631260 -73.947815 -254.722916
22.370600 -73.055420 -253.956207
-142.801941 -72.847450 -255.098801
-133.052277 -72.854607 -254.996277
-132.239670 -73.096252 -254.745453
-132.899551 -72.446465 -253.897812
-131.172958 -72.553566 -255.193298
-130.925446 -71.533966 -254.616974
-128.880753 -73.244232 -254.953278
-129.801132 -73.494911 -254.620651
-127.721344 -72.344704 -254.729034
-125.860031 -72.778549 -254.125977
-99.107323 -72.494759 -253.953735
-98.326187 -73.408020 -254.811035
-81.713608 -72.978592 -254.974915
-80.074905 -72.780266 -255.293152
-81.148460 -72.873177 -255.214447
-13.701407 -72.402168 -254.506332
-142.972031 -73.076180 -254.248108
-142.815506 -73.726936 -255.064880
-142.953552 -71.902771 -254.289139
-133.646896 -72.424057 -254.742447
-124.506042 -73.648277 -254.892303
-123.220139 -72.867584 -254.678589
-122.394760 -73.277077 -253.845352
-120.113052 -73.590508 -255.311142
-101.130753 -72.644302 -254.827896
-100.031708 -72.635117 -255.404633
-98.345375 -73.175888 -255.187683
-98.732445 -73.152161 -254.618820
-82.594604 -72.737022 -254.989716
-82.166985 -72.516998 -255.003693
-13.604477 -73.375824 -254.674057
-167.387756 -73.276276 -255.337112
-142.706039 -73.064674 -255.373093
-142.445343 -72.808243 -255.457077
-123.977356 -72.097885 -255.416824
-122.252831 -72.283234 -255.885635
-120.892944 -72.944763 -255.922653
-117.930931 -73.393227 -254.936676
-117.221130 -72.641418 -255.099274
-100.683464 -72.990913 -255.193787
-99.287193 -73.865074 -256.073883
-99.601303 -73.018555 -255.120758
-84.110840 -73.322189 -254.951492
-13.752417 -73.422760 -256.282806
22.971920 -73.299973 -254.770111
-142.865509 -73.283646 -256.476227
-142.569687 -72.754486 -256.039551
-141.467072 -71.151581 -255.717316
-140.927307 -72.843521 -256.153900
-138.911041 -73.628838 -256.202728
-138.377762 -72.641663 -255.755493
-137.708847 -72.509544 -255.940567
-137.333176 -71.660683 -256.464783
-136.307449 -72.663101 -256.113251
-134.836884 -73.062737 -255.000336
-134.984619 -73.000832 -255.663422
-116.315399 -73.619629 -255.640320
-103.180443 -72.557556 -256.181732
-101.717323 -72.380058 -255.591812
-87.040001 -73.713440 -255.758575
-85.669220 -73.698006 -255.447189
-14.838798 -72.540939 -256.059265
22.231443 -72.156891 -255.101440
22.611090 -73.300514 -255.761917
-115.627235 -72.853470 -256.409576
-105.179878 -72.439995 -256.851959
-101.566971 -72.862335 -256.612671
-102.347023 -72.170448 -255.720123
-91.175713 -72.244286 -256.547852
-87.341530 -72.097862 -255.766678
-87.285370 -72.882957 -255.892776
-115.414207 -72.231384 -256.261139
-107.826668 -71.902672 -256.665436
-106.175056 -72.614700 -257.061890
-105.752090 -72.299316 -256.676758
-104.290146 -73.463074 -257.257538
-103.478897 -72.624146 -255.744675
-103.668823 -72.288681 -256.841370
-90.249695 -73.195030 -257.414978
-91.430542 -73.154495 -257.894745
-90.065132 -73.927246 -257.157928
-89.287964 -71.966957 -256.864746
-14.273892 -72.913757 -256.001617
22.801819 -72.840721 -256.456055
-167.572281 -72.607300 -256.995605
-116.179489 -73.006187 -256.980438
-115.644455 -73.056648 -256.726440
-108.609879 -72.626884 -256.708923
-108.017708 -73.428185 -256.408691
-106.155022 -72.807579 -256.954895
-106.320618 -73.575859 -256.357361
-90.996605 -72.852798 -257.123016
-115.759766 -72.831139 -257.601746
-114.827362 -72.511597 -257.551941
-114.429955 -72.448227 -258.083496
-110.314804 -72.532448 -256.972931
-109.750008 -72.128693 -257.977722
-108.806068 -72.056946 -257.091980
-106.588524 -73.123497 -257.751678
-108.316292 -73.763580 -256.726227
-97.246826 -72.821320 -258.103271
-95.813332 -72.550880 -257.807312
-94.918655 -73.102051 -257.325806
-92.223541 -72.940071 -257.594482
-15.250747 -73.647720 -256.932129
-114.673973 -73.101913 -257.509186
-114.583336 -72.275864 -257.640167
-112.114342 -72.566910 -258.109161
-111.433189 -71.999374 -257.695709
-111.010330 -72.630829 -257.437836
-110.232887 -72.267281 -257.808105
-108.619179 -72.223969 -257.474792
-106.983116 -72.490234 -257.551880
-95.203583 -72.675247 -257.690399
-92.678345 -71.861786 -256.847717
23.566126 -72.648727 -257.740326
-166.568802 -72.608711 -257.928375
-113.454521 -73.071793 -257.937164
-113.317146 -72.841484 -259.067657
-111.978233 -72.525383 -258.628510
-110.317154 -72.677887 -257.986542
-110.603905 -73.209183 -258.583160
-109.601974 -72.341171 -258.381683
-109.182465 -73.718513 -257.694702
-107.815269 -72.079971 -258.575348
-107.769035 -72.561646 -258.639832
-102.383644 -72.697975 -259.122864
-102.367371 -73.065979 -259.046875
-100.266464 -73.759789 -259.010529
-100.581963 -73.055031 -258.952271
-99.338623 -73.152481 -258.140900
-98.317566 -73.294319 -259.095490
-98.480537 -72.919807 -258.066193
-96.278763 -72.719345 -258.250183
-14.198571 -73.193901 -257.619293
22.726776 -72.804703 -258.621826
-104.254257 -73.095245 -258.955780
-98.445557 -72.357689 -258.663635
-96.728951 -71.768974 -258.945862
22.810177 -72.540863 -258.600800
-103.982841 -73.181976 -259.052460
-102.103653 -72.630402 -259.300629
-102.489059 -72.727974 -258.879913
-100.089844 -72.415939 -258.979156
-167.224899 -72.069420 -259.056519
-110.323433 -73.052513 -259.747803
-108.429604 -72.959679 -259.441315
-106.224770 -71.865807 -258.831299
-105.577957 -72.883057 -259.702606
-103.662399 -72.501656 -259.672791
-102.503922 -73.224403 -259.038513
-101.009735 -72.246277 -259.705872
-100.180290 -73.151688 -259.740875
-14.595918 -72.465263 -259.584778
23.875553 -73.338142 -259.061371
-167.232330 -72.988861 -259.934753
-111.700943 -71.723869 -260.247986
-109.074783 -73.480232 -259.236084
-108.569511 -73.177719 -259.246185
-108.160233 -73.370766 -259.801453
-106.306206 -73.303314 -260.759674
-105.630119 -72.830681 -259.551056
-105.005104 -73.487312 -260.477509
-103.520775 -72.659004 -258.639954
-102.076019 -71.725929 -259.405487
-14.063205 -72.739288 -259.141693
23.504217 -72.591324 -259.625732
-166.746490 -72.761490 -260.642731
-113.576332 -73.580154 -260.192169
-114.003540 -73.189636 -260.600067
-111.621086 -73.149101 -260.897705
-108.498993 -73.288750 -260.468109
-107.588242 -72.383675 -259.679718
-106.873650 -72.794815 -259.784180
-106.438034 -71.952972 -260.392761
-104.254959 -72.638718 -260.546722
-16.080679 -72.912857 -259.958405
-110.787201 -72.617508 -260.569397
-110.283936 -72.221947 -260.948700
-109.922035 -72.306480 -259.969086
-108.360275 -73.061066 -260.754089
-14.853061 -72.065681 -260.769897
23.395435 -72.942284 -260.436737
-167.139832 -72.970222 -261.650604
-113.538963 -72.887146 -261.251984
-111.463364 -73.027084 -260.716919
-110.270470 -72.172546 -260.994141
-109.326973 -72.280190 -260.946716
-108.083443 -71.895844 -261.001221
23.366980 -72.873711 -260.515747
23.545935 -71.873085 -261.273865
-166.891953 -73.277611 -262.263702
-116.682045 -73.074875 -261.692596
-114.712730 -72.034668 -261.562347
-113.166786 -72.779770 -260.915070
-112.991287 -72.079933 -261.345612
-110.574432 -72.568108 -261.795044
-110.851883 -72.402985 -261.075226
-109.951447 -72.205574 -261.513641
-14.814000 -73.003548 -261.099884
-123.435745 -72.657646 -261.995026
-120.501717 -72.853592 -261.516266
-120.361656 -72.834267 -261.566132
-117.520271 -72.886139 -261.774933
-114.659935 -72.451393 -261.695953
-113.651512 -72.290207 -260.915100
-15.841563 -73.363258 -261.495544
23.384846 -72.645195 -262.044769
-168.138245 -73.036491 -262.036713
-143.430283 -73.243393 -262.929626
-141.931610 -72.735504 -262.769562
-139.823380 -72.574860 -262.430115
-137.187729 -71.932495 -262.348999
-136.643890 -72.766464 -263.320526
-134.606659 -72.967438 -262.487396
-124.066917 -72.540062 -262.720215
-124.298447 -72.707581 -263.267853
-122.698921 -72.810051 -262.370697
-120.860184 -72.764030 -261.663666
-118.941780 -72.555145 -262.565491
-118.031860 -73.238319 -261.358093
-117.227036 -73.100502 -261.480530
-116.185287 -72.673538 -262.011047
-167.243912 -73.066185 -262.160065
-141.548691 -72.357040 -262.873810
-139.530945 -71.601860 -261.933441
-135.069809 -73.201721 -262.464478
-124.815010 -72.901924 -262.696198
-116.486786 -72.322922 -262.232208
-115.370018 -72.358070 -262.654938
-15.383858 -72.260193 -261.413422
23.958426 -72.755959 -261.775513
23.621071 -72.765396 -262.416901
-143.535950 -73.538155 -262.373291
-135.301208 -72.776955 -263.070099
-124.565407 -72.670670 -262.968140
-14.618025 -74.294426 -262.347260
-167.135666 -72.793648 -262.904846
-142.093781 -73.265160 -262.632935
-143.060974 -72.865715 -263.178436
-133.908752 -73.010712 -263.116150
-124.599861 -73.221733 -263.993347
-167.289703 -72.544044 -264.073578
-143.444321 -72.158394 -263.852295
-132.256744 -73.709129 -264.316162
-130.948715 -72.045578 -264.142670
-125.052544 -73.524261 -264.342072
-14.928769 -72.893372 -264.065643
22.871151 -72.294815 -263.314270
-143.957520 -72.446289 -264.293060
-133.148026 -71.871078 -263.946777
-133.164597 -72.395088 -264.012817
-129.932404 -72.835075 -263.287384
-127.433136 -72.013672 -264.571960
-125.042877 -72.412109 -264.270447
-126.011826 -73.238899 -264.828217
-14.161969 -72.604027 -263.784363
-166.925568 -72.879112 -264.164215
-144.636047 -72.703026 -264.337524
-143.330246 -73.265762 -264.758636
-130.734558 -72.045242 -264.342285
-129.881409 -72.132362 -265.270874
-129.004349 -73.623627 -264.632813
-127.387505 -71.049294 -264.969513
23.122715 -73.028336 -265.615967
-144.784485 -72.106796 -265.163940
-14.548526 -73.397079 -265.244385
-167.218613 -72.820618 -264.991119
-145.004761 -72.868515 -266.292816
-144.428909 -72.213669 -265.055847
-168.196533 -72.896400 -265.966278
-15.727534 -72.974350 -266.207947
-167.359955 -73.271751 -266.575439
-145.151566 -72.843964 -266.368164
22.702637 -73.219429 -265.617157
-167.344574 -72.757133 -267.342712
-145.484360 -73.040085 -267.883759
-15.763850 -72.627419 -267.022125
-166.773178 -72.704765 -267.445313
-145.128876 -72.507187 -267.243011
-14.238647 -73.242683 -268.084503
23.486832 -72.453629 -268.712158
-168.807068 -72.922401 -267.719879
-145.086914 -72.882378 -268.835602
-14.327545 -72.413109 -268.228760
22.995434 -72.088448 -268.298798
-145.177246 -72.860039 -268.300079
-14.389318 -71.681503 -269.297668
-168.283203 -74.030983 -269.800415
-168.132813 -71.613670 -268.784882
-145.550659 -72.898849 -269.752014
-14.230658 -72.960098 -269.311584
22.710585 -73.309029 -269.653870
23.070387 -72.224571 -268.498596
-13.779545 -72.503502 -269.663391
23.163538 -73.466438 -269.755768
-167.368042 -72.199677 -270.719574
-144.778259 -72.822807 -270.124023
22.967468 -73.606979 -269.746918
22.739620 -72.168678 -269.517670
-145.536102 -73.171799 -269.950165
22.568686 -72.676186 -270.503235
22.363359 -72.702484 -270.301666
-167.665878 -72.004906 -271.079376
-167.661758 -72.889740 -270.064667
-14.521067 -72.420052 -269.505798
21.496454 -72.423302 -271.390778
-167.845245 -72.446602 -270.823608
-145.324570 -73.149551 -271.130615
-167.878433 -72.578430 -271.430176
-14.171303 -72.675514 -271.971619
22.918598 -73.158310 -272.406525
