# This PCD file was generated using the MATLAB® pcwrite function
# from Computer Vision Toolbox®.
# .PCD v.7 - Point Cloud Data file format
VERSION .7
FIELDS x y z
SIZE 4 4 4
TYPE F F F
COUNT 1 1 1
WIDTH 1440
HEIGHT 1
VIEWPOINT 0 0 0 1 0 0 0
POINTS 1440
DATA ascii
-64.377586 -56.627213 -71.264389
63.706043 -56.764801 -71.833939
103.310654 -58.030190 -72.410599
-36.767166 -56.436218 -72.499947
64.411285 -57.622108 -72.192017
103.147621 -55.544754 -72.420586
-99.807098 -58.203548 -73.085548
-34.068172 -56.315376 -74.635147
64.053932 -55.718845 -72.982307
103.738373 -57.199791 -73.182388
-35.815300 -57.473824 -72.250252
63.956280 -56.780121 -73.888443
104.671509 -56.627884 -72.694382
64.742378 -56.996075 -74.010300
104.783287 -57.978020 -73.364418
-99.382240 -56.253288 -73.702942
103.957245 -57.293350 -73.929649
-36.118790 -57.323895 -73.831154
-37.270782 -56.372452 -74.913826
64.091599 -55.716087 -73.862152
-98.526978 -56.959465 -74.565140
-36.332516 -56.991104 -75.194199
103.298492 -57.477905 -75.960632
-37.355244 -56.260731 -77.061401
-99.063759 -56.205475 -75.645706
-36.506996 -56.584068 -76.362801
63.007259 -57.264008 -76.501808
104.282433 -57.067825 -76.803009
-99.772392 -58.094940 -76.768188
-36.870022 -57.183537 -76.841896
-38.312050 -56.919804 -76.334976
63.267857 -55.561787 -76.310570
-99.309387 -58.517262 -77.055069
-49.588287 -56.627747 -76.205200
-48.535118 -56.381062 -77.328506
-36.872246 -56.345566 -76.715912
-48.150299 -56.815540 -76.450302
-48.458172 -55.928440 -78.141785
64.695053 -57.211094 -77.751892
-99.883247 -56.635147 -78.087120
-50.867176 -56.222733 -78.682243
-50.071266 -57.183220 -78.221794
-47.900879 -56.295258 -76.826004
-36.682163 -55.302517 -78.592064
63.487213 -56.592148 -77.558662
105.905937 -57.812622 -77.084213
-48.184010 -57.349979 -78.185822
-37.553516 -57.180622 -78.900177
-37.997341 -56.099293 -78.168251
64.316826 -57.715118 -77.851234
-49.833660 -55.377052 -79.447739
-51.723145 -56.792130 -79.075058
-49.961025 -56.237267 -77.991417
-48.295662 -56.713726 -78.663208
-39.471706 -55.839046 -77.674965
64.092186 -57.440823 -77.889450
63.545792 -56.724663 -79.733040
104.749153 -55.108727 -78.539856
-50.138630 -56.011459 -77.915527
-47.156090 -56.034260 -78.896805
-37.925900 -55.893364 -78.381516
-39.157616 -56.662899 -78.106445
63.038216 -56.488922 -78.117798
63.367077 -55.157822 -79.341904
-50.131294 -56.705173 -80.225739
-46.059002 -57.478889 -80.412994
-40.320080 -57.780701 -80.062904
104.622253 -56.634815 -78.745064
-51.652184 -56.168945 -78.766106
-52.867645 -55.303925 -79.593864
-50.428490 -55.630924 -80.403084
-45.712349 -57.312599 -80.634483
-44.655037 -56.035900 -79.746796
-39.958660 -56.315800 -81.529739
63.661282 -57.508785 -79.610962
63.740200 -56.675571 -80.105415
62.960602 -57.063293 -80.463318
-51.136936 -57.500340 -81.914360
-44.300419 -57.718689 -80.845963
-42.828442 -58.203529 -79.968147
106.498878 -57.705830 -80.144981
-52.331863 -56.919224 -80.596283
-51.619545 -55.260750 -80.487999
63.865501 -57.601402 -80.261261
106.433678 -56.703815 -80.057175
-53.140511 -53.944836 -80.372551
62.611897 -56.505428 -82.262856
-54.345566 -55.422176 -80.930130
-53.983501 -55.538738 -82.555107
105.227829 -55.984867 -81.352783
62.532829 -57.024101 -81.674751
-53.029873 -56.416592 -83.134735
-54.049122 -56.587234 -81.101166
62.517349 -56.048923 -82.240402
106.632813 -55.807720 -81.788803
-99.928459 -55.274807 -82.831474
62.763042 -56.354023 -82.996307
-57.459774 -56.380405 -84.282600
-56.048904 -56.226662 -83.188713
61.773670 -56.998249 -83.242256
105.162537 -56.428616 -83.339691
-58.154346 -56.877590 -84.146950
-58.525776 -54.968155 -83.895798
-57.758404 -57.592415 -83.522980
-55.703564 -56.024818 -82.925636
63.028664 -56.317516 -84.903038
80.401497 -54.383747 -84.325706
82.142387 -56.354420 -84.045517
106.699417 -58.595360 -82.868317
63.610176 -56.797165 -83.679718
62.927452 -55.179840 -83.872452
85.818230 -55.686123 -84.047462
-100.575157 -57.196365 -85.778351
-59.067928 -57.403164 -84.038834
-57.458607 -56.449982 -85.107056
61.961529 -56.014072 -85.241508
61.994705 -57.368237 -83.377029
62.754200 -56.421013 -84.519356
81.967133 -54.917446 -84.599144
84.698631 -55.949593 -83.138115
104.410316 -56.509388 -84.327225
-59.626072 -56.852333 -84.440872
-60.763317 -55.396694 -85.500351
62.934963 -55.900845 -84.974228
79.423912 -54.614502 -83.519470
79.048569 -55.850903 -86.168350
86.394554 -56.977283 -84.326782
104.805214 -55.871571 -84.371559
-101.201630 -54.677025 -84.824615
61.777252 -56.067986 -85.837852
62.265648 -55.206009 -85.127213
85.292931 -56.395512 -86.372070
-60.108070 -56.706284 -86.846397
60.122364 -57.429707 -85.365135
80.116661 -56.723660 -85.718369
81.411835 -55.206921 -85.540504
84.684013 -55.398830 -84.924004
103.800537 -57.931522 -86.704376
-62.456802 -57.338383 -85.888451
62.098179 -55.343651 -86.518898
62.496937 -56.288300 -86.514282
85.622200 -56.405914 -86.473595
86.216690 -56.338451 -86.275421
104.366463 -57.007252 -86.201813
-61.058025 -57.181385 -86.038986
-60.527889 -56.939396 -86.914856
60.476261 -57.269028 -85.738602
61.433300 -56.805393 -86.391739
80.732300 -57.659267 -87.039360
83.905647 -57.198597 -86.291046
104.880775 -56.909985 -87.108635
-99.305618 -55.125679 -87.807060
59.639961 -55.669857 -87.405258
60.335407 -55.820148 -88.017838
62.008461 -56.168674 -86.585266
76.220032 -55.351776 -87.109512
79.155716 -55.929825 -86.082672
83.101646 -56.579777 -87.720955
83.030525 -57.552315 -86.139671
83.309845 -56.024727 -86.217850
85.777328 -56.526085 -87.300438
105.454514 -55.838734 -87.554924
-62.699768 -57.426754 -86.333733
74.274452 -56.974373 -87.810593
77.281250 -57.448063 -87.283028
80.723976 -57.025009 -88.247414
82.887672 -56.384293 -87.833931
82.625084 -56.215889 -87.591110
85.993576 -56.032860 -88.130836
86.827034 -55.308109 -87.443451
-100.971169 -56.501015 -87.305969
60.928795 -56.966209 -87.667053
60.435501 -58.159679 -88.709656
63.662876 -56.223888 -88.852638
79.340195 -54.185616 -87.227798
79.600166 -56.561783 -88.420525
84.927704 -56.651676 -87.422501
104.631119 -58.506008 -87.668839
-100.039337 -57.670486 -88.277977
-64.306992 -55.584782 -88.561607
75.754631 -56.324280 -87.577293
76.935936 -55.451057 -88.210373
83.916443 -56.144943 -87.675011
85.627197 -55.547123 -88.108421
89.545311 -56.382923 -87.887291
89.179291 -56.075367 -88.551971
-100.743462 -57.225777 -89.168999
61.752853 -56.464787 -87.912338
62.894371 -56.766678 -89.416138
63.212040 -57.223301 -88.422310
74.866371 -55.264038 -88.592850
77.153023 -55.491169 -89.198601
88.312943 -55.797878 -89.009315
90.413979 -55.004215 -89.859863
-64.396774 -56.781631 -88.813065
61.126209 -55.785828 -89.332237
61.735138 -56.421909 -89.437210
72.794907 -56.340553 -88.041939
76.091766 -55.219650 -89.647720
78.899635 -57.063347 -90.946541
106.048370 -56.981304 -88.023590
62.665123 -56.990856 -88.497978
63.353184 -55.965061 -90.149658
75.315971 -55.771439 -89.517807
76.954124 -55.897018 -89.362534
87.025024 -57.125191 -88.435722
87.789856 -54.950375 -88.718513
104.757942 -56.502247 -89.774101
-100.556351 -56.460403 -89.703156
74.300659 -56.501221 -89.831512
75.903175 -57.403107 -91.449829
77.397255 -55.813713 -88.797859
87.338829 -58.180515 -89.555038
90.033020 -55.665699 -89.112183
-66.185051 -55.521290 -90.530167
64.321442 -57.076946 -90.022064
76.441544 -57.201832 -89.452263
88.757545 -56.887146 -90.699059
-100.374252 -57.637115 -90.507545
-65.211594 -57.533951 -89.908882
63.993645 -55.575199 -90.505104
74.260796 -56.440670 -92.489914
76.731094 -56.475212 -90.208885
76.502945 -56.366539 -90.117165
89.684631 -56.204559 -90.652222
64.877571 -55.182644 -91.150757
70.466217 -56.170544 -91.333336
74.316856 -56.606560 -90.180855
75.877403 -56.587788 -91.029915
75.262276 -57.621452 -90.938110
90.575455 -55.336029 -90.419075
-100.007393 -56.816715 -92.156845
65.529510 -56.201790 -90.866669
73.308022 -55.397438 -92.222313
75.785088 -56.616920 -91.952415
74.766052 -56.141659 -91.760765
91.079361 -56.775658 -91.959602
92.497993 -55.868168 -90.738586
64.614456 -57.671238 -91.595467
73.139030 -56.647511 -91.477676
92.784264 -55.404522 -92.055984
104.527504 -56.512627 -91.814262
-100.689018 -57.516716 -91.713135
64.785912 -57.182800 -92.532455
72.787018 -57.666985 -92.121101
73.723122 -56.337856 -92.528091
91.099915 -56.267128 -92.180321
93.392273 -56.795574 -93.278053
-67.108536 -58.421337 -92.460403
64.128212 -57.292973 -91.760269
72.736488 -55.591175 -93.411201
91.862991 -56.311726 -92.850998
-99.633072 -57.863476 -92.566277
-66.197708 -56.531525 -93.640167
71.768044 -55.572765 -92.469299
93.384544 -56.427723 -92.606659
103.828117 -57.350502 -92.566811
-67.337036 -57.719322 -92.354630
64.672844 -57.132252 -92.988327
70.771179 -55.968681 -92.980103
72.602257 -56.084713 -94.211174
73.071320 -57.225456 -92.905434
92.415390 -55.590870 -92.688652
93.772095 -56.109749 -94.555611
103.885391 -56.889866 -93.715996
-100.706596 -56.941589 -93.304367
-68.507980 -57.991501 -94.016479
66.550468 -58.044968 -94.674416
66.551018 -56.732384 -93.722061
70.749268 -56.825474 -93.840416
72.189888 -57.390675 -94.534050
85.599731 -57.217953 -92.966133
85.807922 -56.599087 -94.231056
87.768806 -56.888168 -94.345634
87.614983 -56.937786 -93.821098
89.003067 -56.132137 -94.809875
90.136703 -56.947086 -93.220840
91.607948 -55.494717 -94.842712
92.810356 -55.935036 -92.846413
103.809914 -57.522457 -93.337288
104.458702 -57.325050 -94.055779
103.571251 -55.630573 -94.212128
-99.922020 -56.322483 -93.579437
70.489594 -56.418549 -94.769310
72.468140 -56.688793 -93.630737
79.755547 -57.814457 -94.488182
80.971703 -56.314762 -94.192062
84.321716 -56.829899 -94.269661
-101.176170 -56.377247 -94.498550
66.297432 -56.380054 -93.760712
66.228333 -55.197971 -93.689461
67.728462 -55.054878 -93.672890
68.539520 -57.425625 -95.236603
76.781181 -57.183441 -95.902351
77.324997 -57.768578 -94.244034
78.902496 -57.001560 -93.173927
103.481514 -56.180077 -93.796585
66.237572 -56.012905 -95.382797
66.864464 -55.783104 -93.887230
67.949249 -55.709251 -95.186951
69.953262 -57.282684 -94.833809
72.639427 -56.627014 -93.702179
73.127335 -56.315338 -95.224457
73.804398 -57.717171 -95.795059
75.414742 -56.027523 -95.576752
77.308594 -57.411743 -95.925323
103.366272 -56.099323 -95.496468
-99.622261 -57.638424 -94.932426
66.962570 -56.689293 -95.337166
68.842628 -56.036274 -93.410675
69.136307 -55.805038 -95.510361
71.237595 -57.065887 -94.969574
71.906052 -56.356804 -94.839409
71.311485 -56.061470 -95.662071
73.066322 -56.480595 -95.983665
74.118019 -56.803169 -94.688454
-101.719330 -56.768917 -95.230141
66.295677 -57.391190 -94.177086
66.855759 -56.153381 -96.480728
66.663673 -54.920593 -95.450043
68.652733 -55.523510 -95.547806
69.394852 -55.831528 -96.093369
104.130371 -57.781151 -95.354691
66.634102 -56.472332 -95.785599
65.766357 -55.699924 -97.279327
67.110085 -56.040737 -96.109344
68.491188 -55.600071 -96.101273
-101.488922 -56.607281 -95.482590
-69.080124 -58.216892 -97.634804
66.526138 -56.067295 -97.261353
67.043671 -54.872940 -96.495461
103.348305 -55.996990 -97.557205
66.481926 -56.989960 -97.767166
67.169937 -57.813313 -96.773735
103.057198 -57.185120 -97.140915
-99.086525 -56.392445 -97.935410
-70.609047 -55.757778 -97.995522
64.738937 -56.383160 -96.940819
64.867912 -55.209248 -97.766106
-99.817886 -56.844341 -98.775116
64.591431 -56.728645 -98.362328
103.147667 -55.307484 -98.037186
-70.858398 -56.684334 -97.627434
62.827007 -56.787533 -98.400314
79.520782 -56.194763 -98.897118
83.053505 -56.853035 -97.966721
83.995880 -56.174889 -99.521027
85.079910 -55.535748 -99.549362
85.174561 -56.707344 -99.724747
-71.634933 -56.630543 -99.456131
62.196182 -57.352997 -99.698883
78.907890 -57.081451 -99.692650
78.333511 -56.475231 -99.438522
76.719299 -57.472572 -98.925774
80.314697 -55.550549 -99.464447
81.249054 -56.825497 -98.693451
84.458702 -55.432354 -98.467583
85.228172 -55.327240 -99.020699
85.759071 -55.245636 -100.255219
87.421463 -56.586826 -98.435669
86.112381 -59.134151 -99.326057
88.270653 -57.572727 -99.191933
89.177650 -56.920723 -99.114098
89.332344 -55.589283 -99.078911
92.032661 -55.802395 -99.049049
103.800819 -57.820705 -98.534752
-71.079910 -55.649487 -99.211708
61.843655 -56.768497 -99.198380
74.933533 -56.785755 -99.300438
92.281471 -56.109612 -98.904892
93.501953 -57.115093 -100.098167
103.355286 -56.455345 -98.903625
73.053017 -56.919685 -99.950668
76.993477 -55.797245 -100.600487
93.950531 -56.626461 -99.565208
95.064522 -55.924862 -100.212059
60.337341 -56.297119 -99.205070
73.549850 -57.017487 -99.875534
94.574867 -56.442310 -99.096962
-71.389252 -58.062263 -100.363792
58.911953 -56.151386 -100.197350
94.058586 -56.474247 -101.260696
95.115150 -56.733448 -99.279160
104.063797 -56.131168 -101.097443
58.164608 -56.779320 -100.510750
70.023567 -57.791721 -101.219078
72.359398 -57.055897 -100.433777
70.888901 -56.106400 -100.414719
94.234390 -56.657177 -99.989456
102.435959 -57.639038 -101.553680
-99.792183 -58.324223 -101.023460
57.639595 -58.832191 -100.117714
67.529457 -56.753582 -101.585403
68.761871 -56.701042 -100.716255
67.995262 -57.363197 -102.509232
92.966530 -56.863857 -99.906578
94.091759 -56.482784 -102.487213
93.475502 -56.467628 -102.006493
94.356110 -56.875240 -101.581825
-100.091202 -57.279694 -101.203033
-73.253952 -57.744076 -100.706581
58.071270 -57.140587 -102.174477
102.575508 -56.857143 -101.096741
56.157928 -57.485451 -101.915833
68.174065 -57.564358 -100.509560
66.509697 -56.198582 -101.601341
67.968880 -54.393116 -101.249840
92.076202 -56.734512 -101.454498
92.004745 -56.894672 -101.182571
102.204834 -55.964321 -102.070435
100.509666 -56.890484 -102.188492
56.313023 -57.031395 -102.260826
65.539200 -57.588226 -102.325996
93.376259 -53.910046 -101.325752
-73.967178 -54.663723 -102.316322
54.858257 -56.823425 -102.742043
65.390472 -56.501694 -103.490166
93.052536 -55.927528 -102.215340
94.992989 -55.302193 -103.505318
-100.240738 -57.545570 -103.173508
55.222900 -57.043892 -102.885010
64.264679 -56.671581 -103.840981
63.002239 -56.609547 -102.765892
91.178253 -56.348198 -102.880081
93.532913 -55.501656 -102.192345
-74.702728 -58.701057 -102.969788
52.977364 -57.133148 -103.897911
54.181274 -56.681831 -103.766563
90.935509 -56.478870 -103.974159
92.629951 -56.223324 -104.755676
92.692940 -56.251221 -104.215546
-98.146210 -55.956081 -104.095688
-62.644730 -57.802502 -105.279480
62.278572 -56.184399 -103.217896
98.935722 -57.103867 -103.301552
98.616135 -56.270832 -104.178856
-73.341522 -56.301838 -104.388138
-63.181465 -58.339588 -105.299561
53.391556 -56.903366 -104.895271
62.869358 -56.307003 -105.490181
90.383949 -54.714542 -105.045364
91.087639 -56.324078 -104.156334
90.827171 -56.544403 -103.613770
99.535797 -56.296955 -105.236694
-64.051582 -56.719585 -103.693695
-64.125053 -56.631817 -104.140533
-59.972969 -56.616707 -104.780182
51.491474 -57.800484 -103.763443
61.728138 -57.294895 -105.076836
88.825127 -57.375267 -105.123535
88.561874 -56.470566 -104.832954
89.957397 -55.607353 -105.109566
92.730522 -55.971085 -104.219269
98.871254 -56.771099 -105.645813
98.538490 -56.710392 -105.890266
-74.796295 -57.630035 -103.597557
-62.398685 -56.236267 -105.839714
-64.137321 -55.868237 -105.350372
-61.575832 -57.180870 -106.083412
51.322166 -56.961113 -105.220161
60.832222 -57.254757 -106.475060
84.151894 -56.341969 -104.756943
87.053375 -57.113373 -105.108589
87.556175 -56.039639 -105.307182
87.829803 -55.851585 -106.293022
88.410629 -55.646542 -105.539902
90.983131 -57.008812 -105.544304
97.176720 -56.122719 -105.356010
98.141861 -56.229103 -105.012840
-75.214897 -57.382481 -105.114899
-64.325882 -56.115963 -105.653145
-61.085026 -57.277802 -105.642723
-61.344246 -56.949142 -105.937027
50.895950 -55.997166 -105.755531
60.702549 -57.224365 -105.396782
84.932823 -55.535809 -104.973831
86.035385 -55.894600 -105.738785
87.339684 -55.158794 -105.191872
89.008049 -55.559254 -105.546646
91.355476 -55.021816 -104.653328
97.230049 -56.499401 -106.773926
-60.257515 -56.350765 -105.990913
50.790344 -57.154732 -106.748329
60.444088 -55.795689 -104.987900
84.876930 -56.694935 -105.760445
86.437828 -55.870247 -106.834618
87.567192 -56.333565 -105.784515
97.584282 -56.112190 -105.273544
98.632332 -56.365086 -107.103294
-75.632278 -57.365261 -106.559654
-64.143410 -58.065857 -107.013451
-60.373993 -56.824993 -106.198448
49.472614 -57.370525 -106.404999
58.366600 -55.232204 -106.266808
85.012207 -56.804539 -106.642456
84.359833 -57.312576 -106.983017
87.018913 -53.844742 -107.135452
86.792343 -54.653790 -107.018570
96.836250 -56.651112 -106.105377
-74.781761 -57.887409 -107.236198
-62.172615 -57.911880 -107.438637
-61.010914 -55.712803 -107.313683
58.183941 -56.664013 -106.984825
83.060684 -56.353031 -107.288712
84.167984 -55.610477 -106.509483
85.901482 -56.079269 -107.190727
96.097206 -57.380314 -108.021431
95.830025 -55.924854 -107.079941
95.888252 -56.930637 -106.407890
-73.367386 -56.656548 -107.318176
-74.754829 -56.007412 -107.079102
-62.381275 -56.516846 -106.301765
48.553249 -57.156727 -108.512337
57.451118 -57.329746 -106.311478
84.842079 -56.071976 -107.078850
85.545387 -55.550964 -107.168388
86.416145 -55.078583 -107.494865
-62.665672 -56.472828 -108.304810
-60.431656 -56.326710 -108.190155
48.024975 -56.532932 -108.150734
58.800621 -57.903645 -108.128479
57.454323 -56.642574 -107.398643
85.295441 -56.929798 -107.674812
94.849922 -57.496147 -109.993759
-75.257401 -56.480827 -107.038795
49.098930 -56.137211 -106.727165
56.284348 -56.134090 -108.050224
87.692108 -56.772816 -108.803291
86.651611 -56.538082 -107.697220
89.064781 -54.994930 -109.374496
95.612831 -55.191212 -108.000587
-99.700081 -56.629696 -109.326302
-62.987835 -56.808941 -110.065147
-60.014496 -56.759396 -108.989227
47.654789 -56.581005 -108.394753
54.765568 -56.835468 -110.061119
86.930550 -57.022491 -109.327721
87.180977 -56.013428 -108.310066
87.578323 -56.764908 -109.500183
88.886734 -55.072456 -108.477890
90.543549 -58.293297 -108.895287
89.966583 -55.188866 -109.167801
91.780754 -55.564861 -107.910156
92.006783 -55.739208 -108.618546
93.861710 -56.661636 -108.320442
92.907051 -57.081638 -108.912430
94.119324 -57.199036 -109.134811
-75.266075 -56.098297 -107.968361
46.735989 -57.013355 -109.442047
56.483112 -56.599174 -109.399689
55.823719 -57.099407 -110.129089
89.641205 -56.741768 -108.444702
92.827721 -55.615898 -108.604462
-77.151840 -57.697243 -109.053261
-62.736195 -56.063622 -109.945641
-59.227818 -56.796024 -109.275887
46.846016 -56.842445 -110.416107
-76.878357 -55.694717 -108.494781
-73.568588 -56.395775 -109.106743
-72.519661 -56.274574 -109.204758
-61.173725 -57.208000 -110.206169
-59.739727 -56.261986 -109.784500
44.914364 -55.313248 -108.971252
54.619568 -57.033726 -108.941772
55.410309 -55.829521 -109.173782
-77.286415 -56.579689 -110.870506
-74.956642 -56.628525 -110.282982
-73.922752 -55.441185 -110.893723
-71.800499 -57.304935 -110.782921
-62.325619 -56.332005 -110.327225
45.522038 -56.696911 -110.430954
-97.653114 -57.612885 -111.279129
-76.520638 -56.142754 -110.542259
-74.392517 -57.574585 -109.817360
-72.027039 -57.247181 -110.227043
-60.469681 -56.592896 -110.535309
-61.023708 -55.681740 -110.115417
-59.583794 -57.186466 -110.484459
45.459167 -57.012856 -111.252075
53.449268 -55.496403 -110.912834
-74.384697 -56.460403 -111.454018
-72.947426 -56.390602 -110.358818
-61.463730 -57.701687 -111.416824
45.160160 -58.012623 -110.939598
-77.626808 -57.099873 -110.843765
-73.669067 -57.486950 -112.148384
-74.175568 -54.794865 -111.251602
-58.352707 -57.859428 -111.715660
45.959290 -57.940369 -111.435860
53.627678 -56.086308 -111.674614
-77.183868 -55.390434 -112.641251
-61.301895 -56.586700 -112.728699
44.140781 -57.674889 -112.517769
-77.509277 -57.016743 -112.402046
-73.621796 -57.514416 -111.045723
-71.031174 -56.850445 -111.453316
-60.215733 -56.334141 -112.526497
-58.880127 -56.041031 -112.746391
44.116283 -57.306572 -111.596756
51.400448 -57.120453 -112.677742
-98.123535 -56.172417 -112.698196
-77.589653 -57.587040 -113.991058
-71.807793 -58.068474 -113.098885
-60.564465 -57.203407 -112.949631
-60.592480 -56.628910 -112.151772
-57.268353 -55.777699 -112.515121
43.430225 -57.794216 -113.513321
52.355068 -56.768238 -112.723572
50.923462 -57.192852 -112.801361
-78.239632 -56.568451 -113.763298
-73.399696 -55.752831 -113.428955
-71.065887 -57.645592 -113.969604
-58.344509 -58.123039 -112.185974
42.576019 -56.695511 -113.080429
51.774582 -56.821293 -112.451492
-78.749031 -56.673298 -114.473312
-61.061466 -57.034447 -112.584534
42.772747 -57.024708 -113.738625
51.212475 -57.207039 -111.593864
-98.761566 -56.745193 -113.552521
-79.421494 -56.541336 -114.824608
-73.253716 -57.108860 -114.760475
-70.923996 -56.041679 -113.384750
-60.705719 -56.663143 -113.294144
50.961754 -56.779202 -113.184509
-97.784935 -58.460594 -114.770348
-79.450172 -55.603119 -114.697090
-78.868103 -57.838116 -113.086998
-69.888481 -55.827114 -113.955437
-60.291622 -57.212822 -114.663155
-57.721649 -56.442268 -114.715073
42.283436 -56.192120 -113.180557
50.062599 -56.276630 -113.866936
-77.482849 -57.276554 -114.052216
-72.262733 -57.802113 -115.112404
-69.706863 -56.723366 -114.160881
-61.391209 -55.492252 -114.502075
41.333820 -56.003925 -113.907776
42.722282 -55.587219 -114.162880
49.286964 -57.067471 -115.614243
-57.623882 -56.759640 -115.041550
41.795601 -56.923565 -114.371803
50.278038 -56.295582 -115.962532
-78.810760 -57.490337 -114.904259
-72.809013 -58.309666 -116.279213
-69.329384 -56.331337 -115.244476
-69.276512 -55.217434 -115.279945
-60.453690 -56.389271 -115.508911
-59.061817 -57.897625 -114.505508
40.373787 -57.079075 -116.425987
49.003887 -57.234108 -115.338699
-82.265945 -57.052631 -116.545418
-72.572464 -57.354286 -116.247353
-59.930267 -54.988365 -116.125633
40.394146 -55.703014 -116.150055
40.928017 -56.414818 -116.088646
47.388561 -56.330288 -115.445015
-80.334679 -56.444450 -116.096283
-70.230759 -56.022789 -116.439896
-57.572186 -56.499893 -116.832710
-57.518154 -56.056812 -115.883804
-57.804813 -55.223492 -115.370766
39.780376 -57.099716 -115.657890
40.965130 -56.518871 -116.327858
47.965981 -56.451618 -115.912056
47.370483 -56.103737 -116.696236
-81.822258 -57.545631 -116.461151
-71.749313 -56.096268 -117.106178
-69.701714 -56.730061 -115.762642
-58.726223 -56.743454 -115.524872
39.616978 -57.177849 -117.468361
-82.412560 -56.605156 -116.936333
-57.536587 -55.927723 -117.146454
-57.949219 -56.881088 -116.333710
39.330135 -56.671967 -117.910896
39.989655 -55.891582 -116.919312
47.860458 -57.399269 -117.556496
-83.436272 -56.900524 -117.643440
-71.220375 -57.545612 -116.012398
-69.540237 -56.155174 -117.025253
-59.784866 -55.706146 -116.247963
39.571079 -56.704800 -116.681564
47.761398 -57.353008 -117.297729
47.989639 -56.359818 -117.755508
-83.756020 -57.325386 -117.540268
-71.021004 -56.407524 -117.344131
-67.110291 -57.076675 -118.714188
-60.108147 -56.556805 -118.636414
-57.814053 -56.757896 -117.587379
39.460335 -57.516010 -119.326088
-83.324051 -56.562263 -118.438141
-85.244850 -56.512188 -118.000252
-68.593964 -57.163807 -118.113770
-60.852596 -55.734592 -118.351463
-58.243450 -56.282887 -118.964684
38.514771 -55.939240 -117.715599
47.582321 -55.871910 -118.198189
45.536892 -56.803524 -117.097443
-97.113564 -55.552864 -118.762390
-86.529305 -56.653278 -118.659691
-85.781998 -57.796326 -118.459930
-69.572960 -56.067062 -119.591492
-60.055233 -56.786423 -119.254730
39.262749 -56.772068 -119.093895
-69.563362 -56.222149 -120.149162
-67.539093 -56.014912 -119.349884
-61.865547 -56.279873 -118.745018
38.616096 -56.506046 -118.660027
45.613724 -58.533363 -119.937546
45.611248 -56.228653 -118.614250
-97.195419 -56.438396 -120.412079
-84.713722 -56.736420 -118.998726
-87.486130 -55.628223 -119.106537
-61.288395 -55.070534 -119.467461
-56.348755 -57.567322 -119.271835
45.294861 -56.835129 -118.990601
44.993427 -57.090698 -120.270241
-95.955559 -55.869595 -120.519073
-85.945435 -56.965137 -119.417709
-69.779800 -57.233200 -119.199905
-67.000969 -55.863430 -119.834404
-61.709969 -56.796089 -119.253395
-55.468468 -57.142250 -119.714371
37.683186 -57.351337 -120.087448
45.328964 -56.356411 -120.390739
-96.792366 -57.152466 -119.853600
-86.857719 -57.056698 -121.730019
-69.303268 -56.484715 -120.841949
-67.582230 -55.377098 -120.270782
-65.462692 -55.437469 -119.682480
-59.547955 -57.619713 -120.537483
36.703842 -56.050392 -120.885078
37.983833 -55.320461 -120.904274
44.778595 -57.365997 -121.112328
43.590214 -55.456261 -122.375595
43.985725 -55.492367 -120.298752
-95.381523 -56.313129 -121.127464
-87.239983 -56.109230 -120.749092
-87.746513 -57.024857 -121.604744
-69.191719 -57.020267 -121.756500
-66.239883 -55.951454 -120.208542
-60.487408 -55.399563 -120.679634
-60.010757 -56.697842 -120.906250
-56.932304 -57.185089 -120.317207
36.751358 -56.181358 -121.339943
-96.458115 -56.365768 -121.261162
-68.302780 -56.606911 -119.854004
-65.464928 -57.000214 -121.165581
-63.759033 -55.432228 -119.912170
-60.264118 -56.107441 -121.064537
-60.660183 -56.465805 -119.860130
-56.713371 -56.079132 -120.942360
35.387165 -55.606216 -120.902252
43.387066 -56.106510 -121.198311
43.162319 -55.448227 -121.055580
-90.212402 -55.029667 -121.623108
-69.111305 -55.608952 -121.525078
-64.804428 -57.218933 -121.509552
-65.397980 -56.266216 -121.164536
-58.912132 -55.604000 -121.607864
35.379314 -56.699318 -121.891762
37.094753 -56.514885 -121.451553
42.674236 -56.588005 -121.539810
-96.231216 -56.038857 -120.912277
-95.140877 -57.514923 -121.943016
-95.008675 -56.036602 -122.011086
-90.751076 -57.067974 -120.315208
-91.060310 -57.153633 -121.639046
-69.055916 -58.360500 -122.261169
-64.914673 -55.534740 -121.410980
-61.678822 -56.516968 -120.823212
-57.329094 -56.975834 -122.105583
42.144630 -56.533264 -121.189537
-93.874123 -56.246941 -121.390709
-89.369141 -56.559792 -122.170265
-68.447716 -57.623455 -122.398933
-67.039085 -55.477722 -122.504135
-64.570992 -56.656681 -122.357407
-62.941956 -55.489426 -123.489731
-62.806007 -55.318130 -122.044136
-59.581585 -55.996628 -123.859619
-56.597267 -56.561504 -122.915329
36.005131 -56.098675 -122.734367
35.326435 -55.682861 -122.767303
41.471542 -56.903172 -122.801651
42.146278 -56.445957 -123.335251
41.991669 -55.640530 -122.358688
-93.030830 -57.523808 -122.798515
-67.300209 -57.054054 -123.481102
-64.284615 -56.064217 -121.976471
-62.681168 -56.808201 -123.322006
-60.862095 -56.031345 -122.105972
-61.182346 -57.121815 -122.154137
36.069504 -56.816216 -122.513084
35.859241 -55.408951 -122.892776
41.542652 -55.137150 -122.603874
-67.614182 -56.440132 -124.350769
-60.139778 -56.944431 -123.410965
35.902325 -57.354382 -122.577545
41.667820 -56.772949 -123.010521
41.766140 -55.847900 -122.423164
-65.421951 -55.062160 -122.740448
-66.011429 -56.645412 -124.735367
-68.074196 -54.187363 -123.317047
-62.909313 -56.331123 -122.161285
-61.262337 -56.582813 -123.066673
-60.242355 -55.966171 -122.700783
-59.669998 -56.761421 -123.838745
-57.380375 -56.339794 -124.070259
35.813004 -55.347885 -123.124664
39.898560 -55.841549 -123.693039
40.014595 -57.144745 -123.577919
40.321560 -56.582096 -124.445305
-57.696476 -54.786816 -124.216904
34.903885 -55.866024 -123.727867
36.173790 -55.570019 -124.630730
36.455429 -55.999298 -123.022667
40.420010 -56.497082 -125.363297
40.804642 -55.989113 -122.428421
-65.325333 -57.324993 -124.292313
-62.315605 -56.321743 -123.069023
-59.713802 -56.425541 -124.342255
-56.595280 -57.839958 -125.399460
34.946163 -57.543716 -124.714165
34.347767 -54.981422 -124.525391
39.523331 -55.562054 -124.315247
39.083656 -56.652508 -124.400635
-66.799683 -56.850388 -122.997643
-66.181496 -55.947220 -123.362335
-61.666740 -57.052860 -124.907402
-61.236202 -56.612827 -125.976723
35.425503 -56.933777 -124.532730
35.145264 -55.919731 -125.171539
39.887157 -56.607094 -125.378578
-65.271629 -57.706608 -124.963890
-56.080208 -56.574085 -124.848915
-56.525215 -55.963249 -123.379044
33.716213 -56.046055 -124.630180
33.981155 -55.972641 -125.102982
36.105015 -57.077217 -125.885811
39.317314 -56.943733 -125.626091
39.316303 -55.964397 -124.411713
-65.094788 -55.905987 -125.496513
-57.459888 -56.018627 -125.968880
34.194164 -54.733002 -125.907845
37.454159 -56.426502 -126.018997
37.879654 -55.821888 -126.792671
-64.481712 -55.456341 -124.522621
-57.676483 -55.987019 -125.216400
33.282303 -57.300354 -125.031876
33.907513 -56.653397 -126.624901
35.876034 -55.901291 -125.589630
37.290218 -56.848343 -125.310478
39.954327 -56.007263 -126.302376
37.029827 -55.619408 -125.252655
-65.739487 -57.505329 -125.676750
-64.730255 -56.330338 -126.799515
32.815922 -56.941669 -127.224426
35.842548 -56.283302 -126.479149
36.306473 -56.598492 -126.555206
35.954983 -55.617611 -127.071754
38.137558 -55.468861 -127.705315
-63.316143 -55.815765 -127.113182
-62.209919 -56.394695 -128.204254
-57.342873 -55.448410 -125.263680
33.600655 -56.655842 -126.873810
35.039211 -56.124084 -126.812363
37.660713 -57.438114 -126.903015
36.206318 -55.980782 -126.942429
-63.349781 -55.506042 -127.449066
-58.151211 -55.315830 -126.763451
35.375839 -56.893028 -127.422646
35.334473 -55.601402 -126.209694
37.774090 -56.656570 -126.863953
-62.857891 -56.250969 -126.469727
-61.075695 -55.356682 -127.887726
-58.701069 -55.928074 -126.422882
32.000042 -57.470238 -127.279945
33.918869 -55.833935 -128.426788
35.229519 -56.575691 -127.206024
35.321815 -55.812263 -127.262421
36.537323 -57.240921 -127.703026
36.801270 -57.310120 -127.627121
-62.985027 -55.776150 -126.647057
-60.893269 -56.059109 -127.376671
-61.067757 -55.713337 -127.382645
-58.832081 -56.333813 -127.085487
-57.368484 -56.873363 -127.650787
-59.194042 -56.081341 -128.058472
33.081165 -57.303089 -128.699936
34.605450 -55.811062 -128.066925
35.317776 -56.085167 -129.443359
-62.627735 -56.865772 -127.527206
-63.283401 -56.003662 -128.141159
-60.787487 -55.861465 -128.842346
-58.968033 -55.835285 -128.187683
-59.880344 -57.121597 -127.366745
34.365967 -57.075939 -127.573547
34.966206 -57.706833 -127.746040
35.457520 -56.232056 -128.941162
-61.651363 -55.620522 -127.372299
32.327499 -56.375103 -128.624268
33.792446 -56.504288 -129.269409
34.763123 -56.918377 -128.767944
33.957848 -57.640594 -128.869797
-61.108391 -56.463711 -127.910614
-60.939819 -56.084995 -129.398666
-58.245724 -55.795658 -130.432999
-57.919170 -56.574863 -129.392303
33.087299 -56.067940 -129.486481
33.130379 -55.520157 -129.426651
35.320091 -56.891605 -128.502823
-59.317642 -56.357208 -128.518188
-60.933235 -55.126507 -129.819305
-58.299122 -55.933193 -130.163803
-58.269863 -56.859123 -129.028229
-59.499443 -55.846611 -130.197586
3.403503 -56.434967 -238.384308
1.387758 -57.512516 -238.173111
3.142308 -56.592323 -237.291306
3.187625 -56.540302 -239.132538
2.430756 -56.583744 -238.313431
6.823025 -57.331776 -238.467834
-0.720536 -58.317398 -239.554749
7.470114 -55.859306 -238.652863
6.901174 -58.204365 -239.193207
-0.469924 -55.810665 -240.166733
6.553781 -55.584866 -239.802109
-1.399775 -55.961479 -238.852936
4.193095 -56.482487 -239.433044
5.891744 -57.115734 -240.165070
-0.274496 -56.071583 -239.433990
5.315037 -56.070286 -239.455887
7.162531 -57.166008 -238.930542
-1.113564 -56.679844 -241.551834
3.376572 -57.213017 -240.845215
4.218381 -56.189903 -240.630569
3.700611 -55.809479 -241.924957
4.421081 -57.091438 -240.035202
3.830135 -54.406673 -242.195267
6.097534 -56.117733 -240.778732
1.116131 -56.016571 -241.911057
4.051919 -55.795078 -240.494049
7.325378 -56.686573 -239.939529
6.099789 -57.418026 -241.984940
16.221107 -55.947418 -242.388000
17.710182 -56.786530 -241.698517
18.631992 -57.599289 -241.291397
1.075980 -57.309372 -240.961044
0.369084 -55.075027 -241.586533
6.447402 -56.266857 -241.178238
17.095573 -56.935467 -241.511581
14.117959 -57.026707 -241.560730
0.094654 -55.812717 -242.577652
6.283474 -57.356949 -242.117142
6.568904 -56.152412 -243.731705
20.168926 -56.239067 -242.668671
2.021183 -56.733540 -242.349930
3.075044 -55.451134 -242.676651
2.940392 -56.313854 -243.042648
4.606556 -57.204762 -242.559052
14.925335 -56.751686 -242.497650
15.349488 -54.375526 -241.249939
13.973482 -57.708519 -243.134491
21.103451 -55.828121 -242.977325
13.393845 -56.445950 -243.891830
21.965317 -57.282497 -243.626541
22.652441 -56.240307 -243.849243
12.748092 -56.526314 -246.025375
22.758728 -56.916862 -243.984192
12.314692 -56.850895 -246.457031
22.017570 -57.340897 -246.349075
21.302546 -56.010292 -245.613235
22.099598 -55.285587 -246.986420
5.845489 -55.564747 -247.163086
7.118873 -56.814003 -247.738968
9.017498 -57.290466 -246.801361
10.626328 -57.042233 -247.339264
13.652548 -57.220222 -245.185547
22.094995 -56.368198 -246.242844
21.421099 -57.168297 -245.744568
5.315568 -56.218830 -246.647034
4.762156 -56.193283 -246.999802
7.958711 -56.043949 -247.099533
8.692020 -55.781155 -247.522720
11.351873 -55.793816 -246.617645
-18.759390 -54.493313 -246.785767
4.707655 -56.496380 -247.428497
5.766591 -55.550182 -246.770203
-17.679844 -56.619431 -246.414673
-17.627829 -55.806602 -248.922607
21.805145 -57.741432 -248.063705
5.693473 -57.142548 -246.506775
6.981082 -54.398209 -246.260651
21.150368 -57.085129 -248.012741
3.571124 -56.304562 -248.979263
-18.294640 -55.022530 -248.045044
5.131244 -55.849480 -247.814392
8.056911 -56.194958 -248.370850
21.034433 -56.925198 -249.105927
-17.850443 -55.667969 -248.704987
21.559938 -56.793297 -249.814041
4.825926 -56.794567 -250.813705
5.903110 -56.963245 -249.588684
22.254637 -57.427280 -248.976334
7.549117 -55.964596 -249.362411
8.742894 -55.295765 -250.708252
21.165953 -56.681213 -249.827942
-18.487726 -56.657974 -248.447433
6.239467 -56.517784 -249.652420
7.902232 -55.816422 -250.645508
21.497856 -56.246475 -250.344360
-18.891481 -56.760502 -248.976212
5.939588 -56.470612 -250.357269
7.214026 -55.450832 -250.669861
-18.541252 -56.706844 -251.114426
6.741388 -54.766880 -250.186646
23.448919 -56.945290 -250.697174
-18.989637 -56.361366 -251.589096
-18.527304 -57.064869 -252.341736
7.604624 -56.601784 -251.488007
8.634438 -54.430721 -252.198975
22.690815 -57.457882 -253.051468
-18.830397 -55.400093 -252.262024
-16.741373 -55.742584 -251.235123
9.294806 -55.285126 -251.394958
21.817558 -56.023926 -252.804901
22.286482 -56.054604 -252.230392
-18.625790 -56.317627 -253.369995
7.465101 -56.533863 -252.934662
8.255221 -56.176075 -251.646423
-19.907545 -57.637939 -252.082169
-19.354301 -56.307541 -252.504227
-16.986761 -55.508465 -252.705521
8.578933 -55.557243 -253.112122
8.982995 -56.341000 -251.682190
23.897955 -57.439606 -251.977982
-18.009584 -57.769066 -252.872910
-16.651745 -56.336895 -253.214294
-15.119176 -55.730083 -252.277222
8.081576 -56.154785 -253.568008
21.929096 -56.394665 -253.417252
-15.712110 -56.423725 -253.591339
22.595175 -55.419983 -253.736557
-19.825819 -57.056541 -252.757507
-17.873331 -56.413219 -252.916626
-17.021959 -54.999001 -254.142395
-15.808210 -56.430531 -253.004547
9.920922 -55.510738 -253.187119
11.818789 -55.864834 -254.745667
23.564104 -56.161129 -254.284286
23.209475 -55.511642 -253.175812
-19.997421 -57.111073 -254.768585
-17.647188 -56.194565 -253.961334
-17.605162 -56.997265 -253.073151
-17.089687 -55.637321 -253.757111
-18.973804 -57.069889 -255.812103
-19.263313 -55.980736 -255.630066
-16.025877 -56.603382 -254.832031
-16.172714 -57.599213 -254.593079
-15.139391 -57.162994 -254.663177
-13.165291 -56.014122 -253.155624
11.274902 -56.823017 -254.154373
22.893358 -56.312309 -254.991837
-15.642011 -57.208866 -255.112839
-14.196329 -56.117455 -255.456345
10.477250 -55.911945 -255.272568
10.902413 -56.048409 -255.716263
22.253628 -57.348267 -255.290237
-17.822943 -56.214867 -255.476852
-18.370611 -56.722458 -255.349854
-15.279464 -55.403011 -255.637817
-17.486216 -55.470280 -254.990677
-14.749371 -56.200878 -256.510834
23.130095 -56.780010 -255.631226
22.227203 -57.625942 -254.896698
-18.190708 -56.277195 -255.790375
-17.931328 -56.110325 -256.945190
9.731495 -57.295269 -254.301514
11.167624 -55.950180 -256.493683
12.603427 -56.250149 -255.899490
-13.788816 -55.782059 -255.836044
10.733185 -56.657951 -256.602203
22.761118 -57.314857 -255.848251
-19.379734 -56.287167 -257.437805
-18.579973 -56.977474 -256.276398
-18.754299 -55.933514 -255.956467
-14.663125 -56.747425 -257.290070
9.332328 -57.957451 -257.577972
23.932165 -54.932842 -255.839355
-19.242130 -55.968376 -256.329742
-16.161766 -55.247028 -256.275085
11.954753 -54.786221 -256.468536
22.544962 -57.190224 -256.937866
-20.128948 -56.748421 -256.417480
-17.340624 -56.394005 -258.486145
-14.551834 -55.648682 -257.162476
-14.780617 -56.439934 -257.039978
24.588785 -57.019199 -257.807770
-19.407394 -57.653084 -257.497925
-16.812927 -56.339024 -256.691254
10.491811 -57.150330 -257.537933
12.726050 -56.441891 -257.298401
24.515553 -56.848015 -257.571686
-20.454111 -56.066544 -258.401581
-18.006969 -56.691811 -258.008881
-17.591843 -56.488811 -257.387970
-15.257926 -56.356174 -257.497498
11.686398 -57.535019 -258.079163
11.391131 -55.764423 -259.084991
12.579997 -55.535648 -258.903473
25.142216 -56.502335 -258.313293
-19.578438 -55.767391 -258.291351
-16.402348 -55.802860 -256.814423
-14.622227 -56.480904 -258.679443
13.891650 -55.883076 -258.823059
-21.114359 -57.774529 -259.518524
-18.992443 -55.471123 -259.378784
-18.592621 -56.051643 -259.060730
-17.832901 -56.611172 -259.350769
-15.164938 -56.636639 -258.719788
25.100214 -57.765011 -259.169189
-19.206026 -56.404209 -258.908295
-17.456015 -57.105556 -258.846832
11.231215 -56.150894 -259.781403
25.298008 -56.671097 -258.559662
-18.109489 -54.792316 -259.336823
-16.691967 -58.100941 -259.822968
-16.634018 -55.966953 -259.630554
-19.617577 -56.839355 -260.885651
-19.968622 -56.563648 -259.643524
-18.421917 -55.513451 -259.914093
-17.195202 -56.531776 -260.858459
11.564419 -57.876030 -261.254333
12.760621 -55.996006 -260.708679
26.245544 -56.514503 -259.284363
-19.925116 -55.662689 -259.926636
-14.456008 -54.584454 -259.915222
-13.317458 -56.692959 -260.588959
12.707869 -57.156898 -260.491302
-20.498070 -55.750347 -259.576050
-17.289257 -55.928577 -260.299255
-18.227177 -56.101105 -261.407471
-16.778929 -56.279209 -261.251709
-16.899618 -55.048374 -261.477692
-15.663159 -58.170193 -260.739075
-14.667036 -56.981503 -261.838013
11.847080 -56.403614 -259.596222
-19.201303 -55.024830 -260.965118
-19.883762 -56.911907 -261.893372
-17.606035 -57.038677 -260.845215
-18.682920 -56.075336 -262.457031
-14.866000 -57.160755 -263.088257
12.494232 -55.799324 -262.053314
25.889299 -56.765804 -261.778198
-18.522045 -55.684650 -261.872314
-18.409071 -56.496971 -262.924011
-19.375866 -57.300159 -263.951111
-18.484476 -56.616425 -262.747742
-16.375473 -57.022030 -261.145477
-14.358386 -56.754723 -263.274567
12.104902 -57.086300 -261.413971
26.050100 -57.018772 -263.084625
-20.681768 -57.054432 -263.696960
-19.705145 -56.164005 -263.592133
-17.044142 -56.080486 -262.752747
-16.755589 -57.286617 -263.205750
12.947956 -56.433094 -263.985413
-17.980135 -57.162151 -263.345154
-17.329786 -57.442249 -263.813202
-15.336555 -56.685299 -263.401306
-13.984085 -56.787006 -264.884247
12.837191 -56.883354 -263.392029
-15.522701 -57.728008 -264.165985
-14.259485 -57.523838 -264.835907
27.309889 -57.910534 -264.424957
-19.248510 -57.379974 -265.016876
-17.690464 -56.062801 -264.787811
-14.536086 -57.130230 -263.887512
-12.548718 -56.577660 -265.539185
12.399968 -55.270554 -265.065308
13.263213 -56.648922 -265.031738
26.379572 -56.504051 -263.798645
-17.264711 -58.162922 -265.742706
-16.420145 -56.388638 -265.120422
-12.916594 -57.618057 -263.920013
26.837339 -57.571247 -265.610504
-16.543612 -57.000717 -265.907135
-15.249750 -56.715107 -265.760681
-13.744185 -56.467312 -265.010742
26.705009 -55.665627 -266.228302
24.877384 -57.622200 -266.972168
-15.177363 -55.639439 -267.066223
-13.410622 -55.960121 -267.044891
26.010527 -55.335312 -267.303589
-13.499648 -58.204231 -267.486542
27.133312 -56.995682 -267.953156
-12.437058 -55.803711 -267.672943
25.532839 -56.255093 -267.223053
-14.462571 -56.773102 -267.433441
25.802340 -57.286209 -267.565369
-13.807435 -57.979725 -268.064453
-12.529716 -57.374386 -267.410004
-14.465719 -57.082169 -269.012573
-13.292467 -56.269268 -268.458282
14.230847 -56.352345 -268.955231
25.126415 -57.289021 -269.806915
-14.300885 -55.657513 -268.479462
11.767787 -56.629589 -269.125549
25.378862 -56.910908 -268.374115
-12.284250 -56.447777 -268.702118
11.484174 -56.220833 -269.615479
13.161226 -56.258625 -269.476898
-14.203357 -56.779282 -269.121429
-12.934780 -56.458164 -269.379761
12.654509 -56.860199 -271.018555
12.473591 -56.554581 -270.186493
-12.975234 -56.705986 -270.513885
24.571844 -56.328728 -270.182159
-13.109149 -55.453255 -269.964264
11.883637 -55.702148 -270.718842
11.818872 -56.700581 -270.412201
23.531181 -57.486515 -270.301178
-12.841045 -56.857693 -271.476196
-12.305526 -55.625481 -270.198395
12.539517 -56.023663 -270.990936
-11.668232 -56.096668 -271.755859
-16.379740 -57.715500 -270.941010
-13.038976 -57.304962 -270.738983
-12.041262 -56.814526 -272.418579
10.398245 -57.256916 -271.444061
22.487503 -57.569756 -273.242737
-15.944478 -56.574852 -271.077454
-16.224493 -56.256992 -272.089783
-15.419569 -55.936844 -271.486115
-13.808580 -57.353344 -272.671417
-10.531199 -56.245853 -272.648163
11.623166 -55.707600 -270.803497
22.744129 -57.227463 -272.283875
23.336075 -56.663643 -272.719238
-17.007107 -56.658916 -273.124542
-15.353787 -55.205486 -272.287109
-12.304063 -55.905155 -271.967407
-10.376677 -56.289970 -273.506317
12.242049 -56.783035 -272.585480
-17.481438 -55.976326 -273.135651
-14.597929 -57.652744 -271.916351
-15.814268 -56.857342 -273.441681
-13.716971 -55.521282 -272.034607
-17.296051 -56.889153 -273.885437
-15.904485 -54.663479 -273.848145
-9.777399 -57.685619 -274.669373
21.490938 -56.571312 -273.725281
-14.996728 -55.238670 -274.449585
-13.790994 -57.174099 -275.364319
-12.477423 -57.059734 -273.656525
-10.071927 -56.432312 -273.865662
13.282640 -56.709076 -274.485016
21.793142 -55.419018 -272.742767
-16.437592 -57.866520 -274.607758
-15.512275 -56.101887 -274.640839
-13.655133 -57.181568 -273.689880
-13.863554 -55.931141 -274.565002
-11.153224 -56.709923 -273.604309
-9.752999 -56.657688 -274.967224
-15.382385 -57.305496 -275.009705
-14.794167 -56.236736 -275.572845
-12.551219 -56.506432 -275.091492
-10.882727 -57.169556 -275.260162
-9.569799 -57.364151 -275.241486
-15.802780 -56.170551 -275.202789
-15.020417 -56.949409 -274.653290
-15.291837 -55.719280 -274.328339
-13.535906 -57.353642 -274.692139
-8.247991 -56.758984 -275.155701
-14.549093 -56.766846 -275.591766
-14.065187 -55.873737 -275.795685
-12.625491 -57.200703 -276.627899
-9.526227 -55.948895 -276.711761
-9.282104 -56.428608 -276.394043
21.809000 -57.017612 -275.101074
-14.915554 -56.236301 -276.717102
-14.087720 -54.664745 -276.540527
-15.209671 -56.816963 -276.199677
-11.156868 -56.344040 -275.728027
-9.196304 -55.556599 -276.204407
22.242329 -56.987511 -275.858124
20.989096 -56.870121 -276.768158
-15.489985 -56.687481 -275.736145
-13.665076 -56.588806 -276.474915
-14.273434 -55.801971 -277.436523
-11.786731 -57.779251 -276.956238
-13.236095 -56.142521 -276.553650
-13.740516 -55.892483 -276.800446
-13.924446 -55.835510 -275.841187
-13.138483 -55.358292 -278.676910
-11.548216 -57.243580 -277.248993
-10.423121 -57.945560 -277.195801
-9.428256 -56.654778 -276.162903
20.789827 -58.102459 -275.187866
-13.800070 -55.427738 -277.759369
-12.065330 -55.034397 -278.423645
-10.278923 -56.457539 -277.761780
20.658171 -56.227783 -277.757324
-9.315785 -56.189247 -278.656372
-10.190298 -56.034748 -278.225342
-9.991673 -56.176540 -277.705109
-7.796494 -55.536228 -277.351318
20.155626 -57.167603 -278.602570
20.168610 -55.580551 -278.722046
-11.419323 -56.012321 -277.775726
-11.846991 -57.219311 -277.177734
-7.996831 -55.314842 -279.531982
-7.618542 -56.021549 -278.974609
18.819359 -56.609127 -277.903809
-12.635603 -56.426140 -278.304596
-11.498155 -55.545681 -277.928009
-9.849229 -57.396305 -278.930389
-9.494741 -57.879822 -278.944824
-7.307267 -56.388260 -278.308136
19.158516 -56.640011 -278.178192
-10.903124 -55.997807 -280.008636
-9.893533 -57.842369 -278.554016
-9.926446 -56.503273 -279.298065
10.611159 -56.774330 -279.805176
-11.780203 -57.070774 -279.219055
-10.349657 -55.792652 -278.638428
-9.238087 -56.769508 -279.594513
-6.928341 -58.044315 -279.800507
11.023784 -57.308960 -279.750946
19.035982 -57.032963 -279.931061
19.267361 -57.105946 -279.018707
-11.622089 -56.201538 -280.134949
-11.452126 -58.249535 -280.927826
-9.172654 -55.004562 -280.173279
-7.504257 -55.394451 -279.711823
-6.660682 -57.789356 -280.767853
-11.390418 -56.447956 -280.942261
-9.252755 -56.653942 -280.415344
-8.442285 -56.855076 -280.332550
-6.631526 -57.290611 -279.799408
11.518688 -56.779446 -278.873596
-13.216368 -56.483284 -280.743927
-11.385098 -56.005650 -279.926453
-11.363577 -56.320889 -280.505951
-11.273878 -55.339760 -280.411316
-9.917468 -56.604393 -280.501099
-8.291739 -56.548721 -280.568298
-7.840907 -56.817722 -281.234161
11.868924 -58.585560 -280.805084
18.040634 -57.534290 -279.996338
-10.428111 -56.886547 -281.880585
-10.616557 -56.581486 -281.472198
-8.506440 -56.741245 -281.249268
-8.523657 -55.445145 -281.536407
-7.805228 -54.911098 -280.196472
19.606583 -56.719631 -280.854156
-10.584084 -54.331188 -279.443939
-10.783120 -57.015038 -280.461426
-10.877719 -55.836479 -281.769958
-7.803355 -55.165493 -282.697418
-8.115716 -56.827305 -281.318939
-5.967017 -55.770187 -281.467957
18.078455 -57.553688 -281.556061
17.768936 -56.544678 -282.150360
-10.728956 -56.138271 -281.612946
-10.891089 -56.796585 -281.240784
-9.679693 -57.243393 -282.614441
-8.203394 -57.190487 -281.741333
-6.400860 -56.970207 -282.116699
10.675761 -57.080730 -281.619812
11.152284 -54.669296 -282.121796
18.913982 -57.085953 -280.949249
-10.469908 -55.628601 -281.920013
-8.076862 -55.804832 -281.141907
-5.785694 -56.689854 -282.361908
11.084637 -55.705090 -283.253998
11.387402 -55.214630 -281.689636
16.587511 -56.141808 -282.263428
-10.852007 -56.455940 -282.196655
-9.852828 -57.745327 -283.338165
-6.742082 -56.154617 -283.806152
-7.740782 -54.674454 -282.025177
-5.954819 -56.944283 -282.451447
16.567854 -58.136723 -281.066254
-8.761839 -57.653355 -283.254608
-9.982318 -54.777100 -283.924500
-6.058723 -56.332951 -282.577820
-4.518155 -57.156578 -282.255829
10.436727 -55.511059 -282.555328
16.894363 -57.014896 -283.305573
-9.805121 -56.949211 -282.883636
-8.356855 -56.896786 -283.281311
-4.413203 -57.500843 -284.683960
11.045430 -56.185123 -283.188507
-8.800894 -58.566189 -283.205780
-8.359850 -57.789619 -284.521667
-6.244517 -56.331379 -283.132111
-5.078437 -56.040840 -283.890381
-4.112947 -56.936485 -283.151276
10.078867 -57.012062 -283.561218
16.167587 -56.571026 -284.177277
-9.091398 -55.766926 -283.990631
-7.559539 -56.317257 -282.633972
-8.773451 -55.364025 -284.317078
-6.555870 -56.105946 -283.061676
-4.086759 -57.632729 -285.126770
9.799273 -55.668804 -282.174408
11.341099 -56.302094 -283.994263
16.385668 -56.703152 -284.734222
-8.317071 -55.700340 -283.582581
-4.874156 -56.318684 -285.237335
10.648239 -56.938595 -284.264221
10.790262 -56.592880 -284.021088
16.177971 -56.276638 -285.189606
14.481880 -55.453671 -284.514252
-9.092814 -56.431007 -284.589935
-7.028139 -57.237431 -284.057281
-5.696512 -56.470081 -285.647461
-4.374766 -55.520844 -284.130463
15.310837 -57.443924 -286.067566
-6.793312 -57.745098 -285.580261
-8.401225 -56.957714 -285.290222
-5.128236 -55.644871 -284.777710
-4.769877 -55.060822 -285.458496
10.296091 -55.695892 -284.794769
13.702708 -56.912487 -284.361267
-7.506966 -57.358879 -285.114014
-4.290217 -56.656036 -285.072266
10.569636 -56.281708 -285.352173
16.029791 -56.608212 -285.369293
-6.626041 -56.502354 -286.192627
-2.686991 -57.086311 -286.481689
-1.776349 -56.845146 -286.873383
11.093302 -56.504230 -285.356323
11.920543 -55.196293 -286.265839
14.584010 -56.110828 -285.342102
13.972174 -55.132915 -286.945190
-6.197362 -55.089275 -287.104431
-3.972856 -55.858646 -287.286469
