# This PCD file was generated using the MATLAB® pcwrite function
# from Computer Vision Toolbox®.
# .PCD v.7 - Point Cloud Data file format
VERSION .7
FIELDS x y z
SIZE 4 4 4
TYPE F F F
COUNT 1 1 1
WIDTH 1456
HEIGHT 1
VIEWPOINT 0 0 0 1 0 0 0
POINTS 1456
DATA ascii
18.802380 -50.281944 -280.758087
19.561066 -51.058071 -281.026825
24.175314 -50.610317 -281.483826
25.455669 -51.007519 -281.362885
6.530528 -50.090603 -281.326813
10.222767 -51.774361 -280.714386
12.213325 -50.501297 -281.403595
18.959389 -51.160099 -281.860687
24.175636 -51.070103 -281.929169
25.943209 -50.401909 -281.331116
5.028626 -50.948334 -280.595947
5.309438 -51.324398 -281.626709
7.115996 -50.444065 -281.582611
8.689636 -50.247211 -282.303925
11.688554 -51.087097 -282.055695
13.179981 -50.526455 -281.979431
15.439671 -51.045868 -281.628998
15.684577 -50.683887 -281.520203
23.622417 -50.892937 -281.744537
24.983082 -50.941868 -281.101044
2.926597 -51.067169 -281.802643
6.833866 -50.807655 -282.761536
8.762792 -49.772797 -282.791077
11.387629 -50.805470 -281.876038
12.365551 -51.281498 -282.538574
14.882539 -50.206268 -282.156677
16.369556 -49.666340 -282.302673
18.103607 -51.386497 -281.453186
22.835953 -50.718868 -282.114563
23.656361 -50.028866 -283.450775
24.800041 -51.144405 -282.773743
24.102211 -51.186642 -282.872345
12.738543 -50.494606 -282.890533
19.024565 -50.456764 -282.158173
5.361306 -51.492828 -283.247833
7.201868 -50.231396 -282.098541
8.647292 -50.771759 -282.540985
8.967278 -50.556377 -282.981567
11.279172 -51.456490 -283.074249
15.269011 -50.936020 -282.051514
15.658614 -51.180340 -283.114563
17.575769 -51.378128 -283.181244
18.329597 -51.113838 -283.198761
23.513920 -50.825634 -283.589020
5.648257 -51.244957 -284.461731
8.050153 -50.464024 -284.012024
11.059308 -50.423843 -283.433136
12.335551 -50.762085 -282.985626
17.773737 -51.661133 -282.679291
24.052309 -51.422115 -283.836700
24.041018 -50.068420 -282.992096
14.001419 -50.870201 -284.374603
15.272932 -51.033531 -284.403137
16.228043 -50.174480 -283.707336
23.353630 -49.922779 -283.512756
23.285250 -51.799160 -283.969086
23.543953 -50.290096 -283.872009
6.289509 -51.380436 -284.388184
6.082593 -50.674202 -284.663574
6.801140 -51.444195 -284.006165
8.899539 -50.102707 -283.645050
10.643872 -50.610577 -284.093170
10.921805 -50.824417 -283.698425
13.015253 -51.211239 -282.987671
15.018217 -50.233906 -285.250061
17.127485 -50.997974 -283.888184
22.432882 -51.157864 -284.425415
23.440554 -51.254822 -283.618134
23.215597 -50.890102 -283.880005
9.476383 -51.041386 -285.394867
10.823136 -50.249229 -284.636444
12.085231 -51.098701 -283.813843
16.605314 -50.906578 -284.640350
21.876888 -50.550613 -285.061340
23.126238 -51.118610 -284.586151
22.593328 -50.585957 -284.806458
7.276197 -50.745319 -285.242340
10.865840 -50.404190 -285.661407
11.694553 -50.492405 -284.847595
15.594047 -51.165440 -285.734680
23.367249 -50.334549 -286.030060
22.288410 -50.823063 -285.094360
8.107385 -50.464981 -285.630341
9.617040 -50.201900 -285.002045
10.508214 -50.068840 -285.486176
12.797509 -49.509068 -284.779419
13.820316 -50.659954 -285.599823
15.399078 -51.403683 -284.694244
14.696258 -51.298531 -285.473145
21.648235 -50.716114 -284.934082
23.066317 -50.626041 -284.767212
22.543728 -51.365822 -285.487213
9.581961 -51.119370 -287.255798
10.117011 -51.855152 -286.063782
11.716914 -50.665989 -285.458038
21.434366 -51.489582 -286.191376
22.558601 -51.414085 -285.500244
9.594853 -50.402554 -286.155640
13.400065 -50.500446 -285.813538
21.399065 -51.146622 -285.883087
22.706554 -50.011570 -285.382111
7.098967 -51.399681 -286.860107
10.568879 -50.680893 -287.347626
12.587067 -51.317528 -285.990417
13.410979 -51.451973 -286.312653
15.376806 -50.979023 -286.614349
21.442699 -50.427269 -286.617981
23.063429 -51.042950 -286.473206
21.168684 -50.103054 -286.536652
21.698019 -51.769104 -287.301178
10.282728 -50.573414 -286.483673
11.417341 -50.896770 -287.151611
20.927393 -51.583954 -286.646057
20.692265 -51.524754 -286.800995
9.078112 -50.013779 -286.765137
11.371649 -51.147648 -287.191620
22.150826 -51.054672 -287.204956
21.390060 -50.306671 -286.985107
19.638662 -51.571434 -287.058167
20.141577 -50.603584 -287.792542
21.538853 -51.117142 -287.433289
20.595440 -50.725693 -287.717957
20.026949 -51.011204 -288.383911
19.320612 -50.564510 -286.514435
21.692209 -49.981949 -288.997498
19.921913 -51.233685 -288.703064
18.549736 -51.099903 -288.675232
19.528923 -50.750183 -288.584167
20.874735 -51.549355 -289.580627
20.331223 -50.415031 -288.652985
18.144430 -50.938110 -288.877533
18.207541 -51.477802 -289.363464
20.139435 -50.753098 -289.408142
17.448395 -50.683411 -288.984558
18.284893 -50.678539 -290.536743
21.003141 -50.971760 -289.918793
19.708799 -50.966553 -289.666107
17.493656 -50.363289 -290.692657
18.391756 -50.768059 -289.528931
19.516075 -50.457413 -290.065582
17.214941 -49.930092 -289.887939
17.505312 -50.461056 -290.204529
17.378038 -51.143200 -290.431976
19.368399 -51.240993 -290.144989
16.841915 -51.023399 -290.635406
17.182205 -50.373287 -290.810791
18.399220 -51.669975 -291.512238
17.703455 -50.808247 -291.176727
15.091017 -50.390888 -292.034393
16.768024 -50.680878 -291.932251
17.303968 -49.978714 -291.739929
18.635624 -50.678440 -291.507233
17.761993 -51.484837 -290.798889
16.098812 -50.224350 -292.451477
15.880075 -50.432953 -291.564178
14.095840 -50.431511 -292.389618
15.013304 -50.433537 -292.181854
16.040489 -49.996338 -292.377686
17.022673 -50.714893 -291.920807
17.247246 -51.347324 -292.600464
17.439480 -50.248959 -292.315857
14.016026 -50.991791 -292.105927
16.398815 -51.102737 -292.967957
13.307117 -50.923176 -292.556732
14.419383 -49.338173 -292.880707
17.399652 -51.022808 -292.928558
12.880217 -51.132793 -292.794006
13.136538 -49.412582 -293.774231
14.004172 -49.447094 -292.339874
15.848308 -51.315792 -293.229858
15.796384 -49.405724 -293.161346
11.604472 -50.739449 -292.912018
12.449856 -51.294796 -294.381805
13.330034 -50.462467 -293.659515
16.225531 -51.033321 -294.728394
13.873446 -50.614807 -293.242706
10.674012 -50.710911 -294.479401
11.669249 -50.362804 -295.038727
13.093556 -50.286972 -294.588379
13.546010 -48.960278 -293.619202
15.343232 -50.811546 -293.790131
13.916112 -50.067448 -294.469147
9.656960 -51.308876 -295.038666
9.951946 -50.829514 -295.016998
11.413553 -50.809681 -294.827667
12.440883 -50.108425 -294.753174
13.290476 -51.369373 -295.140778
13.061057 -50.157257 -294.448761
7.104560 -51.715691 -295.305573
10.244431 -51.532337 -295.364014
8.971839 -50.484581 -295.222443
9.819160 -50.424793 -294.927765
12.107156 -50.792759 -294.149536
12.808862 -50.637215 -295.189575
11.918477 -50.510086 -294.457214
4.942445 -51.181438 -295.357391
7.745064 -50.812122 -295.403351
8.734490 -51.330750 -294.932983
9.310096 -50.692684 -295.056580
8.977230 -51.685719 -296.111237
10.974044 -50.165344 -295.460663
11.450325 -50.891636 -295.246063
6.471244 -51.390301 -296.109711
9.076544 -51.285873 -296.618164
8.554249 -50.710079 -296.550751
8.472485 -50.524666 -296.849640
8.331095 -50.509655 -296.314117
10.228268 -51.525036 -296.056702
9.237925 -50.388470 -295.800964
-72.788216 -49.699181 -43.273930
-71.986526 -50.021286 -43.397121
-69.774879 -50.318233 -43.122250
-67.515572 -50.070930 -43.760674
-68.170921 -50.123814 -43.883236
-67.042412 -50.158138 -44.001438
-75.034454 -49.701366 -43.306808
-74.592445 -50.899879 -44.593246
-72.672981 -49.457897 -44.162922
-71.215378 -48.830833 -44.086231
-69.896851 -49.807827 -43.230427
-63.603218 -50.868965 -43.586845
-76.808205 -50.258865 -44.074596
-62.727825 -50.978664 -43.923008
-79.798668 -50.758503 -45.617355
-77.385254 -50.364616 -44.845943
-79.257278 -49.787174 -44.714169
-77.223618 -49.778915 -44.771706
-60.843361 -49.280209 -44.746296
-61.724220 -49.749420 -43.922691
-79.624191 -50.051434 -45.689964
-79.494392 -49.975910 -46.087727
-59.260857 -49.989315 -44.896107
-59.101116 -49.196217 -44.146313
-58.455597 -50.286465 -46.129990
-81.063873 -50.677227 -45.295952
-59.604752 -49.075977 -46.147923
-56.667229 -50.440659 -45.423630
-56.278275 -49.554047 -45.322479
-81.370903 -50.337402 -45.580414
-56.148155 -50.012821 -46.180141
-54.036633 -50.234425 -45.871037
-54.973167 -49.963425 -46.205204
-54.057743 -49.912052 -46.204266
-53.070297 -49.579834 -46.316570
-52.307972 -49.930828 -47.082447
-84.904739 -50.329411 -47.031738
-51.191624 -50.602352 -47.425095
-50.480408 -50.867683 -48.485363
-49.438702 -50.072342 -47.630337
-85.723854 -49.499470 -47.416454
-48.786491 -50.510899 -47.680698
-86.881927 -50.180679 -47.533192
-47.908516 -51.349316 -47.616055
-87.446526 -50.705578 -48.493786
-44.822910 -49.966835 -48.520618
-44.497353 -50.357178 -48.607677
-89.033981 -49.886177 -48.550835
-88.726585 -50.058666 -49.556797
-43.848282 -49.828026 -49.797817
-89.033257 -50.692909 -49.370979
-89.429092 -50.838406 -50.191734
-42.566730 -50.033684 -49.731308
-89.476959 -50.616760 -50.068180
-41.549416 -49.833225 -50.721436
-39.014885 -49.276051 -50.822975
-90.913521 -50.601021 -51.078186
-89.968063 -50.787743 -51.247334
-41.325764 -49.883835 -50.440624
-38.693607 -50.555458 -50.727901
-35.851967 -50.958782 -50.360168
-35.128563 -50.548977 -50.463566
-91.673637 -49.670055 -51.492767
-41.239460 -49.137558 -51.447769
-35.866070 -49.269432 -50.616726
-34.612213 -49.447731 -51.722340
-91.808075 -50.131065 -51.985985
-34.296200 -49.446941 -50.312447
-33.190258 -48.870651 -51.981094
-32.090969 -49.592682 -50.843269
-30.292933 -49.475925 -51.106525
-92.190605 -50.192451 -52.455421
-29.156221 -49.784046 -51.247150
-91.481529 -49.429897 -52.136917
-28.354816 -48.771366 -51.720242
-26.604244 -49.937782 -53.477337
-22.035387 -50.178959 -51.983829
-21.081682 -50.078766 -51.723320
-19.376778 -50.291824 -52.247105
-18.460865 -49.962563 -51.489738
-18.250418 -50.098621 -52.072903
-17.357311 -50.010303 -52.394821
-15.355042 -49.899963 -52.036289
-14.624444 -49.939259 -51.830849
-13.644775 -48.953655 -51.705685
-61.158791 -48.889507 -52.309284
-20.307936 -48.859474 -52.848320
-14.297776 -49.003914 -52.473415
-12.414539 -49.144974 -52.640484
-11.642299 -49.775246 -52.604927
-9.998590 -49.702805 -53.124016
-61.084248 -49.260468 -53.444962
-10.062096 -50.534504 -53.824108
-93.562111 -50.135845 -53.094429
-62.772724 -49.854927 -53.242004
-62.166107 -49.064522 -52.569221
-9.499278 -49.721786 -53.966270
-94.547775 -51.057072 -55.293499
-62.012127 -49.633144 -53.341152
-61.853153 -49.594433 -54.435936
-10.116901 -49.622288 -54.348827
-62.103081 -50.125496 -55.209106
-62.589867 -49.278389 -53.494152
-60.850594 -49.192898 -54.595081
-9.648384 -49.456669 -54.040966
-60.434677 -50.764843 -56.124237
-59.424374 -49.063435 -55.057243
-8.605739 -50.070721 -54.438202
-93.641464 -50.013153 -55.565304
-63.615662 -50.696972 -54.664986
-63.471981 -49.808369 -56.061035
-61.038445 -50.020103 -56.011749
-60.727631 -50.030689 -55.305599
-9.532321 -49.865158 -55.175079
-94.280396 -49.774601 -56.241520
-63.516644 -49.771927 -55.182266
-62.694916 -49.281788 -56.078636
-60.484528 -49.301628 -56.633545
-8.794057 -49.550312 -57.221725
-8.208852 -49.250458 -56.440193
-64.259621 -51.143375 -56.319096
-60.898399 -49.866493 -56.605995
-96.160400 -49.122211 -55.853607
75.555000 -49.965546 -57.194321
76.102531 -49.474621 -57.180206
76.883568 -49.855270 -57.536625
77.325653 -49.632946 -57.352028
78.086433 -50.005409 -57.629345
-95.229790 -51.478790 -58.107925
-63.884865 -50.873268 -56.906330
-59.617413 -50.778450 -57.148155
-9.221560 -50.704067 -57.530544
74.799271 -50.882229 -57.690903
73.697174 -50.438187 -57.623192
72.625061 -49.668736 -57.001793
78.798065 -50.613335 -57.956074
79.637215 -49.757984 -57.779037
88.663864 -49.967060 -57.324615
89.302116 -49.378555 -57.793568
-96.039146 -51.556152 -58.518852
-59.921650 -49.321087 -57.695629
-9.254856 -50.824558 -57.756611
-9.693036 -50.474686 -59.311573
-9.213746 -49.069744 -57.335178
72.532280 -51.039124 -58.683929
79.785751 -49.516243 -57.680588
79.276558 -49.113670 -57.193783
91.896126 -50.731472 -57.590191
-96.566719 -50.185131 -59.334499
-64.424423 -49.988628 -57.262291
72.206383 -50.255775 -58.759525
81.127960 -50.739323 -58.192444
88.040550 -50.045750 -58.924557
86.744919 -50.643063 -59.270847
92.488029 -50.141197 -57.912964
-64.897118 -50.252388 -59.177807
-59.757133 -50.611420 -59.258080
-10.317567 -49.190441 -59.162285
70.720596 -49.196144 -59.048683
81.629692 -50.317841 -59.379082
85.994904 -49.529709 -59.353584
92.668709 -50.017418 -59.044266
-64.240250 -50.138668 -59.916256
-16.345154 -48.641499 -60.587772
-15.460478 -51.069000 -59.371605
-13.795554 -49.677021 -59.195183
-13.940065 -49.197773 -59.553120
-12.177903 -49.487610 -58.488697
70.080734 -50.881035 -59.799122
82.299065 -48.971985 -59.024059
85.132149 -50.482590 -59.928947
85.012505 -49.410526 -58.526150
93.171928 -49.613407 -59.567715
-96.612885 -50.424873 -59.966988
-60.100132 -50.281784 -59.678749
-17.155815 -50.569847 -59.664223
69.140236 -49.564594 -59.487831
83.027893 -49.389278 -59.230938
84.488922 -51.083286 -59.653980
-97.431236 -50.910240 -60.279343
-64.264137 -49.625443 -59.173576
-59.840176 -49.570728 -59.723778
-21.421471 -50.991325 -60.296867
-20.056889 -50.479599 -59.572868
-21.017855 -49.347191 -59.959560
69.412781 -50.148022 -59.740650
83.594025 -49.851604 -59.295753
-97.521545 -50.106018 -60.348988
-64.247185 -50.436745 -60.797928
-60.579590 -50.248280 -60.572842
69.215553 -50.278370 -60.760754
94.775406 -49.929615 -59.881702
-64.994682 -49.747982 -61.725132
-23.151533 -50.146767 -60.751678
-24.263214 -49.422573 -61.299751
95.067436 -50.272152 -60.168072
-60.599934 -49.158562 -61.222145
-26.517178 -50.667839 -61.806622
68.353165 -51.205582 -61.176296
-97.171371 -50.971100 -61.355377
-64.884689 -50.147388 -61.218189
-61.366634 -49.729362 -61.321720
-28.525805 -50.294491 -61.584358
67.668747 -50.415340 -61.904640
96.666458 -49.763981 -62.120228
-98.707642 -49.802235 -62.279366
-60.087536 -50.031021 -61.977856
-31.035637 -50.612080 -61.734024
67.948784 -50.148483 -61.021622
96.305634 -49.873512 -62.323257
-97.713882 -49.986740 -63.020016
-64.495903 -49.656353 -62.487728
-60.767036 -49.688599 -62.093033
-31.627329 -49.903385 -62.250446
67.873543 -49.382439 -63.297623
97.304611 -49.680698 -63.263355
-97.963623 -50.716187 -63.240467
-64.692680 -50.364689 -63.743992
-61.353535 -49.576401 -62.923550
-61.625282 -49.916325 -63.227928
-32.693913 -50.212822 -63.187588
67.296379 -51.182884 -62.750446
97.391083 -50.460117 -61.625790
-98.342606 -49.725044 -63.893314
-63.352665 -50.472057 -63.248184
-64.098389 -49.835251 -63.391544
-63.268730 -49.199902 -63.440041
-61.502621 -49.470657 -63.581402
-62.516777 -49.476288 -63.015518
97.404327 -50.321613 -63.327717
-64.209221 -50.166637 -64.262993
-62.687546 -49.680729 -63.771942
-62.242676 -51.128933 -63.742947
-32.833290 -49.803444 -63.490429
-33.339676 -50.059410 -64.613571
67.162086 -49.596512 -63.322945
98.549118 -49.662846 -63.877903
-62.573696 -48.981846 -65.286591
98.293114 -50.361912 -64.756607
-98.999771 -50.053753 -63.890274
-62.749458 -49.468803 -65.211487
-62.073017 -50.104992 -64.281387
-33.291382 -50.158749 -65.106140
66.779488 -50.773159 -63.587322
67.578018 -49.175816 -64.390236
98.691879 -50.233780 -65.345795
71.868744 -48.946693 -64.625198
99.475502 -50.042965 -65.541412
-98.656860 -50.891125 -65.518929
65.309723 -49.713161 -64.997078
66.328087 -48.846809 -65.638802
65.663948 -49.679520 -64.921181
65.431908 -48.771923 -65.415810
68.799400 -49.536880 -65.430435
70.474785 -49.812771 -65.336708
100.172409 -49.928459 -65.309044
66.324402 -48.863701 -66.523384
68.905434 -48.682232 -66.176956
70.531197 -49.351868 -65.789680
74.134468 -49.446514 -67.725273
100.131844 -50.983200 -66.229355
-35.287834 -50.020916 -66.254875
69.589783 -49.413982 -66.630577
69.823586 -49.034477 -66.953804
73.414726 -49.694492 -66.942383
-36.472046 -50.333523 -67.455185
64.230804 -49.150879 -67.156288
69.569778 -50.120502 -66.565643
70.870880 -49.953087 -66.190872
71.457329 -48.531296 -67.200081
74.265671 -48.517410 -66.858299
75.242813 -48.781944 -67.180046
75.942406 -49.538109 -66.966682
78.320290 -49.937603 -67.259323
80.489319 -48.780628 -67.449265
100.526222 -50.405197 -65.948509
65.910408 -50.232983 -66.728333
64.707535 -49.264091 -67.905327
70.532417 -50.758972 -68.224236
74.243515 -50.083214 -67.443161
77.230461 -49.706028 -67.751640
81.135811 -49.183075 -67.353401
100.808296 -51.136505 -67.408997
64.772476 -50.259388 -67.608002
67.904427 -50.048668 -67.182701
76.006905 -49.202194 -67.746178
77.707779 -50.407158 -68.732582
78.616646 -49.669682 -68.195419
-100.537392 -50.495216 -68.019745
-37.507725 -49.593693 -68.167122
67.360664 -49.883144 -68.289154
67.329712 -49.864693 -68.595161
79.064949 -50.332989 -68.086548
80.366203 -49.314533 -68.288170
82.432434 -49.748154 -68.916122
83.503471 -49.050480 -67.775360
-37.132854 -49.368336 -68.172577
81.028053 -49.455574 -68.263718
82.933044 -49.333012 -68.697090
84.941109 -48.539089 -68.713966
101.046852 -50.534657 -68.639297
63.925255 -49.023262 -68.601761
67.633759 -50.100552 -69.008446
83.065742 -49.285336 -69.522362
83.815887 -49.869080 -69.001930
83.297409 -50.283440 -68.780411
86.756378 -48.756390 -69.606903
89.658051 -49.719296 -68.886047
102.256348 -50.340519 -68.998665
-99.126549 -50.608383 -69.237564
-37.477272 -50.000225 -69.246758
64.465813 -49.838184 -69.165421
64.387032 -50.020626 -69.327766
66.983139 -49.910530 -69.126991
84.404770 -48.717701 -69.666977
86.019180 -49.346340 -69.662514
88.615471 -48.882080 -68.964325
85.440315 -50.881100 -69.813606
86.498795 -49.100887 -69.970665
88.158974 -49.507946 -69.473572
88.244629 -48.967552 -70.545685
90.980835 -49.005291 -70.681252
102.024704 -49.494190 -69.619652
-37.441784 -48.932213 -70.294411
86.071693 -50.536175 -70.375206
88.059265 -49.901615 -70.438866
89.133675 -50.514793 -70.266640
89.182625 -49.522987 -70.095772
91.653656 -49.202251 -70.313797
-38.380768 -50.567360 -70.097740
62.699551 -49.033356 -70.529320
66.770851 -50.409164 -69.991554
88.886177 -49.789967 -70.715088
88.880615 -49.094746 -70.555573
90.164917 -49.499901 -70.274010
102.602562 -51.053661 -70.686142
-38.837345 -50.414192 -70.781151
66.727821 -50.998558 -70.001633
89.497444 -49.648411 -70.322121
90.276001 -49.704552 -70.022301
92.278816 -49.353420 -70.626358
101.737770 -50.227711 -71.362526
63.352322 -49.085838 -71.555008
91.309723 -49.629093 -70.877785
91.784790 -48.960857 -70.513580
102.872620 -49.385338 -72.030998
62.445076 -50.025650 -71.626900
66.170067 -49.520729 -71.520134
90.425514 -49.245110 -72.027946
91.909576 -51.031334 -71.876160
92.609688 -49.722504 -71.549667
92.222527 -49.377274 -72.545166
94.044640 -49.594341 -71.395798
102.639557 -50.109871 -71.452698
66.231789 -49.998745 -71.649803
92.254906 -49.429550 -72.227730
102.674522 -49.024246 -72.142975
-38.878574 -49.861507 -72.105965
93.486763 -49.156071 -72.051949
102.121468 -49.690880 -73.650436
102.633919 -50.278042 -72.372360
-38.932537 -50.009720 -73.360596
62.592495 -49.391415 -72.827232
92.385338 -50.196869 -73.533752
93.516724 -49.782471 -73.597000
95.942276 -49.696606 -73.023788
102.579231 -49.547718 -72.912682
-100.007408 -51.357067 -73.502022
63.383595 -50.492004 -72.954086
64.117920 -48.794834 -73.897278
94.066429 -50.262844 -73.893852
94.358238 -49.746696 -73.834450
95.552132 -48.831299 -72.877441
102.984154 -50.432369 -73.719337
101.595207 -50.031658 -72.837631
65.848381 -49.937782 -73.318199
96.553139 -49.577164 -73.735039
96.364769 -49.771378 -73.175186
98.104675 -48.580410 -74.388290
99.058968 -49.259350 -73.411400
101.495506 -49.224934 -73.098244
-99.507668 -49.795555 -74.133842
62.860615 -49.364777 -74.374588
64.823891 -50.217121 -73.351570
96.913918 -50.227482 -74.409149
98.147194 -49.483795 -74.283524
99.564735 -49.550220 -73.680511
101.462318 -48.793446 -73.455879
102.497513 -50.164680 -74.486771
61.873188 -49.429859 -75.050392
64.867790 -50.782677 -74.336464
-100.107918 -49.552311 -75.039299
63.691479 -49.344242 -73.845863
65.672012 -50.645184 -75.175644
65.848175 -48.861866 -74.917839
97.849533 -49.981667 -75.671234
99.161461 -49.712589 -74.946365
99.891197 -49.525383 -75.438881
101.496521 -50.566998 -75.238213
100.769615 -50.926014 -74.880379
-100.110703 -50.228069 -75.840080
-38.825378 -51.192646 -75.279099
64.038361 -48.918781 -75.985458
64.359032 -49.936737 -74.709496
99.196808 -50.606701 -76.300369
99.937515 -49.782196 -75.177567
62.049110 -50.366745 -75.705299
-100.545952 -51.481598 -75.209351
-39.223251 -50.512455 -76.592224
63.549503 -48.744675 -76.785255
65.079353 -50.524742 -75.759697
-99.959435 -51.161095 -77.152985
-39.590809 -49.440620 -77.310219
61.347153 -50.662472 -76.686234
65.149734 -50.040264 -76.187241
-100.206924 -50.154522 -76.911781
-40.293224 -49.292561 -76.050301
61.692642 -50.024136 -76.761703
61.820538 -48.903790 -75.611435
64.737350 -50.519714 -77.324493
-100.383255 -50.668396 -77.832642
61.424461 -50.130478 -77.677208
62.798859 -49.702385 -77.094673
61.181686 -49.707512 -78.080063
-100.660789 -52.470413 -78.377708
-39.841137 -48.363071 -78.244583
63.098591 -50.461105 -78.670433
64.956978 -50.654541 -79.023933
-100.162743 -51.298908 -79.243248
-41.551647 -48.972443 -79.081032
61.704071 -50.268650 -78.661934
60.991100 -49.063339 -79.276398
-43.541588 -50.794601 -79.476189
-43.270462 -50.030899 -79.085335
-41.948887 -50.611675 -79.841331
61.801632 -50.774933 -80.430305
62.892517 -49.223019 -78.255386
64.389038 -50.072376 -79.931740
-100.430931 -49.852005 -79.224937
-43.949818 -49.924438 -79.525642
-100.094872 -50.225266 -79.616585
-44.442501 -49.782921 -79.284973
62.042496 -49.561962 -79.760422
63.669601 -50.234844 -79.603882
64.808281 -49.307156 -79.892151
66.019035 -49.817940 -80.256142
-100.340355 -50.124634 -80.210098
-46.458839 -49.587730 -81.015579
-45.409431 -49.792057 -81.699371
61.231224 -49.784512 -81.561447
63.328972 -48.758278 -81.482239
63.839954 -49.799164 -80.786758
-46.907169 -50.388496 -81.425957
-48.344334 -49.443909 -81.049034
63.039200 -48.497086 -81.561440
-99.857269 -49.111553 -82.492165
-48.989571 -50.523376 -81.402290
60.634655 -50.370831 -82.236801
-49.386353 -49.671467 -83.264412
61.291370 -49.920746 -82.217400
63.250111 -49.269493 -81.711174
64.411919 -50.551746 -81.842636
-49.886387 -50.216743 -82.845146
-50.414509 -49.039692 -83.002953
64.529785 -49.909164 -82.996613
-51.250347 -48.941097 -83.272018
-52.693790 -49.615788 -82.517509
61.066456 -50.610527 -83.268585
61.940319 -48.339508 -84.076485
62.821144 -49.591404 -83.523903
63.856262 -48.614601 -82.871292
-53.627686 -50.263199 -84.490143
-55.062317 -49.322239 -84.120705
63.255138 -49.303051 -83.739983
64.117531 -49.342388 -82.213570
-101.221382 -49.518120 -83.620483
-54.425743 -49.871681 -83.439980
64.348686 -48.658699 -83.401131
-56.263012 -49.297325 -85.212448
62.653118 -48.948765 -84.930786
64.536575 -50.662720 -84.187218
-56.251320 -50.072971 -85.486847
62.135925 -49.334415 -85.440880
63.226757 -49.529984 -84.505730
-100.537361 -49.945263 -85.033340
-57.385994 -49.884220 -85.035110
61.791245 -49.131989 -84.300644
-57.528351 -50.269894 -85.057945
64.127876 -49.532707 -85.129036
63.890923 -50.366024 -85.327606
-100.771400 -51.635509 -86.287415
-57.562397 -49.732662 -86.397881
61.879772 -50.942139 -87.446411
62.652679 -49.200104 -86.384735
64.153030 -49.695137 -86.040878
-58.791782 -49.815224 -86.717422
62.143673 -49.152981 -85.925270
64.398369 -50.127728 -87.538780
-59.485065 -49.911873 -86.140717
-58.564095 -49.031178 -86.364769
62.368530 -49.514393 -87.275482
63.384315 -49.611576 -87.367805
65.050232 -49.173695 -86.799553
62.019203 -50.421947 -87.272728
64.655785 -50.029766 -86.488625
-100.541054 -50.795147 -88.681816
-59.840958 -50.384727 -87.170731
60.522381 -50.236294 -87.145981
62.286415 -50.216930 -87.497910
-61.726784 -49.776096 -87.961502
64.408310 -50.372826 -87.103065
-61.265369 -49.899563 -87.958290
60.982815 -49.989204 -88.112701
64.181641 -49.805241 -87.561684
65.106323 -48.693981 -88.184608
-61.410339 -49.822037 -88.433495
-62.297611 -49.562325 -89.473862
61.228298 -50.008934 -88.216187
63.618210 -49.158051 -89.051117
63.805706 -50.049408 -89.501457
64.723305 -48.358761 -88.729485
-100.399490 -51.222813 -89.025040
-62.437160 -51.386189 -89.326225
61.207096 -49.547787 -90.424294
62.700157 -49.214260 -90.180450
64.536102 -50.163284 -89.558029
-63.087666 -51.130226 -90.500458
61.946049 -49.730915 -89.727066
60.625156 -48.784008 -91.752480
61.966122 -49.453659 -90.603836
-64.642464 -49.180374 -91.059402
62.441372 -50.583370 -90.959160
62.841496 -49.695408 -91.705559
64.976044 -49.890602 -91.357071
-65.241455 -50.335262 -92.677094
61.463017 -49.259312 -91.974564
-64.990044 -49.893948 -92.175896
61.426052 -49.049950 -93.093193
62.939617 -49.484833 -92.201149
65.568253 -49.590305 -92.402824
-65.233665 -48.787483 -93.034088
62.092846 -49.345772 -92.073341
64.981407 -49.961552 -92.293259
-66.002625 -50.288467 -92.474876
61.788017 -49.850445 -91.976547
-66.443909 -50.064301 -93.252678
61.764202 -50.546558 -93.007347
62.584938 -50.274956 -93.673294
62.827885 -49.475132 -93.254829
-67.570305 -49.199608 -93.345222
62.905891 -50.116943 -94.220398
63.606289 -48.457027 -94.297409
63.980026 -49.300442 -93.049103
65.082985 -50.463154 -93.932953
-100.151588 -50.260239 -94.528908
-67.663651 -50.616379 -94.480164
62.970695 -48.395103 -93.596375
64.470337 -48.777649 -94.823738
-67.848282 -51.739689 -95.396667
60.830147 -49.254845 -94.851830
64.170357 -49.154900 -94.746078
64.995316 -50.139019 -95.090958
-100.758110 -49.484615 -95.714508
-69.188271 -49.264198 -94.999336
61.359547 -49.722778 -94.942741
64.215034 -49.847504 -94.865707
66.197769 -49.824722 -95.523575
62.184494 -50.263996 -95.327271
64.582932 -48.609505 -95.191330
-100.314445 -51.019756 -95.517601
61.772415 -49.231575 -96.174156
63.528709 -49.531590 -95.776581
64.780701 -48.731865 -96.152061
-69.705681 -49.780602 -96.196167
63.125774 -49.509960 -97.126953
-69.039246 -50.249069 -96.388573
62.027710 -50.176182 -96.807549
63.849033 -49.501461 -97.394531
64.864731 -48.943661 -96.266861
65.424248 -49.846169 -96.902725
64.344376 -49.848503 -97.451889
65.970970 -50.316025 -97.365501
-100.505325 -50.449486 -98.487007
62.441280 -50.494846 -97.239212
63.461491 -49.356026 -97.816116
64.587105 -49.652878 -97.683357
66.265434 -49.437260 -97.886765
66.430199 -49.340088 -97.702911
65.530540 -49.022938 -97.974716
66.735641 -49.573231 -98.140251
-99.823471 -49.796982 -99.688095
-70.917351 -50.251160 -99.266571
62.622925 -50.108219 -98.131927
63.143379 -50.105156 -99.532280
64.500160 -50.002277 -98.494568
-70.667755 -49.072899 -99.263893
-71.530464 -47.896515 -99.975159
65.749001 -49.862339 -99.205246
67.209389 -50.435562 -98.510162
-100.201416 -49.512444 -99.250641
63.741608 -50.346729 -99.088875
62.934326 -49.624443 -99.271233
65.113968 -48.760826 -99.583244
66.913620 -49.242146 -98.538994
64.989685 -50.041553 -100.566322
65.481277 -49.519859 -99.379555
68.059570 -49.574131 -99.843025
62.833271 -49.849968 -99.901062
64.301346 -49.991806 -100.446434
65.912811 -50.299641 -100.066391
66.963821 -49.891590 -100.077415
-100.039040 -51.077259 -100.010910
-71.744362 -51.367142 -101.003532
63.337399 -50.646275 -100.598885
65.973259 -50.647213 -100.561058
67.673920 -50.263515 -101.379120
-72.521927 -51.759918 -101.216835
64.287544 -49.179741 -101.615364
64.679802 -50.502159 -101.262169
65.887169 -49.541676 -100.500191
68.751343 -50.191090 -100.787544
-72.768547 -50.237686 -101.501961
66.098495 -49.107651 -101.785957
66.972992 -48.555138 -100.927765
67.529739 -50.443016 -100.444183
-73.149857 -50.771912 -101.882263
-72.953728 -50.735489 -101.682991
64.432632 -49.977100 -102.420105
65.628319 -49.131584 -101.730499
65.527481 -48.974129 -101.598389
66.721024 -48.983482 -102.145409
68.685669 -50.173267 -101.942474
68.860489 -49.666687 -102.083748
-99.216202 -49.728374 -102.425545
63.848976 -49.999825 -101.577789
64.411514 -49.424213 -102.139587
67.215477 -48.647320 -101.966179
66.865646 -49.581539 -102.118530
68.522476 -49.628796 -102.878029
-100.091660 -49.180233 -102.956978
65.481041 -49.698944 -102.715691
66.499290 -48.861435 -103.521553
65.418396 -50.271877 -103.865898
-99.559517 -49.334148 -104.536064
-74.523453 -49.746162 -102.978981
65.456108 -49.593231 -103.581848
68.126381 -49.541088 -103.814445
69.429787 -49.516300 -103.502754
70.052887 -50.361713 -104.711815
-73.296043 -50.910633 -103.903961
66.239334 -50.419842 -104.017097
68.617065 -49.107944 -104.804070
-98.883827 -50.329983 -104.442657
-99.532784 -50.291679 -104.573799
-74.659180 -50.144634 -104.387253
66.488785 -50.211754 -103.518539
69.901070 -50.139061 -104.882446
65.832008 -50.203609 -104.911652
68.381096 -50.445065 -104.896011
-75.212349 -50.645718 -105.293381
66.348396 -50.352032 -105.220215
68.553932 -49.055508 -106.039581
-98.574875 -50.427670 -105.876968
-75.740532 -51.492989 -105.477699
66.573143 -49.843525 -105.250435
68.547073 -49.202427 -105.685997
71.057449 -49.612282 -105.479492
-98.996140 -49.844414 -106.861221
-76.455658 -49.294952 -106.132057
66.595894 -49.933304 -106.090096
66.993240 -50.455997 -106.890274
69.395012 -49.238773 -106.077316
71.549553 -50.785137 -106.553833
72.974281 -49.080143 -105.380508
-76.546715 -49.898708 -107.526833
70.588318 -49.324718 -106.403473
72.892792 -50.714211 -106.924232
-77.103912 -50.018990 -106.888535
68.087723 -49.523098 -107.304153
73.458221 -50.409477 -107.164742
75.913185 -50.120956 -107.200974
-99.191284 -50.717602 -106.696045
67.681519 -50.595989 -107.361710
66.579811 -49.646576 -107.602882
74.043846 -49.611420 -107.238312
75.443962 -50.283230 -107.572342
76.374504 -49.466618 -107.366806
79.264915 -49.691799 -106.882324
-98.542961 -49.195534 -108.031082
-98.251015 -49.318417 -107.771622
-77.507271 -50.096710 -108.106255
76.152412 -50.367844 -108.401497
77.335106 -49.525620 -108.273933
78.760590 -49.626942 -108.981056
79.281631 -49.462952 -107.595604
81.491821 -49.582333 -108.298454
-98.640808 -49.977783 -108.523041
-78.321098 -50.391926 -107.720085
69.181549 -50.055298 -108.650856
76.479385 -50.019409 -108.576469
78.474655 -49.876770 -108.793556
82.069427 -48.904648 -108.519676
83.261566 -49.826355 -108.807426
70.224434 -49.638092 -108.330559
73.400055 -48.958050 -108.023438
79.852058 -48.665710 -107.320984
82.719742 -50.019264 -109.748177
83.767967 -49.838501 -109.850868
85.159645 -48.781139 -108.129593
-78.227409 -49.863937 -107.945290
79.189621 -50.389183 -109.073128
79.046196 -49.459385 -109.180138
81.555244 -48.551167 -109.503838
83.763443 -48.976540 -109.363701
85.180397 -48.910500 -109.175484
-98.220398 -49.144615 -108.441818
-78.679901 -50.477943 -109.371429
69.804962 -50.016052 -109.667953
71.408066 -50.554764 -109.251259
77.339973 -49.456150 -109.801208
78.775635 -49.472775 -109.066711
81.558510 -48.984566 -109.950340
83.455681 -50.340954 -108.951019
85.726959 -48.571857 -109.657120
-97.491676 -50.794178 -110.372444
71.316299 -49.468903 -110.161232
72.167442 -50.702194 -109.823051
80.531715 -49.458179 -109.867157
83.103157 -48.227932 -109.614235
83.428192 -49.245220 -109.363060
71.934120 -49.151196 -110.001450
73.606941 -50.286217 -110.452904
75.635315 -49.861683 -111.061790
77.437073 -49.854786 -109.735802
78.457962 -48.826736 -110.302299
79.455643 -48.812637 -110.583511
82.766251 -48.514454 -109.560295
83.639343 -49.322807 -109.946098
85.014595 -49.580605 -109.958778
85.267296 -48.593529 -109.894188
-97.917274 -49.564472 -110.200615
-80.357651 -49.641361 -109.620155
73.909660 -49.638206 -110.090820
75.857712 -50.156075 -110.412369
76.670952 -50.241707 -111.227547
78.780479 -49.169521 -110.126678
86.978088 -49.735310 -110.879242
-97.765236 -49.305943 -111.290619
-81.095566 -50.664341 -111.525589
-79.971542 -48.651352 -110.772102
74.618469 -49.389923 -110.050781
75.713654 -49.760872 -111.386475
76.483528 -49.528316 -111.500862
-96.968033 -50.439342 -111.371674
-97.490120 -49.488182 -111.612640
-81.971252 -50.156841 -111.581741
-81.933121 -50.632713 -112.466507
-97.840286 -49.749851 -112.654198
-97.489937 -50.082745 -114.115692
-83.031029 -49.356270 -113.838997
-96.536118 -49.750793 -113.707512
-82.530327 -50.205490 -113.987099
-83.260468 -49.528049 -113.629372
-96.620369 -50.474537 -114.471611
-82.636368 -50.812523 -113.824432
-95.487465 -49.731983 -115.436768
-95.977028 -49.400921 -114.020798
-83.926636 -50.029942 -114.926338
-84.180595 -50.240814 -115.122917
-96.814545 -48.856453 -115.931206
-85.241119 -50.531254 -116.293144
-96.405029 -50.432453 -115.886215
-86.334694 -50.124924 -116.996895
-85.666695 -49.266315 -117.030495
-94.842407 -50.490196 -117.950272
-95.148079 -48.691067 -117.159439
-85.396591 -50.205513 -117.411072
-86.657707 -49.772781 -117.374054
-95.067139 -49.612442 -118.366714
-86.056274 -50.783882 -117.821068
-88.373161 -49.840580 -117.532684
-95.591141 -49.824215 -118.674965
-87.824936 -50.403820 -117.746971
-94.093513 -49.954357 -118.697968
-88.000664 -49.508999 -118.717262
-93.831322 -49.292923 -118.876778
-88.168900 -50.749668 -118.739502
-92.671585 -50.386372 -119.234245
-91.643669 -50.375603 -119.451653
-91.066048 -48.589916 -119.255264
-90.628700 -49.683434 -119.607147
-90.097984 -51.035580 -119.524963
-91.237679 -49.493473 -119.739845
12.222612 -50.267185 -236.718033
13.901980 -49.499420 -235.821289
14.850073 -48.936481 -235.703461
15.458254 -49.714443 -237.009430
12.430904 -50.149628 -237.286362
14.049864 -49.488155 -236.948029
13.733866 -49.736584 -236.283478
14.790853 -49.260715 -237.134094
16.075052 -50.526051 -237.067184
17.089939 -49.469933 -237.351395
17.854967 -50.316605 -237.798035
13.613852 -49.324921 -237.195572
13.483060 -50.537342 -236.022263
14.431597 -49.359005 -236.588257
15.755596 -49.080647 -237.370224
17.809458 -49.083431 -237.802231
17.674208 -50.943455 -237.558350
13.977687 -49.734341 -237.318359
14.499681 -49.709518 -237.568436
14.166748 -49.606007 -237.161667
16.049324 -48.578308 -237.996552
17.406342 -48.841656 -237.602173
18.000576 -48.924648 -237.273285
18.010916 -48.899994 -237.444550
19.547123 -50.334938 -238.000488
16.308241 -50.089916 -238.171249
16.336195 -49.722580 -237.907547
17.353436 -49.215660 -237.673218
19.173536 -49.724678 -237.492615
17.351944 -49.501011 -238.534286
18.125093 -49.683350 -238.307434
18.446127 -49.528210 -238.400375
20.429304 -50.276234 -238.286484
18.574636 -51.040031 -238.327728
18.711803 -49.267239 -239.253967
20.171055 -49.930103 -237.491760
21.027830 -50.306110 -239.305481
18.124760 -49.987103 -238.302643
20.395613 -49.666183 -238.493057
21.729519 -50.310471 -239.791275
21.260960 -49.006714 -238.270157
20.297213 -48.676662 -238.593018
21.166435 -49.143093 -239.416840
21.846737 -50.025143 -239.155777
19.771074 -49.992195 -238.597031
20.839148 -49.987652 -239.392334
23.721739 -49.590622 -240.685516
21.735275 -49.515499 -238.952820
20.113768 -49.773777 -240.401825
20.828142 -49.970970 -239.956161
22.350519 -50.530727 -239.994324
23.051603 -48.186275 -240.108185
21.970888 -49.304230 -240.881897
22.550251 -49.733990 -240.678589
22.000967 -48.638046 -240.492783
21.510735 -49.164753 -242.259338
21.445807 -48.934536 -241.270554
23.081631 -49.914318 -241.178360
21.533569 -49.209209 -241.009003
0.122129 -49.824955 -241.567123
-0.277704 -49.986221 -241.755219
12.096936 -50.762196 -242.144302
12.202055 -49.718273 -241.042877
12.738747 -49.651630 -241.733246
14.334658 -49.811619 -241.626770
23.717957 -49.312630 -241.622925
22.285799 -50.187351 -241.458984
-8.134270 -50.958973 -242.612473
-5.233657 -49.949669 -242.520416
-2.730519 -50.680138 -242.004166
1.153588 -49.911705 -241.681427
10.968663 -49.876080 -241.282913
11.515272 -49.580967 -241.348099
11.946365 -50.004295 -240.643448
22.959192 -50.041088 -241.743393
23.483622 -49.695004 -241.720734
22.413181 -49.941822 -242.370682
23.406134 -49.282761 -240.922882
23.570162 -50.318752 -241.820007
-7.931810 -50.003716 -242.609619
-6.529230 -49.307556 -241.915802
-6.667162 -49.526134 -242.586243
-4.142327 -50.278877 -241.384308
-2.588088 -49.778442 -241.261032
-2.298748 -48.800632 -242.969864
0.671221 -48.901012 -242.229218
11.093216 -49.699871 -242.852997
12.045577 -50.573631 -241.716354
12.602266 -49.553635 -241.435623
14.563962 -50.068939 -243.169601
16.772556 -50.089424 -242.050598
-9.948859 -50.608234 -242.314667
-9.881152 -50.466881 -242.482422
-8.599402 -50.702816 -242.587997
-5.608628 -49.527359 -242.772003
-6.315016 -48.977806 -243.119385
-4.495933 -49.498325 -242.029709
-2.550778 -49.653248 -242.588715
-1.272698 -49.475315 -242.750885
0.560616 -49.590981 -242.997498
1.855043 -51.397449 -242.569824
2.976827 -49.914818 -242.919617
8.843085 -49.826283 -242.036972
9.382888 -50.267902 -243.412445
11.002241 -49.447876 -243.407928
12.876732 -49.272934 -241.834427
16.359358 -49.843590 -241.765762
23.315525 -50.313091 -243.053360
23.904106 -49.749729 -242.442871
23.234138 -49.385956 -242.669525
-11.068241 -49.891857 -243.295761
-11.005995 -49.804028 -243.157150
-9.681602 -49.212574 -242.881195
-8.107081 -48.733101 -243.137329
-8.158364 -49.333687 -241.810349
-3.187352 -49.233299 -242.426300
-1.706838 -49.923042 -242.068787
-0.016109 -49.434734 -243.450851
8.596509 -49.077862 -241.781342
9.121061 -50.279346 -242.798615
11.653902 -49.579742 -242.610703
13.096681 -49.440514 -242.669022
14.553872 -49.659840 -242.924820
15.295473 -50.204704 -243.152512
17.030790 -50.175686 -244.322510
16.233753 -49.812397 -242.248703
24.253101 -50.202095 -242.946075
23.800945 -50.406464 -242.414368
23.653099 -49.391624 -243.433105
-10.590046 -50.520859 -243.780685
-10.403645 -49.979111 -244.105713
-9.342265 -49.724731 -243.221313
-8.090843 -49.694614 -243.579025
-2.853503 -49.032177 -243.445953
-1.676750 -48.811390 -243.643967
-0.208923 -49.311935 -242.581635
0.554357 -49.970066 -243.129349
2.025752 -50.203472 -242.427872
2.999030 -50.025116 -243.877502
8.283911 -50.306408 -242.676971
7.830016 -49.536259 -243.362976
10.006822 -49.427349 -243.336594
11.209116 -49.125305 -244.166016
12.337139 -49.790909 -243.993393
14.029985 -49.924522 -242.869110
15.839725 -50.317978 -243.617859
16.404329 -50.465477 -243.486664
16.588869 -50.046833 -244.072784
-10.949077 -49.875858 -244.554901
-10.433651 -49.510887 -243.554764
-8.906620 -49.627972 -244.076874
-9.208960 -49.869476 -243.692902
-7.794527 -50.220177 -243.381790
-5.724476 -49.405647 -244.147156
-6.275687 -49.133308 -243.812256
-0.700240 -49.407177 -243.516357
1.169602 -50.204494 -243.562134
3.250052 -49.438152 -243.899612
4.014469 -49.722424 -243.217789
4.678566 -48.929764 -244.033264
6.030531 -50.317863 -243.198639
8.320954 -49.973244 -242.961334
10.811681 -50.106644 -243.702408
15.259709 -50.431747 -243.694290
17.881462 -50.878231 -243.145844
16.772139 -49.607895 -243.722397
24.335274 -50.437714 -243.660736
-10.679163 -49.665260 -245.012650
-9.497864 -50.387924 -243.782669
-7.718613 -49.242378 -244.446060
-5.662101 -49.386753 -244.833069
-0.257814 -49.509880 -243.723755
1.096883 -50.563404 -244.385635
3.222212 -49.919479 -243.575851
5.726083 -48.892021 -244.121048
7.748418 -49.725433 -243.799240
10.530717 -50.401836 -243.721741
13.274099 -50.434036 -244.533981
14.020269 -49.275753 -244.402527
17.199282 -49.027935 -244.870331
-11.481214 -49.294548 -244.209183
-11.344781 -49.740742 -245.061798
-10.259565 -49.687431 -243.631470
-10.356471 -49.069397 -245.113586
-10.285725 -49.788597 -243.614761
-6.965431 -49.924862 -244.925430
-5.486839 -49.707081 -245.282959
0.076614 -50.172318 -245.037567
1.001461 -50.080051 -244.188889
4.244495 -49.764385 -243.882904
5.259893 -49.403488 -243.867432
9.325471 -50.279823 -244.932144
11.131703 -49.475128 -244.923859
13.528598 -49.917797 -244.609711
15.905501 -49.558773 -244.842346
17.029043 -50.058334 -244.116440
-11.480666 -49.775909 -244.546356
-10.103564 -49.501148 -245.068436
-10.081173 -48.926380 -244.591644
-4.712830 -50.108913 -244.438568
0.633245 -49.439892 -244.842499
1.494773 -50.517056 -245.032623
7.794883 -50.164021 -244.891541
10.943432 -48.325657 -244.955231
15.898211 -49.868279 -244.923523
17.357973 -49.593536 -245.104568
18.876949 -49.704613 -244.130463
-10.390408 -49.093868 -244.098572
-10.898002 -49.799198 -245.811295
-9.423388 -50.252052 -244.828033
-8.880211 -49.312313 -244.329956
-7.323308 -49.593426 -245.345352
-6.642364 -49.542568 -245.486313
-5.202121 -49.937588 -246.237991
-4.194345 -50.230133 -245.122955
1.251318 -48.626385 -245.439758
3.018046 -49.810959 -245.422592
5.124420 -49.839870 -245.427460
5.300264 -49.178780 -245.957794
7.893340 -49.027878 -245.433990
10.706143 -50.297352 -246.175964
11.915968 -49.341854 -244.774338
15.790895 -49.148159 -244.476669
17.976503 -50.494743 -245.128754
18.137619 -49.539009 -244.874512
-11.722242 -48.966034 -246.322250
-10.202214 -49.488804 -246.008224
-10.637382 -49.561756 -246.576279
-10.011954 -50.142029 -245.577057
-9.029533 -49.416122 -245.445526
0.539110 -49.517300 -245.841232
2.432864 -49.281483 -245.383423
3.468474 -49.423958 -245.984329
5.398616 -49.834358 -245.119659
10.021500 -50.167656 -245.271393
10.848597 -49.760971 -246.071625
12.128673 -49.693317 -245.158875
14.934658 -49.385815 -246.620987
15.767741 -49.900696 -245.269760
19.567209 -50.451668 -245.515686
18.234568 -51.061363 -245.978073
-11.474741 -49.809425 -245.394363
-9.450451 -50.672207 -245.349472
-10.430919 -49.708073 -245.941223
-9.612811 -50.158100 -246.646942
-9.293427 -50.247589 -246.400574
-6.650801 -49.132923 -246.465942
-6.246359 -49.717133 -245.817871
-4.313768 -50.634304 -246.227844
3.642929 -49.189301 -246.887009
4.570781 -48.187943 -246.617691
9.980966 -49.201981 -246.274384
17.307625 -49.706238 -245.614563
19.524248 -50.495636 -245.949570
18.013245 -49.602676 -245.630341
-12.024239 -49.773792 -245.798065
-11.690055 -49.252193 -246.700195
-10.165758 -49.952969 -246.454590
-7.224043 -49.850647 -246.094772
-6.110123 -49.434280 -245.980789
-4.881955 -49.544357 -247.097412
-3.926239 -50.041515 -246.243729
0.737106 -49.154903 -245.873230
2.310284 -49.516319 -247.826553
4.560731 -49.497662 -246.351822
5.898749 -50.452164 -246.722885
8.523981 -50.160694 -246.087250
9.980896 -49.357098 -246.823090
10.053279 -49.983875 -247.642517
13.450752 -49.877972 -246.048828
14.917305 -49.678467 -247.225327
16.160357 -49.721699 -245.382874
-11.574700 -50.147923 -246.919266
-6.131297 -50.268700 -247.361145
3.740570 -49.849010 -247.335419
6.507583 -49.145916 -246.498276
9.590170 -49.108723 -246.832642
12.103896 -49.951759 -246.221451
16.636805 -49.435051 -246.582275
19.837046 -49.804058 -246.905106
-11.212025 -50.314289 -247.321075
-11.460422 -49.844929 -247.098526
-10.669641 -49.502846 -247.022552
-6.580320 -50.105537 -247.252640
-4.530130 -49.918308 -247.116318
0.106624 -49.030334 -248.256149
1.797047 -49.431171 -247.450104
5.957657 -49.671410 -247.405548
8.951125 -49.226929 -246.809845
11.717039 -49.820904 -248.525574
11.682385 -49.102512 -246.656830
14.642260 -48.960995 -247.449921
14.796591 -49.834003 -247.218872
19.157135 -50.280708 -247.212448
-6.905018 -50.032764 -248.754074
-5.726908 -49.583443 -246.924179
-4.149683 -49.557964 -247.834290
1.658957 -49.487392 -248.427322
4.936328 -49.739384 -248.126938
5.206681 -49.075745 -247.318985
7.575808 -49.282402 -247.164703
16.857887 -49.597343 -247.665070
17.946083 -49.859489 -247.335922
-11.843295 -49.834351 -247.749207
-9.121142 -49.505505 -248.618225
-5.665206 -50.115154 -248.536957
3.758719 -48.982552 -248.054855
8.327749 -49.322304 -248.305145
13.507885 -49.698322 -249.337891
12.756851 -49.814281 -247.803650
18.684706 -49.743816 -247.501495
19.150908 -49.822628 -248.243271
-11.544450 -49.918003 -247.970169
-10.907907 -49.417213 -248.331726
2.923803 -50.155041 -248.431564
5.170844 -49.429440 -248.506104
7.743745 -50.593552 -248.327560
11.660010 -50.101192 -248.899155
10.947556 -49.363491 -249.024292
14.740930 -49.265953 -248.299850
16.628166 -48.477600 -248.932861
18.549345 -49.199955 -248.446182
20.323099 -49.756283 -248.707962
-13.124539 -50.088486 -248.092499
0.527597 -49.109554 -249.011566
1.128286 -49.615036 -248.381866
3.162733 -49.242207 -248.734329
4.078991 -49.161701 -248.455276
6.435890 -48.954319 -249.255554
9.407953 -49.397865 -248.858887
17.932529 -49.932583 -248.225693
-11.973883 -49.982327 -249.274902
-10.726842 -50.011486 -249.709579
-9.002130 -48.650337 -249.677063
6.216918 -49.072731 -248.346634
7.081233 -48.655605 -249.360764
9.684875 -49.528896 -248.950531
13.814918 -49.828308 -249.121964
15.344954 -49.320370 -249.245041
16.414253 -48.886280 -249.456543
18.011078 -49.789768 -248.243393
19.983120 -50.348576 -247.781570
-13.384037 -49.737659 -249.843796
-11.866968 -49.740959 -250.234161
-9.574268 -49.307404 -249.637848
1.349740 -49.357838 -249.695389
2.248432 -49.571651 -249.893234
2.667491 -49.657829 -249.737045
3.894364 -49.759251 -249.197617
6.452605 -49.149857 -249.498886
10.453960 -49.701626 -249.433990
15.055008 -49.309032 -250.049347
16.749552 -49.614960 -249.309799
17.478710 -49.638847 -249.826965
19.200390 -49.495556 -250.507553
-11.577373 -50.079163 -251.350525
2.681243 -49.407391 -250.235748
7.426483 -49.056286 -249.694199
8.638595 -48.878170 -249.201630
9.765294 -49.373837 -250.468002
12.372094 -50.255985 -250.145035
17.810183 -48.746216 -250.075851
19.283945 -50.465252 -249.904800
-11.541036 -49.925518 -250.252884
-11.276066 -49.831673 -250.557068
-8.950706 -48.892696 -250.378479
1.679816 -49.371147 -251.014450
4.442059 -48.291725 -250.061768
9.056476 -49.883083 -250.497025
14.783373 -48.597073 -250.098129
15.315216 -48.978069 -249.585159
16.453695 -49.074280 -250.816193
17.923563 -49.313419 -249.565826
18.357155 -49.109131 -250.720795
19.119972 -49.148430 -250.107040
21.730791 -50.273685 -250.282776
-11.971427 -51.326588 -251.901367
-8.681495 -48.920258 -251.098083
0.948281 -48.790466 -250.379547
2.827088 -49.491257 -252.168549
4.260409 -49.937290 -251.355316
5.999963 -50.013145 -251.016693
7.600628 -50.165615 -251.737930
10.067692 -49.485954 -250.659286
11.304232 -49.379345 -250.338486
12.640229 -49.660118 -250.232590
12.476603 -49.287872 -250.848022
17.218964 -49.227322 -251.754211
18.634928 -49.270256 -250.766830
20.128965 -50.198753 -251.163574
-10.335510 -50.028027 -251.696365
1.685362 -48.606739 -251.316849
5.388717 -49.175198 -251.853546
13.819395 -49.341171 -251.401276
19.324684 -49.157700 -251.869247
21.352631 -50.156651 -251.742264
-11.322139 -50.192326 -251.119431
-11.760679 -49.653103 -251.758560
-8.667774 -49.861927 -251.630737
3.110268 -48.784470 -251.307114
3.763406 -49.337582 -251.017563
5.461603 -48.664085 -251.935989
9.456465 -49.958336 -251.268021
10.581809 -49.950680 -252.176437
10.897315 -49.659988 -251.170776
14.257174 -49.616978 -251.616791
17.179768 -49.727829 -251.701416
18.741581 -49.722847 -251.580841
19.728231 -50.074821 -251.426254
21.188864 -49.843002 -251.002029
22.097069 -49.209824 -251.491379
-11.483920 -49.508316 -252.586304
-10.428572 -49.775146 -252.787598
1.227785 -49.184685 -252.485977
5.837089 -50.012974 -252.357651
15.160861 -50.231213 -252.088852
20.154373 -49.282482 -252.695709
20.831867 -49.989326 -252.304459
22.719175 -49.414989 -251.538223
-9.720375 -49.367744 -251.911728
3.412559 -49.887196 -252.132950
9.088114 -49.336784 -253.978302
9.800531 -50.266205 -251.993546
11.800370 -49.664917 -251.918976
13.010075 -50.107929 -252.366974
17.213255 -49.435013 -252.393448
19.227451 -49.698715 -251.897751
-10.898239 -49.286583 -252.785217
-10.649761 -49.860458 -252.257019
-8.536558 -49.271023 -253.142746
2.791698 -49.278042 -252.212357
3.282108 -48.861256 -252.338287
4.060116 -49.510777 -252.316833
5.857775 -50.300953 -252.187225
6.272768 -49.607353 -252.428864
11.462642 -49.448582 -252.905945
15.448000 -49.308491 -252.992981
16.777060 -49.494221 -253.118164
17.955612 -50.076694 -252.997147
21.212973 -49.169250 -252.252777
22.131193 -49.396767 -252.978027
22.212175 -50.053741 -252.525925
-11.093322 -49.379261 -252.989761
-9.370285 -49.565620 -253.157333
-6.090793 -49.692104 -253.649353
0.603452 -49.455784 -253.661423
3.592628 -49.832260 -253.092453
7.026456 -49.826134 -253.688004
8.464677 -50.258373 -253.644333
11.697633 -48.993267 -253.364960
14.205675 -49.798103 -253.374084
17.182690 -49.066692 -253.061737
19.283401 -49.522110 -253.353500
21.468367 -51.041721 -253.050919
