# This PCD file was generated using the MATLAB® pcwrite function
# from Computer Vision Toolbox®.
# .PCD v.7 - Point Cloud Data file format
VERSION .7
FIELDS x y z
SIZE 4 4 4
TYPE F F F
COUNT 1 1 1
WIDTH 1403
HEIGHT 1
VIEWPOINT 0 0 0 1 0 0 0
POINTS 1403
DATA ascii
0.122235 -69.683434 -229.446991
-1.372362 -68.494240 -230.629456
2.377274 -70.714539 -229.494308
3.184061 -69.136490 -231.635101
72.057678 -70.545570 -231.413330
72.465530 -68.127350 -230.259140
71.834900 -68.553886 -230.658051
77.080727 -68.486206 -229.689728
78.061951 -69.611229 -229.671341
77.997276 -68.017998 -230.325119
-157.315994 -68.023338 -229.904404
-13.481596 -69.662346 -230.178253
-12.274135 -69.336021 -231.143326
-8.470433 -66.764847 -231.387360
-6.598823 -68.042229 -231.294998
-3.279938 -68.085823 -230.721161
0.281146 -69.174217 -230.850357
1.704665 -68.973572 -230.896088
1.951508 -68.242279 -230.802795
5.214337 -68.684624 -231.251266
3.204347 -68.143814 -231.037384
7.512029 -68.841873 -230.360504
70.792282 -69.391487 -231.641098
72.685318 -67.971756 -230.741531
77.259178 -68.300980 -231.089584
76.735634 -69.126900 -230.676025
-167.544342 -69.162605 -230.570007
-165.602722 -68.561996 -230.706711
-157.349945 -68.139648 -232.768524
-155.065536 -68.678207 -231.212341
-111.934837 -70.052101 -231.727310
-14.644583 -69.950653 -231.384399
-11.164378 -68.259827 -231.498703
-8.795814 -69.054977 -229.563843
-5.043416 -69.017159 -230.962234
-5.243815 -68.602013 -231.799530
-3.325047 -69.762398 -231.454269
0.232750 -70.727524 -231.609543
2.033199 -67.929207 -231.864441
2.450194 -68.429573 -231.723251
7.176920 -69.407051 -231.787033
70.808189 -69.143379 -231.526077
70.501701 -69.207169 -229.749222
76.303154 -68.894508 -231.247787
76.843544 -68.124847 -230.827835
-167.638336 -69.268875 -231.517517
-166.130844 -68.788803 -231.490143
-154.637238 -69.701157 -231.927429
-111.954834 -68.946060 -232.358490
-113.390831 -69.075760 -231.729279
-12.493616 -68.871536 -231.327698
-12.031292 -69.025757 -231.397873
-4.087070 -68.822784 -231.441559
-2.256950 -69.552490 -230.725021
0.428297 -69.521614 -231.814713
5.114841 -69.230675 -232.054230
7.877788 -69.043976 -231.958420
68.562294 -70.333801 -231.966812
69.907585 -68.105759 -232.171066
76.205330 -68.312569 -231.197189
77.882950 -68.933754 -232.225418
-166.012787 -69.177635 -233.166641
-155.782761 -69.537910 -231.508743
-158.776749 -69.233772 -232.132568
-154.082458 -69.833069 -232.802795
-113.936111 -68.497360 -231.400543
-114.215622 -68.576920 -232.295700
-12.914037 -68.334122 -232.859009
-11.430835 -68.380127 -231.822205
-4.402098 -68.995819 -233.100754
-2.276725 -69.179024 -231.851913
-1.373054 -68.952744 -233.046677
1.841605 -69.283958 -232.665756
2.590719 -69.125999 -232.785660
1.207651 -68.317276 -232.344528
4.622168 -69.104973 -231.661911
5.482896 -68.790283 -232.451782
5.750804 -69.656029 -231.660645
8.724949 -68.648834 -231.914627
7.223790 -69.271698 -231.864563
70.008018 -69.912270 -231.435532
70.024712 -69.301498 -232.596069
70.647713 -67.846611 -233.772049
76.004471 -68.313972 -233.329987
78.109917 -68.099785 -230.891373
-164.871964 -68.115776 -232.136398
-12.978305 -68.276131 -231.644943
-12.592219 -67.262466 -233.579498
-3.765960 -68.213326 -231.822006
-1.542709 -69.457626 -232.837402
2.404283 -68.931915 -233.262817
9.192613 -69.484192 -231.869507
69.082581 -68.125153 -232.798157
75.266228 -69.389069 -232.679535
75.552917 -69.079559 -231.878098
-167.297043 -69.016983 -231.618088
-156.094116 -69.150055 -233.111603
-156.392731 -68.657539 -233.697083
-140.718445 -70.273842 -232.631180
-139.570557 -69.923882 -232.702774
-139.128464 -70.243202 -234.554871
-137.048798 -68.563950 -233.059525
-134.270325 -68.415947 -233.372009
-122.363876 -69.430473 -232.587326
-118.797890 -68.336975 -232.018631
-116.112862 -70.385536 -233.602142
-113.795547 -69.256630 -233.326843
-115.372963 -68.139481 -233.455261
-11.810472 -68.490173 -232.631393
-11.972445 -68.460297 -233.459915
-3.213606 -68.279991 -233.263245
-1.599981 -69.241852 -233.470963
1.559139 -69.599632 -233.835449
5.637747 -69.386436 -233.012222
6.924415 -69.010277 -233.568008
67.471832 -68.800934 -231.605469
69.211105 -68.139175 -231.664566
67.837883 -68.375069 -233.602081
75.130157 -67.553352 -233.074448
75.366188 -68.186073 -233.354691
-165.786331 -69.666298 -234.182251
-165.345337 -67.553490 -233.239319
-153.958328 -69.268425 -232.583862
-153.547470 -69.281128 -233.562134
-141.838455 -69.310898 -234.311081
-141.804474 -68.294403 -234.663239
-134.587784 -68.596375 -232.493210
-133.835983 -68.483627 -232.596741
-124.048355 -68.812561 -233.019012
-122.516899 -68.574661 -232.806717
-121.002014 -69.043198 -232.658829
-119.808578 -69.215034 -233.558624
-117.692680 -69.753105 -234.090881
-116.560226 -70.399948 -232.899139
-117.059631 -69.194603 -233.270950
-12.089882 -68.206505 -233.642517
-11.492322 -70.538773 -232.908569
-2.873677 -67.334930 -232.861328
-0.758610 -69.332283 -233.853577
1.144452 -68.900749 -234.304108
6.545827 -69.521675 -232.823288
7.739223 -68.780563 -233.631897
68.048874 -68.386459 -232.099228
69.076561 -69.105537 -233.214493
76.020981 -70.109886 -232.442291
-158.305038 -68.549324 -233.031586
-140.968307 -68.136627 -234.041107
-133.606689 -70.003426 -234.220657
-123.182800 -68.186844 -234.026443
-123.910889 -68.175331 -233.082184
-123.233208 -68.787926 -233.929489
-11.511254 -68.799606 -234.392380
-10.125799 -69.417099 -233.676117
-0.594685 -68.615211 -232.667191
1.987823 -68.393448 -233.224625
9.565147 -70.693901 -233.267792
67.436356 -68.651955 -233.932205
68.275276 -69.100273 -233.759201
75.029236 -68.859200 -232.689941
-156.815643 -69.157837 -234.075104
-157.648422 -68.386986 -234.291763
-143.384872 -70.292320 -233.874603
-134.322037 -69.196510 -233.039444
-133.050919 -68.224892 -233.838684
-124.359573 -68.711853 -233.943283
-10.083807 -70.483353 -234.924652
-0.692415 -69.437714 -233.040451
6.050383 -68.781448 -234.703278
7.839496 -69.752548 -233.747482
66.024818 -69.991035 -233.952789
67.211006 -67.869301 -234.839600
74.219032 -67.780571 -234.259003
76.236694 -69.256721 -234.722717
75.452065 -67.648010 -234.323105
-166.595993 -69.840454 -234.912399
-164.749329 -69.035942 -234.453110
-156.002731 -70.173210 -234.679825
-158.139877 -69.786392 -235.289291
-153.219315 -69.047760 -234.635666
-151.135529 -68.325714 -234.969299
-142.849640 -69.023026 -235.344986
-143.623123 -68.789078 -232.869156
-133.548416 -69.246986 -234.428558
-132.273315 -68.667488 -234.532410
-131.780899 -69.267845 -234.200485
-130.282761 -68.177116 -235.060928
-129.063324 -69.134247 -234.641525
-129.010376 -68.485649 -234.272583
-125.754242 -68.494736 -235.051285
-9.771568 -68.066269 -233.635239
-9.649297 -67.924126 -235.220810
0.342490 -68.814865 -233.406189
0.825037 -69.682198 -233.718460
6.834766 -69.782433 -234.497787
5.677993 -69.465912 -232.743439
7.747410 -69.710793 -234.481461
65.913773 -68.636353 -234.274628
66.876122 -67.613571 -234.044037
-158.265823 -68.864082 -234.618698
-154.093246 -69.271194 -234.318390
-9.934602 -70.044510 -235.749939
7.183118 -68.080330 -234.843689
6.857028 -68.013336 -234.849380
10.022250 -68.602203 -235.125519
65.607742 -68.955879 -234.938080
65.637032 -69.070091 -236.070160
73.776680 -68.657532 -233.735687
74.087196 -70.448105 -235.128845
74.175171 -68.921844 -234.037155
75.309067 -69.550819 -234.628647
-165.876999 -69.290367 -232.963272
-155.806900 -68.811661 -234.646805
-158.303040 -69.617836 -235.678024
-152.144394 -68.710876 -233.825928
-150.435013 -68.186478 -235.502319
-142.717560 -68.221657 -234.786591
-145.264755 -68.631996 -235.815063
-4.845900 -69.440704 -235.438400
-4.657957 -68.870583 -234.865845
-0.347821 -67.999710 -234.010498
1.238996 -69.290276 -235.940857
2.589367 -69.005104 -234.631226
9.091858 -70.766228 -234.670074
64.221519 -68.364120 -234.466568
65.287102 -69.569344 -235.081085
66.991219 -67.744049 -235.121094
73.803963 -69.032349 -235.258484
-165.361588 -68.470261 -234.698486
-157.594696 -68.732178 -237.525467
-8.997461 -69.002411 -235.095078
-3.292732 -70.224899 -236.055466
-3.659840 -68.707626 -235.692673
-2.885818 -69.849037 -236.027786
-1.999831 -68.566635 -236.490982
-1.280678 -67.485191 -235.526733
1.390461 -70.601151 -236.975082
2.381674 -67.999519 -235.316101
9.114543 -68.611717 -235.953979
62.450180 -70.067863 -236.205124
63.841576 -67.599701 -237.061600
72.595032 -68.003021 -235.473099
74.512596 -70.525780 -235.784225
73.887695 -68.608231 -235.757553
-164.979874 -67.974625 -235.770203
-157.243561 -67.532883 -235.596512
-156.555283 -69.285530 -236.689255
-152.280075 -69.481186 -235.270538
-151.167892 -68.356239 -236.747604
-144.545334 -69.271950 -236.132233
-4.308750 -68.359138 -236.335526
-2.692413 -68.229385 -237.269348
0.316158 -68.435150 -235.687134
-0.376558 -68.495491 -235.915451
3.757691 -69.631447 -236.846222
7.036859 -69.393326 -237.304703
63.275959 -68.882431 -236.364685
72.438194 -67.983376 -236.940964
73.200737 -69.296005 -236.406189
-168.032898 -69.572281 -235.244659
-158.458160 -68.194977 -237.006790
-157.456070 -68.093086 -236.498428
-152.902420 -69.244263 -237.026764
-143.922607 -67.217377 -235.831818
-8.671624 -68.721603 -237.221130
-9.090935 -68.363098 -237.765900
-7.686928 -68.752350 -236.189835
-2.877342 -68.969696 -237.164398
-3.498038 -69.701302 -237.842010
-0.683768 -70.369698 -236.437012
7.925936 -69.572929 -235.740112
10.124715 -68.662926 -235.900726
72.895515 -67.439453 -236.645996
71.505066 -69.009872 -236.305450
-165.521072 -69.904045 -236.874298
-157.305328 -69.233307 -236.382050
-144.290771 -69.348854 -237.586624
-11.311821 -68.492851 -237.439392
-10.169642 -69.407692 -237.526123
-4.237404 -68.531570 -235.904968
-1.177149 -68.875854 -237.158585
1.439399 -68.291008 -237.608505
6.888701 -69.158432 -235.981293
8.731070 -69.237770 -237.822800
63.190857 -69.508667 -236.854599
72.312515 -67.904518 -236.721054
-164.407227 -68.522507 -237.379181
-156.718369 -69.536919 -238.508011
-152.623810 -69.719765 -235.972229
-150.434326 -67.576019 -236.060120
-144.908478 -69.468323 -236.559692
-12.473549 -68.428062 -237.599319
-3.862067 -70.050789 -236.831482
-0.884061 -68.865532 -236.463211
1.625211 -69.358009 -239.418198
8.254822 -67.949661 -236.681152
62.919636 -68.794022 -238.366074
71.946281 -68.811966 -236.188110
71.152710 -67.631409 -236.761200
-157.872925 -68.121574 -238.543915
-157.911621 -69.027954 -237.378342
-151.756271 -68.391335 -237.553024
-145.595383 -68.488022 -237.836700
-143.786179 -68.383064 -237.363388
-12.008699 -68.623352 -237.590393
-3.235427 -68.877693 -237.313141
3.295485 -67.794060 -237.220612
10.147712 -68.193130 -238.922913
60.157997 -67.512161 -237.899490
70.657738 -69.028267 -237.927155
70.534286 -69.723473 -238.934341
71.618675 -68.739914 -237.902740
-156.985718 -69.290337 -237.303024
-151.960175 -69.841621 -239.220474
-152.000198 -68.327827 -239.307526
-15.169807 -69.441978 -238.251846
-12.753613 -68.246178 -239.243393
-13.814417 -67.950989 -238.071243
-2.967187 -69.521645 -237.793777
-1.276568 -69.032677 -238.150970
8.054124 -69.213852 -237.337265
9.713501 -69.733994 -237.629257
60.177006 -68.862785 -238.277100
71.019943 -69.671463 -237.500656
-165.618469 -68.490479 -239.075928
-158.319839 -68.266151 -238.768005
-156.654861 -67.557320 -238.101166
-151.897095 -69.382080 -238.679367
-144.747696 -69.182388 -236.812439
-144.680573 -68.875603 -238.452499
-1.676354 -69.851700 -239.262680
-1.171649 -69.481346 -240.651276
2.297256 -69.193672 -239.341324
8.822036 -69.643753 -239.212753
10.665303 -70.108452 -237.872177
59.653393 -69.376709 -237.708008
71.062691 -69.373711 -238.672470
69.354706 -69.505440 -239.518356
70.655960 -69.526794 -238.081726
-166.906662 -67.799919 -239.103287
-165.919418 -68.670769 -238.918839
-157.284912 -69.147224 -238.956650
-152.546982 -69.303398 -239.524002
-145.569641 -68.972786 -238.258392
-144.429962 -68.836632 -238.769089
-14.147371 -68.663025 -239.343842
-13.639539 -69.113655 -238.522247
-2.356771 -68.425751 -238.646255
-2.270570 -68.551109 -238.872101
3.342729 -69.399139 -238.978195
9.850336 -68.966850 -238.307480
-159.038315 -68.850441 -237.717514
-158.119888 -68.665100 -239.364319
-152.897110 -69.991348 -238.113358
-13.041195 -68.683846 -238.849548
-0.354119 -69.826248 -239.653336
-0.934984 -68.704582 -239.306854
9.338378 -68.367950 -237.994415
57.961258 -68.203461 -240.848373
59.124462 -68.990105 -238.830399
59.135983 -68.445236 -238.201523
70.019699 -69.496880 -238.100632
69.249222 -68.950844 -237.750183
-167.422775 -69.152794 -239.251602
-164.922806 -68.889771 -239.711304
-157.953903 -68.707802 -238.335098
-155.869644 -67.889328 -239.740463
-151.256485 -67.830582 -240.019165
-144.032013 -68.646324 -239.487366
-14.334825 -69.229141 -238.828568
1.383649 -70.228882 -239.965698
4.290102 -68.880325 -239.955734
4.632936 -69.087730 -241.362106
8.636515 -70.139214 -239.831070
10.717880 -68.107864 -240.059677
67.505051 -67.241043 -239.972107
-156.086090 -68.767784 -240.951660
-152.231720 -68.600128 -239.718750
-146.656052 -68.597939 -241.227814
-15.111600 -68.811394 -240.097336
-13.815980 -68.922813 -240.877670
-12.949006 -68.917259 -241.329971
2.283493 -69.889221 -240.476578
6.249216 -68.227585 -240.027924
7.153167 -68.840958 -240.565826
8.394760 -69.190857 -238.887619
57.022430 -69.097954 -239.932510
69.360245 -68.349052 -240.226608
68.520035 -69.739426 -240.714142
-165.829025 -68.737419 -241.161469
-165.956650 -67.965363 -240.181778
-165.037613 -67.198524 -240.548065
-160.712326 -67.347618 -240.893524
-157.390167 -68.949005 -240.567322
-151.981735 -68.909637 -239.543777
-151.959183 -69.435806 -240.255432
-145.372253 -68.671799 -240.028152
7.824865 -69.804466 -240.192749
12.130957 -69.840912 -239.955200
56.282021 -68.194633 -240.155807
57.652348 -66.883255 -240.123398
63.263119 -69.223801 -239.936646
-166.784149 -69.370453 -240.379593
-165.889679 -68.754601 -240.647644
-164.361694 -67.466110 -241.900757
-158.396118 -68.149582 -240.626602
-152.375992 -69.166801 -242.097382
-143.766464 -68.982483 -240.327911
-13.354432 -68.578552 -239.897339
7.834512 -69.075989 -240.234665
9.766951 -69.105431 -240.382706
10.580255 -68.905174 -240.738403
55.516090 -68.163269 -241.535049
61.045212 -69.340988 -240.372269
62.629810 -67.272316 -240.625961
61.441238 -69.292076 -241.938782
68.865158 -68.924721 -242.022491
-160.335251 -67.971581 -241.457352
-158.726761 -67.979385 -240.168304
-152.323532 -69.593796 -241.636276
-12.065886 -69.422112 -241.921219
8.703772 -69.129990 -241.171371
11.004340 -69.145988 -240.399689
10.494431 -68.382561 -241.574173
55.172573 -69.301727 -240.272247
60.676273 -68.613907 -241.785141
61.587669 -69.269478 -242.157486
67.836014 -68.116585 -242.705917
67.206612 -67.755371 -241.710876
-167.329712 -68.638100 -241.476166
-165.873825 -68.862175 -241.275024
-165.093338 -67.677231 -242.427719
-163.696884 -68.852287 -242.866028
-164.023865 -67.710602 -242.138336
-160.672119 -67.833771 -242.353607
-158.702026 -66.361115 -242.144440
-11.374734 -70.258789 -242.202011
-11.494195 -67.863869 -242.401489
9.495835 -70.605812 -241.993210
55.462505 -69.216949 -241.799698
54.236721 -69.130005 -241.781036
60.705841 -69.559265 -241.539429
60.044128 -68.115585 -241.561920
58.458511 -68.852119 -242.399567
61.884609 -69.409500 -241.695786
67.543198 -68.132355 -241.836761
67.736336 -69.117760 -241.216248
-166.822327 -70.677292 -241.853760
-164.170410 -68.073654 -241.711945
-160.174820 -68.193733 -242.448257
-159.025864 -69.019737 -241.588745
-159.704865 -67.764511 -241.614838
-158.085648 -69.259201 -242.207672
-157.886002 -68.207115 -241.801514
-152.427429 -68.586487 -241.939590
-145.172318 -68.624603 -241.874237
-9.398975 -68.011909 -241.908325
9.213347 -70.225395 -241.556305
57.899567 -69.304329 -242.332062
59.403774 -69.283440 -242.187134
60.416714 -68.180779 -242.781967
-166.490738 -69.345047 -242.945847
-166.295456 -68.570023 -242.163681
-164.579010 -68.421318 -242.218307
-163.620621 -68.702423 -243.378403
-161.371994 -70.042496 -242.371155
-160.826904 -68.674286 -243.202301
-160.787170 -66.953217 -242.060837
-152.232651 -68.884972 -243.545044
-145.300583 -69.954803 -241.698792
-9.248537 -68.971786 -242.285477
9.269222 -69.806343 -241.867752
53.886391 -68.765152 -242.380295
59.506584 -68.405731 -241.359207
60.328724 -68.695534 -241.756180
59.809677 -69.346176 -242.505753
65.085281 -69.562103 -243.013504
65.255615 -69.518150 -241.793549
-166.326279 -67.950241 -242.608017
-165.771545 -68.528488 -243.175751
-164.416534 -68.122345 -243.302200
-163.910934 -67.554054 -243.274536
-162.859924 -68.923447 -243.393738
-162.243530 -69.471367 -242.561340
-162.162811 -68.522110 -243.434967
-158.784424 -68.225868 -243.224884
-157.628235 -69.867783 -243.042526
-151.942612 -68.403969 -242.481583
-10.311276 -69.326775 -243.697052
9.648945 -69.139603 -242.572617
52.453815 -68.931206 -243.018311
52.177921 -69.741539 -243.330490
56.678257 -68.093178 -242.825043
58.288166 -68.999710 -243.817642
58.440800 -70.075600 -243.383408
61.137005 -67.283340 -242.604477
60.418446 -70.109741 -242.631012
-164.770630 -69.871979 -243.515427
-166.631271 -68.369110 -244.963150
-162.563339 -70.096039 -243.442307
-159.071869 -68.404495 -242.815811
-156.942032 -68.375168 -243.438232
-159.237335 -68.574059 -242.292786
-144.964493 -69.019699 -243.434204
-9.918054 -69.502922 -242.841507
9.033217 -70.031410 -243.531021
58.449837 -68.761765 -243.568298
57.847141 -68.305702 -242.990891
58.178650 -68.606163 -243.410309
59.614277 -68.764679 -243.887619
60.522831 -69.292847 -243.284027
64.403740 -67.980972 -243.953690
-165.402069 -68.016655 -243.151566
-162.932419 -68.561104 -242.589752
-162.401825 -68.637283 -243.306763
-160.766464 -68.481659 -243.862671
-158.196609 -68.278717 -243.510620
-158.401001 -67.788162 -245.201096
-152.008118 -67.827629 -243.064636
-145.027527 -69.444870 -244.019409
-10.846454 -67.867126 -243.633560
15.302567 -68.396034 -244.298630
50.858131 -70.038620 -244.721237
56.035400 -68.805908 -245.468750
56.504810 -67.346336 -243.648239
57.777924 -69.613297 -243.437103
59.012074 -68.760040 -243.626389
60.321278 -69.165436 -243.526703
65.673515 -69.707375 -244.959167
-166.762558 -69.387672 -244.082367
-166.346741 -69.233383 -243.780334
-165.439331 -69.269218 -244.199249
-164.961044 -67.811440 -244.703171
-161.402679 -68.397545 -244.839798
-162.978943 -68.758171 -243.879120
-161.253891 -69.056328 -244.945801
-160.768707 -69.189590 -243.345016
-159.705673 -69.105148 -244.630676
-10.397141 -69.277283 -244.878662
11.186965 -70.681198 -243.048889
11.127588 -69.006584 -243.255890
13.557313 -68.508316 -245.021988
10.453990 -68.129906 -243.834244
13.883362 -68.899666 -245.099579
13.500972 -69.989044 -243.578949
15.555899 -68.811913 -244.297760
50.459812 -68.981186 -243.488815
56.085014 -69.963486 -243.550797
55.785328 -68.935204 -243.197418
56.420406 -67.117737 -244.391678
59.872437 -68.986824 -245.837326
64.648842 -69.918427 -244.659790
-167.157684 -68.251770 -245.558624
-165.679626 -67.881500 -244.046967
-164.756653 -67.781441 -245.303009
-161.839417 -68.764252 -244.799637
-162.840500 -68.852524 -243.376633
-160.275299 -68.982368 -243.497849
-160.171875 -68.758614 -245.094696
-158.216141 -68.231590 -243.969116
-158.245956 -69.677002 -244.341827
-158.245041 -68.202934 -245.671509
-152.608749 -70.658447 -243.901962
12.502547 -70.379730 -244.956360
15.817859 -69.455070 -243.887863
15.893906 -68.036057 -244.321091
49.778996 -70.596191 -244.344833
54.705158 -68.908073 -244.758102
57.032459 -69.447304 -244.965149
56.136642 -69.660133 -244.521927
56.300224 -68.433769 -244.830109
57.970863 -67.777618 -244.195999
63.274944 -69.315109 -244.790253
-167.008347 -68.847588 -245.070938
-163.728531 -67.699974 -243.513931
-163.312820 -69.691254 -245.537964
-150.747604 -69.667038 -244.895966
-149.828751 -68.489578 -245.701706
-11.658279 -69.358383 -245.270432
14.540854 -69.486359 -245.947662
48.856674 -69.484230 -245.820114
54.600819 -69.878403 -245.194778
55.308918 -67.644539 -245.607407
56.368729 -69.806572 -245.320816
57.531689 -68.045341 -245.355789
56.477104 -69.450462 -244.419510
59.816723 -69.035233 -243.711960
57.790367 -69.865013 -244.843689
57.400257 -69.843246 -244.746338
62.841553 -69.072739 -244.686142
-166.017090 -69.599701 -245.865021
-165.397919 -67.547821 -244.931915
-163.911240 -69.204407 -244.626404
-161.764404 -67.845390 -245.197403
-160.559296 -69.037224 -246.767441
-158.838623 -68.696793 -246.490784
-157.272125 -70.652519 -244.104828
-159.798691 -68.038681 -244.364487
16.519459 -69.258202 -244.894241
49.739418 -68.090141 -245.963074
49.366455 -68.764015 -245.082779
53.545727 -68.499405 -245.361893
53.340530 -68.807343 -246.752731
57.483612 -69.516342 -245.669205
63.141647 -68.140770 -245.665451
62.338524 -68.605415 -245.632309
-165.710541 -67.769997 -245.439835
-164.744644 -68.327187 -245.126999
-162.313828 -68.313393 -245.083801
-161.236374 -68.123367 -246.827682
-160.735260 -67.990967 -246.288925
-160.071625 -68.139961 -246.537735
-160.148010 -69.616806 -246.513168
-156.677612 -69.550735 -245.949081
-150.488403 -67.576241 -245.702805
-144.610703 -69.214325 -245.387177
-13.051166 -68.985504 -245.633469
-11.451505 -66.966415 -245.071609
16.662214 -69.398659 -245.227051
48.209522 -67.526642 -245.107162
52.999847 -69.498192 -246.068069
53.181042 -68.861938 -246.904343
57.040413 -68.242508 -244.350296
60.131508 -68.550293 -246.529465
-166.402435 -69.102402 -246.663986
-165.912766 -69.868256 -246.467987
-161.225189 -67.772148 -246.673431
-157.458374 -69.006676 -245.568176
-152.851318 -68.798088 -246.064575
-14.194127 -68.855072 -245.280212
16.615732 -68.510849 -246.212906
51.931095 -70.003395 -245.255783
56.333176 -68.973236 -246.385757
56.694939 -68.738846 -246.242508
60.178963 -69.768890 -246.349869
-166.906693 -68.248886 -246.246643
-165.158676 -69.704727 -245.065643
-162.194504 -68.801895 -246.752625
-161.140884 -68.612366 -245.755417
-159.658188 -69.684662 -246.243088
-158.246994 -68.436394 -247.618301
-157.451538 -69.492401 -246.643494
-157.946884 -69.445824 -246.048248
-152.208176 -69.513412 -246.661438
-152.244354 -67.751450 -246.021210
-145.964081 -70.250496 -246.650558
18.196550 -68.832596 -247.476471
46.749626 -68.786430 -247.241928
47.330101 -69.260406 -247.304092
51.245556 -68.680916 -247.663025
54.068298 -68.118958 -245.355331
55.969582 -70.884842 -246.968079
60.453362 -69.997444 -246.198380
60.862720 -68.708488 -246.680130
60.044582 -68.531830 -247.419724
-167.081284 -67.733353 -246.272125
-164.458038 -67.965477 -246.710403
-164.353165 -67.968933 -247.244904
-13.143930 -69.656860 -247.209915
18.420864 -69.843933 -246.647964
49.571648 -68.707863 -247.296921
53.435528 -69.033157 -246.114197
55.979424 -69.161240 -246.888794
-165.948105 -68.949768 -247.417969
-163.985291 -68.232338 -246.617294
-160.327240 -68.216476 -245.920929
-160.653320 -68.626434 -247.123596
-159.543259 -68.392509 -247.058746
-157.434006 -69.591637 -246.299026
-158.716873 -68.930649 -246.865158
-151.159805 -69.749214 -247.910675
-145.366455 -69.625191 -245.766983
-13.911137 -68.817696 -246.930237
19.335932 -68.962776 -247.844589
45.991367 -67.967979 -247.469177
49.777031 -69.406044 -247.421921
55.836216 -69.453659 -248.364548
54.821594 -68.505333 -247.533356
59.708046 -68.642982 -247.924316
-167.040100 -68.659325 -247.934555
-163.089386 -68.773232 -247.052429
-162.239807 -68.466728 -247.596985
-161.350449 -68.299568 -247.699600
-158.583084 -69.039680 -246.702255
-158.920151 -67.514664 -247.740814
-151.524948 -68.512199 -248.078125
-143.890839 -69.371216 -248.197311
-15.537649 -68.998924 -248.470688
-13.411391 -68.481697 -248.505463
18.095373 -69.859337 -246.616959
43.944038 -69.013840 -246.039383
49.204758 -69.556488 -248.869827
55.074997 -67.325203 -248.049088
57.841908 -69.953293 -248.778122
58.775276 -69.104858 -248.449402
-165.996994 -68.572678 -247.684036
-163.743835 -67.727356 -247.116562
-162.743805 -67.615768 -248.073257
-162.815506 -67.939011 -247.452545
-160.690140 -68.851639 -248.114120
-159.269653 -69.516792 -248.562134
-157.426483 -69.346672 -249.316818
-153.175537 -69.288712 -248.857010
-14.372697 -69.115738 -249.000229
18.696342 -69.824661 -246.708954
45.187347 -68.960342 -248.192001
49.182022 -68.255920 -249.417374
52.313961 -69.071739 -248.899490
-166.931198 -70.337868 -249.011948
-165.322922 -68.338097 -248.973740
-166.143890 -68.940628 -248.627914
-158.779785 -68.299294 -247.858887
-143.375839 -69.041908 -248.811890
-13.236672 -69.248474 -249.340271
19.813990 -68.084435 -249.141098
43.528809 -69.220673 -248.099548
48.397648 -69.644081 -249.802200
51.238037 -68.148689 -248.809799
56.434219 -69.350304 -248.577988
-165.804138 -68.949303 -248.406555
-167.135239 -68.294876 -248.532761
-165.473190 -68.050209 -248.604965
-164.877914 -69.494713 -249.106964
-160.173019 -68.137711 -248.810501
-156.803192 -70.560860 -248.470810
-159.330856 -68.584351 -249.097809
-151.214951 -70.504463 -248.673050
-145.005081 -69.738243 -249.177307
-15.452557 -69.820694 -249.373154
20.550381 -67.153221 -249.696426
43.387741 -69.299263 -248.802917
47.847057 -68.641670 -248.950974
52.258068 -68.127548 -249.321396
56.551853 -69.988640 -248.819702
57.119244 -69.168121 -249.031387
-166.060074 -68.530174 -248.748840
-166.166382 -67.840698 -250.550735
-151.672836 -70.014946 -249.178040
-145.536728 -68.808617 -250.136139
-145.885361 -68.355537 -248.603729
-15.408574 -68.734901 -248.701263
20.892193 -69.439651 -250.743607
21.234726 -69.570297 -249.700989
41.978584 -68.107407 -249.641296
46.032272 -69.274620 -249.554260
50.691402 -69.273422 -250.372009
55.275349 -69.432411 -250.155701
-164.776398 -68.105049 -249.492813
-158.981155 -69.232590 -249.415375
-158.780914 -68.651932 -250.461685
-158.199448 -69.306160 -249.097992
-13.422718 -67.638847 -249.999680
41.111431 -69.691269 -250.491684
47.655895 -68.588356 -250.675018
55.059753 -68.564125 -250.017776
-164.842865 -68.168472 -251.354599
-163.684845 -68.731110 -249.967255
-158.899338 -68.366394 -250.389008
-158.422714 -69.170776 -250.371231
-152.829330 -70.833008 -249.418427
-145.128952 -68.688171 -249.093903
-14.930762 -68.853912 -249.921921
21.040640 -70.114380 -250.220322
45.406239 -69.176140 -250.782471
43.711124 -68.299797 -251.369247
48.866726 -68.330666 -250.700882
49.736340 -69.406227 -251.255554
54.486622 -68.976021 -250.154739
-167.586166 -68.622803 -251.250214
-163.969635 -67.482521 -250.625671
-144.512833 -69.046852 -250.291290
-146.333908 -67.229118 -250.096451
-15.598841 -69.447632 -251.317001
-14.760044 -68.784637 -250.469284
21.065529 -67.990768 -251.020737
40.608566 -69.359482 -251.176132
39.848377 -69.369766 -249.626587
45.143093 -69.667824 -250.284119
53.431942 -69.626480 -251.058990
-166.702576 -69.093460 -251.320175
-167.455856 -69.348961 -250.428986
-164.777557 -68.958519 -251.066132
-164.800323 -66.639793 -250.406708
-161.998901 -68.111710 -251.142227
-158.288773 -68.330940 -252.162888
-158.070999 -69.585106 -249.265060
-151.430847 -68.549049 -251.496506
-13.871856 -68.434166 -250.906723
22.182632 -69.909073 -251.383545
39.811665 -69.674736 -249.585739
48.580482 -70.290054 -251.228729
52.541138 -69.165176 -251.219543
51.342354 -69.131561 -250.784637
-165.819290 -68.481834 -251.847672
-165.458969 -66.654327 -251.433685
-160.547424 -68.927696 -251.482895
-160.709000 -67.951195 -250.416977
-158.672684 -68.155975 -251.426346
-153.027664 -69.319344 -251.582840
-144.732147 -69.361290 -251.091599
-145.057938 -68.709709 -251.829575
-14.658256 -68.481308 -251.692368
21.921558 -68.542702 -251.408096
-166.873215 -69.915016 -252.454147
-166.566879 -68.378365 -251.229538
-166.106491 -67.978775 -252.919144
-163.576538 -67.363251 -253.036758
-162.475342 -68.360344 -251.720642
-160.555771 -67.506073 -251.249634
-159.269852 -68.813988 -252.809845
-158.256866 -69.196159 -252.092392
-158.224258 -68.008812 -253.180038
-146.333786 -68.164177 -252.086624
-85.215347 -69.804291 -252.135208
-84.939941 -69.311325 -252.365997
-14.833973 -70.529877 -252.237915
22.476358 -69.086693 -251.058472
38.403458 -69.327850 -251.849686
43.531803 -68.891876 -250.676498
48.526310 -68.691734 -252.154724
47.008495 -69.281563 -252.419312
50.543983 -67.949593 -251.551895
-165.924347 -68.439529 -252.519089
-162.279083 -69.077789 -253.384964
-160.136948 -68.530960 -253.421783
-158.655594 -67.775406 -251.306137
-157.990265 -70.931274 -251.061188
-151.244781 -68.835403 -252.216263
-150.451218 -67.791077 -251.368652
-145.249954 -67.650124 -252.711807
-88.088554 -70.223785 -252.395172
-87.366371 -67.797211 -252.003021
-87.451332 -67.955566 -251.963577
-84.667114 -69.615623 -253.423630
-85.491760 -68.415787 -252.345108
-82.670738 -67.931068 -253.631363
-15.103401 -68.879852 -252.510986
-12.767557 -68.270729 -252.781540
23.402027 -68.263847 -251.232956
38.250755 -69.241058 -252.083069
37.983070 -69.776558 -251.752457
41.434429 -68.227989 -251.976242
42.284416 -68.055687 -251.778717
46.761139 -69.225693 -251.246078
50.733467 -69.702789 -251.966278
-166.261551 -69.005806 -253.710373
-164.556503 -69.152885 -253.590820
-163.202637 -68.372749 -252.582275
-144.014236 -69.076683 -252.398453
-90.969925 -67.352669 -253.102921
-89.510872 -69.737610 -252.248993
-90.233742 -68.640541 -251.965790
-87.082603 -68.656158 -252.708496
-85.337570 -68.004990 -252.027420
-84.372948 -68.091827 -252.322311
-13.761276 -69.245064 -253.757233
23.508768 -68.039688 -253.142883
36.814610 -70.492439 -253.055054
36.091675 -68.501915 -251.763718
43.006027 -68.344025 -252.828369
41.817951 -68.365761 -252.300140
45.525757 -69.577850 -252.253372
50.774776 -69.458298 -252.440552
-166.700516 -68.877266 -253.632584
-163.772568 -68.493210 -252.904892
-161.215637 -68.881844 -250.743500
-159.498657 -67.630096 -251.545609
-153.123901 -70.522728 -253.018372
-145.021454 -68.656281 -254.065918
-95.602158 -68.058929 -253.040970
-92.966469 -69.657059 -252.617386
-93.122986 -67.567177 -254.126648
-91.979668 -68.916191 -253.296921
-90.939445 -69.121536 -252.357742
-90.489616 -68.538651 -253.316406
-88.613548 -68.708267 -251.367340
-86.854111 -68.498329 -251.942413
-86.965675 -67.296181 -253.428375
-86.454971 -68.018158 -253.526474
-83.704742 -68.459587 -252.463486
-14.255852 -67.808838 -252.754791
35.752144 -69.088799 -253.041534
40.066257 -68.612358 -253.249283
41.648743 -70.007584 -254.741699
42.565609 -68.599083 -252.679443
45.643898 -68.963806 -252.515518
49.416565 -68.003365 -253.155716
-166.349106 -70.785576 -253.654099
-164.500336 -69.162033 -253.829727
-165.553940 -67.987457 -253.049622
-165.069183 -68.625885 -253.623383
-162.216934 -68.913345 -253.012115
-161.538696 -68.204491 -253.214569
-160.016022 -68.122025 -253.602844
-158.568619 -68.883888 -252.019379
-159.711700 -68.274307 -253.406754
-152.207031 -68.674347 -253.157196
-94.624702 -68.868134 -253.228561
-97.951111 -69.460388 -253.553177
-91.651535 -67.913895 -253.736115
-92.588379 -68.520164 -253.909927
-91.020889 -67.480293 -253.084259
-86.012398 -69.075562 -253.289261
-86.128334 -69.846245 -254.180023
-83.520027 -68.374138 -252.672089
-83.945030 -70.031685 -254.343735
-14.559346 -70.220306 -253.554840
23.186918 -68.700981 -253.152237
24.151306 -68.401497 -254.775909
36.809822 -69.334618 -253.251923
34.851685 -68.773842 -254.416763
35.271736 -69.142059 -253.090027
39.279724 -68.212799 -253.608994
40.538445 -68.107323 -253.126724
42.523384 -67.722816 -252.605423
43.879414 -67.806129 -252.487701
43.742851 -68.272079 -252.290482
48.438992 -69.430771 -254.076828
48.440823 -68.490158 -253.026337
-167.210892 -69.708580 -251.991165
-165.421082 -68.486183 -255.088959
-163.205048 -67.847633 -253.942688
-163.122131 -68.499886 -254.315613
-144.291061 -68.005684 -253.655731
-129.172470 -68.761948 -253.218430
-98.694435 -68.574997 -255.106140
-96.690178 -68.412971 -253.948074
-97.855728 -68.790314 -254.367691
-96.451797 -67.547874 -252.638321
-95.274269 -67.876801 -252.758347
-89.574387 -67.836601 -253.723145
-84.776459 -67.702492 -254.618271
-13.781054 -68.519455 -254.209991
33.868225 -67.026665 -253.426071
40.158211 -67.599648 -253.534149
41.254196 -67.942856 -255.473206
41.472843 -69.325478 -253.208466
43.388245 -68.954529 -252.596176
43.578339 -69.639679 -254.998032
48.211842 -68.074867 -254.318909
-166.148315 -68.249481 -254.725906
-162.402603 -69.332672 -253.076492
-162.034058 -69.034790 -254.271805
-159.212189 -69.291695 -254.188538
-142.740372 -69.286011 -254.828674
-134.970032 -68.416908 -252.666199
-134.353333 -69.982315 -255.385040
-133.125305 -67.924835 -254.948441
-132.757187 -69.050125 -254.155762
-129.972198 -68.978508 -253.401703
-129.903366 -69.101074 -254.063980
-127.790955 -68.278366 -255.558105
-126.587234 -68.763657 -254.277176
-125.378563 -68.767799 -253.824234
-100.054504 -67.610001 -255.241302
-96.953880 -68.923744 -253.899628
-96.977493 -68.401779 -253.651474
-96.377106 -66.862274 -254.892365
-90.095322 -66.419334 -254.672699
-88.420235 -67.698685 -254.203857
-88.125755 -68.499565 -253.907074
-85.829117 -68.161980 -253.956787
-84.876045 -68.926216 -254.117340
-84.868431 -68.080070 -253.211472
-13.754514 -68.707001 -254.288147
34.193432 -69.549484 -254.835556
38.407356 -67.748894 -253.367310
40.611877 -67.929146 -254.433395
40.853237 -68.063805 -254.376709
40.633583 -68.934624 -254.810471
42.746807 -68.219139 -253.905624
47.192966 -68.693039 -253.520477
-165.926178 -70.034721 -254.440323
-165.574249 -68.565742 -253.848816
-164.455475 -67.628204 -254.134308
-162.787979 -68.756973 -255.459503
-160.249985 -68.742943 -255.877640
-158.733658 -68.974747 -253.685593
-159.083267 -69.137444 -254.855850
-144.078674 -69.133629 -254.100006
-143.846863 -68.757256 -254.880890
-130.884644 -68.086220 -254.028580
-125.420868 -68.812698 -255.201294
-125.832535 -68.442322 -255.484314
-99.899742 -68.048470 -254.255432
-100.570976 -69.616905 -253.946228
-98.957726 -68.856140 -255.484695
-96.747345 -67.906219 -253.952042
-87.851456 -67.802223 -253.188690
-87.078812 -69.690796 -254.677368
-85.496750 -70.152451 -255.070755
-86.936478 -68.829254 -255.967636
-14.611821 -69.783020 -255.022293
23.953238 -70.080276 -253.065338
33.141403 -68.613670 -254.952698
32.574814 -69.274269 -254.417206
38.353294 -68.450554 -254.684769
39.765194 -68.897583 -253.702499
39.888474 -67.532509 -254.968536
40.505970 -69.414536 -254.523041
41.837669 -67.319473 -252.964737
46.104679 -68.925835 -254.153961
-165.251663 -68.617920 -255.678024
-164.850784 -67.419006 -255.757904
-162.661880 -69.359909 -255.820053
-162.827408 -68.395813 -255.204529
-160.192780 -68.615303 -254.607025
-135.318542 -68.643135 -254.710754
-123.462715 -68.783615 -253.920578
-102.256401 -68.893562 -255.969269
-102.042084 -69.897148 -255.224823
-100.941017 -70.229294 -256.526794
-89.179222 -68.929794 -255.811813
-87.032288 -67.697510 -253.969070
-85.025246 -67.611763 -253.848679
-87.221077 -69.128731 -254.769989
-12.695564 -68.553322 -254.787857
23.227566 -69.885773 -254.168304
38.251297 -68.649086 -255.057434
38.141586 -69.471786 -255.417358
40.520088 -69.661652 -254.552551
41.204090 -68.120178 -255.071777
46.122936 -69.183685 -254.464340
-166.945343 -67.556206 -256.529541
-163.877716 -68.471428 -255.405167
-161.153076 -69.851830 -255.821274
-141.672882 -69.294868 -255.763214
-141.732834 -68.537270 -256.016357
-135.323273 -70.086227 -255.461868
-124.249023 -69.622322 -255.959335
-104.240410 -68.730797 -255.665054
-105.193756 -69.404541 -254.936646
-104.480652 -69.597282 -254.936508
-101.993668 -69.187584 -255.064453
-89.172028 -68.775627 -254.401627
-88.695999 -68.896721 -256.214630
-86.380775 -68.697502 -254.245071
-88.443596 -68.457626 -254.322830
-13.067036 -69.108589 -255.598083
-13.495342 -69.260017 -255.644882
24.121710 -68.656357 -255.970032
31.506990 -67.604782 -255.331238
37.529099 -67.778412 -255.242981
37.820545 -68.942703 -255.056717
38.872368 -68.592995 -255.326797
39.510380 -68.609100 -255.188660
41.121960 -68.147636 -254.151245
44.173626 -69.041748 -255.237808
44.928444 -69.205406 -255.997299
-165.887314 -68.467964 -256.740021
-165.032806 -68.856796 -256.739746
-162.847153 -68.960999 -255.437897
-160.478073 -69.031143 -256.007233
-159.515717 -68.302895 -256.384491
-158.265610 -68.548302 -255.998001
-159.620712 -68.695183 -255.340607
-142.226990 -68.849327 -254.384872
-140.775391 -68.547943 -255.926376
-138.660904 -69.446320 -257.114044
-136.658951 -69.034348 -256.642212
-135.980560 -70.186783 -255.658371
-123.905197 -69.335228 -255.533234
-108.777496 -68.202240 -255.946106
-108.128609 -68.331894 -255.026733
-107.100800 -68.115761 -256.209595
-105.996834 -68.592537 -256.045807
-91.934746 -68.460747 -255.377884
-89.824127 -68.853683 -255.505310
-88.770103 -67.412025 -256.448669
-14.270603 -69.376923 -255.748138
-14.293476 -70.470459 -256.094666
23.852512 -68.478371 -255.893448
31.944557 -70.744804 -256.102783
38.090183 -67.184113 -256.314484
36.940311 -67.318405 -255.181824
38.108734 -67.924919 -255.868332
38.936268 -67.808578 -255.581467
40.784119 -68.015068 -256.185150
45.632603 -69.840645 -256.916199
43.284698 -69.884529 -256.369415
-164.315857 -68.885735 -255.235001
-163.717056 -68.823830 -256.514008
-155.807281 -69.117279 -255.756790
-141.287323 -68.094879 -256.229309
-140.704010 -69.382858 -256.435120
-139.167603 -67.777344 -255.315628
-138.429565 -69.041328 -255.419647
-134.989716 -68.610321 -255.864151
-123.485039 -68.695892 -257.252563
-122.566071 -68.445755 -255.501999
-119.952309 -68.716736 -255.005615
-118.833389 -68.726189 -256.583435
-117.623665 -68.715042 -255.621399
-116.247887 -68.589149 -254.843216
-105.873222 -68.258408 -256.605652
-90.793411 -68.884346 -255.917465
-91.735138 -67.666298 -255.010605
-89.438530 -70.055069 -256.728424
-89.117233 -68.044411 -255.462601
25.611795 -68.219505 -256.351044
32.262661 -68.235268 -256.407288
31.160769 -69.997375 -254.946838
36.391949 -68.662796 -255.364746
37.647346 -68.651276 -256.764648
39.593956 -68.793266 -255.581360
-166.211639 -67.599571 -254.570709
-165.400757 -67.138557 -256.908813
-163.451294 -68.528259 -257.247406
-160.860184 -69.433739 -257.223755
-159.164520 -68.030518 -256.581635
-159.674957 -69.015434 -257.545410
-160.338623 -68.880569 -257.392212
-124.302513 -69.739159 -255.845047
-120.849838 -70.205650 -257.299530
-118.290138 -68.203819 -258.120575
-117.386147 -69.072319 -256.374817
-116.394951 -69.906883 -257.098145
-115.421684 -69.010384 -257.275726
-116.072449 -69.677811 -256.257599
-109.969467 -68.504951 -255.907806
-109.676353 -68.587532 -255.729691
-108.890305 -66.611923 -257.727020
-90.687309 -68.372269 -257.865906
-91.140320 -68.931297 -257.041412
-91.648308 -68.420769 -258.235077
-12.098288 -68.695518 -255.896957
28.436203 -69.440926 -256.441345
34.466934 -67.915642 -257.183777
35.216560 -68.881119 -256.973877
37.113209 -68.225281 -256.355255
36.659370 -68.129677 -256.751831
43.467941 -67.918076 -256.685333
-165.296341 -68.128975 -256.526123
-165.480087 -68.904724 -257.207581
-159.656036 -68.914246 -257.782043
-114.547600 -69.046265 -256.531677
-114.428032 -68.097679 -257.307556
-110.438347 -68.698975 -256.916016
-110.382858 -67.579796 -256.963562
-94.188133 -68.544479 -257.411285
-91.154854 -68.514496 -256.807739
-91.521599 -68.907417 -256.222290
-13.464519 -68.437286 -256.883179
-12.184167 -68.031822 -258.037231
25.404787 -69.465698 -257.001678
29.941202 -69.112747 -257.602356
29.038063 -69.716408 -256.035675
34.894600 -68.005363 -256.311188
36.741867 -69.133934 -256.744141
37.191658 -68.395638 -256.289673
-166.173935 -69.350235 -257.602753
-164.957520 -68.000313 -257.018433
-161.380386 -68.932266 -258.138000
-161.909470 -69.135628 -257.839691
-160.390717 -69.239258 -257.421783
-157.400131 -68.982224 -256.684296
-154.670074 -69.092049 -257.185638
-149.949722 -68.764465 -258.049011
-95.974052 -67.961876 -257.478638
-94.723152 -69.130379 -257.855072
-93.191322 -68.515221 -257.913086
29.510527 -69.673973 -257.301239
33.951645 -68.817528 -257.471771
35.706089 -67.718422 -257.675323
40.990551 -68.062935 -256.170471
39.483292 -69.946136 -256.710663
-166.683304 -69.571335 -257.771667
-163.452011 -67.211044 -257.506439
-163.440109 -68.233788 -258.025879
-161.468781 -68.865051 -258.704254
-159.111526 -69.740334 -257.529846
-157.915298 -67.991432 -257.297577
-154.408249 -68.960709 -257.955078
-150.207748 -67.048477 -256.301910
-148.542557 -68.548927 -258.093536
-94.130852 -69.607384 -257.097382
-13.780409 -68.240135 -257.091766
24.721773 -70.054848 -256.958313
24.995028 -67.843216 -258.528503
28.262691 -68.825958 -258.869934
28.374834 -68.069847 -257.019073
34.744946 -67.399849 -257.711945
35.019794 -67.536758 -256.768005
39.424164 -68.996445 -258.002808
-165.746323 -69.399429 -258.847443
-165.272995 -68.050369 -257.357239
-161.819565 -68.613815 -257.702118
-159.481674 -69.050606 -258.029846
-159.626007 -69.180763 -259.264130
-155.746841 -68.520531 -258.954193
-150.014175 -68.514595 -258.839935
-149.149429 -68.209503 -259.257843
-146.194031 -68.727257 -257.522980
-97.292130 -67.490173 -258.707550
-94.846069 -69.898079 -257.961334
-93.291969 -70.622002 -259.260895
-95.362633 -68.747971 -258.895477
-95.696030 -68.588585 -258.001099
-12.920059 -68.579483 -257.623871
25.359270 -68.402641 -257.321594
24.843565 -68.418877 -256.938324
33.189056 -68.258591 -258.736206
40.415314 -68.748741 -259.541687
-165.682724 -68.770073 -257.698822
-165.049667 -68.338234 -258.412079
-164.623810 -68.495468 -258.290405
-163.436020 -69.662712 -259.122498
-162.826767 -68.053650 -259.964813
-159.243637 -68.978683 -258.228668
-154.653900 -70.087776 -257.623535
-149.913010 -68.195366 -259.412811
-149.039978 -67.728111 -259.228577
-147.353195 -67.632645 -257.732025
-99.145744 -68.628807 -258.329193
-98.603180 -67.351578 -258.943237
-95.678223 -69.076431 -258.676422
-97.177109 -68.614868 -257.530670
-12.213507 -68.064064 -258.592499
24.934772 -68.860039 -258.291473
26.139563 -67.789055 -258.338501
26.902103 -69.300392 -258.423035
32.562305 -68.082916 -259.128448
39.402142 -70.633583 -258.363525
-165.879044 -67.472977 -259.325317
-160.682602 -68.336479 -258.710266
-159.456192 -69.833130 -259.213959
-100.303642 -67.714088 -259.284943
-99.065933 -69.724915 -260.363007
-10.130396 -67.966522 -257.715210
24.946016 -68.489250 -258.572601
25.840569 -68.021027 -257.897339
37.888477 -70.938705 -259.887573
38.009209 -70.078506 -259.240234
-164.977402 -68.480629 -258.595184
-163.656860 -68.235542 -258.873688
-161.488510 -68.047142 -258.869781
-161.240387 -69.655312 -258.528778
-159.600494 -69.438446 -259.762268
-158.944427 -69.922577 -258.290314
-157.752441 -68.984070 -259.124481
-149.562988 -68.306038 -258.835144
-148.452484 -68.559898 -259.230255
-147.452805 -68.383041 -259.767181
-101.546303 -70.339386 -259.711090
-101.149590 -68.603661 -259.298828
-99.786629 -67.727234 -260.523254
-98.582100 -69.606049 -258.832764
-99.638542 -69.446365 -259.716797
-98.682114 -69.209091 -260.410370
-13.527234 -67.703079 -258.168579
37.221992 -68.884476 -259.665131
-165.326767 -68.868767 -260.778534
-164.714264 -69.394196 -260.028107
-164.236038 -68.056953 -260.231415
-161.113464 -67.687477 -260.285614
-159.602142 -68.837730 -260.166443
-154.108780 -69.066765 -259.334473
-149.588791 -68.268219 -258.888367
-148.990646 -68.819092 -259.545349
-147.965973 -68.610138 -258.514709
-102.189178 -68.778786 -259.752777
-102.106705 -68.260536 -259.532135
-14.587943 -67.808571 -257.503113
-12.495855 -68.652122 -260.041046
-10.906741 -68.593300 -260.881195
-166.043411 -69.726395 -260.794250
-164.489929 -67.853546 -260.741180
-163.863571 -69.359795 -259.237183
-163.651917 -68.342445 -259.152740
-159.764282 -70.433418 -260.009155
-160.437744 -68.617920 -259.289703
-158.446518 -69.435684 -260.361725
-159.662338 -67.983917 -259.134888
-156.374207 -69.950378 -260.824524
-149.662674 -68.490395 -260.143890
-148.643829 -69.380676 -260.339020
-147.409500 -67.825165 -259.792999
-104.182564 -69.165863 -259.450073
-13.862074 -69.834267 -260.727722
-12.238752 -68.099686 -259.975708
36.387997 -68.714302 -260.674530
-164.022598 -69.235275 -260.752869
-163.292328 -68.863678 -261.554901
-163.061844 -68.678574 -260.398438
-161.394470 -68.745697 -261.964844
-159.257675 -68.171257 -260.922485
-149.005127 -68.327354 -260.236481
-148.256058 -67.519081 -259.997101
-105.698502 -67.748672 -261.464142
-104.597733 -69.594810 -261.430115
-102.174103 -70.534775 -259.911194
-103.726372 -69.142227 -261.341095
-104.358032 -68.243706 -260.570374
-13.661772 -69.915520 -262.374817
-11.214326 -68.340759 -261.352875
-9.786945 -66.979446 -260.880981
-166.000092 -68.540016 -260.686676
-166.266663 -69.248131 -260.318695
-163.440689 -67.586388 -260.162842
-159.275803 -67.459892 -262.133789
-155.184128 -70.589256 -260.498535
-110.801109 -68.330223 -260.583191
-107.756927 -68.210709 -260.028046
-106.844398 -68.608154 -261.653412
-106.111549 -68.018326 -261.250153
-12.328761 -67.228516 -261.306885
-11.014564 -68.752502 -261.390381
26.081730 -69.474365 -260.750549
32.668861 -69.182419 -261.995575
34.855141 -69.001953 -260.953186
32.504593 -68.532425 -261.943939
-165.633087 -68.810654 -262.296021
-164.906708 -68.170280 -260.928833
-162.203201 -68.290329 -261.379181
-162.151474 -68.733528 -261.198730
-161.694473 -67.496559 -260.850922
-159.233521 -68.145218 -262.316589
-160.021835 -68.458694 -261.083923
-108.962387 -68.154747 -262.129456
-10.223814 -68.394531 -260.712189
26.065769 -68.288574 -261.023376
25.921194 -68.837257 -260.954285
25.752216 -68.309952 -260.499969
32.006401 -68.765266 -261.634979
33.642067 -68.293068 -260.925751
-164.136505 -68.891502 -261.229095
-163.572479 -68.664772 -261.146362
-162.881073 -68.409866 -261.499054
-161.631744 -67.579414 -262.444672
-160.847778 -68.432060 -261.393707
-161.186584 -68.634880 -263.115112
-155.061279 -69.234474 -261.866516
-112.099442 -69.290955 -262.063324
-109.992386 -70.277481 -262.777893
-109.746010 -67.836723 -261.678497
-108.813171 -68.782913 -260.935059
-108.859940 -69.651878 -261.621094
-108.496063 -67.998573 -261.220703
-11.885396 -69.229172 -262.177887
-12.363827 -68.450081 -260.847473
-9.980114 -67.784416 -261.470367
26.598249 -71.127289 -260.931671
31.842442 -69.822166 -262.138702
33.214020 -68.910728 -260.919739
-162.529953 -68.567047 -263.557922
-114.592415 -68.516159 -261.608124
-111.551666 -69.282043 -261.963989
-113.333344 -69.747391 -262.103912
-11.189346 -67.853508 -261.303711
-9.757636 -67.121727 -261.604523
25.968742 -68.093323 -261.612915
27.755377 -69.310074 -262.343353
31.974049 -68.214760 -261.628632
-165.585785 -68.471428 -262.086975
-164.498886 -67.762863 -262.535675
-162.212555 -68.569420 -263.502747
-159.763702 -68.599335 -261.896667
-159.658722 -68.569450 -262.551208
-153.503494 -68.624046 -262.505951
-142.603195 -67.645615 -263.376709
-140.589966 -68.409409 -262.970795
-139.526978 -68.138817 -262.682861
-138.675934 -69.996101 -264.248871
-137.243805 -68.298218 -262.786163
-135.631668 -69.210777 -261.751404
-135.810608 -68.165062 -262.906952
-114.949387 -69.841019 -261.626923
-11.827846 -70.321487 -261.149475
-12.854963 -69.598297 -261.891205
26.091404 -67.731964 -262.243805
28.200171 -69.703667 -262.919922
29.999586 -69.855797 -262.386108
30.222223 -69.013199 -262.764008
-168.448990 -69.470734 -261.938934
-165.866455 -69.018921 -263.596985
-165.296692 -68.464561 -262.331573
-165.194077 -68.810783 -263.381256
-164.238327 -67.776321 -262.945068
-161.630478 -67.521400 -263.466858
-160.245514 -68.757866 -262.336853
-154.101898 -69.841202 -261.874725
-143.184509 -69.278526 -261.816406
-142.523132 -66.924561 -264.156555
-134.231155 -68.657768 -261.520966
-124.549423 -69.176880 -262.727905
-121.903183 -68.245865 -262.246399
-119.406563 -69.099312 -263.815460
-119.166946 -69.324554 -262.439606
-119.033806 -67.965706 -263.269531
-115.756172 -69.527039 -262.698944
-116.239571 -69.468369 -262.689758
-115.347099 -69.541260 -264.270203
-12.985556 -68.540703 -262.449738
-11.852197 -68.122452 -262.284088
-11.995815 -69.746933 -262.734009
-9.798259 -68.634560 -263.328369
24.953489 -69.125954 -262.448608
27.708218 -68.880600 -262.214325
27.863682 -68.860405 -262.961517
29.904202 -68.760513 -262.587860
-166.436325 -69.157242 -263.500671
-164.931839 -69.493431 -263.008911
-163.481537 -69.469467 -263.312256
-163.077805 -68.900436 -264.949097
