# This PCD file was generated using the MATLAB® pcwrite function
# from Computer Vision Toolbox®.
# .PCD v.7 - Point Cloud Data file format
VERSION .7
FIELDS x y z
SIZE 4 4 4
TYPE F F F
COUNT 1 1 1
WIDTH 1420
HEIGHT 1
VIEWPOINT 0 0 0 1 0 0 0
POINTS 1420
DATA ascii
-71.899124 -72.989983 -101.423935
-72.890289 -74.209106 -101.496902
45.376369 -73.982483 -101.329826
54.152668 -73.216324 -101.615799
86.526291 -72.534363 -101.582504
87.469307 -73.911186 -101.350060
89.397987 -73.277527 -101.466057
104.170609 -73.824738 -100.620735
106.998817 -73.401695 -101.980537
-80.589058 -73.704811 -101.539528
-81.208923 -73.627197 -102.072449
-80.728500 -73.253159 -101.667458
41.726471 -73.887062 -101.343422
44.718803 -73.510292 -101.802238
53.987801 -74.022804 -101.315277
55.576801 -73.871933 -101.865250
87.622925 -72.838341 -101.775253
88.794716 -73.564804 -101.623375
90.320732 -73.655083 -101.642036
103.629860 -73.566475 -101.554688
104.837807 -73.869896 -101.529495
107.743935 -73.275032 -100.695961
-93.868248 -73.692085 -102.120773
42.276333 -74.179604 -102.180557
44.427216 -73.867867 -102.627022
88.423538 -72.671158 -102.277748
105.382080 -74.070709 -101.600029
105.855431 -74.163147 -101.339119
-94.167908 -73.508347 -102.361092
53.144436 -73.705490 -102.416039
104.223305 -73.748474 -102.174782
104.508080 -73.871986 -102.346817
107.577515 -73.716881 -102.585693
-94.079323 -72.939682 -103.063530
-81.765358 -73.643700 -102.676727
41.290813 -73.993515 -102.578674
43.965965 -73.636436 -103.191933
53.159698 -73.889839 -102.828644
53.368778 -73.094513 -103.649857
55.063770 -73.909859 -102.950104
104.337883 -73.217453 -103.000656
104.762459 -73.770584 -103.436340
107.993576 -73.973923 -102.779137
-93.929123 -73.916855 -103.379417
-81.610550 -73.781105 -103.462296
41.140823 -73.810081 -103.498489
43.408798 -74.033615 -103.162422
53.189018 -73.871750 -103.760399
55.036564 -73.783020 -103.249176
106.980423 -73.650742 -103.108307
107.732002 -73.343292 -103.598717
-94.180382 -74.049507 -104.006248
43.010532 -73.827988 -103.416946
52.322903 -73.809982 -103.789238
104.179893 -73.285118 -103.591576
104.762405 -73.607780 -103.636566
107.528732 -73.517906 -103.731560
-81.613884 -74.214722 -103.785385
40.125290 -73.499092 -104.349258
43.132793 -73.635269 -104.367989
54.576992 -73.625633 -103.354088
54.116322 -73.686768 -104.378548
104.964180 -74.208885 -104.266830
108.710411 -73.177856 -103.697510
-94.216476 -73.389717 -104.047409
-82.510864 -72.887428 -104.526413
43.239845 -73.718086 -104.021820
51.893589 -73.984406 -104.653214
104.846016 -73.467598 -104.261200
109.103043 -73.674492 -104.486702
-94.439400 -73.272476 -104.165581
40.765499 -73.988472 -104.946609
42.487686 -73.818855 -105.747559
53.891815 -73.809914 -105.464088
105.117668 -73.862724 -105.014305
108.934341 -73.575012 -104.324074
-93.831352 -73.913353 -104.946815
-82.442497 -73.855698 -105.587036
40.538376 -73.823250 -105.246063
52.238468 -73.664063 -105.173851
105.379852 -73.826195 -105.809479
104.732353 -73.303253 -105.482849
108.190788 -73.981987 -104.833710
108.545113 -74.066681 -105.274704
109.577187 -72.944313 -105.138588
-93.871803 -74.127151 -105.623428
-94.236786 -72.283257 -105.657913
-83.027733 -73.977264 -106.064743
39.365498 -73.862930 -106.154846
42.211739 -74.018913 -105.537064
53.779781 -74.270691 -105.581978
108.528641 -73.604164 -105.474396
109.627159 -72.823364 -106.107201
39.510941 -74.321159 -106.228065
51.596977 -73.781242 -105.523170
53.505547 -74.117165 -106.519005
105.561752 -74.588341 -105.791580
104.913620 -73.763245 -106.387383
109.784813 -73.565941 -106.259727
-93.856560 -73.840858 -106.654999
38.603851 -73.476875 -106.733727
106.040268 -73.990181 -106.855095
108.560799 -73.920296 -106.139404
-93.755219 -73.459076 -107.285133
-83.610916 -73.986885 -107.317917
41.687317 -74.082794 -107.050072
51.391953 -73.867989 -106.396530
52.989506 -73.407646 -106.374939
104.715553 -73.420059 -106.808708
109.706192 -73.829536 -106.757240
-94.651253 -73.117065 -107.031776
38.587120 -73.807693 -106.961678
41.270008 -73.626686 -107.648651
50.743301 -73.852432 -107.300377
50.151329 -73.502808 -107.812462
52.859299 -73.948257 -107.347839
105.175400 -73.604782 -107.571053
109.729973 -73.743462 -107.310539
-94.436798 -73.024414 -108.159081
-83.358147 -74.127937 -107.966309
-84.130089 -72.797043 -107.554962
105.849693 -73.900803 -107.747955
109.641869 -73.917534 -107.878891
-94.173660 -73.713974 -107.867096
-83.850792 -73.848610 -108.128624
38.403328 -73.920319 -107.811905
49.952007 -73.722008 -107.893257
52.266964 -73.933861 -108.108643
105.565163 -73.785393 -108.727242
110.032951 -73.825218 -108.308609
37.967617 -73.825233 -108.152924
40.805614 -73.777908 -108.136436
40.092300 -73.994812 -108.918129
50.101089 -73.741585 -108.714622
104.487701 -72.767128 -108.343407
109.765442 -74.151794 -108.422325
110.728485 -73.331482 -108.313026
-93.916626 -73.472313 -108.623390
-84.324310 -73.820541 -109.108467
37.676498 -73.776703 -108.961990
49.432156 -73.889771 -109.229012
52.202534 -73.514168 -108.694687
37.304176 -73.896423 -109.065643
40.209206 -73.794731 -109.402061
106.487312 -74.493729 -109.051880
109.728737 -74.641594 -109.102867
-93.864464 -73.364815 -109.549286
-84.147079 -73.747955 -109.555740
37.637589 -73.675911 -109.499611
37.594444 -73.743759 -110.132980
39.742844 -73.748863 -109.679741
51.311218 -73.418449 -109.488907
110.774307 -73.615036 -110.187378
-84.912537 -73.513428 -110.433464
39.370419 -74.347321 -110.150688
39.357624 -73.871986 -110.683411
49.175152 -73.681503 -109.365158
106.864952 -74.425095 -109.602287
105.438957 -74.381401 -109.387978
36.780636 -73.881256 -110.349594
51.052486 -74.096504 -110.929726
105.903412 -73.649422 -110.302917
-84.935501 -74.252113 -110.823471
48.472019 -73.541702 -110.932594
50.557106 -73.653664 -110.567673
105.825272 -74.069511 -110.478386
110.583115 -73.761177 -111.071159
110.978706 -72.500755 -110.661736
-93.806999 -73.549248 -111.198875
-85.138336 -73.613586 -111.467834
36.062672 -73.677231 -111.359230
38.578888 -73.841690 -111.839035
50.349751 -73.704880 -111.461525
105.838074 -73.441833 -111.612396
-93.624237 -73.448967 -111.379807
47.986557 -73.884338 -111.721886
50.081329 -74.012474 -112.062447
38.065384 -73.872124 -112.212952
47.227493 -73.780136 -112.286705
49.954952 -73.912033 -112.508530
106.157440 -73.434288 -112.116478
110.704216 -73.771942 -111.414368
-93.758652 -73.838058 -111.988281
36.042686 -73.748123 -112.561378
37.662102 -73.728828 -113.093689
49.481434 -73.622437 -112.833595
106.756607 -73.657227 -112.379860
111.508751 -74.232285 -112.974823
-86.055519 -74.096527 -113.097122
47.228382 -73.725464 -112.998756
-86.862610 -73.730209 -113.081879
35.544556 -74.022568 -112.916885
111.745232 -74.175797 -112.902969
-93.757462 -73.744179 -113.237671
35.222500 -73.855995 -113.728096
37.210770 -73.973022 -114.044533
47.210651 -73.519501 -113.668854
49.109417 -73.320534 -113.747375
106.830254 -73.756363 -113.760796
-86.936844 -74.025223 -114.254776
34.844635 -73.680916 -113.883530
37.204460 -73.940536 -114.590805
46.523209 -73.821396 -114.390846
48.821392 -73.946877 -114.128586
112.199341 -73.565567 -113.937340
-87.621109 -74.082909 -114.504623
-87.861847 -74.406891 -114.773125
34.981007 -73.541954 -115.565392
106.375938 -74.089867 -113.987968
112.030579 -73.942406 -114.768112
46.284058 -73.881302 -114.798889
48.310734 -73.654404 -115.079567
106.492584 -74.288826 -115.166580
112.622276 -73.844124 -114.881508
-93.551483 -74.040421 -115.471878
-87.757027 -73.624977 -115.093544
34.738312 -73.875389 -115.516838
36.629810 -74.152000 -115.263924
112.358017 -74.058327 -115.764366
-88.291557 -73.992706 -115.551315
36.272091 -74.123627 -115.795135
45.855938 -73.866432 -115.736794
48.031963 -72.773712 -116.227798
106.757072 -73.933792 -115.831017
-93.334892 -74.621918 -115.592751
-88.957069 -74.154739 -116.032066
45.191681 -73.778786 -116.025253
47.946457 -74.028358 -115.629562
-93.264671 -73.661041 -116.655159
45.157913 -72.992676 -116.582016
107.200447 -73.823753 -116.106064
106.238022 -72.840698 -117.143112
112.639793 -73.990181 -116.222153
-93.326416 -73.172081 -116.808868
-93.163200 -74.225746 -116.680656
-91.283279 -74.027214 -117.621437
-90.613976 -74.050972 -116.518044
34.256893 -74.172745 -116.724335
36.107716 -73.568794 -116.739540
44.725288 -74.069923 -116.883965
47.258488 -73.945702 -116.558792
112.881470 -73.649887 -116.849472
-92.596504 -73.589760 -117.763069
-90.517776 -73.605659 -117.308731
33.771637 -73.587296 -117.372116
35.893913 -73.536804 -117.211121
44.708603 -73.704628 -117.413925
47.188736 -73.655197 -117.212257
47.175266 -72.896324 -117.018486
107.518005 -74.253326 -117.659279
106.550987 -73.452744 -117.401848
-91.424896 -73.388512 -117.300049
33.202843 -73.948273 -117.557045
34.913204 -73.918816 -118.177078
44.557728 -73.440018 -117.816132
113.251938 -74.001892 -117.289421
113.351555 -73.003349 -117.274590
32.840069 -73.634041 -118.513550
44.675430 -73.897385 -117.813042
46.263733 -74.230782 -118.396576
107.193161 -73.585304 -117.519615
32.859074 -73.808960 -118.577782
35.586769 -74.050079 -118.237434
44.147137 -73.839493 -118.974609
46.085804 -73.565102 -118.827156
107.670097 -74.377594 -118.119827
113.017349 -73.852951 -118.005592
113.318832 -73.639023 -118.651993
107.411713 -74.158287 -119.002411
113.486115 -73.601067 -119.582893
32.097847 -73.725281 -119.042068
34.746037 -74.358070 -119.300583
44.046597 -73.840256 -119.893562
46.039284 -74.009239 -119.203156
32.795280 -73.840744 -119.244133
34.639431 -74.109352 -120.100647
110.293732 -72.916534 -119.936172
113.276443 -74.079033 -120.025047
32.149261 -74.122795 -120.449677
34.832653 -73.980743 -120.046135
34.456493 -73.942802 -120.494919
107.711380 -73.925560 -119.712036
31.793224 -74.312889 -120.450386
43.353230 -74.086159 -120.288887
45.419094 -73.940697 -120.902016
110.419067 -73.126480 -120.371346
34.365120 -72.724808 -121.616554
42.688751 -73.764999 -121.578110
45.286285 -72.980202 -120.508904
107.369911 -73.968582 -120.943893
113.674583 -74.076210 -120.818916
31.825264 -73.676582 -121.557480
33.858814 -73.871666 -121.076416
45.349705 -74.097939 -121.358589
44.410431 -74.152939 -121.789711
44.695660 -72.863686 -121.686203
113.658501 -73.678902 -121.373344
42.521454 -73.788963 -121.064560
107.865982 -73.969238 -121.649178
30.803556 -73.828636 -122.417725
31.056181 -74.264969 -121.869835
33.551334 -73.963867 -121.661026
42.412010 -73.645889 -122.789162
41.755627 -73.413925 -122.487862
107.604111 -74.004829 -122.282944
110.498055 -72.793930 -122.276405
114.685638 -74.027748 -122.143745
114.455643 -72.895699 -122.384407
33.663616 -73.952988 -122.204208
114.384781 -74.272392 -122.767296
31.046803 -73.270790 -122.875671
33.644878 -74.136887 -123.457901
44.187981 -73.537445 -122.907761
107.941750 -73.664383 -122.574867
114.597160 -73.186554 -123.089668
41.959629 -73.768387 -123.965813
108.240891 -74.081825 -123.252228
114.506554 -73.342163 -123.333199
30.971272 -73.848999 -123.919235
33.536938 -72.873924 -123.238930
43.960289 -73.834877 -123.496590
108.278519 -73.856667 -124.069878
111.313469 -72.361504 -123.283066
114.229317 -73.712105 -123.831154
30.576199 -74.089836 -124.039528
33.064419 -74.061913 -123.767754
41.400150 -74.040276 -124.015411
40.934258 -73.215157 -124.474266
43.457897 -73.513870 -124.069328
111.670387 -73.316002 -125.131889
114.304214 -73.767654 -124.430573
32.901966 -73.538445 -124.779785
41.211205 -74.039612 -125.069099
108.366196 -73.495598 -124.756294
114.879494 -73.398903 -125.355476
32.751770 -74.287498 -125.483650
41.049232 -73.921188 -125.637581
43.347633 -73.880150 -124.607109
29.793093 -73.200470 -125.636559
40.560009 -73.946907 -125.354362
43.038918 -73.764717 -125.936188
111.080078 -72.853104 -125.491768
115.001282 -73.581558 -125.555023
31.699341 -73.848511 -126.271614
108.496689 -73.882706 -126.312805
30.190056 -74.233925 -126.180511
40.433826 -73.801994 -125.574432
42.800526 -73.571815 -126.481941
115.163567 -74.026794 -126.105698
40.666973 -73.603317 -126.990402
42.601910 -73.849609 -126.969940
111.641640 -73.059509 -126.372528
112.012253 -73.271927 -126.778526
29.531973 -73.830864 -127.379219
32.024452 -74.132828 -127.196106
39.979382 -74.037781 -127.347328
42.780567 -73.938873 -127.515404
108.496445 -73.871223 -127.199318
111.450867 -72.916451 -127.194122
112.701904 -73.060524 -127.673599
31.708609 -73.642723 -128.101318
39.755890 -74.243477 -128.407791
108.507294 -73.983749 -127.913170
115.080933 -73.556320 -127.438187
29.190363 -74.285332 -128.067688
39.230057 -73.836166 -128.011429
109.279724 -73.628471 -128.398163
115.402000 -73.316917 -127.656731
29.408932 -73.749557 -128.217651
31.321852 -72.926941 -128.382904
39.091068 -74.461098 -128.924423
41.645679 -73.845413 -128.624435
109.129807 -73.782089 -128.131409
111.724396 -73.250015 -128.393051
112.737045 -73.072395 -128.135452
28.462646 -73.686012 -128.988586
38.846397 -72.718681 -128.995895
108.210640 -74.005676 -128.824478
112.579277 -73.070694 -128.838516
114.914139 -73.709457 -128.252350
31.300873 -73.953323 -128.849121
39.080769 -73.549202 -129.460022
41.411095 -73.527122 -129.708099
108.664543 -74.174461 -129.543213
108.741417 -73.025597 -129.335907
111.334084 -72.663330 -129.332916
28.455860 -74.038895 -130.185379
30.511993 -73.576401 -129.668686
39.227844 -73.758034 -129.806183
108.580208 -72.966255 -129.883255
112.352921 -73.581764 -129.680496
116.043602 -73.546143 -130.175964
28.333223 -73.999016 -130.667328
41.558647 -73.826202 -129.892532
109.076233 -74.049217 -130.223541
111.612976 -72.971985 -130.483368
112.483391 -73.404739 -130.345261
30.516167 -73.786888 -130.653091
38.946655 -73.769753 -130.452530
41.077824 -73.869225 -130.935928
41.075447 -73.843109 -131.707077
109.057770 -73.386345 -130.661102
112.472931 -73.576614 -131.184006
27.983826 -73.929237 -131.332077
30.288538 -73.955040 -131.159058
109.477402 -73.922043 -131.365540
112.561821 -73.440163 -131.470840
-55.290886 -72.455727 -131.380936
38.441029 -74.267433 -131.023666
40.351631 -73.939713 -132.401428
112.348068 -73.746765 -132.150024
115.766235 -73.939766 -130.897705
-55.071217 -73.660156 -132.169937
-53.292770 -73.408195 -132.161224
38.446796 -73.949318 -132.704193
109.433174 -73.817940 -132.222870
113.478470 -73.186653 -132.354874
116.170036 -73.631760 -131.887726
-57.017170 -73.038727 -131.967346
-55.005878 -72.687927 -133.055481
-54.571262 -73.115601 -132.259750
27.739637 -74.064766 -132.579346
29.695097 -74.086334 -132.774887
40.341602 -73.816597 -132.323349
112.606140 -73.410553 -132.558975
113.331352 -73.275444 -132.455307
-57.216305 -72.815865 -132.547668
-56.254654 -73.269600 -132.738831
-54.798752 -73.823730 -132.999863
-52.958385 -73.275757 -132.503830
-52.099831 -73.347511 -132.793777
27.393129 -73.442787 -133.201355
38.559280 -72.812340 -132.225540
40.164928 -73.808952 -133.287369
40.485626 -72.889809 -132.664841
109.150795 -73.442406 -132.618011
-56.304298 -73.149811 -133.684097
-55.596851 -73.921951 -133.370041
-53.286304 -73.970360 -133.665359
-52.110386 -73.237846 -133.373123
29.502481 -73.700615 -133.095398
37.871040 -73.727264 -132.973282
109.407066 -74.210648 -132.996857
112.178917 -73.486145 -133.166748
112.960899 -73.393829 -133.105255
115.875740 -74.137161 -132.892029
116.544838 -72.991493 -133.673767
-57.240173 -72.932396 -133.147934
-51.489925 -73.207588 -133.832642
29.402971 -73.748924 -133.427933
29.647678 -73.029930 -133.580490
37.576172 -73.506859 -133.777512
39.640419 -73.830032 -133.969406
112.375481 -73.737572 -133.344452
113.224648 -73.078094 -133.601166
115.923660 -74.273438 -134.054443
-57.629471 -73.324486 -134.417908
-56.392681 -73.579643 -134.172668
-51.769966 -74.085236 -134.477600
-50.505043 -73.276619 -134.684250
27.075447 -73.868820 -134.474442
37.505383 -73.543320 -134.399551
109.271545 -73.640305 -133.895966
113.356125 -73.597565 -134.671600
116.200447 -73.545494 -133.919601
-50.514416 -73.862534 -134.587418
39.668438 -73.402168 -134.295578
109.223763 -73.634392 -134.808304
112.745056 -73.716835 -134.512833
115.984520 -73.601624 -134.036285
116.216537 -73.151985 -134.170502
-57.016499 -73.520721 -134.740204
-49.800076 -73.242332 -134.690094
27.273615 -74.234818 -134.906281
28.599903 -73.890244 -134.948898
37.277672 -73.538681 -134.607376
39.365898 -73.659050 -134.752686
109.298477 -74.182045 -135.174591
112.750412 -73.402451 -135.449738
113.502785 -73.551041 -134.982758
-57.536934 -73.527672 -135.507095
-49.540092 -73.809631 -135.548035
26.182327 -73.892281 -135.499023
26.774305 -72.964302 -135.694534
116.351715 -73.650604 -135.127563
26.809155 -73.802856 -135.936188
28.421000 -73.390167 -135.599579
37.153023 -73.961067 -135.473816
38.896828 -73.935043 -135.487015
109.535942 -73.795303 -135.502609
113.477531 -73.931656 -135.706345
116.311684 -73.610077 -135.392029
116.460625 -74.452087 -136.212280
-57.138813 -74.162514 -136.208817
-57.931446 -73.174599 -136.304626
-54.029652 -73.109886 -136.274460
-52.181942 -73.058685 -135.923019
-48.687393 -73.833771 -136.362793
27.893633 -73.839676 -136.883179
36.998959 -73.900917 -136.112122
39.404148 -73.821655 -136.424988
112.508415 -73.954048 -135.604782
113.374763 -73.746742 -135.915405
115.806046 -74.137878 -136.157211
-74.868080 -73.349403 -136.204529
-74.510864 -73.292595 -136.255966
-48.650307 -74.275513 -136.692062
109.354591 -73.761787 -136.442810
113.562378 -73.915855 -136.353455
-74.677925 -73.704277 -136.839310
-54.224270 -73.032593 -136.953369
-53.444508 -73.059883 -136.732803
-52.600952 -73.587761 -136.697739
-51.594864 -73.044281 -136.762146
-48.116081 -73.784492 -137.298477
26.054756 -73.803688 -136.833878
36.582363 -73.820679 -136.792084
39.028561 -73.802956 -137.172134
109.558876 -73.880699 -136.957123
112.779282 -73.675110 -136.567490
113.294128 -73.904716 -137.300919
116.058853 -73.783943 -136.715576
-73.243416 -73.457581 -137.163361
-58.304295 -73.403770 -136.738358
-47.749516 -73.872780 -137.447281
25.686924 -73.942787 -137.917862
36.560802 -73.780914 -137.379013
113.580139 -73.887428 -137.422256
112.451538 -73.769638 -137.478149
116.562866 -73.696060 -136.909592
-75.214615 -73.063568 -137.107559
-74.262558 -73.297653 -137.489838
-73.326935 -73.510162 -137.854553
-58.193756 -73.728096 -138.767929
-54.517262 -73.592140 -137.914246
-53.429932 -73.372734 -137.395355
-52.540840 -73.668884 -137.976456
-51.294662 -73.940659 -138.144211
-51.628868 -73.444847 -137.543213
-50.561447 -73.316734 -137.595978
-46.782902 -73.840820 -137.616028
27.747639 -73.694000 -137.603058
38.705750 -74.056030 -137.314682
116.946526 -73.882072 -137.930862
-75.606567 -73.703773 -138.362198
-74.381233 -74.023628 -138.236145
-72.951134 -73.310280 -138.028793
-72.444954 -72.956879 -138.449753
-53.230766 -73.619011 -138.258011
-52.310760 -74.230026 -137.973328
-50.413651 -73.969902 -138.770325
-50.789795 -74.204063 -138.097198
-49.622009 -72.933716 -138.338654
-47.028267 -73.843727 -138.199615
25.724960 -73.952675 -138.461868
36.238956 -73.931931 -137.801254
38.375820 -73.879776 -138.843842
38.233727 -74.295097 -138.076355
109.684387 -74.020851 -137.835449
112.076614 -73.463684 -137.886948
-74.485596 -73.923759 -138.491119
-73.617256 -73.914726 -138.781647
-72.740891 -73.516602 -138.548477
-53.241779 -73.744576 -138.560120
-54.121262 -73.963257 -138.649017
-46.995998 -73.394173 -139.073746
27.813375 -74.212883 -138.045868
36.663525 -73.914978 -138.786179
112.687355 -73.558388 -138.455658
112.112259 -73.998764 -138.284760
116.883583 -74.057526 -138.353699
-75.467003 -73.486336 -138.676514
-72.655289 -73.675377 -138.859116
-54.980972 -73.085922 -138.300537
-54.174274 -73.681732 -138.948883
-49.363686 -73.805954 -138.849442
-47.739208 -73.358795 -138.750732
-46.486393 -73.423927 -138.591034
25.312588 -73.970055 -138.502579
36.067825 -73.478165 -139.030457
112.754433 -73.811142 -138.869629
113.344109 -73.812523 -138.751633
116.520271 -73.857109 -138.793808
-74.201225 -73.937981 -139.749207
-73.093712 -73.733482 -139.644531
-72.600334 -73.167229 -139.460602
-55.700020 -73.872894 -139.387482
-48.901333 -73.608795 -139.369598
-46.262321 -74.033867 -139.261490
25.196218 -74.051949 -139.524414
27.304642 -73.441353 -139.181503
37.817799 -74.064743 -138.970139
110.089775 -73.625183 -139.150772
112.637009 -73.309280 -139.037750
-75.341347 -73.702797 -139.638763
-72.492363 -73.964172 -139.930847
-58.086609 -73.647682 -139.576492
-54.421009 -74.296928 -140.270126
-46.252125 -73.793449 -139.581116
37.430241 -73.570686 -140.215652
109.931915 -73.635429 -139.478104
112.467834 -74.045601 -140.244980
-76.171364 -73.222557 -139.850357
-71.672279 -73.635933 -140.197586
-71.740311 -73.483795 -140.049957
-57.562489 -73.444412 -140.255524
-55.299229 -73.424751 -139.786728
-47.677517 -73.682388 -140.385529
-47.751007 -73.047081 -140.268738
-45.284096 -74.202362 -140.169479
25.051765 -73.717781 -140.036789
27.087975 -74.071259 -139.828720
35.765018 -73.948624 -140.112045
116.846512 -73.936592 -140.232361
-74.795357 -74.270164 -140.643539
-72.354225 -73.919609 -140.296844
-71.393219 -73.761215 -140.897858
-54.325825 -73.996887 -140.685303
-55.406212 -73.512192 -140.545090
-47.813980 -74.106407 -140.871078
-45.283234 -74.078331 -140.659897
24.920488 -73.690460 -140.635147
109.519775 -73.879913 -139.911102
109.580498 -73.297028 -139.817886
113.320557 -74.153160 -140.011093
112.275879 -73.511528 -140.655624
113.675667 -73.668831 -139.811050
-74.952499 -73.702805 -141.042709
-75.179558 -73.498924 -140.742249
-55.372349 -74.081192 -141.077560
-45.024563 -73.717941 -140.960541
24.920391 -73.367722 -140.647873
26.615322 -74.250862 -140.512817
35.110542 -73.676605 -140.633316
109.714973 -73.841537 -140.856857
112.302406 -74.145760 -140.961670
113.838333 -73.953537 -140.979904
116.785538 -73.482544 -140.958313
-70.279358 -73.430229 -141.565765
-57.192696 -73.816971 -141.537277
-47.089844 -74.187752 -141.479004
-44.697639 -74.379639 -141.023239
25.282917 -72.714859 -141.151321
35.008896 -73.960144 -141.166534
37.373798 -73.929756 -141.086380
37.491871 -74.039970 -141.794769
109.549942 -73.636284 -141.377380
112.556664 -73.858673 -141.405472
112.306969 -73.322075 -141.374207
116.685150 -73.705063 -141.496796
-75.133423 -73.790512 -141.494781
-75.226936 -73.349052 -141.613327
-71.318581 -74.084641 -141.427078
-46.610252 -74.164909 -142.145355
-44.357662 -73.884666 -141.472076
26.744907 -74.185509 -141.649307
34.942520 -73.672791 -141.960220
113.899109 -73.348221 -141.925629
-76.477806 -73.343132 -142.128220
-75.406281 -73.667831 -142.093430
-70.549828 -73.816063 -141.991592
-44.640472 -74.391113 -142.531693
24.421274 -74.025742 -141.594131
26.791801 -72.682533 -142.350723
109.381485 -74.043808 -142.302826
112.306755 -73.652481 -141.817535
113.847267 -74.129608 -142.444702
116.917770 -74.087486 -142.257889
-70.775932 -73.805267 -142.926254
-69.635986 -72.805069 -142.651138
-57.276730 -74.021339 -141.764893
-55.271427 -74.126534 -142.490311
-46.029835 -73.446053 -143.112610
-43.751358 -73.660744 -143.075546
24.035645 -73.988655 -142.396515
26.596521 -73.972137 -142.257706
35.121346 -73.624626 -142.413605
36.902973 -73.539543 -142.452194
109.665749 -73.810402 -142.436264
112.405586 -73.821899 -142.925034
-74.512283 -74.364464 -142.913422
-56.754646 -74.048927 -143.276657
-54.246822 -74.018532 -142.883286
112.277611 -73.687233 -142.798111
113.652344 -74.045586 -142.478973
116.881386 -73.297127 -142.511475
-74.891052 -73.877861 -142.886276
-54.791527 -73.471703 -143.519333
-46.194511 -74.000618 -143.529404
-43.699814 -74.076408 -143.031082
24.076984 -73.972961 -143.694290
26.290266 -73.512321 -142.879211
34.558102 -74.063477 -143.114349
36.949558 -73.798645 -142.949066
109.629898 -74.148521 -143.442596
112.488808 -73.498734 -143.037384
113.704880 -73.583237 -143.497070
116.952721 -74.145737 -143.113037
-75.018417 -73.776047 -144.351563
-70.006218 -73.850822 -143.469940
-55.530323 -72.812561 -143.776566
-43.010227 -73.874794 -143.741211
23.997423 -73.986031 -144.041733
26.047331 -73.680527 -143.922623
34.675350 -74.136642 -144.185532
36.295521 -73.952332 -143.852188
109.236267 -74.167664 -143.890045
112.289116 -73.638916 -143.440811
-69.112465 -73.559799 -144.456451
-57.068142 -73.739677 -144.403641
-54.496330 -74.202332 -143.947128
-45.415726 -73.920677 -144.113144
-43.259914 -74.036720 -144.183273
23.794601 -74.018250 -143.657852
36.461514 -74.062256 -144.441818
114.325409 -73.735291 -144.073471
-68.502304 -72.857025 -144.489090
-56.671555 -73.558075 -144.814865
-54.286831 -74.101845 -144.749680
-45.524853 -73.997040 -144.262543
-42.897160 -73.960922 -144.525375
25.976624 -74.255226 -144.751709
33.931690 -73.958885 -144.558014
109.769920 -73.406830 -145.482742
112.452950 -73.628723 -144.331879
114.040642 -73.419868 -144.512894
116.990784 -73.709175 -144.823853
-75.282112 -73.340569 -144.397705
-69.146034 -73.866257 -144.498886
-44.991924 -73.776512 -145.059631
-42.509441 -74.094421 -144.847992
23.599657 -73.651321 -145.085739
34.148834 -73.867188 -144.556427
36.080425 -74.037315 -144.527771
109.456886 -73.475533 -144.979309
-74.072342 -74.230751 -145.670334
-56.367912 -73.602303 -145.329376
-54.399376 -73.814583 -145.661377
-42.526676 -73.851967 -144.910919
33.800133 -73.675575 -145.739319
112.244934 -73.817291 -145.166229
114.180779 -74.112137 -145.167587
116.737114 -73.839043 -145.089310
-75.092323 -73.982628 -145.882034
-68.308205 -73.637115 -146.076782
-43.997818 -73.636024 -145.885239
-42.035343 -74.260414 -145.748306
25.408514 -73.942337 -145.702164
36.102512 -74.023933 -145.761429
109.614380 -73.527657 -145.814957
112.467957 -74.070114 -146.003052
113.865448 -73.714600 -145.903564
-56.452457 -73.857956 -145.590973
-53.910759 -74.426628 -146.526672
-54.714535 -73.108360 -145.862656
-44.408066 -74.147469 -145.915024
-42.153728 -73.991707 -146.511185
33.633060 -74.088165 -147.139404
109.955048 -72.797134 -145.856827
117.042763 -73.928780 -146.188461
-68.180717 -74.133423 -146.278351
-44.039410 -73.653786 -146.258133
-41.608421 -73.772568 -146.095459
23.323801 -73.921486 -146.115067
25.236038 -73.671158 -146.675140
35.726639 -73.862053 -146.132462
109.788399 -74.110817 -146.412079
112.168434 -73.927223 -146.956009
113.595078 -73.901695 -146.257996
-74.482895 -74.022766 -146.773849
-71.471230 -72.861008 -146.959167
-70.387703 -73.070000 -146.837112
-68.168732 -73.754234 -146.993439
-67.095779 -72.592117 -147.005951
-55.854519 -74.174370 -146.670242
-43.963619 -73.042786 -146.849594
33.265018 -73.131134 -147.104065
35.502232 -73.941452 -146.865891
109.595390 -74.126007 -147.443741
109.621521 -72.907051 -147.001144
114.062080 -74.196663 -146.898529
-74.314034 -73.930969 -146.937424
-70.619354 -73.051575 -147.673981
-67.688683 -73.580925 -147.313721
-55.677166 -73.879265 -147.601532
-43.652481 -73.734879 -147.554489
-40.887112 -73.753502 -146.870148
22.875404 -73.862312 -147.394073
25.202772 -73.712860 -147.328644
33.689503 -73.892662 -147.593384
-74.436211 -73.987923 -147.953720
-67.434723 -74.006943 -147.770416
-53.637112 -73.999123 -148.249039
-41.232632 -73.998322 -147.913498
22.763556 -74.069878 -148.547852
25.225021 -73.732780 -147.944305
32.859188 -74.217598 -147.864899
35.595306 -74.253723 -147.202438
109.473030 -73.649628 -148.193649
112.756401 -73.953049 -147.976364
114.191078 -74.166595 -147.538757
116.824074 -73.556755 -147.899841
-70.532280 -73.274078 -147.893097
-69.400940 -72.848366 -147.977554
-67.151581 -74.094948 -148.383469
-55.550785 -73.589943 -148.123917
-52.930511 -72.624474 -148.601608
-43.220032 -73.872185 -147.687607
24.680660 -73.559448 -147.902969
35.281693 -73.744820 -148.201920
112.329796 -73.713554 -147.901703
-73.727005 -73.919998 -148.430313
-70.378471 -73.677483 -148.534714
-69.283417 -73.389557 -149.004654
-66.804512 -73.561012 -149.094009
-54.828590 -72.927879 -148.610840
-52.688015 -74.228340 -149.032837
-43.116184 -73.947975 -148.586014
-40.645523 -73.964249 -147.918365
24.525450 -73.723251 -149.338013
-71.801994 -72.512619 -148.934708
-70.367790 -73.484673 -148.899445
-55.027054 -73.893463 -148.678406
-43.209599 -73.991081 -148.570740
-40.040249 -73.452515 -148.921402
22.462755 -73.852280 -149.097107
32.836048 -73.554939 -148.504776
109.398979 -72.786018 -149.085892
114.331566 -73.772293 -148.347778
116.819077 -74.010330 -149.086121
-74.170052 -73.765236 -149.004501
-74.456505 -73.272156 -149.817810
-70.509224 -73.367638 -149.303864
-69.639259 -73.589478 -149.330124
-54.615990 -73.759003 -149.343903
-52.607937 -73.750458 -149.469360
35.268650 -73.951248 -149.154633
109.555191 -73.790718 -149.243103
112.230721 -74.007004 -149.426117
114.015327 -73.785454 -149.487930
-70.136848 -73.898956 -149.748779
-69.352463 -73.878326 -149.785904
-66.482697 -73.838333 -149.840454
-42.198406 -74.002213 -149.679611
-39.878254 -73.530075 -149.791763
24.319530 -73.733940 -149.579254
32.392513 -73.968231 -149.472992
-74.036102 -73.522011 -149.937256
-70.081711 -73.801003 -150.198059
-70.670418 -73.517563 -150.149811
-69.022049 -74.017853 -150.008286
-68.841171 -73.425903 -150.732285
-65.762337 -73.885651 -150.434479
-54.280422 -73.787582 -150.161469
-51.794773 -74.224655 -149.949295
-42.385441 -74.319778 -150.436340
-39.587280 -73.894005 -150.313248
24.439768 -73.673882 -149.996521
32.766861 -73.902748 -150.323090
34.956631 -73.785675 -150.199173
116.786827 -73.739334 -149.982956
-70.420547 -73.938942 -150.395874
-68.935806 -73.988380 -150.720932
-53.974442 -73.542442 -150.643997
-51.580387 -74.037308 -150.844666
-42.470169 -73.790230 -150.253662
-39.567738 -74.279327 -150.555206
22.501127 -73.719017 -150.510208
112.294662 -73.914757 -149.888840
-73.921593 -73.993660 -150.921127
-69.799538 -73.803055 -150.831497
-70.677414 -73.120659 -151.091583
-68.482727 -73.934761 -150.762573
-65.862259 -74.040894 -150.960098
-51.856190 -73.643593 -151.226654
-51.763130 -73.754692 -151.503860
-39.294197 -73.498093 -151.159027
24.145742 -73.696960 -150.750854
34.304272 -74.004303 -150.393158
34.230923 -72.756683 -150.255478
109.481369 -74.042473 -151.083664
113.897690 -73.804550 -150.157333
116.712494 -73.517830 -151.117676
-73.628853 -74.386284 -151.417236
-68.487587 -73.703697 -151.519241
-65.415077 -73.868919 -151.468552
-53.405807 -73.698677 -150.608887
-41.652473 -73.630569 -151.009323
-39.324356 -74.285988 -151.471542
22.092459 -74.153954 -151.675293
24.175114 -74.153297 -151.495102
32.277302 -74.140175 -151.082230
34.189835 -73.550377 -151.474503
109.167145 -74.075043 -151.340347
113.808365 -73.995819 -151.317108
116.885284 -74.005455 -151.630524
-73.275841 -73.735756 -151.895935
-70.156731 -73.579819 -151.942780
-69.976807 -73.231041 -151.513748
-65.313278 -73.451248 -151.675735
-53.141064 -73.987694 -151.932693
-51.178268 -73.940880 -151.886856
-41.091022 -73.405815 -151.590576
-38.416710 -73.879189 -151.998947
21.472702 -73.919350 -151.989990
23.836920 -74.027657 -151.537888
32.230766 -74.233528 -152.079849
108.925446 -73.855759 -151.976074
112.680283 -73.801804 -151.907837
-73.278519 -74.000931 -152.053665
-70.555656 -73.869637 -152.271164
-67.866074 -74.469421 -152.139633
-65.152748 -73.324272 -152.138000
-50.792133 -73.409340 -152.587738
-41.252247 -73.613083 -152.541229
-39.015732 -73.837181 -152.408569
34.349541 -73.699287 -151.944504
113.408890 -74.132034 -151.798737
116.287468 -73.902115 -152.128372
-53.217697 -74.147232 -152.730804
-50.436634 -73.707703 -152.386429
-40.724995 -74.117668 -153.004089
-40.756115 -73.226166 -152.740509
21.325829 -73.447319 -152.832169
32.394371 -73.885429 -152.195526
33.780209 -74.067192 -152.797302
112.388077 -73.805290 -152.366165
-73.689987 -73.919632 -152.808273
-67.480858 -73.837143 -152.603394
-64.817131 -73.692802 -152.601685
-52.915066 -73.827393 -153.238907
-38.093380 -73.950638 -152.684357
32.195427 -73.984329 -153.426865
109.328613 -74.076607 -152.677612
112.135857 -73.965782 -152.938965
114.180511 -73.791527 -152.721039
116.775505 -73.476906 -152.699402
-69.952034 -74.239555 -153.479736
-67.710403 -74.104912 -153.298401
-65.130188 -74.339790 -153.337372
-40.057343 -73.783173 -153.408676
-37.955570 -74.007477 -153.204819
9.753685 -73.280708 -153.329315
10.876772 -73.679047 -153.533813
11.423656 -73.851418 -153.474976
12.104992 -73.109840 -153.320953
21.611662 -73.742790 -153.212051
23.574783 -73.441658 -153.143204
109.075539 -73.715492 -153.293793
113.715820 -74.138039 -154.108139
116.535294 -73.667397 -153.865005
-72.799583 -73.868996 -153.480865
-69.563698 -74.054291 -153.995605
-67.125259 -74.202316 -153.640854
-49.867683 -73.974449 -153.241425
-37.675514 -74.104370 -153.214432
9.585216 -73.756378 -153.878494
10.426252 -73.672600 -153.703781
21.139488 -74.042923 -154.176514
33.770386 -74.581459 -153.799393
109.065979 -73.875137 -153.831085
112.330902 -74.154449 -153.803528
-69.611839 -73.476418 -154.352371
-67.401192 -73.678864 -154.531281
-64.655235 -73.777542 -153.712173
-52.294476 -73.553688 -153.709671
-50.046394 -73.997421 -154.348541
-39.992992 -73.745247 -154.019928
-37.506565 -74.036606 -153.944672
8.559781 -73.485794 -153.650909
9.778322 -73.494644 -154.116348
10.457260 -73.607285 -154.312332
11.698290 -73.450050 -153.509720
12.091278 -73.108727 -153.697891
23.479280 -73.625740 -153.647064
31.813467 -74.116669 -154.193665
33.135902 -73.977348 -154.528061
112.283737 -73.782272 -154.786133
116.714104 -73.644646 -153.692764
-72.318771 -74.084991 -154.629593
-69.380341 -73.996170 -154.366562
-67.542168 -73.910782 -154.375305
-63.596199 -73.697899 -154.366913
-52.014778 -73.770302 -154.521973
-51.739338 -73.678612 -155.193634
-49.319683 -73.521942 -154.343140
-49.046352 -73.604134 -154.976410
-39.882244 -74.251404 -154.597885
-37.214458 -73.776497 -154.453064
7.381873 -73.334648 -154.365189
9.283879 -73.791740 -155.010757
8.400555 -73.579224 -154.805771
11.454334 -73.449409 -154.829483
12.757896 -73.293678 -154.384399
21.023142 -73.976364 -154.220840
23.517475 -73.713326 -154.919525
31.761919 -73.672646 -154.699753
109.195305 -73.810646 -154.012375
113.671120 -73.615059 -154.708298
-72.077629 -73.846581 -154.938690
-68.902557 -73.756020 -154.901535
-66.420601 -73.644661 -155.094086
-39.474392 -73.789757 -155.006912
-37.307606 -73.919197 -154.529678
8.118303 -73.713455 -155.114670
7.756371 -73.521500 -154.787094
10.773796 -73.905617 -154.916824
23.025896 -73.486465 -155.249374
31.420210 -73.785507 -155.639343
109.003433 -73.712257 -155.176849
116.878433 -73.883789 -154.849274
-66.676735 -73.496170 -155.505707
-63.781021 -73.982056 -155.195251
-50.943581 -74.023331 -155.160950
-49.246319 -73.650917 -154.887054
-38.750092 -73.146172 -155.391937
-36.523540 -74.035263 -154.990143
6.714843 -73.399086 -155.550629
10.724140 -73.951248 -155.664413
20.709658 -73.919708 -155.469009
33.606747 -74.170517 -155.537659
109.186134 -73.657707 -155.343842
-71.760048 -73.974144 -155.593704
-69.094574 -73.849136 -154.830338
-68.555817 -73.574036 -155.911087
-66.798431 -73.783203 -155.883743
-63.979961 -73.859428 -156.081390
-39.144699 -73.775993 -155.436676
-36.076477 -73.883347 -156.173416
6.138819 -74.050346 -155.744034
11.419096 -73.706497 -155.463791
12.463654 -73.401550 -156.128662
20.745052 -73.825729 -156.190094
22.772427 -73.786491 -155.940659
31.478565 -74.099983 -156.117691
32.918667 -73.596931 -155.659988
111.900070 -73.888992 -155.439484
114.045403 -73.806625 -155.342484
116.370972 -73.334412 -155.812775
-71.811775 -73.149513 -155.829239
-71.670334 -73.632355 -156.938828
-68.500046 -73.849174 -156.214081
-66.188950 -73.456360 -156.343491
-63.033066 -73.914963 -156.078369
-50.707451 -73.406815 -156.103821
-50.178417 -73.949089 -155.896362
-36.372971 -73.793411 -156.273087
5.656061 -73.938690 -155.737091
11.622005 -73.780724 -156.283005
12.690900 -72.937080 -156.096252
22.722593 -73.580521 -156.411728
112.007576 -74.207031 -155.954575
116.459175 -73.915161 -156.136887
116.293159 -73.876862 -156.506165
-68.422882 -73.730560 -156.229202
-67.408501 -73.503036 -156.825729
-62.944336 -73.933250 -156.292816
-38.849289 -73.655975 -156.309479
-35.690639 -74.143005 -156.409286
-36.179890 -73.249802 -156.905548
5.034635 -73.729927 -156.268204
4.918078 -73.893845 -156.843353
11.389316 -73.613144 -157.000076
31.080208 -73.763092 -156.452393
33.138779 -73.988297 -156.338989
108.625229 -73.640968 -156.177490
111.641762 -73.709602 -156.765579
-68.225975 -73.714233 -156.953720
-67.704575 -73.417198 -156.664474
-66.093269 -73.793831 -156.365891
-66.819084 -73.171761 -157.061310
-47.903042 -73.634537 -156.455917
-38.416363 -73.685410 -156.989395
10.862904 -73.390144 -157.398407
22.891680 -73.550423 -157.452011
31.066689 -73.944931 -156.837952
113.399261 -73.676483 -156.411041
116.243973 -72.889969 -156.460800
-71.179649 -73.717789 -156.893372
-67.634483 -73.255043 -157.386261
-66.553185 -73.248993 -157.443939
-65.876724 -74.116837 -157.682449
-63.124626 -73.969284 -157.292114
-50.558628 -73.764168 -157.463760
-47.764542 -73.848663 -157.715500
-38.232899 -73.812424 -157.239685
3.884559 -73.935356 -157.022537
3.359874 -74.040550 -157.951614
12.684611 -72.799263 -157.487900
20.452833 -74.252876 -156.655991
32.672123 -73.883232 -157.074997
108.590492 -73.624039 -157.603195
-71.322472 -73.707001 -157.478302
-68.053192 -73.916565 -158.075775
-66.628342 -73.765060 -157.525803
-65.275833 -73.940712 -157.985672
-62.529827 -73.910240 -158.431030
-47.526802 -73.642029 -157.727737
-37.578293 -73.543869 -157.887405
-35.337749 -74.071518 -157.843124
10.750341 -73.607719 -157.764832
11.589128 -73.071014 -157.956604
20.406147 -74.132950 -158.584625
22.552116 -73.615776 -157.352875
31.020323 -73.662971 -157.204193
32.911144 -74.038300 -157.989273
111.327385 -74.162689 -157.573868
113.579109 -73.995804 -157.740723
-67.829498 -73.722252 -158.153336
-66.548058 -73.427589 -158.179260
-65.508980 -73.210716 -157.965393
-49.684952 -74.007545 -157.711975
-47.195995 -74.033913 -158.427490
-37.660900 -74.036163 -157.904358
-35.031136 -74.097672 -157.929932
2.575164 -73.842438 -157.999725
10.469764 -73.748154 -157.815369
31.079638 -73.756866 -157.995407
111.485268 -74.321785 -157.949203
116.232109 -73.561920 -157.374603
-70.889336 -73.901024 -157.812241
-67.238945 -73.971367 -159.028656
-66.638313 -73.765831 -158.390289
-62.366756 -73.943161 -158.548981
-48.910221 -74.052315 -158.528000
-37.544777 -73.702072 -158.511414
2.832833 -73.888412 -158.580353
2.901284 -73.423431 -158.145325
10.327750 -74.268059 -158.892151
22.506021 -73.798820 -158.269897
30.276047 -72.638702 -158.362076
32.694988 -73.769508 -157.732117
-70.828705 -73.566566 -158.651031
-65.304474 -73.153221 -159.206696
-65.758598 -73.675499 -158.801727
-62.015469 -73.666840 -159.569733
-37.379631 -73.962723 -158.863846
-34.807377 -74.241905 -159.284958
2.305234 -73.758873 -159.180710
10.420757 -73.992874 -159.415222
9.999807 -73.562965 -158.822296
20.142660 -74.032715 -159.014359
22.461586 -73.700905 -158.997513
30.592993 -73.813072 -158.219833
32.711826 -73.528465 -159.020599
108.549866 -73.916855 -159.075623
113.182915 -73.654961 -159.393433
-67.158455 -73.432274 -159.198822
-66.496651 -73.715271 -159.377716
-65.749481 -73.871422 -159.598907
-46.822098 -74.307106 -159.459488
-37.362747 -74.120750 -159.378418
-37.587257 -72.859970 -159.049042
-34.305935 -73.937103 -159.561295
1.805568 -74.102806 -159.103104
10.025991 -74.086708 -159.520340
22.204727 -73.946144 -159.648972
30.607866 -73.831703 -159.278366
32.250179 -73.981384 -159.533447
111.387863 -73.728416 -158.856567
116.343674 -74.138557 -159.150955
-70.220596 -73.826996 -159.694061
-67.175766 -73.888039 -159.925751
-61.917217 -73.931343 -159.413971
-48.653576 -73.739258 -159.830307
-46.476906 -74.025742 -159.764633
-36.780270 -73.583977 -159.439072
-34.291100 -74.017822 -159.806381
1.165451 -73.917274 -159.992371
9.685723 -73.489517 -159.639099
9.674485 -73.999588 -159.692352
30.553873 -73.936630 -160.147827
108.550636 -74.363091 -159.557770
115.975731 -74.138779 -160.192749
-69.875984 -74.168144 -160.080627
-69.242531 -73.646660 -160.486115
-66.149208 -73.892220 -160.670624
-65.263535 -73.555557 -159.540939
-65.894478 -73.726166 -159.846481
-36.547894 -73.441536 -160.632111
-33.533508 -73.855446 -160.144791
0.790540 -73.664612 -160.010208
9.519725 -73.530334 -159.775040
22.042036 -73.715492 -160.022720
32.195717 -74.033600 -160.248260
108.104027 -73.825439 -160.107849
111.140053 -74.184288 -159.991104
113.116173 -73.892578 -159.902451
-65.922310 -73.771530 -160.721069
-65.580940 -73.611259 -161.080963
-48.862320 -74.352104 -160.019257
-46.429996 -73.853821 -160.271545
-45.557777 -74.059975 -160.949371
-35.955406 -73.801315 -160.552429
-33.252438 -74.086212 -160.588867
0.285329 -74.204903 -160.393036
1.081057 -73.242241 -160.646759
108.403465 -73.914520 -160.628876
112.606430 -74.005699 -160.428589
-61.443913 -73.502808 -161.107697
-61.455925 -73.740295 -160.448761
-47.920925 -73.757362 -160.934830
-36.188480 -73.827751 -161.413788
-33.368061 -73.693062 -160.762619
-0.218254 -73.986679 -161.200256
8.190786 -73.936729 -160.652756
19.785442 -73.891884 -160.393677
30.044514 -73.993645 -160.768173
32.284554 -73.636070 -160.747147
110.792702 -73.855415 -160.635239
-69.191780 -73.323753 -161.575241
-47.421032 -73.764603 -161.400742
-45.085762 -73.865189 -161.556717
-32.804695 -74.114212 -161.261002
-0.017625 -74.008476 -161.439697
8.173142 -74.376389 -161.494247
21.910719 -74.111328 -161.179749
29.695873 -73.961052 -161.719910
32.099770 -73.927231 -161.591995
108.105598 -73.896797 -161.587662
116.024994 -73.601418 -161.009384
-69.300346 -73.766479 -161.434814
-61.539974 -73.654617 -161.369125
-47.297939 -73.695236 -161.499771
-44.771610 -74.047745 -161.883224
-35.604057 -73.873207 -161.951584
-32.531185 -73.888626 -161.755280
-0.718676 -73.723831 -162.015289
7.849213 -73.812607 -161.953720
19.841419 -74.010216 -161.876785
32.033710 -73.825920 -162.205856
110.710907 -73.596123 -161.128342
113.149704 -73.664635 -160.953445
115.740463 -73.639030 -161.873520
-68.492287 -73.957985 -162.115509
-68.433304 -73.849495 -162.368271
-68.422661 -73.364014 -162.209045
-60.789089 -73.374748 -162.448730
-61.128250 -73.891640 -162.670807
-44.520939 -73.987030 -161.986450
-33.007809 -73.599068 -161.975174
-32.404308 -73.695320 -162.490112
-0.952137 -73.860428 -162.176163
7.209997 -74.075912 -161.936066
6.330940 -73.585350 -162.742035
21.911802 -73.926498 -161.760849
108.097008 -73.724678 -162.123352
110.692490 -74.307182 -162.377487
-47.225842 -73.737030 -162.220551
-47.028446 -72.712479 -162.000488
-44.929024 -74.058159 -162.669724
-35.235466 -73.815048 -163.053635
-1.068653 -74.085350 -162.706390
21.920443 -73.814629 -162.296936
32.109531 -74.032318 -162.309448
107.798706 -73.988853 -162.459991
112.428543 -73.709656 -162.236191
-68.135513 -73.490051 -162.717041
-60.743317 -73.917709 -163.438599
-61.277370 -72.706459 -163.120636
-46.627274 -73.611969 -162.729370
-44.348595 -73.656044 -162.692123
-31.887041 -73.826355 -163.114746
6.426015 -73.653564 -162.805374
19.314611 -73.639099 -162.616058
29.690107 -73.494705 -162.937668
29.478241 -72.740128 -162.504822
31.352703 -73.758492 -162.821304
110.746017 -73.666077 -162.430634
112.643456 -73.735306 -162.795700
115.396812 -74.178711 -162.734329
-67.908714 -73.698906 -163.421066
-60.180145 -73.647881 -162.693954
-61.232449 -73.126205 -163.030014
-46.135872 -73.977379 -163.127563
-43.882618 -73.831970 -163.287811
-34.443691 -73.892838 -162.980835
-31.416048 -73.569588 -163.719162
-1.290353 -73.621292 -163.036041
19.154072 -73.642685 -163.751877
21.341330 -74.093567 -163.400497
29.362940 -73.977539 -163.738205
107.496552 -74.018028 -163.728775
110.399139 -73.486137 -163.309540
115.119568 -73.603294 -163.854843
115.043053 -72.769203 -164.048874
-67.685188 -74.210007 -164.198975
-60.089199 -73.760323 -164.350388
-61.100544 -72.932365 -164.119064
-46.435379 -74.075722 -163.618927
-43.704872 -73.919762 -163.582321
-33.787373 -74.201584 -164.057495
-34.684208 -73.836723 -164.031189
-1.791501 -73.569519 -164.100723
-0.602288 -73.249260 -163.939453
5.712046 -73.764351 -164.059982
31.516003 -74.016144 -164.354416
110.469635 -73.918320 -163.443024
112.756065 -73.247375 -163.949600
-45.660789 -72.617416 -163.968246
-43.531303 -73.920082 -164.090271
-31.362051 -73.410622 -164.227753
-2.182374 -74.049683 -164.340240
-2.205467 -73.723663 -164.309921
4.764280 -74.433594 -163.767563
18.805552 -74.040787 -164.551971
21.129509 -73.921600 -163.952271
28.869993 -73.940628 -163.986511
107.862030 -73.827484 -163.958252
-67.191902 -73.605148 -164.734421
-60.539665 -73.700493 -164.792114
-45.546005 -73.991806 -164.360596
-43.488808 -73.801933 -164.924194
-33.791061 -73.757103 -164.580933
-31.089705 -73.963539 -164.551208
-1.829661 -73.640923 -164.774811
4.840334 -73.793556 -164.149948
21.453070 -73.795395 -164.806580
31.266586 -74.072769 -164.278473
109.972633 -73.571732 -164.762680
112.365425 -73.763489 -164.323334
115.368813 -73.934387 -164.157715
-67.381569 -73.629410 -164.914642
-60.308636 -73.775352 -164.900833
-45.262535 -73.700356 -165.297913
-42.750938 -73.766106 -165.309921
-33.791622 -73.862701 -164.427200
-2.599465 -73.704605 -164.827332
-1.540823 -73.062630 -165.004105
3.694315 -72.567848 -165.174942
3.825476 -74.053978 -164.930756
18.520220 -73.693680 -165.293884
20.821432 -73.833466 -165.112839
29.157459 -73.836235 -164.958298
31.472383 -73.939079 -164.908310
112.336586 -73.585953 -165.080475
115.491043 -73.892593 -165.293991
-66.903427 -74.022552 -165.169403
-59.534424 -73.717384 -165.983459
-59.845509 -73.520882 -165.339020
-30.582125 -73.752937 -165.206940
-2.541294 -73.871597 -165.446365
-2.436831 -73.393616 -165.732101
2.102531 -72.884392 -165.004761
3.359260 -74.257622 -165.546066
2.710067 -73.824516 -165.607452
2.759417 -73.704895 -165.496002
31.151817 -73.581253 -165.851318
111.853615 -73.988052 -165.490097
-45.261826 -73.135536 -165.543411
-44.712421 -74.247955 -166.120316
-42.253281 -74.063469 -166.261948
-32.985821 -73.800652 -165.564133
-33.499554 -73.713226 -165.022156
-30.697378 -74.126503 -165.520538
-2.877293 -73.177917 -165.466339
-1.737169 -73.213707 -165.913284
1.843359 -73.343330 -165.342575
18.555807 -74.321533 -165.641388
20.791018 -73.795532 -165.950882
28.972721 -74.156616 -166.174286
107.536270 -74.100060 -165.461761
109.975800 -73.562378 -165.866425
115.488426 -73.838806 -166.541504
-66.200928 -73.892136 -165.864624
-59.018158 -73.931412 -166.116302
-30.329504 -74.044662 -166.117096
-2.517586 -73.849663 -166.351563
-1.579865 -72.924278 -166.161316
-0.840201 -73.249458 -165.860321
-0.311433 -72.927094 -165.717957
0.941013 -73.152046 -165.735077
2.102299 -73.975609 -166.430557
2.152071 -73.231712 -166.469284
20.646122 -73.790344 -166.082489
28.508245 -73.948166 -166.906296
30.958990 -74.190086 -166.544968
107.156891 -73.743591 -166.335785
112.104301 -73.627136 -166.112122
-66.583397 -74.051170 -166.424408
-65.259392 -73.223732 -166.808990
-59.345615 -74.133888 -166.545654
-42.053745 -73.498253 -166.695313
-41.945408 -73.699585 -166.984756
-30.007982 -73.941582 -167.115524
-3.905840 -73.790962 -166.037811
-2.996711 -73.432297 -166.476257
-2.138734 -73.479340 -166.863937
-0.865601 -72.955536 -166.591766
-0.010675 -73.091652 -166.354004
1.140374 -73.316856 -166.807007
18.041458 -73.854462 -166.418350
28.549122 -73.842194 -167.152664
28.676748 -73.000473 -166.793762
107.338882 -73.610603 -166.731522
110.335289 -74.127243 -166.104767
111.695938 -73.818939 -166.520386
-65.862022 -74.137779 -167.384552
-59.531013 -73.656456 -167.086151
-59.538361 -73.126106 -167.135315
-44.762508 -73.667305 -166.578552
-32.176823 -73.366379 -167.688644
-32.447292 -73.707138 -166.751389
-2.297306 -73.732430 -166.884995
-1.446247 -73.427422 -166.832733
0.916527 -73.880753 -166.755814
-0.204700 -73.269035 -166.738037
18.415754 -73.609657 -166.953979
20.104189 -73.653030 -166.965027
30.307943 -74.087875 -167.276138
115.011459 -73.748833 -166.561203
-65.023018 -72.751328 -167.157745
-60.524014 -73.180389 -166.927963
-59.086098 -73.578644 -167.503555
-44.508770 -74.183517 -166.967270
-41.592094 -74.040932 -167.101227
-32.925835 -73.033562 -167.292450
-30.085201 -73.755646 -167.393234
-3.063724 -73.663635 -166.907944
-2.680242 -73.430756 -167.510284
