# This PCD file was generated using the MATLAB® pcwrite function
# from Computer Vision Toolbox®.
# .PCD v.7 - Point Cloud Data file format
VERSION .7
FIELDS x y z
SIZE 8 8 8
TYPE F F F
COUNT 1 1 1
WIDTH 810
HEIGHT 1
VIEWPOINT 0 0 0 1 0 0 0
POINTS 810
DATA ascii
13.090089643231199 -235.563237669655621 68.292537332150758
-17.874376686232708 -235.599659778835104 66.051411169236275
7.870090944369885 -236.207045434444154 68.073652128740079
10.880559022433445 -238.136298858441194 68.380839007082898
22.062412397078802 -235.340295780350829 69.503509858604900
21.589924523778571 -237.647540206664019 68.287980738025993
6.498868143122644 -237.125209929831641 68.600205391884970
-18.448862209796470 -238.496727746253669 69.807316065320535
24.417303410963235 -238.642771529751030 66.839305135953623
-17.737981274729400 -239.712940784942759 68.218656506997007
-15.726281277302144 -238.194688432099497 67.685071222955102
7.679286963543428 -239.767208206130817 68.574065373660218
23.778558707122745 -239.392034091100555 67.805655417267275
-13.699483303537928 -238.753144712798331 66.666946022340724
29.745375181484579 -240.466114734565508 66.715069358526023
-15.342227799739048 -242.495509001529143 68.640727947770529
10.269311969654224 -242.449117556673968 67.813591479827323
8.122735251075582 -240.450708919843265 69.844472025152129
9.026542847711495 -240.858184223531111 67.176004478179550
28.554975476319839 -241.638210287715907 66.657332653768947
29.262419502271104 -241.241407602328252 67.136152943996933
-14.329846189349716 -240.466143445685475 68.451037041426432
-20.487890929480837 -240.671204161106488 66.478223989261139
-16.572808436533517 -240.372271661342126 68.040103865878365
11.902098303917343 -242.907749364598573 66.793605003118103
-13.681406517986394 -243.587880856200655 67.491630915626729
28.323384712030144 -243.124939743342850 68.609817057821374
12.393090968071871 -242.670508507025261 68.324536164201760
10.612955242811980 -243.203410214435735 68.365827106654592
26.763320749948385 -242.376265627588936 68.744508034503369
29.073339945489099 -243.380172982452507 67.202274543700781
-17.521561757581406 -245.422928326357095 67.556518853232745
-15.578177841106058 -244.011969465524686 67.331201507174086
-14.222196313346442 -243.882959494405895 70.655402593800076
10.799505879122510 -244.393520792141544 67.816427705192126
27.294396606910954 -244.327868160589560 67.684903737792453
-19.591293611195908 -245.530064963130172 69.267048130889791
-20.060844936958574 -243.853162469218944 67.217617194191519
24.374661657624458 -246.211439762414784 68.663829182340180
27.682705744988525 -245.025037726481941 66.167225382838780
-17.598040556658344 -245.922910106625721 67.439675602671429
-16.093655226505607 -246.838179698587282 68.137967623883412
-13.424190159200061 -247.234454718612938 68.972784229764301
-15.255090164391914 -248.220281917991372 68.408704531437166
-18.574726336362286 -247.425806700251997 67.580948824774964
28.081420408517534 -248.691061561576475 68.822911631408104
-13.352996722664825 -249.077954940547102 68.530958856593713
14.510346087504308 -248.080366447166682 67.489062424500389
25.393421501817731 -249.798267610616676 68.337621120284155
25.699616627662127 -250.177607422730944 68.069257850809393
-15.011900461429482 -250.170132894056110 67.786845767606465
13.494043234973160 -250.931938588785897 68.442117474741195
26.057408600078901 -250.574478511380903 68.927665560385122
26.377277876374347 -250.440668057536300 68.869645118350007
-14.625959601149818 -251.592948161856896 67.806537384646731
12.835432819483291 -251.194859792241914 68.507548734161048
27.268818756996399 -253.458465501672833 68.500253251514678
26.621665667357824 -253.884645626271208 66.870955869664783
25.560219576047036 -255.186000895593395 68.845997953561138
25.685874254489761 -255.062710800062860 68.019655829511279
26.955320246174015 -255.413879107273090 67.039162173517042
-12.750243833158981 -254.926177082684603 67.777482797828441
27.887543854578198 -257.238765255338592 68.416383577513258
-13.880165356714905 -257.491512671126145 68.583498416768620
24.044775342847487 -257.921366377068864 68.131116512440883
25.510025308387945 -257.312446151461359 67.837602868798427
-14.525603111817405 -255.824518142782381 69.741738827805818
13.885147466569251 -257.513065736147496 67.083057380117424
25.179996936602311 -260.128942013214157 68.013273058497049
27.494661710200766 -258.210312020183039 68.095654300168135
24.383533732130346 -259.204053456618226 68.802417720198406
-11.995357552111669 -259.192652844582597 68.571158086611760
24.304515504885025 -259.885108325634917 67.155303792305276
14.701535592917748 -261.144277806487366 68.357482399792048
25.607946805343822 -260.491835518956123 67.805603802793001
12.936167807841056 -260.706181766696943 66.752602012275332
25.423646073221512 -262.040425094522107 67.568460551789613
-11.781793014368338 -261.229321629525316 69.553578989692426
13.501688489044575 -261.304599161648753 67.890738616404178
-12.048278919956363 -260.871763335680384 68.896609236224748
27.901327190346869 -264.068108472767165 65.648201148578622
22.613871744343744 -263.773145432622471 68.128555237252442
12.331513253539146 -262.826991972831252 68.249337113137528
-11.198511161999944 -262.479893346952167 68.238150257985751
24.552289627231836 -264.512630768147972 67.165054783540015
21.412374553370324 -261.983249233475817 68.936328116535989
25.241420491133734 -265.209809781195759 66.719512652733755
24.844051366598105 -265.222620470264872 67.726866465127657
25.604803012985705 -266.392343015224867 69.665968461418146
-11.924397965725344 -267.507504814062543 68.579187329959893
22.151678294940780 -267.205138466567348 69.597433565039239
-10.195964120456658 -267.724792985092563 69.077018978863038
23.712616810510507 -267.965134479869448 67.816239243733861
24.991040765171871 -267.179492731401979 67.285426606395049
18.416026728987667 -268.261953482701017 69.014658082420965
22.582941444877978 -267.463025772585183 67.558918618404149
-11.629562729766826 -268.338455888706051 67.785957828364076
13.843839593933897 -269.147673685663904 66.487373325787104
-12.065916591392869 -269.316015830188235 71.830984604534152
-11.234114723751421 -269.884402746720809 69.024079623084646
-8.170186759909786 -268.657294598908834 70.195404100311180
24.528720400682900 -269.361785121486946 66.675760942052676
24.291687432766473 -269.425161908935138 67.000080400587706
18.185575588697450 -269.808638649034776 66.289265678679158
-11.266956668321011 -269.364918692766537 67.676712924560292
-9.447829787969821 -270.522326905148304 69.491515759286315
-8.234557016772435 -273.023372987864207 71.199610666346857
12.446918793465088 -271.284161182921821 69.500380276086858
23.445921995720873 -270.709812903147338 67.934973535923561
22.443145261462021 -270.685280443216129 67.440286241878880
23.235296654296242 -270.053430162696998 68.824064205354944
-6.185059306648534 -271.700339774101110 68.692081828693034
-11.159053210786261 -271.816677064321993 67.036984865170325
12.323352164421875 -270.934623187177351 67.814742047002682
22.984853285318003 -271.519345856446591 67.736754774714484
-5.852239371763555 -272.799100966034757 67.907558447130839
22.553047775618499 -271.515472416013324 68.030513103879812
-10.037254362971332 -271.821652652014166 68.918022668780097
-9.128415747953651 -273.105617039919764 67.326085564867469
16.019986832134276 -272.172203695705036 68.652892574157050
21.287600763102695 -269.988533283461152 68.805535801626590
18.895855061371456 -272.774560861582074 67.243414561128660
-4.232622802926562 -272.382124064674144 70.552363628183997
16.097654738688373 -273.447845226654977 69.915248622577806
22.711289211683063 -273.747329168442036 68.306707975649545
-8.124843721884956 -273.479060761420556 67.187880653487525
-4.758642643350306 -273.396742263261160 68.512320182450594
11.457900611918715 -272.949767694874311 66.782607094858434
14.967633670408086 -275.105487016645611 71.203651603549034
-8.092536580875104 -274.223883707192897 67.393612264847576
-3.787659092004661 -273.852789746196208 69.622129165708060
19.542929154002017 -274.771600202388925 67.297763530607625
-4.974409466766515 -275.840430317442667 69.408844805316178
12.410062018875584 -274.990090160364730 70.444984604063819
13.814410132266797 -275.120542479509481 68.687503116234581
21.472007184755533 -276.131033221307177 66.691337715869352
20.148515960418361 -275.639276322357830 67.250013225823380
-7.762795889339160 -277.185198302243634 67.872306816810877
-3.164023178408816 -276.926334220677859 67.443031525650667
18.729370131609830 -276.307477150000636 68.403544085378485
-1.190110939911891 -276.122964399070440 69.018614966826362
-5.741178138469038 -277.262867759026108 68.401929245738415
-3.978029210963252 -277.747765996474300 68.172778627707999
-1.189305287557622 -277.279950652969603 69.754886849401231
16.377695300366781 -277.385738918207949 69.099410650385892
-4.314785258628200 -275.982358679335562 67.294277179221197
19.632038297602868 -275.151302530278770 67.052582145754627
-1.689284547599197 -277.965336061895528 68.503279963406015
-7.058576137500860 -278.456481596062986 67.136014023729160
-3.771806023540850 -278.548668754702419 69.571265317341542
17.216958535427796 -278.476669931204754 67.029719274737346
-1.058062198959775 -280.050386698225282 68.357217121819161
18.668731244173024 -280.224963594578981 67.655103603133242
-4.078514337668470 -279.175823124609735 67.077813414652240
-2.263960023519515 -281.328917769631005 68.788423766124680
15.727120512700839 -279.635115766651211 67.228007413299935
15.186971822944496 -280.361819006755411 67.362976714402720
2.681045889230165 -278.631590591790768 68.711407388206794
16.714978666681823 -280.527117680056506 68.540643656691998
3.201814778877539 -280.914854071569437 69.094948279925774
13.756255460296071 -280.331708599719548 67.425043257474442
-4.408589966869625 -282.155975426598332 67.281529750580475
3.257316297414375 -282.703386845596754 68.416846567045837
10.422619652720154 -282.668541610575915 66.182805501962733
9.653631051138351 -283.346529160506179 67.749042274061381
13.328971284668565 -280.969077104825146 67.623334450934607
4.325387002968224 -282.653199969479601 66.443774807705282
8.539582715027038 -282.729685405425698 67.402027889346840
-0.116177661892189 -282.750728819212441 69.458729266342786
5.051681442487423 -282.065244695324054 67.382536515173740
9.016346173691291 -282.803557117475236 68.817346338551076
10.264047859077552 -281.427313096332625 67.396070690442485
14.955541210904110 -283.607670395616026 67.563642514572535
2.359422284480329 -284.705353686669071 68.750625365719543
9.156753542034519 -284.428924339261641 67.947516351064309
5.883616171568113 -284.561199950180139 70.690828176666741
10.126254075010912 -285.716432642210009 68.814258754176393
32.590214616272064 -1.511468911871773 66.302826120124877
25.745805839611400 -3.595359055431713 66.991104642835595
44.767197433727425 -4.643017117386595 67.124629072100234
44.610387683211762 -7.229313445711977 66.349886345314658
23.616313041162936 -8.086903396050268 66.397283159104177
25.629197428260088 -5.681309881959319 66.263254856785437
32.454124916386149 -5.771478737643005 65.731759044077705
31.786158271820099 -7.486818323766091 66.306056511585794
45.936483827362352 -6.844471371983847 66.771727674700657
40.656837462476290 -6.184798341931835 66.810859290948940
46.743442208414862 -8.800171983506964 67.267763539657636
40.387377898204150 -9.316119519562623 67.128557224497655
48.349035985534890 -10.174219491968053 67.761282176831372
46.312944452803166 -9.252277544329989 67.029058574215014
41.960317462213851 -11.571995286911189 66.969263723947378
48.718203721547070 -11.123580063224221 67.842785871873303
23.762134187880520 -12.558540021567527 65.867042587633605
19.248127169123610 -16.203061466697367 66.481796804090465
44.200867163262231 -17.906042094583356 66.739035931128967
19.875785244506666 -18.426988189339745 68.294910516333800
27.023928371644857 -20.083737220546773 67.466000146288579
20.206114321047899 -23.448647086077997 67.174123489929428
20.648178964141188 -24.130824642261040 66.603134938160309
28.051216005365355 -23.970107103648473 67.802836379769857
29.411413880314836 -23.951360210261285 65.215469730567662
22.750739176992560 -25.457025792500779 66.500954604961294
22.607517770422842 -25.493395866980983 66.681823119367635
33.440432456044796 -26.525396610083185 65.837787896835039
41.970488108275433 -29.661647476351504 67.117263483276133
-64.420056560280756 -33.058285143097173 66.344190291966925
-75.564681685807813 -32.498932190139861 66.577058922817287
-60.363363002762121 -31.932776873883974 66.255378786815712
-52.848413043098475 -35.353241595967781 68.008839483560848
-51.413130161788835 -33.913799896420969 67.890704723462179
-79.726526454099371 -35.195545085887822 67.153357701407927
-81.723194719499446 -36.789573229122055 67.212427791019905
-48.068830473585187 -36.694038778617418 65.346195231678053
-43.856486506988773 -36.965707579584723 66.650245338920939
-85.714917069910683 -38.934026978123804 67.252780487448874
-88.055086252584175 -38.176301538299612 67.466891862802441
-41.761559678704536 -37.304258363655947 65.408419960724871
-41.488202822101591 -37.942334948761832 67.478812871077551
-27.916849720225542 -39.889791638586679 67.014104495550043
-18.342817787534024 -40.863404554589657 67.316223530251051
-90.845565626904047 -42.269434573320986 66.881413462111482
-92.668037380799561 -42.198113572306966 65.820261167418181
-92.247300683836997 -43.035861860600008 66.043838588683371
-9.582409928263930 -42.678226797747172 66.046383000552510
-8.344811263653487 -43.422311023466889 66.976547951530733
-92.537091054226124 -43.799014997503903 66.879407075779412
-9.178080863236213 -44.588422860085366 66.260480761996220
-7.983137026981092 -45.904934834628911 67.291387144295925
-93.137840439244428 -44.881042238481633 67.352552607078238
80.902922521660429 -47.307754850195749 66.294827730144974
-8.645163971366797 -48.093807225476418 67.184937657010067
80.765494472116316 -47.333474012776513 66.468237431709014
-95.089908263522830 -48.322501991271970 66.944039193384981
88.627685715386320 -49.640872851582053 66.263113752557487
92.257519850004513 -48.493183034204606 66.044505868049995
76.673959516973881 -48.127439327367952 66.713504587525222
-8.842237692969608 -49.500900650013214 67.036130716067419
-9.521201239755232 -49.669259275416628 66.339474018791947
92.425623595472231 -49.737217069671829 66.218931696750460
-17.107775323643846 -50.025265220782991 66.945819428104841
70.064553723605229 -49.324608986350214 65.943674625990667
-11.302727762141606 -51.361899954415719 66.149157176537130
-20.362026132379498 -51.407468967987654 65.741541231843499
-26.390064275214858 -49.836230124616748 68.269422945080905
-26.947792730382954 -51.841332166581559 66.761121669068800
98.356603055720285 -53.359119385135912 67.548778952523890
-61.887904378723015 -52.795091208445655 65.973219040592113
-30.154825605863202 -51.965319370392088 68.963818914598050
67.888049294875501 -53.011866464128865 65.852455250837735
99.267837024501063 -53.328361660158116 67.060153969668448
-64.899557208523518 -54.727639407229773 66.988219317909710
-66.085733881671914 -54.263150753571821 65.605593165229635
100.586512527756938 -52.913960674826463 68.485073727166153
-61.299284232349805 -55.434222743490025 66.851744783253594
-31.319413279417155 -55.368480043291470 64.876909627903231
99.778758983378737 -56.891114175916442 66.114097483768873
-61.293219329106179 -54.447252417992544 66.448946458380490
-59.948873476636201 -56.511047058277782 65.097973917075848
101.700786526288113 -57.901891203436890 65.782586482909977
-66.382486139490339 -56.857859106048195 66.320589298799320
-62.965442997092332 -57.775783336411266 67.018734970322186
-34.491750954913542 -57.997663981833171 66.772250177358131
102.100682702698052 -57.500301931470858 66.258912050057575
64.689156722558167 -58.846556551994283 67.000625469939806
-61.407086742633183 -60.888506169225380 67.498205203323693
-34.358621089381323 -59.758014585096006 67.074940213755795
102.814530948748484 -58.929086604332710 67.325856109919570
63.532379837636498 -59.079648066467314 64.225961966088676
-63.467410349618376 -59.477967372721082 65.911450715666376
-100.437205609470013 -60.239010801771201 64.241624625623743
-66.027801936489226 -60.216241557088395 67.947267133887806
65.371391361833190 -61.328053014823908 68.103666667551323
-62.288376773769414 -61.151979176059911 65.174576104698289
104.408009449095729 -59.823690949450096 65.858256506768399
-66.259739530214517 -61.470556773008639 67.662820770904318
-68.140269105475355 -62.380902284262760 66.080069496260933
-63.205176436980707 -63.679693654601266 65.402739467361982
-35.158178551411517 -61.610036443400460 68.235172127839007
65.665858449811566 -63.519808018339788 67.295913372951986
104.283653267026679 -64.562771049603185 66.782407061261239
-38.870402821375123 -64.158055594066184 67.164695888131988
103.259374415497817 -64.668875468783952 66.515613880146375
-38.079478899774692 -65.783037765415102 67.857929627017455
-38.155262827441952 -66.588783922152160 66.470031467709191
-100.758297763240023 -65.634546993273275 65.404314374347280
-36.454103504761278 -66.867912472716625 66.775995954005808
63.428286573615701 -67.336222269983836 66.706902636961431
-100.910034943396880 -66.678544164417232 66.773688443800722
-47.106546298456458 -67.987557606192865 66.141680601163287
-45.952821805733002 -67.231989268101387 66.553996513119500
-47.947172088767189 -69.465641388938849 66.774991492800638
-47.073810881140169 -68.424103392107554 66.943701891894932
64.357793729261431 -68.027000243106315 67.748367690605022
104.447402917339943 -67.009145752844745 66.817737914107653
81.885661245308199 -67.881141733964398 66.027319651566017
82.721489852755454 -67.495467645638570 67.321972673791493
-49.296329072659269 -69.056502370903189 66.852448613468411
80.662787736179695 -70.453372287234998 68.060225793818972
82.887494406497311 -70.466784165388120 67.917226714462629
84.764109901999490 -70.444347139661843 66.925946971350598
78.039444980586993 -71.196912111476863 66.119225396620351
84.207915653137547 -70.388069869797931 66.487422677660277
89.345050628185888 -70.688384045721946 66.139043683536727
105.426572174836480 -70.779816658703112 66.722716085709465
85.351052534103474 -69.434840393058792 66.140697569287781
63.305546167702197 -71.313755656025648 66.016720444377341
75.315464785630780 -72.089871016098002 65.565414186267191
72.441008378997154 -72.024115891784135 66.644876906635602
76.366506490031512 -70.289597613001618 66.717991439749795
90.675451668106746 -71.829311715501163 66.798171956527170
-53.708212735338208 -71.173964519197028 67.452647048489808
63.460002077765466 -72.890703423813250 66.716438911366865
88.984366179598723 -73.469381001097716 66.849580109576806
105.962517100761474 -70.507380287849529 67.358909303896155
-53.210186490441011 -72.766064748049004 69.760479457574888
64.179233832141819 -72.644670483019254 66.998360852257434
75.462222965858217 -72.733287846063462 66.267415367720275
-54.364317301627025 -74.820528854419933 67.559903801644424
70.969201919257031 -72.267869540551246 66.218248115067468
90.619752288201198 -74.275245191231051 67.231966424913068
90.539236337335126 -73.486760965367594 67.593337390217471
106.089927185666852 -74.178484705958823 65.223316402956598
-57.140972312022029 -74.356455510354152 66.815158219942077
64.904241584297878 -75.399448420982750 66.945693803688982
69.826868557791926 -74.591150577191513 67.123722086513538
72.713166155804075 -74.417591949886798 66.727165872673936
104.234379711676866 -73.556557374765333 66.165354554127617
-57.532329152006966 -76.240566502943224 67.270692453642610
66.639502626904260 -76.301547723553952 65.760123466269903
-101.212965667858697 -76.014391319597522 65.817473725339482
64.233272342147956 -74.195658090033490 67.231819988159856
64.263796482443212 -74.903634328499592 64.925110501944005
66.021973255364742 -75.200099121193503 66.257685310623827
92.996611502453035 -77.085515931799094 67.209168962004682
103.999455989467378 -76.321789382408170 67.450455447987309
68.554978762266074 -77.693414382580173 67.497867164063706
68.368969388854865 -78.641712541312231 67.540821968323030
94.682437173656623 -76.406452659871320 65.454334495318392
93.569277671192964 -77.127514142554290 65.737538119942883
62.098102198833772 -78.049669870555604 66.427151673072231
-63.987130149768234 -78.004265277936966 66.497600723263503
-101.958417518154050 -78.517136661879164 67.219667912471735
-62.765842036060540 -81.420213488730028 65.889042656463630
65.855724529135756 -79.867202238250982 65.832166083197990
68.722968269874173 -79.578036414985917 66.841524433697657
67.609001166146683 -80.383501154974596 66.943037405865596
103.787197646815471 -80.355300546315746 66.238702526024184
94.443795937687611 -81.997154512693427 66.998361230616666
94.564055893284831 -81.253303835436370 65.418560254478891
104.601824885170515 -83.526024516491930 67.130423332601026
-100.470000299845239 -82.336386132896394 67.853983275451469
-66.702925886053677 -83.527478392166387 66.761571261908159
83.087343805363844 -84.402682385448244 67.039916674298098
84.574783785957322 -84.152753125284988 65.994931686493544
90.732154824311820 -83.251416553472382 66.437913642540195
76.226616063846052 -83.827269881907228 66.571428497122582
87.820478080586454 -84.684587917489225 65.803582004263518
92.040634841622563 -83.781358068636180 65.690327411594723
75.218158279142088 -84.609084780372982 67.328379261214479
74.098495477098197 -84.160805864083969 67.075443460610714
91.674108940723684 -84.712175265434070 65.522151238861682
96.970241961822111 -84.617186521941719 67.379251726479566
104.141626514812131 -84.423831964184103 68.197726321551841
96.060062237366679 -85.126832872607537 66.403756452584645
96.575426955395827 -85.642612595752482 65.666510771052501
95.531761936823173 -86.744254853453612 65.653427682827399
-69.390658839977689 -85.618358795602333 68.546676919955814
69.114640677757194 -84.148741052561135 67.012989088383208
94.469542867631418 -85.615983261568545 66.965839202849537
69.122470808801708 -85.088982676794799 67.430634973300130
96.076647068189345 -86.982118425742641 66.567797390582101
97.964130277900111 -85.883793975056761 65.827209734457796
-71.195583656798007 -86.204821547480947 66.789689280272967
68.174714687144430 -87.543210535319943 68.315262349294755
97.004123093011430 -87.792937825400614 67.711767307243008
97.554124750486409 -87.783273061497724 65.874055070480068
63.234149589163444 -88.643827282079073 65.965814192064045
95.373466400105670 -86.650848288483047 63.505549194811678
102.715802482826774 -88.972229471754645 67.097553015592254
87.913484398533271 -88.498564165110906 65.866590648631544
-70.904208611206371 -86.940468696241410 66.150495447918928
84.147857575103259 -88.794468117412990 66.122806610507098
89.498960681907093 -88.896697991753555 67.795458782129728
91.179510768293412 -88.542197094546793 67.991514332928062
94.686142669502530 -88.681359228681401 66.828737043182258
101.176217375517709 -89.048289471220727 66.920814103677799
60.727547900915361 -88.502326068521810 66.178213176717179
76.961288781034042 -90.707900505454177 67.570188571198003
78.022193504636746 -88.872222423772868 67.231720633336181
73.802304180173948 -89.334971061836583 66.090446449793788
99.468303073554978 -88.017050133150931 67.477547490528977
57.699983882559081 -90.518265585674229 68.549245097038551
73.023362278941491 -90.470951949719307 68.032328185278573
101.145222749975133 -91.520460294616370 67.575925691220590
99.973575719409041 -91.760957640327177 66.903817522501811
70.828699624202997 -91.306608872997217 65.709227104191342
99.090946865577877 -91.008857363827659 64.405014565134422
56.611816679504479 -91.434850374637648 66.455462978439243
66.485462480045754 -93.287100814206369 65.357587016786312
97.228878954619475 -91.216515979729863 65.610147574134146
-72.798791611990069 -91.762403098171603 66.237968926351428
99.608159980243784 -91.232890596408652 66.446985671174161
67.289889283393563 -92.127829387931840 65.316538243513094
101.317715716107031 -91.365954106308919 66.619509702424097
55.077670960526795 -92.298397121947005 67.149258965026647
64.625932797798896 -93.568207227602457 67.959568673923400
64.710517523421402 -93.762485931260400 66.005479278018512
98.073411310736375 -92.549004587342267 67.567570597396298
52.239482496129511 -93.829163198546397 67.187244379473626
63.059130161960390 -94.416586092208107 66.665295827939673
-61.928732024874591 -95.929028621890083 66.337950530511577
60.916572833180908 -94.632800498598527 66.649996415382248
-63.133433692057949 -95.408957879454121 67.323005290926261
51.908504226994275 -96.109516997879140 67.207304497665888
58.894674014230119 -96.912295711572426 65.920334514875265
-76.431629924839896 -97.852354116373746 66.843350991789094
-61.713515857817498 -97.877282728271965 66.000480465373300
49.778311682042201 -97.893833846520408 67.097106990994661
-64.012746171125528 -95.442554400829849 67.164061298103604
57.315660279199143 -98.169992259770808 67.448096056921315
-74.469370314995018 -97.580140478962306 65.725826686955855
49.403823758765341 -98.065509805173363 66.280158504375905
57.132204317081033 -98.230896715935074 66.691551210778726
-70.580182945936428 -97.110474853891304 66.898121663765579
55.989914012747484 -100.019953164398260 66.035567275616344
-98.335569391821878 -98.964037005578362 67.389918655063099
-73.820392504643991 -99.421852671191658 67.478306647975103
-60.364133194285706 -100.730927678985054 68.823061002660239
-70.537742013920322 -98.957736408911373 67.102215154107640
-62.370336869196642 -98.888495980037817 65.926150436749253
48.343773719006826 -99.555528645613947 66.342244927656452
-77.348037216453008 -100.865989640117107 67.428487797701507
52.736720477732064 -98.480727495029114 66.066098733627044
45.961542963773176 -99.770647359671031 67.412694541658453
-73.464499884328106 -101.387744257787972 67.675121677800647
46.603195707982358 -101.853314930537081 65.822164230316844
47.017402386438981 -102.552967195966147 66.263314317181951
50.792826608165463 -101.363897431706249 65.219915197154478
-75.864304262991993 -100.554070475273988 66.445118312826878
-70.436019957660207 -103.026559768180931 65.539985600328322
-76.669375510603672 -103.234673775116178 66.746854742862354
-59.088581842781295 -103.907725473414615 66.590432796485914
45.562561972050887 -103.618146739247109 65.447743838425680
47.852942134166611 -101.021658260252750 65.525278840285651
-78.469907159518016 -103.434115476036695 68.045600988765557
-71.779551684323735 -102.801248907695793 66.964570110893078
-68.631410203323583 -103.319230858242420 65.628740224484574
50.395029065214118 -103.934002529652773 65.360483611647709
44.721992502290263 -104.404005702002777 67.248654738168284
47.644386136374443 -104.344280254336240 68.482978655914607
-78.247922415647594 -104.681999668344844 68.300883177568181
-62.502295000575295 -103.602920887940385 66.403263408627112
44.916197229343304 -104.668021662150636 66.774480141984725
-98.353528266642599 -105.604838154352066 67.752569747218303
-59.559374559527491 -104.356109942624528 67.458960462256414
-70.006504530778486 -105.398484425444963 66.367057906854740
44.573525243891005 -105.031994126587776 66.177310665170722
48.117803574930740 -105.625123744062705 66.618590225263830
-97.079556092854219 -105.370779373518417 67.790789218831293
43.563014553293911 -105.528099930817987 65.664552556978805
-70.729759968736374 -106.569859041996764 67.772879533546103
-68.139909641900289 -104.641981660230229 65.671445135266850
45.776458826125065 -105.058818157157219 64.396373150148705
-80.947033081064589 -104.700934873957721 67.995441924224821
-63.077795868233515 -105.462350866948483 66.759269299966547
47.958099790287186 -106.202451473704784 66.671593099493606
-95.357355079343051 -105.703262117848723 67.243527728299767
-61.798100863921057 -106.011652638140504 67.488258330452112
-57.030756636820321 -104.161859465581628 66.829294369866830
43.060721262502980 -105.979520884322213 65.647928357906210
-70.541899924302086 -105.269217237685581 68.056769796936635
-64.970939646843590 -106.767012313597604 66.185740317267516
-83.990121337902238 -108.898630043606531 67.798683825286318
44.685638835276912 -107.897489982094910 68.662734906121671
-95.468195657095777 -106.839772473473587 65.246606393388376
-66.702350710177029 -107.924314039661084 67.701530021025633
42.072516002915911 -106.900183161725792 66.380910873476736
-96.348216622408401 -107.753888171082011 66.700400134501365
-85.197225112118460 -108.458978373649700 66.188782419658949
-64.873259672703512 -107.955340022783432 67.631367501649521
-64.652535638593690 -107.896150515330305 67.926273045507443
-68.730561766940852 -108.406169300196098 67.537159749170257
-95.461687795124021 -108.531739297217698 67.715952918549874
-85.143804277877038 -109.959951138903989 66.513708035385761
41.660490526316892 -109.015759165960660 65.822702985203932
-59.592929674115439 -109.593526523283785 67.078246570785353
-69.867459239708680 -110.149356303085867 67.543476302661333
-88.226384677082052 -110.508378695670885 67.406545542799577
-90.382614174676547 -110.439099251689498 66.487227763544709
-58.585313867482057 -110.358618280988381 66.470994537215887
-93.790494426892209 -111.067907788305476 67.405033112678893
-66.914567380507819 -111.955622319543593 66.748506565043755
-60.880825884804217 -110.826999680047308 66.154857172225917
-66.204952582906614 -112.039754678727320 66.613713766689926
-63.757258366788719 -113.538455946870585 66.994344340906181
-59.737216081774072 -113.434444471368948 66.138671643545109
-62.674835379505524 -114.186894559385493 66.403231759505644
-11.294998135095401 -227.441422543144739 66.195144087091734
-12.996938996246611 -226.862882798209569 66.081401687240628
-7.367559546162031 -226.715661389294695 67.740503417845687
13.885514902351224 -227.731259364752106 66.309956400312075
15.324434188966087 -227.767550993151161 66.837463965979879
-2.509061037016235 -228.177606532707301 65.454031973770270
9.882698936407252 -227.905787597470351 68.477909763073256
13.429630875996216 -226.348545202783157 67.052567754106178
-7.829725040794210 -229.004737413260216 67.436745908177471
0.362908884909236 -227.616268163661886 65.789425702784058
4.645454127390801 -227.256449160727925 67.108002911758859
2.865984605170905 -229.338218478919970 67.357978949949455
17.350918530951255 -228.312804581100181 67.780424869144241
-14.637155164597083 -229.922283411536711 68.340421948888803
5.069593696843623 -228.515248333732245 65.463450002774692
10.213624070402791 -229.252131116232846 65.480034553079705
12.110483621101263 -228.166455335984750 67.326686651090313
15.313352975159082 -229.159107351162135 68.338984479661917
-7.031104802272123 -229.758669092324993 64.266658443266067
-4.755768297680913 -230.421529948808512 66.766670010517231
0.895874384105068 -230.136013636990555 68.044767372996063
-4.628884896946039 -228.717419431209066 65.483461729748740
10.299010711991194 -229.407823187710306 65.942967116188626
13.469215430100972 -230.907604775800849 67.451682433197874
19.548157066817673 -229.425421992877347 65.483543245909743
-8.594949936787820 -230.551763159046374 67.791655497784646
4.470815342140013 -228.753234810750627 64.837233734369420
5.496054122573140 -229.442363229670349 65.976519042928118
6.825822560982814 -229.597672642576555 65.294763715563661
12.452695334770489 -230.084257049251136 66.975423780403304
15.853417041375359 -231.912434850336382 67.011475458508727
-2.736044649346474 -230.965239920581467 67.527116594968419
-2.221709828303918 -230.803916337816219 66.442519038631062
5.266530939953133 -229.173470102722121 67.276915065896574
3.615808564577695 -230.261218916377487 66.284342856410802
16.128986168606243 -229.038380334470929 66.606614325769314
21.857288135865048 -231.284641769216904 68.120966303229380
-6.743133090615188 -230.446946849137049 66.764435244818841
6.874804914841148 -230.656981735072208 67.516857785940715
10.609726565818473 -230.813369385685206 66.726167971812728
20.404218248527783 -230.805384978561477 66.257798730563024
-2.264789062779109 -231.430391171883684 67.152564379023033
-0.982307375405229 -231.842697420290818 65.378115345276214
1.203920685603128 -231.374119313323007 68.375272855586701
17.911140523317808 -229.889249884734284 65.970408790301818
-14.656587473820412 -232.094241714280713 66.253192616697447
-4.651137469608501 -229.601724578072066 66.382457371336727
-0.695229034565080 -232.536060925854713 66.207404392885792
4.169345353553981 -231.301926448976332 67.620855228705892
6.952676489193907 -232.711920138356504 66.998103083077552
8.740314258663872 -230.654793388217882 66.936296008274525
18.010714895290349 -231.854177183310384 66.244578874781809
19.744081882060726 -231.635261845124376 66.765121460096935
19.046805624903424 -232.824893793153905 65.468301159342303
-13.113455481369041 -230.608131185528720 66.614318033536492
-10.481280536873559 -232.403061050160431 67.564961917938035
-9.061926338013770 -231.850311927840067 68.702174292179905
-6.327195402118741 -232.857637867069030 66.169727253887942
2.452821191720024 -232.584989127306670 67.148702597652900
4.046171386907562 -231.203174180998076 68.145878276487025
3.892453696284154 -232.366420434040236 66.552293811885676
20.918228202086038 -233.321423463752751 67.430892391386266
22.177606166200004 -232.245275786696112 67.336460844289832
-16.303634660193779 -231.977017834065890 67.383629580981079
-15.587819872495967 -233.259775012885143 66.779161218166351
6.932612657581019 -231.579041482806474 66.044785650692589
14.739706262228218 -232.579310534795894 67.858985242508311
21.090133506477642 -233.643644598157920 66.792048182393813
21.733251856302697 -232.477652086378725 66.795440999834696
-15.509074613449384 -234.006672303021844 67.206342188109033
-19.038909422386212 -235.390456824485454 66.987428537244341
21.886614738973044 -234.231946563329956 66.207192049871679
25.396260727186935 -234.069710989671194 66.471984140757712
-12.674545091073519 -235.387758272359065 66.295449614342630
-18.708801195107494 -234.298145691179201 68.284209804423028
-12.983434923613366 -236.203080961891203 67.921664283949283
-15.449616739464382 -236.283151952574201 67.957539454056388
23.997748082534741 -237.178696290407288 67.539075337882934
9.138275456833567 -237.709821966967297 66.555557503986023
21.813230938555801 -236.921191909843543 66.772872205373517
-17.354198733678381 -237.454376369005956 66.834045801137037
8.715093894586305 -238.682299532202080 68.621278021061457
21.016685220374953 -236.530270854609654 66.581927095213544
26.477520674808435 -237.622356735713197 68.080432125798225
7.624693638511228 -237.276578149171513 67.122081761284036
20.985158017361432 -238.090446031361182 65.739598040110877
26.990589221948987 -237.126965305650202 67.708263247144117
-15.469955496742262 -239.908503105020912 66.759024454796133
-17.588415988721167 -236.655880200723004 66.533403767291702
9.255349474617168 -238.401114900317282 67.790929788560817
22.468816145585926 -239.273469808936454 66.809178975911365
-16.962674208688874 -238.589755841810586 67.216526603190630
-13.648399620354754 -238.969803227425615 67.005208186966996
22.905161385123417 -240.080940403555502 66.533447118313319
23.154137264128043 -240.951570904110724 66.694275864816532
-17.407348909568746 -239.745737386681839 66.807413713236983
9.658341364303700 -240.094678613693304 68.032552907158163
23.528600748467841 -239.580571313153030 66.519754889826956
-14.467802556388110 -242.348273175749540 65.418379283067850
25.251870030009457 -240.744472951800645 66.919301745972064
-17.953407459908512 -243.164248900630440 67.152129738604827
13.869838214784567 -241.978062363328434 66.531292250175142
25.306237277404762 -241.563057056759533 67.250207997181690
24.452301493431975 -241.866731303305585 67.250284166878387
12.353927158064060 -241.670710065511969 66.683426886384524
24.495505949374607 -241.138769781443386 66.587578764232831
24.078014285123100 -241.194876357477540 66.176783142634164
24.223912282976599 -241.580356961733116 67.402711747893861
28.101755603820305 -242.918848513273474 67.470616995289689
-16.932130072021828 -243.342046600737632 69.192929794533896
-15.513249211246539 -244.025785249244279 67.473882460262715
-15.063109170594524 -242.805928072913844 68.724025622193508
-12.941635262448861 -242.777224599217675 68.619083737695433
-18.083753563345716 -242.869824580067586 66.684907470182608
25.051691343563213 -242.846301638139607 66.275154245491152
-15.220078294878325 -243.644176394352939 67.316674676963189
12.396619439520970 -243.837695980136658 65.482731567210038
13.287262764883341 -243.918868478261402 67.008948204223231
25.858294533282944 -245.200028616552004 67.096832458971789
25.223282232794798 -245.177322196563836 68.091249983542582
-14.630644452043825 -243.679820613730925 67.209567518807802
23.991247602110818 -246.465791809065706 66.786087053983721
22.046467318600921 -245.913997549666476 66.485381474412463
24.131831952780924 -246.978026827173835 67.863100438153168
-15.240482482211402 -247.869678993986099 67.048914927185407
11.774661226719910 -246.324542938477578 67.355928892151468
26.862505077257396 -246.895264636289369 66.914307220407892
13.382327686283643 -247.881787324092045 67.379092865547534
-14.678968617687135 -248.445274152621323 67.337492502310624
25.195924426521202 -247.952814864121422 67.233532248673342
27.785250743985674 -247.822759639924868 67.622093872897551
24.175621273581136 -249.632274774363054 67.362258604676413
15.057486497412709 -250.740964314422342 67.776729996360672
-15.959791819767881 -252.928880431947334 67.034649729383943
26.491856876103082 -252.092392182960452 65.742135461305608
14.963965562917629 -252.303767954629905 66.812714185310938
-13.845012147972509 -251.759756585244475 67.725061743718570
-15.248748316171984 -255.738432442453643 69.679339496933125
-14.170823588379474 -254.422447561610113 68.101468143008503
15.596881849592915 -253.950530192380995 66.553525804427750
29.388070134616392 -254.105283537670118 68.032763437068809
-15.381999218685078 -256.349125734139079 67.176390454118348
-14.767841897328408 -255.371614643777889 67.540754314655089
-12.899729341790502 -255.325512626676812 65.537281478644388
-15.914001617042468 -256.597702382794523 66.393106003510255
-12.200654554164863 -255.085293081751388 67.926113932428848
-14.979987693498346 -257.398084501886444 66.966183902828476
22.439480311331991 -255.944592004240064 66.930234420428519
-14.666936335775207 -258.146314056419214 68.241916182994785
28.033834756667456 -259.818584080579058 66.710389065784710
-11.393067229265393 -260.197716866073620 66.733597439934243
23.884617812706633 -259.649502074315478 66.409811867672630
24.013586678987572 -258.815552378906204 66.411967235339148
-12.110040463682020 -260.098466826835192 67.014234355573279
-12.657385279244059 -259.193746162738762 68.871464148990867
25.765259402324940 -259.715351478419336 68.007762345076145
-13.172538250162892 -260.657459661313396 68.250081212731445
21.707896091186988 -260.833845958165057 67.031188267800374
-11.972824212729650 -260.705572492150509 69.164335407273512
-10.125200731937118 -260.417728170812154 67.541522766519307
13.756211677169976 -260.965212112536221 67.731792505040062
-10.824050127116699 -261.293028252833153 67.698073839341930
-11.091977419345071 -264.809463333522331 67.582680307447831
-9.872037330565355 -263.516652794676247 68.204413016250982
23.231874799804096 -262.984377279481237 67.578581555115989
-10.903261041591763 -264.415640514726817 68.746576370985409
-10.760600975078967 -262.653454188587943 67.565674186147675
-8.123938691702248 -264.801054386789247 67.707669320474110
-11.422050486422851 -263.967243558338794 67.846923305245227
-8.858815348543926 -264.244964075538121 68.697154211623285
22.126543930782926 -264.974916319193426 66.888664196531977
-12.372133754045313 -265.246473594258816 66.742159797089101
20.643290403230001 -265.849642550932799 66.967280842971647
-10.321667925662931 -266.451490207127847 66.982247380702148
-8.337661970518520 -266.528017349539311 68.255870061073907
14.898073703350885 -266.677264063535063 65.726746940987653
-7.694040488561825 -267.165676659071437 63.875597059807255
-7.547694419442886 -268.201042568992136 66.109832547813980
18.767542205919117 -268.618987545215248 65.523396619052875
25.287236085708226 -268.656663453105978 67.296085384789833
-7.995654145052150 -270.233543113051610 68.322355491654832
-5.952555719854265 -270.334981235355144 68.641162408755491
17.982285652614415 -267.549654610606353 68.448761687495477
-7.023144860544805 -271.002510856742902 66.714275021052032
-5.769647809495297 -270.982650965739992 68.490741162951963
13.492550520782460 -268.828529088418406 65.766572991785466
25.763970554618446 -269.330658311569721 66.330835846820463
-6.408568288801287 -270.599880856367804 65.832147629997905
-4.702348454342709 -269.733222875974718 67.579506482105515
15.108006323214003 -272.292839885905209 66.545269982481244
15.190166036187417 -270.133923862620975 66.167484083175012
16.119824977702599 -272.746265931340929 69.182761528935856
-4.921463182565875 -272.187085990926278 66.800357668088168
15.626126341323745 -273.945016959908287 66.674786232589611
-11.342106870389994 -271.860781007329763 66.643621497007359
-10.077511771954702 -273.078466972735441 66.076192068258592
14.055419140145119 -273.183992121419521 66.094738026153209
-7.377517242706194 -275.399687462623319 66.470510237408860
-3.907839418054453 -271.491047217264054 67.581749928231645
-9.542457807670095 -275.818124740888322 66.024226202323561
-9.255035051218732 -275.686059839246468 64.875188967713200
-3.604515567592449 -275.122586330736056 66.514137837510702
19.698559575539750 -275.835786287084261 68.546862573863763
-6.126693232373064 -274.828037224903653 67.185260459003558
16.807930079614749 -276.752553878403660 67.047526307795096
-7.986176764351212 -276.928339342181005 67.181736934955268
-5.416254096821576 -276.235897636315485 67.118172925178598
-8.778608126583302 -276.957383426157037 67.190619439603552
-3.566405214890252 -275.587728816633330 67.649488793103728
19.130560506453591 -278.215818286485046 68.199824520048480
-6.268559183878594 -277.059761465305144 66.469892576204956
-8.550911644985298 -277.198305348909912 66.822323609780980
-5.555763955558560 -278.532209664076447 67.270301719724898
15.364564946975412 -279.121121556187120 68.304112151984100
-5.011489356863538 -278.709240328588976 66.298895505716558
-1.495395468468067 -279.046343023030431 66.095907197421980
-5.914222875259620 -280.479029431821971 68.241575662344346
13.590470328272541 -279.884975366003346 66.388258417001012
-5.791570289077338 -280.687108173791614 67.591221715314560
-0.689322410618849 -280.943422293824540 68.632016155658761
1.872486633827958 -279.160202432319522 66.913673590949287
-1.750606302408762 -280.043854163631750 65.542954967093834
12.624297543687442 -281.073594150157646 68.312778388746324
-3.814522281888245 -280.374233179842577 68.271506200982273
-1.669899943012561 -281.774493140905975 67.033142733187702
-0.886867245245514 -282.133878227698801 66.690604986268042
-4.582830454850489 -281.917269915758027 68.460527444409962
-0.417890193476929 -280.888683206540804 66.927061526598365
-0.690730925386713 -281.643051721633185 66.755278176800942
6.029260454164147 -280.927791191447568 66.455028250904121
8.948590273382001 -283.270919490560175 68.339364877489885
-0.649843422109578 -282.715584992136826 66.442135219611274
2.602432048150487 -283.629452128256048 67.339608183634425
-1.341789449474343 -282.298751483175749 69.583388488604314
4.172173997475682 -284.190372463444703 68.467289079110031
8.382926183210902 -282.603256458231670 67.797592945964425
9.225717409297317 -282.839021123723398 65.770264917501336
1.120213084475761 -283.102470710228658 68.550300288315128
8.024857682263143 -284.636914149134157 66.886748962715757
2.380496733193936 -284.710557442497702 67.490464259025813
2.723688286849241 -285.887011606184558 67.057514470957486
5.320843448945328 -285.086856230394744 68.011191529035159
6.359799459765754 -284.694585940085801 68.044266085836227
31.465561412206608 -1.029893287085002 65.762548554679285
38.051422840854435 -1.346868501641737 64.937146972770904
28.994599904132464 -4.053110569905570 66.246137656852397
28.268555995619980 -7.466997557410597 66.001211356145546
49.806098698207386 -14.500452682039196 66.207134627421084
45.510212024689039 -14.719827859849651 68.084590091382381
19.812857855894695 -14.112097224089421 67.455638382413852
49.090280268689789 -16.014553728544627 64.952694932347455
21.420257190257924 -15.810761359266582 65.168815392796958
49.120095137510830 -18.454849272871282 65.315654825699113
42.314246186993344 -20.477448314755129 66.032642922335057
20.292614561807721 -21.441311703803791 66.419640332973245
45.985117037265383 -24.660964627609630 65.182868625752903
38.395481739489298 -24.853837361080217 66.087654299190405
34.587929638113216 -26.905021852579083 65.221616361333290
45.282479828724185 -25.983073366855699 67.641933266520908
26.172942137106482 -28.552428057604985 66.456383377897424
33.020513776700660 -30.270333317195337 64.831728506075166
39.999501714166804 -30.596629955100511 63.885724618984220
36.463483452288720 -30.663089627407793 65.661996191506915
-68.514682283430091 -31.607919018356974 67.381761247558160
-72.107923454025141 -33.892496885986603 65.583812248455416
-72.500565569044184 -32.320606857787070 65.266906921129504
-55.306693174641453 -33.897703017121351 66.806084800149975
-78.874620265630654 -35.285610552648031 65.630639274004210
-48.630850833059640 -36.304421047236318 66.207419013677622
-82.246555823465286 -34.887939350985505 65.660605372714684
-45.445257970236938 -36.890001808657381 67.833944667401681
-44.468701234425588 -37.441591030147393 65.824180927627722
-39.480383235699748 -39.591724470668723 64.648693835794205
-35.182140425559098 -40.304135356282529 65.019005881954143
-88.471443654389333 -38.744649527282569 65.328033545102443
-32.387192988610714 -40.231581838197414 66.392971857856736
-31.131796185463092 -40.510191628216702 67.136487450289678
-27.050670230805849 -40.297691796717984 65.398094827002041
-91.282611575917429 -40.760000361344609 68.047155996754881
-19.030971135891434 -39.090731312206785 64.788925937175833
-17.731258200148272 -39.854032525655121 65.969577104220292
-12.768045191821100 -41.973406297793673 64.959845786103500
-11.595412391901140 -41.150311708927759 66.205033851882817
-91.462898699910994 -43.267669047423631 67.082802619517963
-94.892397062719397 -45.870636766356427 64.177969333219465
-7.667832703905887 -45.950414995216853 65.110513353123608
-95.263690380408022 -47.068157227446996 65.963719949989922
75.002387107028724 -46.771746271596413 66.841838392507640
89.141541239372302 -47.173560952402610 65.919772037285028
76.122976853928776 -48.332107926220608 65.442990159987829
83.462712046883425 -47.080603229993244 65.226354863275077
72.716405614005069 -49.815101886019860 64.091296744262365
82.948886346475192 -50.631314010639784 65.522399008040708
83.905350293393610 -50.085343114340013 65.537335541256780
93.230425477356107 -49.596801309713676 65.147939837916283
71.304916987682276 -50.353565079294633 64.602551946066797
93.946589887806951 -48.685158619442262 65.521436287540411
-8.647156231643589 -48.804125480245645 66.665293839183605
-16.950426509701071 -50.400593976226133 64.346562178389036
-14.208297350064090 -50.025430882109383 64.803605256966307
-10.709189272721670 -50.515868160643045 64.414230382040699
-13.495376174015592 -51.205999501394885 65.074621826089000
97.021963953325624 -52.290321561892256 67.714094955070777
-64.869639854675427 -51.489250467298191 64.605681111211425
-62.037515369948657 -50.557212023069276 65.601321682031738
-22.299146649315208 -49.496082587044370 64.407716892072713
97.513834024260603 -50.659954493011526 66.724928221125055
-97.638127034101586 -51.594721920628558 64.957306469901624
-64.669473234742526 -52.319499399963455 65.225818079858527
-24.625593684326514 -52.129438462475953 65.886752722662351
68.375159092683290 -50.135817085628325 66.328801608827831
96.672878942304422 -51.883828202917719 66.303559128433960
