# This PCD file was generated using the MATLAB® pcwrite function
# from Computer Vision Toolbox®.
# .PCD v.7 - Point Cloud Data file format
VERSION .7
FIELDS x y z
SIZE 8 8 8
TYPE F F F
COUNT 1 1 1
WIDTH 817
HEIGHT 1
VIEWPOINT 0 0 0 1 0 0 0
POINTS 817
DATA ascii
91.821493136738397 -49.661613332753042 57.308608834576461
95.942489450870028 -49.584119571216107 57.025099726899121
-19.427815420246937 -49.757301041684073 57.155704665784413
67.769211435107167 -50.248604048474526 57.928637434424850
73.956834480346288 -50.225071389313271 57.987047933110546
77.662096962512763 -50.428062950176709 59.012522924894043
83.704033223569525 -50.127548037193655 58.343253363509554
89.903329468992837 -50.730644437027017 58.437501578162269
92.812164582611061 -50.019536881376695 57.754227125352131
94.151990358318585 -49.729196846902227 58.223934909718182
95.221059947138102 -50.015784705831756 58.174088149454128
-20.840652585105264 -50.254772216352855 57.983826353090890
69.236039895873191 -50.189229841407219 58.217064755145415
76.938958066105329 -50.458502524259536 58.407073420130963
80.463175342654409 -50.241946039677508 58.557770442827817
90.563974054966593 -50.487564790101423 57.023171323523698
97.584855055079913 -49.917879579209746 58.206501188067961
-23.205985513762915 -50.715816216782358 58.414406959264660
73.507747502691984 -51.037864396122394 58.520401630899542
75.789799053809787 -50.885702489267572 58.771064019194647
84.006475018498108 -50.314998784735430 58.466891124917495
88.171366213355185 -51.019294138840650 58.068686707545993
67.226635331993407 -51.209364708578207 58.400781168432218
75.062355809147704 -50.712643764051492 57.917146602943824
80.003676425139417 -51.765723959839463 57.464006068860719
68.102007507105881 -52.373767227480329 57.514839497564324
72.080062909659929 -51.106864072959809 58.069487824129020
75.063880860661328 -51.179877013893247 57.654003244464761
81.715574324259620 -52.116387563008203 57.869662551080481
96.415790283221170 -51.962003963275357 58.908701523405227
67.683103570206342 -52.104104645363066 58.440535902785712
73.047689858015389 -52.594614305721201 57.391817055448207
74.106536355695937 -51.181615589383199 56.788405951685426
91.618265649231901 -51.779516608593589 58.230820944743513
94.048087803902774 -52.014132972520834 57.751086324957676
94.821628022829131 -52.732357466250384 58.996115720778434
-98.133329643636941 -52.640795111374366 58.353760919459184
73.575216424856009 -52.705140533362204 57.879076636500741
76.793402806891663 -51.426196757502083 58.505478791658945
84.850001843307155 -51.852013130039623 59.479527386047572
88.877309257993630 -53.139454372010164 57.931481509693164
91.797536547935835 -53.272297382690645 57.246055419359962
94.793880538951640 -52.387692382515979 57.393418468631239
96.710367245491426 -52.484511937106817 58.325363043691453
66.075642052646572 -53.029448932690805 57.872886453043272
66.847324112404422 -52.741697774082446 58.819302192831273
73.680956393022385 -53.505168258612805 57.754514132803855
73.685446091082966 -52.562813739605353 57.120459370091652
86.243181051114675 -53.159945227699311 58.457691024655993
90.522527371814675 -53.192405215676665 57.832663863160455
98.367304883515217 -53.770722175357996 58.114156853811572
-34.281368352550345 -53.524923828913842 57.984087236370719
95.916142355963842 -53.154124721853428 57.966774699205835
65.767188884295109 -54.160222976854485 58.184882849259978
95.810665810250882 -53.715508963173718 58.075759795409581
-35.071891806552678 -53.303761325131099 57.645892875116466
70.157850043896346 -54.091554476732099 58.374868562703419
70.704011763298027 -54.006794382840681 58.858356380813170
76.266116429205056 -54.136388642466784 57.171270035620616
92.974679032358338 -55.006575165033695 57.965927362278052
95.255550883865922 -54.690356257982032 58.079024340459050
96.977182478516283 -55.041748293104988 58.028355509577025
74.057444564748053 -55.520524355966870 58.699508251104035
93.207715319570269 -54.897785892678144 57.497327145489997
70.466256696780917 -55.948782961451059 58.253350056572103
100.244776086460831 -55.566154616551302 58.840298012519263
78.223247884650519 -55.830875883734407 57.830610428524047
97.110099626123670 -56.050968852983672 57.580492657071133
69.845815837488587 -55.373079695364936 57.956474746009746
94.643819831641025 -56.116996010628853 58.570853490506572
-36.416091236277040 -56.534227941298582 57.863531045131147
100.070890463630789 -55.927002433668250 57.004294298605764
-99.824737488718071 -57.311451625138531 58.407052886399285
73.177298982730434 -56.746685431400152 58.267091784225649
96.077024446163918 -57.291580137112362 58.768163250624411
97.574282622838595 -56.989152706313845 57.550668005132842
103.902139928442054 -57.246667519739745 58.291180894718977
98.126489142635265 -57.266354353490087 58.215836836846108
68.172766897064989 -57.730454681399436 58.294736710506150
75.141919901959042 -57.620043529011951 58.854434069179050
71.386983395812692 -57.915382602728727 57.871081631663060
76.635681114860915 -57.903523011665882 57.637231779179494
101.442498962605455 -58.577532332159791 57.721649542743400
68.908030373206884 -58.795381193313162 58.236927323543505
104.196762968335477 -59.033894130176861 58.203272054553373
70.880331986140533 -59.621027075677702 57.565309358572975
67.545211315119317 -60.464168833160159 57.671374713722024
67.651005548015078 -60.304647142031101 58.043976770411199
77.852888340270496 -59.862112052308433 57.898952465397493
101.808848645446261 -60.254203615143282 58.729522337575489
-39.267934731241368 -61.993725006605601 58.558061411573668
74.734406240804589 -60.805716313997763 57.640021809641667
67.553300259422826 -61.344797033588634 58.368944754591325
74.056818465683861 -60.908083713947889 57.616189666129877
79.113681897223827 -61.194135691264179 56.825048174330902
75.938848759239065 -60.649126790815501 57.111268716924897
102.205110386295488 -60.603337375016125 57.603724054421235
69.207678734682858 -61.707115034601131 58.264586019729826
81.042915069278592 -61.677879654359060 57.827423863660123
70.801183108941075 -62.522868886447881 57.382280243311946
75.305994008848742 -62.320473826657917 57.859255812516501
77.205219143745225 -62.255101845110389 58.228221658164344
83.260009394260749 -63.655674619089467 57.575669192934413
79.992510864662492 -62.623614013189055 58.467701576644380
105.300773988675758 -63.584233375234930 58.599409590962338
67.920899331197916 -64.044361887341509 57.855585139325044
81.936691418059056 -64.122315234377837 57.223041572886459
-101.020678288333400 -64.551942082202231 58.795051259197415
69.873665216200152 -63.964311549869251 57.880514550378273
78.502411261368380 -65.174758536107703 58.098310290110113
68.055495610751166 -66.112062884539867 58.020041248861325
76.331600810232942 -65.461730213969389 58.088283254930680
68.957711618435766 -66.661683214918938 57.303398677152899
78.626845523921332 -66.682338217256429 58.483678284243069
82.378027275825488 -66.344482472838123 57.379848561980616
-101.174551969608913 -66.512478659564678 58.180235023049953
67.993010319901600 -66.437278339381294 58.263597410693379
83.730206597949220 -66.843273566008648 58.168266065620500
105.813289738197852 -67.149549545758390 58.026692845920820
79.962331166037274 -66.844169077671168 58.059589485690687
75.955980870643202 -67.639037937940074 58.513203853446690
68.316399995215860 -68.388137351240687 57.302276418110196
72.404227784184812 -67.682211838203372 57.055628280504088
76.927268237446114 -68.791369708060699 58.440826649131203
-42.292627227059526 -68.779651154045979 58.164857151798202
67.452679197152193 -68.299994191618026 57.439494916572137
-101.220543273546582 -68.010507840171542 58.066954683503859
70.924523609987759 -68.929345778018472 58.056295397335340
82.408754851972574 -68.335548513173450 57.316652590612989
105.310160200693034 -69.299295859307406 59.217582835543851
85.764182224050373 -68.754387056402010 57.936810212669485
106.454384143484930 -68.847614096041255 57.413486437685151
80.044688885701120 -69.685067599181579 57.513267698346162
66.818867054060476 -70.234608389940206 58.711855596768281
86.564815342830641 -69.977351530202483 57.689437173338618
-45.722778244350870 -70.932431189114752 58.407796912991572
68.652738497255797 -70.244112898244339 57.600277948596627
82.640489262601292 -70.193902412593999 57.810815930156174
-47.372846460240510 -70.466278333589514 57.653741755470818
72.458230733437532 -70.580031199220414 57.207483356325646
79.625121857993989 -69.936176166228563 58.083116774012169
104.447057415556628 -70.922404592009116 57.339859819703427
85.266530927020639 -71.009376554697866 57.234565110679547
-55.902502246318775 -72.530956304143956 57.824969357286406
-53.893429714610470 -72.375056907588487 57.787598002185732
-50.222752978730348 -71.958108540186473 58.135141309670281
-48.653887844532633 -72.218938256220966 58.428173739106271
65.730656744355500 -71.565913449795119 58.111655976264778
68.068026987142986 -71.868481550876368 57.762530096332881
79.016275039935110 -71.448491852123098 58.083932838557573
83.038009281749240 -71.730512088616308 58.070597180338055
-56.005320483062953 -72.044384010324720 57.535022745707472
-54.680170738223431 -71.297428637889666 57.538777806488142
-56.235217991946158 -72.484303548573962 57.888356021003723
72.787005660079515 -73.939124340772011 57.970726548729864
79.989928330053360 -73.368024066260176 58.561965838470876
82.673100743474492 -72.965638157965884 57.892113566047684
85.868248845457259 -72.719551244292362 57.542682559744684
68.191205899859568 -74.300957337436600 58.014438533815394
-57.983298998328685 -74.380412663931452 58.222501740234826
86.076427155873731 -74.809837447886665 57.240378888426704
104.211643624306220 -75.045295968029279 58.737775660664106
67.930186115134930 -75.118318666129937 58.236359809557683
107.919222360585110 -75.081344330506397 58.674586765597468
-57.125295759966967 -75.885078045574744 58.220724847174679
66.310087615727838 -75.537590248912494 58.646287027195250
74.236150562010323 -75.991331991544882 57.801425072593595
104.308846853415730 -75.954278730408021 58.331044461662337
69.382855540472519 -75.746368946850794 58.086101302486433
80.901473878775036 -75.963899122170474 58.748958079207419
82.392248585535043 -76.122865429043500 58.103771901006183
86.388686010341075 -76.498851856274811 57.405684784021886
88.493752943320160 -75.788562927163724 58.002062200161717
68.804520048809508 -75.825738974698481 58.320821099534321
72.570904783178207 -76.422917658044938 57.336884506047099
83.098562771001156 -76.846965847317534 57.668662930659870
87.785556526498794 -77.209612543315089 57.476601501071841
-60.008719944199441 -77.849358627487277 59.157709559438700
75.661220329030442 -77.553532165664350 57.927821887306592
72.497814672211618 -78.042504569820338 58.523479276846807
68.189854719289727 -78.654929329339623 58.655397951240225
69.947621247485856 -78.974787666624891 58.080740938534220
81.422864353929072 -78.617617394473612 58.974563384711630
83.106752902565489 -78.962430447384634 58.064675674565017
87.547952365910334 -78.413384785413740 57.134045761837164
-60.063832801833641 -79.490354140972087 58.621350632188715
67.796517781583830 -79.219738471464069 58.677224523550613
71.317519587315033 -79.257828124526142 57.700564199724411
75.510978486053020 -79.478755128991963 57.773580270894662
81.658785359123073 -79.239806540186891 58.590687419334408
84.217342105518554 -79.128016715158410 58.126607052140294
84.645404243855438 -79.721109926604584 57.791953541679689
103.581693457322700 -79.725449271175265 58.564079477862911
106.527762547398794 -79.184419708235239 57.790003407176449
73.667680523270036 -79.550695912760361 57.820015194941256
82.709596634905367 -79.279690551689171 58.304731611011995
83.777653266506618 -81.296596941949730 58.005280997598888
68.978229193128072 -81.224844231973350 58.946823334338561
69.318020250052669 -81.268546692831237 57.989493084444931
74.363118901602093 -80.818910645074041 57.552440986244903
90.615114869601669 -81.520235535145346 58.303264582609259
82.821294542619654 -81.161297758073630 58.111940940533160
-63.336902185075949 -81.899833752391856 57.896990986434908
87.674648935482523 -81.521270293524921 57.225586181346344
105.916551092801754 -81.762012283781516 58.537701675759095
89.775840510674726 -81.760456204268408 57.587256572199550
-65.072997454549707 -82.474152128126164 58.437788769566943
71.721813594968864 -82.186838753177213 58.291042581258012
75.129902425900056 -82.867025535277151 58.905240470391568
84.550323244088773 -84.324336293282570 57.605670410313394
70.008114036728273 -83.658209415409132 57.763754601100196
87.848530055000211 -82.582300098474377 57.808350513520665
89.560781749217952 -83.675788157608693 58.001039272388084
102.222165539131325 -83.518982155450246 57.565997441337501
68.290220997378938 -84.422455843948953 57.700233459537955
74.649610128045580 -83.847984690532073 58.179868596404532
86.091756702681039 -83.460688902373562 58.221218617257271
-66.117377794025415 -84.465961570434942 58.325098807917222
-66.800020900300311 -84.744903281695201 58.987519809275135
84.253871798916464 -85.149493294035096 57.972214102657638
90.484525812609860 -84.624805014462027 56.956963709843933
68.970457957328591 -84.240403198151043 58.959890107851074
73.429311740240394 -84.589661612221434 58.069495896215024
77.100388448741199 -84.569211882456429 57.394026401868167
83.735179383654241 -84.296561713930117 58.873704710159956
89.595947442676348 -85.189310835107747 57.645551571004901
-99.261183254231554 -85.438145028540205 58.322706750759359
75.146260157758761 -86.994172618468710 57.631975903601173
87.540499641385736 -85.486640558252333 57.385875315053141
90.633601009112155 -86.153634855010978 57.557818425983591
84.666397327518297 -86.102016843621456 58.159260271816592
-68.861991477127219 -86.924890277631945 58.821897632011016
68.938165290192757 -86.400912559845708 58.069795376331975
76.144052844242239 -86.290243400341836 57.346376718693833
103.995548125116187 -86.137989020252519 58.077909706542826
71.948350244609301 -86.622346545199449 57.545123776768577
84.699051589567432 -87.122047456198516 58.048177661554490
89.405432634631012 -86.316080598346105 57.679499743279386
77.235170169201865 -87.445749903578402 59.165028045974573
78.818529458473265 -86.941556187848562 57.249981800495441
-69.335586311780006 -87.139471300387925 58.192854870719543
71.057154734980088 -87.666818454499889 58.292279484975467
88.001536786666222 -87.232730931628154 58.036997971891616
91.016156170903699 -87.584718551865222 57.961908551240668
77.945979537225654 -87.433474374469725 57.207006777730903
-69.827450161746810 -88.771764536694235 58.253176744824835
72.969857180250955 -87.562373138288692 58.423249519398389
78.022533161145120 -87.925213150182358 57.692406816342157
85.040362169922219 -88.122982833192893 58.551982101853696
86.063274483578894 -88.178343977546220 58.397968763979748
100.149567738841512 -88.437956165615901 58.604479150946375
-99.037343874659186 -89.098534719425132 58.362089007828764
-70.164820262965705 -89.053671311809083 57.975717283710615
77.394764002720606 -87.529104466905835 58.914996724528848
103.299749876478316 -89.228879133888029 58.680341733076901
70.516722246806751 -89.721272848831731 58.156225572595794
84.498275699743914 -88.882373017896526 58.303670301470383
88.340272162707279 -89.018329316987263 57.931322191726757
78.190001273490950 -90.080403607652869 57.709912624952118
86.831548281163862 -89.446926917951856 58.281882633825624
90.680257396704690 -89.559310903442437 57.543288032040699
101.523212903629855 -89.742572546388715 57.189392740611574
-98.686798052580812 -90.772556374411806 58.604302549389672
72.654384153512524 -90.743813833361045 58.026765235292302
75.651812435048114 -89.940276978834618 57.869030563314162
99.049383106801017 -90.094783937091862 58.150056760753237
100.925266353466483 -89.819876090313244 58.312968538795396
89.619539720856451 -90.505435830281073 58.238472646712708
-99.629214942411693 -90.959635522110744 58.330985513496088
77.826013513450661 -90.805445886055182 58.188421861584111
71.054568137546923 -91.557746027432643 57.684829064789511
87.253868303220742 -91.642039192528983 57.901904250789002
90.378140465773370 -90.727138214376865 57.723950698317850
99.286397118289344 -90.723015517434703 59.115511807774432
101.057914167797264 -91.427255242349986 57.757383800492555
76.023782980507704 -91.986809194630951 57.901050880401577
99.459478306954978 -91.495363755379003 58.202257578509098
102.389509535004024 -91.531843349997615 58.411980086624297
85.293768293261564 -92.681669039488924 58.676960819396953
90.237177904139855 -91.634858355958670 56.971832181555833
99.939602269785183 -93.168938977882988 57.522109940137661
101.279721679681842 -92.773840585678840 58.619549558256459
-99.300989326223004 -93.336303031998938 59.316366542592732
74.511939290681767 -93.396266878937197 57.785645531196302
77.121311187754188 -93.265032550716583 58.072215896861948
83.827685780392272 -93.281678148239024 58.547738994918845
99.726031882480584 -92.783019072321210 57.477549460269636
87.863354890150049 -94.338864908451470 58.400770457932893
98.846260837053364 -93.425924914008135 57.610909161806255
99.059473570546800 -94.721339607370439 58.334167590823583
-98.561399589573412 -94.414032012178694 58.076685188102658
85.847684001836200 -95.260779136777046 59.030137494104665
73.448248746012240 -94.708676519710536 57.640553556247660
90.490176353187366 -94.688973488382416 57.748140998885994
98.094743474423069 -94.907531586500582 58.591117451949181
99.064857890112137 -94.360152386669114 57.476851121709394
80.002321092365733 -95.205677336984536 57.702281315068582
97.548135930299907 -95.396159245445475 57.152381850907403
74.829442910614688 -95.813667412530293 58.216073389366372
78.497516764267857 -95.104838120252595 57.084157667276344
85.276627429583897 -96.065119947266581 58.669587198601448
88.099219891323045 -95.331413875662435 58.815095631181180
92.684196499251982 -96.038588346510394 56.916441542704462
100.547454337837394 -95.897516166936001 58.589204515453233
77.113461053312619 -96.163742052297565 58.232099468359181
94.330591405561435 -96.512308240513590 58.482012994747990
98.432453332319483 -96.154948132074338 57.190930011697070
75.604135936089534 -96.590953482008814 57.966028489423643
77.320441451120928 -95.667834138399016 58.369042569888322
81.188416590793622 -95.712342105436335 58.270088286929173
86.241498027213368 -95.963173287494300 57.444696830636644
91.326243696022928 -96.775834341254466 57.531821658691364
96.164815493459884 -95.425302026154597 59.538123589364055
96.379139943688259 -96.858512464262560 57.917601785732067
-79.719554954095145 -96.979690207830799 58.579502601166617
84.358412320122483 -97.019514900585577 58.428326240568857
92.324892204939090 -96.944778494202154 58.091459889717100
-98.368102078513630 -97.898594406167945 58.648643271070341
87.328854153139375 -97.268531604323158 57.511046626088209
90.736495915732732 -97.672293470876767 57.578565222937151
92.398597380412738 -96.827544371539375 57.770717217555728
95.690312494607653 -96.958995553658809 58.483151757966375
-97.047653339384937 -97.673896848425798 58.220489582460878
87.203266259049173 -97.482145536336446 58.245182698077059
88.779570053570268 -97.775131637477728 58.426386855530183
90.151139880389337 -97.763319147705815 58.833585195324304
88.922359672241100 -98.345944108539030 58.147700540586548
99.076197665585156 -98.353350623606971 57.884694097982546
-97.558931600674825 -98.630917763231722 58.142518121755629
85.022577031314086 -98.550855989555345 57.407624792423213
92.194316314819332 -98.292740286831389 58.336816575838853
86.129463300353294 -98.653342760289036 58.348588709905052
-83.260215921472806 -98.766780022328362 59.438879040854303
-84.221694489116558 -100.044007923542807 56.912788459025663
79.190170116598011 -100.867565020443962 56.984606955317574
82.328505719263731 -100.349842392183291 57.829374166988657
82.646439871270957 -100.980802174792899 58.240586665756744
-96.550927140274908 -101.176867991000066 58.813205602727436
-85.149273281607151 -100.374247393213324 58.327430198690124
78.145857758588647 -101.086157376982101 57.875744273618196
95.792918860417259 -100.829494892630052 59.034409141619655
78.029452660658677 -101.243372202625267 57.821072240330679
82.139442524400010 -101.311976304692365 57.826385571282209
84.290603453124788 -101.847548544046958 56.682907969002613
90.692736237860004 -100.913724490271605 58.432562855373966
-84.652630691972675 -101.802963243568612 58.636029911774756
75.456114201989422 -101.159043037940009 58.190590133335306
77.221510693801747 -102.787107737949341 58.855896741215155
78.728859713860388 -101.314544300142870 58.161254019352654
86.931389285574127 -101.144311318504876 57.861385296967399
-85.470501994683332 -102.572217119473180 57.804807408167491
79.250942196676718 -102.494936908869519 58.066291319804392
89.495714031014046 -102.410713779579524 57.728515760292957
81.843726004258784 -103.565057607261082 58.751874215402665
84.034113458883994 -102.707000655215637 58.835599517290284
88.248519600699666 -102.284263541067588 58.322684346874418
-95.951071928406890 -103.259714195005117 58.857285571523349
-87.120944103768323 -104.614572696215220 56.787132579264281
-86.871897610372670 -104.696965357914777 58.532261368904372
-93.885601503803784 -105.214151914827369 58.203193094657678
-88.118516775403009 -105.940791304188892 57.991451732348409
-92.989042680576361 -106.071091112899992 57.584694592332518
-92.711289799987711 -106.312317015422252 57.543370216544581
-90.328671532948235 -106.051015353713325 58.136518536588241
-91.038431846529932 -107.564109379086105 58.188598749012215
-75.528746424081135 -35.609419111507961 57.241727415355435
-78.662807859172474 -35.276674377109551 57.516468307502407
-72.765904350791615 -36.185171742501211 56.438364168050157
-63.617411247967453 -36.763962160877405 56.763240074809850
-83.591458187413409 -37.518412437707120 57.313908471931050
-55.664638358635067 -38.579157378506750 56.527044149866661
-54.566599839164610 -38.855354464139467 57.688973682721524
-87.018440398075995 -40.018934554540607 57.605172533535779
-61.810242133403996 -39.593769205517205 57.582807133280077
-58.365861400581693 -40.256962002459893 57.463498649590029
-50.327405377204464 -40.032263709863933 56.601725780252472
-88.863079185054943 -40.152584230482219 57.506292986246699
-61.702932468952440 -39.980217138975490 57.198594953942226
-47.609226463311472 -40.620889470439700 57.122255610428361
-90.747027796635876 -41.003648345960741 57.702796804258270
-58.951463522363127 -41.503292751221473 57.679374831839993
-62.044330781392048 -41.862346245369167 57.223059842230413
-62.585286193508132 -41.441661456826679 56.502866701142672
-60.518177217617598 -42.096343256323756 56.422429671458623
-91.694861282267951 -42.853817986297727 57.649833750541461
-61.209244620704652 -42.562031857229272 56.835764685114640
-41.391621273061446 -43.081682906052194 57.355855347821254
-62.918087511605243 -43.161258699929988 56.685635610919533
-59.552681232928578 -42.573527001128944 56.728119784764793
-42.152380150367406 -42.924771934274311 56.670566475936418
-39.203134227064361 -44.195206541194935 55.991446859200437
-35.799543825892194 -43.349621793468806 57.303541370527803
-31.618348159097291 -44.308107366749212 57.112715731943993
-35.917360905758471 -43.606592746049557 56.481821480753439
-22.026916945705800 -44.765401216458166 57.660409672549882
78.247605075601186 -43.356988685047440 57.756994200603792
82.071458388329233 -44.571174497052645 57.382998923679821
-31.638858125080187 -43.915170529412954 55.960896664010356
-28.132302542560542 -44.148515903643414 56.549315422095738
-16.431590658014908 -44.101735474667073 56.381041026785311
76.300023066997213 -44.421080628608593 57.006728347994091
76.642272376962367 -43.489236621983373 56.645861763916237
80.472274956539295 -45.038921353659184 56.212438151578013
83.708715719745399 -44.577135577222073 57.768679761449441
83.587936114141257 -45.399519987571324 57.114225031128569
85.575191429398060 -43.715856981754683 56.953718291707851
80.209198892012381 -44.634311597557890 57.189868916896991
-10.305620373679142 -44.253754807905523 57.528409708933744
74.605231719976601 -45.411338749986534 57.314245564140265
75.099084773093935 -44.414531904877002 56.385716723244720
77.738957250699627 -45.735304574106216 56.470594518548182
79.627537298993502 -45.076565902877626 57.229991755914916
87.425622773635396 -45.607491166856711 56.175573600024634
81.772028742399115 -45.139504633138088 58.255231779395885
82.325490279762136 -46.239202267416303 56.433530935301093
85.628664600108010 -45.559067966276423 56.734487768396491
-9.598978192001788 -45.647458347798811 56.874274678598752
75.419026701611600 -45.773885089968175 57.391286206161226
74.541623234400490 -46.051902556759586 57.115021690167005
84.629249747466702 -45.968063344089614 57.251343392328437
90.973827106507173 -46.528447937299354 56.398141434588240
84.352459181878970 -47.704969545295071 57.224385699647357
87.838138542407179 -46.524761786800859 56.353485434412967
90.052359973658525 -46.788917629337497 56.412108982491461
90.550504899521229 -47.377185035785857 56.795032928049338
91.210192052620357 -46.804724619447420 57.383887633509040
93.471315013879192 -45.939612452899787 56.892637479269069
83.841133530636583 -47.749242236882850 57.841491743617937
85.691703309819999 -48.259062758491019 57.186689653582462
95.093748117961582 -46.960668836988731 57.155408372298218
71.535397718130213 -47.978255714447947 57.451210659042196
85.295932674173869 -46.961646721192885 57.748403868680107
87.452966397167216 -47.501890809566113 56.527410613173068
88.038873423953206 -47.790595177548227 56.949836184052913
88.193788296467304 -48.117293374887282 57.760760088845494
95.712285564374966 -46.942785795776629 56.894863956677284
-10.256239333795248 -48.273833164308037 57.329041631809879
70.952668046954471 -48.423107785204436 57.470347915170919
84.976337301076782 -47.641385409624291 56.907508699154235
85.933739101443166 -48.367065761571922 57.650580192387011
86.878438058460475 -47.068062530527641 57.755494001984111
89.659214942711245 -47.195588281031917 56.459344904899844
85.878031000523904 -47.846467066944385 56.151335254194407
98.741136406376640 -49.430900485621855 57.636562335702010
85.612029853986058 -48.518072454700913 57.715605635781642
87.420112733612740 -49.327841880924893 56.903156503779947
-97.922297073769059 -49.425989186486646 57.521627455464376
77.337123343312300 -50.110140513758608 57.178043476754667
78.898838446031192 -49.765746885218455 57.020924118913868
80.237811118343870 -49.003296989158784 57.280859650551172
98.875564340291959 -49.636513738626938 57.041771257827470
78.434525492959366 -49.630517415077414 57.424395770625985
79.868964974197866 -49.419239703731925 56.792643677366158
81.822643113315550 -50.369967287179904 57.436179721153529
99.510014804491178 -49.581111405690955 56.512135325918329
-97.243740581918274 -49.477845588473144 57.233660145742185
76.018066743832890 -50.693516262533265 56.960158766967979
80.326908381306936 -50.196554839246609 56.333268408037902
91.484434851236514 -50.101738103596844 57.039755639351448
92.967105616865865 -50.099058916412702 56.738836090942854
95.824930663502940 -51.267465380965874 57.165734937323570
98.729439004952368 -50.783935484500397 57.177609700125110
81.284170386721570 -50.914053377727399 56.512984095068660
-24.410796606939545 -51.932922757175952 57.915718256708963
-24.226248737909501 -51.139442607565506 57.131123421490045
74.307173994477324 -51.929776019459901 57.516781425783542
76.866957202420110 -51.099123796269993 57.075384789967337
92.342422781236365 -51.858949260272965 57.168087101021889
99.329910272831370 -51.188903281333857 57.054708814402154
-29.999018203677085 -52.782643962487391 57.196716177643040
86.221584150542995 -51.808327088370994 57.324822058113654
87.889626230678303 -51.575494910420311 57.649684171003614
91.354839227009279 -51.447339306034984 58.164302760380373
94.717172474945031 -50.896950638417017 58.185150982878675
97.596688944741388 -51.926093311065891 57.446202045540680
74.342194877221800 -52.305392168003451 57.229213365069292
89.982211135566004 -52.383203022517698 57.638990072007800
102.418699879872662 -52.358310555603495 57.334540060065599
80.848685041158831 -52.843221512732207 57.175236938399394
82.871230592591317 -52.002411624520249 57.773151436305653
88.929140910104948 -52.798264847161043 57.762416457182894
95.202106005417662 -53.389287570428557 56.748526184861305
100.029094659614671 -53.018404075659014 56.501580680249901
-34.697033617383887 -52.528574219493080 57.054710922005370
78.309005663822433 -52.253984121186143 56.421426362656824
82.411552819440956 -52.326894761127107 57.187845189497921
86.649477833336547 -53.554692882836648 57.874049021241845
98.885408013445328 -52.646528662258007 56.859564396732317
100.444275012240652 -53.345823459643434 57.465612665725089
75.118927380375439 -53.273504207487775 57.947257627244568
83.733992495051112 -52.139195174489011 56.889084376579866
87.492892684344241 -52.551848548719128 56.466354357622350
80.754118141309235 -53.513687711136804 57.642838245177444
97.654011082031218 -53.883220354097681 57.196603016595255
99.742485596294671 -53.700172446620222 57.172393638163356
72.031809774051382 -53.963074077349781 57.201533262439305
76.580784691450845 -54.329849771081228 55.904261429291097
84.958002984095359 -53.304830136048253 56.667113824758445
99.551301062003915 -54.044496056667739 56.547933169211291
100.948406869204874 -54.169346854768932 57.410451624553737
98.908658640535450 -54.903168495926622 57.650496987798689
103.913690167399537 -54.845192740843572 56.931521926714147
82.472485321011163 -55.332399974745400 56.944361945043006
101.992188723717959 -54.981398871964913 57.044886466127828
73.392315251375237 -55.542502210556307 56.970611202339612
81.158340585151564 -54.764490596642418 57.067339620474229
100.932463907129829 -55.738957286055552 57.838740292382610
76.795736685597475 -56.011280698716021 55.702720742675091
102.317503412468241 -56.264610555553148 57.225932623921622
-38.194238927630160 -57.301620738838437 57.424317484280898
71.748171419744509 -56.628487602251326 57.300720993630073
74.856521083951293 -57.024565688801417 57.236933606898390
77.250979797459948 -56.936516576780122 56.521239799809067
87.866741339792341 -57.195133055828393 56.654638825647361
-37.169493679016199 -57.544788469720842 58.170381425915856
81.182863800070294 -57.685691856396659 57.096163803866389
83.439106794715613 -58.082862994467220 56.873978490297247
103.423348608660589 -58.363371982131781 57.231536842296023
-38.344739346441777 -57.805610391669489 57.490362344579005
71.024535992281145 -58.306263509414919 56.600793915329731
101.943713598524482 -58.025801836287172 56.700586322510759
73.184451585540231 -57.870257516551504 57.417652446619144
82.613011420575546 -58.261116883806693 57.165860435372736
84.872467495443800 -57.632883648262691 56.793937715073795
88.851385997078296 -57.555859974874991 56.554293411471875
81.950107894772373 -58.479129003039120 57.269187348769066
103.632502848411789 -59.020886118123016 56.809762700696716
103.598608000563402 -57.945294380220034 57.977779953849641
70.772293348492397 -59.268455701580763 57.324526065963411
76.321812011512264 -59.029085188884238 56.352873248739364
87.458256416914651 -58.836679757701646 57.280889836145221
102.061382181269522 -58.839780042363088 57.336634477974258
-38.918806299978691 -60.146921628604176 58.229738545002476
83.622646059645405 -59.823797357945253 57.691677917854030
103.410970237150508 -59.497864651668934 56.808010098891096
70.655083744830307 -60.269088333300175 57.031804939423154
77.540133722356089 -59.965977526086476 57.308919715951461
90.322671089064727 -61.184214172462902 56.914493269471258
84.764899127371180 -60.868159632312981 56.980827732572799
87.162716041927268 -60.922996165925269 56.518340585685820
104.738919822908102 -61.372396301052049 56.852449706896778
74.854592190377105 -61.031266983133293 57.073850475028685
88.634926717189984 -61.090374262803508 57.710683053189165
103.734257122320813 -62.998302107436345 56.689738265469231
78.339053676604138 -62.285361583270429 56.272469205012285
-39.098494763083082 -63.007573287548851 56.958314148475203
71.880335675261435 -62.781990524875752 57.172382039709440
102.168303491183124 -62.649957907923181 56.893939886468189
77.747198921815439 -64.616751047203294 57.035238209705263
87.586743845242452 -63.776682154755051 56.302829212653265
88.947455422334428 -63.930910230587770 56.821701337948852
90.809081733609844 -63.688731694335118 56.779077017728049
-40.362696298190698 -63.959078173780100 57.900789428683588
71.389277024435586 -64.306452644417121 57.036436772115401
73.330046039981355 -64.770721803636135 56.965557964405654
75.630490535118042 -64.231658256937934 57.086064540500942
83.315329030368190 -64.397374238100440 57.800844313438738
106.558346962788463 -64.195095293392185 57.640480795423009
79.364181707958835 -65.344664264330262 56.737376970203222
90.317285912788563 -65.115177954700982 56.840404377103432
86.659786560468930 -65.529148678914609 56.992357227704183
89.181299188612485 -65.558522701392903 56.854165426782949
-100.512610896832996 -66.439674797738661 57.208963973381444
-40.990193724648229 -65.007279651469830 56.761134119184604
78.190980500903379 -66.450324518423812 56.202001648027199
79.976438071097292 -66.061846848718062 56.864776825563332
106.811983427067119 -65.949366548810161 56.720074546407233
70.884428835775338 -66.668181010317554 57.625577123888192
102.956410097604149 -65.927901633921593 57.266684528740541
-41.649201843164946 -68.198969302853939 57.535129018446142
74.576494130498745 -66.290934791384174 56.776526328291723
-41.800849196495200 -66.714745406222647 57.196205719457666
74.172766822846896 -67.101589576471795 57.508948597801044
80.424670782101515 -66.597014949451591 56.761133179912719
88.113986063245846 -67.135959442204353 57.278022813685510
92.324617605948617 -67.649362161956773 56.711074740847835
106.855009880362900 -68.413003250807833 57.499118605678312
-100.335238044986880 -68.515986682824831 57.139641899015928
104.822990378576293 -68.112184615105605 56.992968649790086
73.594348967329580 -67.555022705326607 57.514194413538469
79.128652453621712 -67.606402003860296 56.342692800583826
-45.186447652915987 -68.563265618516354 56.697500805538183
77.616195559560055 -68.207514776407834 56.622731165763952
88.692438795394878 -68.190732095761589 56.594715482072210
90.142309735673521 -68.487582433704617 56.530870603669875
106.680410121391787 -67.859982919875279 56.689536836645416
93.763106842872801 -68.287070352506333 56.827365722879058
103.087027583660074 -68.887413144916209 56.454199784809219
71.895312136138372 -68.237739716808548 57.329242281444493
76.137301129287991 -69.609389353885632 57.130059940665603
80.159542405495728 -68.956313818951941 56.962742752812190
87.953515193355997 -68.764227859516339 57.612101448545907
91.504513537419399 -69.077385716143823 56.659540805020058
-52.494259060284506 -70.071401264031365 56.388215621637436
102.870888217566389 -69.584279213851175 56.659947085216437
-100.339846838275292 -70.994973485394169 56.803752030615307
-46.737718988102465 -70.637794336103354 56.841694904237407
104.581534717758402 -70.146180807220546 56.827234470767159
-54.885176996801377 -70.313105258162707 56.899167419255690
-55.121026761646576 -70.012589763973793 56.648311267685870
-52.784739849816539 -70.057858769722174 57.160876725505211
72.652207464748713 -71.073119956448750 57.112896964591663
90.981692772549323 -70.264980303273077 56.872869407593114
-56.590903242357477 -70.511208986641108 56.108416075139424
-49.206279672019207 -70.673051059538423 56.661485040271280
-48.915081486301688 -70.961248560516211 56.812498477219393
74.983064728112538 -70.366726049344948 57.803314134058802
80.888010215546572 -70.131173326151753 56.632285785418027
87.704343003201743 -71.180027048590759 57.226070295942314
91.642703022844174 -71.021392179312429 57.147367728522724
107.065443595549084 -70.507541652112934 57.753760648946468
93.442720366062105 -71.616851770932499 56.362500966080958
-100.388907168976900 -71.732464952504657 57.402225326329535
104.810281466470784 -71.375797270384737 56.200590574453635
89.000413484848409 -72.320452541486262 57.987299784505062
91.961616470780854 -71.301792778833757 57.518519557121081
-57.432157032271142 -72.850903812072360 56.784977313883957
80.400479856597812 -72.341891466379977 56.927516443601775
88.638827009329873 -73.161252950374745 56.895280538839849
-101.190187874113207 -73.392270034082301 58.045392127493848
74.225851944850234 -72.434425024608899 57.393683332970944
88.230178060614975 -73.825908692893549 57.470391725786087
93.126277602499840 -72.596513850647867 57.190888198937557
77.334077044128648 -72.851309078707814 57.673429165434378
83.515174681032022 -73.625557613429066 57.247088169253644
89.333376208985953 -73.621904464190706 57.526250044652585
93.295223343936030 -73.324802544407930 56.641871384330635
104.811313547411729 -73.799517467596672 57.086496999614823
80.774561948650799 -74.310186110932506 56.468189182115360
83.112572143985432 -74.246269313959218 56.623087934600392
88.895711333869642 -75.223729347673114 57.178498574033242
95.891917074450831 -74.993729784165097 57.415504244842140
-100.688504445862478 -74.461170187675620 57.388279624843435
-56.772774816622125 -74.621018802355124 57.287227868106868
74.719955116129313 -75.011138948924028 57.210611264537675
104.369909810039417 -76.057521092241174 57.437563849658744
102.031562135086517 -75.339558892233484 57.007495748234582
77.169583874066802 -75.537418963457867 57.160662441301383
84.308819467205097 -74.900176611146250 57.190532295597492
93.523897785943589 -76.663729040659476 56.571642954444890
84.099953653984329 -76.438990799702808 57.100860856415302
96.917978927679997 -75.779370655409465 56.233147748458705
91.571555495024796 -76.314882265476754 56.634402279251802
102.505522202380263 -76.249379500710219 56.968651235554233
74.151099553303126 -77.469468232638164 57.518236731810568
82.714985421574880 -76.846675332346067 57.397264656018592
77.554234814413348 -77.715691468872294 57.290083385827252
81.603214037945790 -76.920324732338571 56.973372709538474
94.076258057438153 -76.892423138679021 56.477931292589425
102.351529110195656 -77.680242712843594 57.042233469652231
77.807366154948397 -78.001764427600421 56.343342737823008
91.045127448825596 -77.441665965926106 57.202152105038280
93.226129051736137 -78.670424548967773 56.973995814941155
105.768279312504859 -78.202880753309458 57.334602943726935
-59.870147750437219 -79.048436560237491 57.888116256466731
85.422837677949460 -78.675772764418909 57.161585847044378
104.896392671987002 -77.629160166864736 56.223370149020013
96.656414339424956 -78.431540367988134 56.396284199708333
106.387970565308606 -79.104203827480504 57.564969341349446
77.896591155366664 -79.583971210050748 57.081380637838748
81.193934700265842 -79.740922956452920 57.230179434486047
84.784066973350306 -80.488468542080696 57.150627688903157
92.398911478144456 -79.689276057701761 57.250593537649976
96.069276749412310 -79.942319124332087 56.835252183145990
90.162648872388885 -80.218806749445278 57.586267743576670
104.774515465732492 -80.553377257325906 56.899908151729640
77.924259775209293 -80.860324759680267 56.322268018420232
92.729580461520200 -80.512987192502663 56.673483893158959
94.230194912321068 -80.143534014542254 57.618050012634818
103.343164164130556 -80.317682758231186 56.544768856970570
-100.053110742983577 -81.140574513079898 57.167792470835835
-63.205385879955905 -80.670368178991978 56.537434292694343
79.058349252953519 -81.128102399860737 57.240548388557649
85.159149303935649 -81.197550677221884 56.558156539901375
77.476657847580526 -81.358946039781486 58.432669382156554
94.047110294309633 -81.810866757829814 56.424025647333188
104.263576486755071 -81.687936902977867 56.569246198001657
104.819845991538557 -82.425238273924322 56.965790786011880
83.425693656020755 -82.621271777186323 57.152520217190869
81.156284604299188 -82.531718647895943 56.685456649267834
85.874900560808101 -82.356793495540686 56.999513500010892
95.597784828055495 -82.631266819360377 56.480535471089652
103.742707791276970 -83.272601586633428 57.787432786377607
105.818527154481416 -82.677552283574613 57.769109673659734
83.771941425992750 -83.375829961915613 56.975528950901776
91.074617385963350 -83.676742295870440 57.334609261286424
93.375508554385476 -82.094062922573897 57.717234710546713
95.388318694976704 -83.239345561417707 56.822148331441518
102.149305379489093 -82.467559911136675 57.434748092755072
79.631518721489229 -84.277006673615318 57.119449006371099
101.447755920836556 -83.232196420418234 56.791649865207226
-64.707056188343316 -84.375919836785073 58.161907511039082
86.201221082006015 -83.651959848207781 56.356629817482087
98.618321435121615 -84.000426762860798 57.462006749144436
103.650601940462963 -83.656048568997491 56.549518986398560
103.979740967318904 -84.331901594296710 56.878398476331277
80.442178555967715 -84.217642629506727 57.347512626033726
86.418733086734917 -83.955168633135358 56.683030793767500
91.322309013153017 -84.819477655201780 57.141892512122141
98.305834379131142 -84.868241960062747 56.684282419572696
87.567536693655029 -85.507491093465148 56.431067887960602
93.947067835571303 -84.390326078779424 58.036354623474338
98.786806144865537 -85.316204888076456 56.372414068584405
100.692441934770585 -85.165181556891156 57.627734785872434
103.173581954288792 -85.558465292373597 56.712777283714878
-66.875899861484712 -85.825918828517686 57.065142078600644
79.620184184175201 -85.103682218760397 57.030254268195208
86.137045689018919 -85.342086920777817 56.595378173257963
92.956231891030328 -85.826967125621707 57.910258360740947
99.871535565179386 -85.968818112534123 56.537608322115190
102.023300299441502 -85.963779725693044 56.494047729960052
103.867878962158969 -85.650207884725916 56.683090836166777
93.643818090763659 -86.407001497672837 56.570359649134417
98.781192405578821 -85.969376337599499 56.489640372927262
103.307913889832790 -86.294485969632333 56.797567025761815
-68.395745888583562 -86.271485810649338 57.137031270361142
80.430205122205393 -86.317299300938544 57.452679795482901
95.946116622530113 -86.784757404240978 57.683907152836561
93.321165141630701 -88.524834282925553 57.564142037867533
99.686915833585161 -86.949646671905754 57.466977841823649
102.198695656355156 -87.031786109548236 57.147777553767163
85.589859467399805 -87.090794166184011 56.884032017059425
97.276734056503813 -87.274538492772763 56.668877879710593
98.944118146258489 -87.029807974082587 55.603889618190919
103.089933940520524 -88.070530321394173 56.429631579033916
104.080279672062431 -87.940321895726825 57.337606043863566
79.402095621655150 -88.236533709486125 57.747905521553101
83.550732056825254 -88.214881062644579 56.806261491597596
102.417976866367297 -88.044244005450608 57.989017306742312
93.960297698891722 -87.842165806045003 57.260173802822500
97.742091704348084 -88.752301156516651 56.707926698904942
85.812985842579025 -88.689476874893430 57.254010950485089
95.859582594734917 -89.200794864218452 57.093047467053083
82.107279838397673 -88.420588273189182 56.911038735790626
98.925865319309082 -89.115002532044983 57.100138255508007
93.494735467955522 -89.626831552153376 57.151971566790728
81.621728281054970 -89.639543879863112 56.700863077024721
92.671222929917093 -90.451349176509339 57.249359895807977
103.162791031552885 -90.479502521386749 57.464303012573453
-72.461030173800381 -90.742547955580719 57.540673939665695
85.680614429053307 -91.782435499700043 56.854362101675086
98.777076737668821 -91.106698474023744 57.071779669077678
96.795573605380113 -90.876116290735723 57.286136501919067
80.698978128960078 -91.762137293532618 57.288049397550544
-73.401944033154109 -91.879666503747316 58.057307725872342
97.145574284274815 -92.494067657520873 57.409249866140001
96.607500808474526 -93.453093794616422 57.703313575785444
101.715898815249844 -92.662245487217831 57.090205597036459
-75.004502799794636 -92.458111724034936 58.084015266055545
79.546355548384341 -93.130393665109992 56.715459220107135
82.281434391750906 -93.185061605357831 56.833818015334415
93.320329461236383 -93.007930883858407 56.572323968551757
96.272382339997534 -92.902165036223352 56.739178236728897
-76.112970567549979 -93.088811397123294 57.813079518931623
95.417691409264876 -93.380024673072128 57.296333668320877
-98.021128967679388 -93.379920020024727 57.479697672524622
101.384596291746035 -93.683758870962521 57.171319221239628
-76.453197052051252 -94.072252592889214 57.754523406482946
84.722337953013437 -93.910967932062974 57.473881734033476
87.117337572033392 -94.136007615805696 56.501391106897053
94.825070672137500 -95.076245904384947 56.728554279006488
97.589128049730022 -94.695730989109464 57.550438615177576
-77.983064167932795 -95.037210686810099 57.590767110946238
82.742772460521678 -94.943138912388477 57.442537128792594
92.900694625073896 -95.336047258100038 58.245454208017378
-79.173701965177386 -95.310168112299408 57.194533459908058
88.499575742827915 -96.735336069485541 56.861105445219422
100.242556844583149 -96.209827489452422 56.236668225245722
-79.325905142280618 -96.324839324209819 57.521000017001050
84.582495642314370 -96.748108899341119 56.736999810391083
88.297347593721852 -96.762746581366983 56.846379501898113
94.278406570423655 -97.120190623979951 57.368528560647583
99.566972463017805 -96.618059585300855 57.604894638560836
92.655205732845928 -97.662397858375400 56.113339780541743
-81.264830999176624 -98.108712299518487 57.937164991306396
96.775536123764894 -97.208280822233306 57.274314856436199
86.047935772684284 -97.878889798536775 57.734558612360217
90.079819137483156 -97.810902178323929 56.496185300384006
-82.943744639177027 -98.791335460338885 57.059360848209259
88.720503350760495 -99.140034143245913 57.189884170893791
90.388639710936374 -99.223364522804630 57.561653094594419
96.016692040194272 -99.415409631222502 56.902187560524268
96.156794917819113 -100.291299805578291 56.389361802674749
95.112124949421784 -101.304616009061462 58.001409178295546
79.912867493325493 -100.562082102740561 57.688869349404342
91.899543308093570 -101.824031976783345 57.786825400634264
82.719119133986894 -102.260288570429907 56.903579860130968
85.864887612164850 -102.126876340289499 56.534635115103015
-95.717724611322808 -102.268951727751229 57.868352420138628
81.553027733421686 -102.349140483612132 57.019604655180515
85.085452403587951 -101.318121623052136 57.211343258491539
82.434723466721678 -102.311202898476807 57.783416633705244
84.220457448482463 -103.143284059730675 57.423833353550044
84.768994803917366 -102.959804158652503 57.786281804835966
88.102606352223603 -101.678221560823445 56.906682866681962
91.636720470627623 -102.044507858034947 56.312273544181977
92.945579715592928 -102.595996834242669 57.505113943745727
93.084315199050309 -103.061905010064052 57.983907835091323
86.190216202778174 -102.985514693432165 57.134773330474786
88.469074980086219 -102.594934074663811 56.910343220115905
89.598484776868133 -102.953727472544188 57.605769863396524
-94.761068378657242 -103.499670095063948 57.778965454120588
-94.784898743768153 -104.772865601307061 57.782988715170767
-87.814483396765809 -104.831403451934705 57.547671218138547
-93.068483020381819 -106.144895378860596 57.194327256403945
-88.354374414984804 -105.671659935928645 57.158208251455100
-90.530226890493466 -106.348985573400583 56.406249239528385
-78.096159606826802 -36.445825775746016 55.769307539378083
-79.585377252632370 -36.917861319393083 56.387544050291659
-78.189501430438739 -37.081340451736253 54.990950079749119
-62.755012093976340 -37.770049449835170 55.889922345675231
-84.816079349060047 -38.369475255454752 55.968958537572981
-62.370268668553493 -37.399822306712153 55.949231269452419
-61.799549798893494 -38.005222273185538 56.062988692455100
-57.443681806757837 -38.346157386845832 57.213007236971968
-59.111632807231395 -39.581384766288252 55.618203970275019
-52.932346383703596 -39.437089927856341 56.273231742613618
