# This PCD file was generated using the MATLAB® pcwrite function
# from Computer Vision Toolbox®.
# .PCD v.7 - Point Cloud Data file format
VERSION .7
FIELDS x y z
SIZE 8 8 8
TYPE F F F
COUNT 1 1 1
WIDTH 797
HEIGHT 1
VIEWPOINT 0 0 0 1 0 0 0
POINTS 797
DATA ascii
56.404857824004296 -75.858883807143016 78.628095975326048
59.186594235351791 -76.698156615571662 80.323879164775960
67.079828912384244 -74.499551100238065 78.464655040037798
-53.585539250252666 -76.803328703447789 77.439865776496859
56.625534057210842 -76.464947273496776 80.208764536339103
63.473342613218492 -78.111611040998355 77.299515000809578
-55.410621258536978 -75.204557665075114 78.661660217714996
-97.486930037368097 -79.510330490317628 80.875647744675817
-59.271902795618111 -77.670766573193703 75.611949619756700
56.590111762166636 -76.637890926628842 78.223551935657468
-58.759095844110384 -79.057743884190614 79.393217985769255
50.701689548325895 -78.713332969121254 79.436358862611442
-96.720918118828209 -78.856329044962337 77.437427347513477
-64.923653492933411 -79.916635547171609 78.724907007065397
103.208832401864470 -80.461793402782078 78.289017181080951
53.079537018078241 -80.588260445694445 79.016652540239036
-65.214324579628510 -78.532744221287459 76.663072688014580
62.503233958382623 -80.284456800237251 78.411131889539689
65.993636610660673 -79.814595424054417 79.868703862370978
105.239837086749773 -81.150128339489100 78.698461621292196
-97.760793678460274 -81.056280028307285 79.962455383250017
51.306026340732608 -82.996420789956900 79.483477521403287
66.686362242434015 -81.614307924958496 78.769308652267199
48.779364339065630 -82.821186212588657 77.827277109059125
52.273635475655539 -80.983301659601082 78.076414936863330
67.261200063500553 -82.013164155222285 81.044409101562323
59.222916436446539 -80.760678707976339 78.977117428062115
63.737527262816563 -86.099093624926027 78.014669869721004
62.464804395671841 -83.460975331967660 79.314904964803020
59.266845555350898 -85.110056018443302 76.429385097281951
-98.389194972517231 -83.711998925175891 78.175812311295758
-65.595615010072805 -84.389732664379039 76.514661070538182
44.479119639444413 -85.318524770035708 79.542813733937749
-65.867442310264039 -84.413495724218194 79.269138836729468
50.635733183580143 -84.852355557663145 76.046867496278622
61.532805491006187 -84.956634669604753 76.192962855603398
47.968235184302792 -86.356953614007224 78.639322871138575
103.548658876244403 -88.831015074142528 79.625279088922241
-96.561480247506950 -87.886287859223359 76.796945517169718
49.823373829656248 -86.917053727495130 78.072026341209863
52.144271897718120 -84.297064739055685 79.265735283780970
50.330341826199060 -87.169259070396279 76.940732845788361
52.910621201263027 -89.059270186751419 78.097177627419896
58.213292873228283 -87.226383225629391 78.930729376945123
68.411549903329743 -86.847078920199067 79.152369546342811
50.267549455423399 -88.164108071296511 77.574798444763147
54.367687097671549 -88.593157730966297 77.384695920704374
52.130595696706138 -86.394741572295047 77.847319663631666
102.565890120840280 -88.331130847811451 76.980494484745776
-69.927517572917409 -86.500677798392616 78.049892986672177
67.504588972149861 -86.403276872226712 75.846682918464722
68.824299259188706 -88.441954234480491 79.176247408919892
102.484693494726969 -88.028937479582723 77.366157235347501
102.107750954191900 -86.452017259082808 76.955219191170130
-70.376217255644036 -89.423533971128961 77.843818808938366
49.524151702225915 -89.603440387539095 75.804202995016098
55.480406800352540 -86.673688365164139 78.794005714510149
-73.434299190770489 -89.678863268308305 76.843156618387042
-72.227805823072387 -90.419174413605333 76.788621802042925
-69.896510127430247 -91.021702128446378 76.316288534256302
69.372056582048018 -90.320150157787054 78.855591863256990
56.562612713843478 -90.045983181957510 78.094107720393055
105.633195942248506 -88.877681834300006 78.678628990921297
-73.861266313934408 -90.994831062506435 78.855893503412517
-67.607010648303046 -90.027094946713518 77.876901670350776
47.339297369476149 -89.162718345926919 77.928015082080108
-97.905289602357456 -93.011266834980603 80.437052321939561
-74.825117635097712 -91.519650982965643 78.941537502038841
-73.103785213301052 -91.662608921969223 79.269570204669918
-78.759853983630705 -91.659515807634122 79.562873829828433
-72.621118011106603 -89.582353685869478 77.755138671562321
70.939013759423361 -90.960117652668984 76.953137723133892
106.346369763233724 -89.471798251058615 77.749949252791424
47.487828104690372 -88.233626388692770 79.449396753496742
97.102225553713637 -91.512550589373731 78.070189262042490
-78.221151027225190 -90.657840781853679 80.906096209775228
-76.549975174531696 -95.045640263475335 78.061953858766344
-70.484827417556446 -89.805594777903195 76.437320819065178
70.987264603632440 -90.948653100902206 78.296811582558220
-75.214876945704376 -93.454980935691225 80.755597374258244
48.623865680666675 -93.395441576835736 80.465360791800109
52.578815668942283 -92.813102365986708 75.973219727887482
52.468611881631240 -91.713563029651667 79.336075513757137
-79.430177433613920 -93.941193701653305 78.851903262878125
-81.570680401674707 -94.594582983392471 77.373514010196146
44.695706580248014 -94.363609077111747 78.786455710367676
51.536101012456648 -93.745308250384980 77.748867245242394
71.848859373609201 -94.403491032749017 77.945854382110028
-74.960986012052246 -95.161748079316084 76.033042829637893
49.214479693766137 -93.245455383403382 76.810462040960076
72.706348988568209 -93.612519831077847 77.526160958429728
99.454409917982758 -93.171174120013006 77.220540125382939
-98.070680487404800 -93.861773210290025 76.387471578441662
-83.360456253953828 -94.530027247301049 78.533228977786166
96.657700971599567 -94.078608748262354 76.789614982922899
-85.410715386568796 -94.862486638021636 79.315964979891035
-74.378579774673753 -94.114144502112651 79.533604149599384
-71.715496143667025 -94.993311863393544 78.957772013309395
95.710408464253774 -96.986958208537928 79.937597181514661
-86.683892926394577 -95.689227690670791 79.101125533813729
-98.418418666703687 -98.438540384373283 79.037239106041312
-70.203813983554838 -95.078491474608214 78.874234051159547
87.424252609136644 -96.979135558795960 79.487113775022493
89.050635656944280 -97.478698826180732 77.427010952980723
89.641556232964220 -98.258820667437561 78.639929842442484
93.638799389407566 -97.679451614552690 79.549703693171807
78.291227302409482 -98.445285524630748 76.529549784063178
-70.816261912421879 -97.511617869444436 77.682304967946607
-82.789176131959238 -100.002755818961361 77.720308473649581
-87.483430749680863 -101.515357169262472 79.949774035641056
-80.046125590989888 -99.978193828215481 78.934700988963385
-81.041609483055595 -101.206515907621579 75.614721170834116
-97.707520604388137 -100.842499125910877 78.760398888859910
-87.346126791503366 -101.865737666104565 77.325849146475676
-75.768556275168308 -100.483661165959717 78.466563306369594
-75.565018928718203 -101.388665293314745 76.072715659173710
-74.704365122245193 -101.848839217129040 78.861271097478649
-88.491187204848913 -99.684675260985912 78.416361336377122
-81.057673908509798 -102.025665316677816 80.720583077337352
-75.070850762667988 -106.006076367635529 78.260908141577872
-76.011130477257950 -105.484828445674935 80.585459211197872
-82.275479424215661 -106.439153855013160 77.700058154884260
-76.575651272395362 -104.180888980642735 79.718119032489298
-89.893145124131323 -104.345811146027813 78.833203735731772
-76.912466727212916 -107.345798408192650 78.505361909358626
-91.493340663082861 -107.714601858617200 77.891214295985662
-81.075852339736514 -109.034815708933166 81.632476451289435
-85.092327979777281 -107.808348077885981 78.344338063155917
-91.368468249712791 -109.639907073309629 78.018847081101868
-61.497239126587040 -108.946718150506186 75.673144927670478
-59.736449045606022 -111.941489504588972 77.468666076738160
-60.705854074453171 -109.329571325270152 77.064698086953641
-58.798669452863656 -107.611763036868140 76.101509371950215
-83.228616934990598 -110.265964583658018 78.637777652172062
-64.546912637111916 -109.251673552365943 76.343171915328085
-85.117918003652420 -111.197671005753890 78.785866060235023
-93.071228502749861 -110.670216602105526 78.006532151163228
-95.474510009594482 -111.191873954627724 77.701712512053120
-75.293909997015021 -109.795749459747768 78.363392515653700
-59.123644653577500 -111.509073243611084 77.128613012051900
-92.161633142594354 -110.167383114512731 79.155313140984688
-87.426880468024180 -111.044308945986046 79.174159871967277
-79.272745509586500 -111.870004505590046 77.433354082944248
-94.452433307962963 -112.396978686645880 79.190955540113109
-60.977648535088001 -112.084878151836961 79.106990354812666
-58.216602741038251 -112.634052959469287 76.867318252960175
-93.070784221605294 -110.473078360348666 76.661133869549147
-74.822277259491187 -112.674226034325272 79.198304745465592
-60.037410088522293 -112.342416177541949 75.685640314378631
-85.579448546246127 -112.883907919059979 78.257282883357320
-78.659236042386325 -113.668626378147565 79.785352726421948
-77.294168376587834 -112.081562333561720 79.767747269454048
-64.683562538055725 -112.306069974357129 76.896278227430415
-61.882888489933919 -111.291963076784995 77.676198155281085
-59.976744193253118 -112.349363275099861 77.816741929698580
-55.325211843569022 -114.018443975370147 79.790821016703489
-86.801899636321934 -114.024968893554714 78.049411638083612
-81.570209203551570 -114.012662755322793 77.045613514410178
-78.802160956518975 -114.466863139115205 79.072433614909741
-74.568369910758008 -112.624559156073829 79.942433441454497
-65.945062149198051 -115.960832956405724 76.815576462029966
-55.323509390137019 -115.936421632976746 76.729172238721063
-55.037752722763095 -117.257264142565973 78.773590709815949
-53.675937878320653 -114.855693490714401 78.362517586405119
-86.186794123561199 -117.538869695010561 79.970140166668372
-80.748210089575707 -115.963695542555570 77.895417693467977
-56.281312826316963 -114.922398315693997 75.995053117901193
-77.996711699326255 -114.744856243192118 78.244712791360925
-88.308264188053670 -115.238834415211045 77.354514017862144
-73.849789877409933 -117.196924018349520 77.216676254169641
-65.751437437118625 -117.877058039578444 79.726186303720795
-62.934588895667332 -117.808510884572513 78.566049603943725
-52.298894903382951 -116.953164443134227 78.786018998124206
-80.638578457307517 -116.504244469882082 79.790276537038864
-90.603588453724242 -119.201960008156107 80.829307566745882
-75.918728034007486 -116.306883839319653 80.524502199425839
-77.513968289734407 -116.295202553677342 78.622682960609339
-77.294113017585403 -117.054507122960288 80.051504902549183
-79.733635632720862 -119.984997325586875 78.269148387626842
-57.038281401027881 -117.726795717284432 80.503706721724484
-76.410736925541201 -119.283039020428077 77.847772904089197
-77.115323652454208 -118.687217921563786 77.100032480552699
-75.132552673550435 -120.476130459735202 76.936455491477957
-62.397745643796767 -117.349054686826761 75.907059990158785
-83.882628315700700 -120.386288117582211 79.471925279469048
-51.173057057718601 -118.463791121642714 77.073663113730660
-81.129461530646424 -118.840126357573297 77.362871367489134
-77.689361026362249 -118.333774794352024 82.009220185388216
-76.887781778599503 -119.646248576375768 79.215438526289191
-52.750224919907247 -118.857983317351170 79.139466808208894
-90.086041281724960 -119.337015799243858 74.904235703823403
-85.051282318764706 -121.751863249560671 80.221128956359436
-64.006059989390380 -121.026117180589495 77.744070728289543
-60.759771678719765 -120.894619582525877 79.722234257375305
-91.480942603437853 -121.474648431866342 78.742145320781802
-79.475513565557605 -120.856030425968328 80.418831134593844
-51.817640896422439 -121.151522027310648 78.284198113519750
-73.966920527967346 -120.409445304381080 77.924761605712561
-62.531532533394284 -123.901787576428262 78.855373386427658
-89.574110479282936 -120.289460411600601 80.708916406207322
-53.322485759779674 -124.859960306845636 77.563887086672281
-91.313402969645665 -123.308733453758094 77.482846136909018
-51.014919432925559 -119.773537018085364 77.462447778434779
-81.008480273219618 -124.723235480852225 77.466423821837907
-49.538581295875176 -124.830723814966944 77.819862804662861
-48.892127349813506 -124.064805397245806 74.772235194287106
-93.003388401917547 -123.708510601665751 79.750148141079052
-52.924968744671965 -124.485987105939529 77.192463433969024
-86.450066408506743 -123.731099895921233 78.116088285721773
-75.618835743590310 -125.589157410940771 77.291154068162868
-58.224628954370736 -124.984804316059694 80.693659952719997
-54.111724402880171 -125.384229344102010 77.298106766228912
-49.726511912251738 -127.087783014242660 76.121340699269979
-92.762895331314880 -126.992942164699230 78.768267867954407
-76.567834849227282 -124.378848040066714 77.941841701181446
-87.275603776688357 -122.941605813623028 78.656158842192070
-78.680762249509371 -127.745942856014494 76.650213424059615
-57.974464794374917 -125.587974284534653 76.755348345961437
-51.564660459539425 -126.823539402826384 77.577879656227012
-85.864477470955777 -127.450068517093683 77.936029492600298
-72.059690350954611 -125.925577998740636 76.742892115283510
-95.085798990184372 -126.356382103337410 78.396426805229964
-77.411929834040222 -128.898828927529536 79.450145470667493
-51.800236278291294 -126.907808624674857 77.162142093982226
-58.292230160218793 -129.613555847876228 78.411405927541878
-54.597324343576020 -126.825069781048740 77.351177259744020
20.659011121355110 -128.794515736007014 78.285456180018258
-83.770859445278887 -125.061811154125309 77.453025978315097
-77.243848660835752 -130.988901533898002 77.670715068632944
-55.620060632084723 -128.504344175466940 79.293654113887584
-50.826565645508090 -129.073175506879522 79.299978321720488
24.026458414409159 -129.056237326151631 77.202616338833110
24.971563267970986 -130.484668440319041 77.729951280671443
-89.361416684118069 -132.402025027613860 77.259332159136122
-48.712833525315780 -127.259444084201306 78.472380424128005
22.697503388224519 -129.902961606259481 79.139613662942907
-74.656782132882753 -131.026786936724847 78.390049305366333
-55.977364912870989 -128.076077945681988 78.314488989481745
-54.706632377386711 -128.676091822691546 80.712552378087892
25.156690056297894 -131.065246282014527 77.567937928640319
-58.965444644111720 -129.369293779130942 79.285696229026328
-54.014917059511639 -129.045774910239174 79.519393301640505
-49.670040201699358 -129.550502775677188 79.469202227763617
21.273876812083781 -128.841064113019030 79.978466330414605
27.133746143778396 -129.285656329719899 78.264940597257961
-94.545923536601165 -129.659699667593856 78.281676795322269
22.338790795411803 -128.646548931765579 76.110691892180711
-87.838838272717624 -128.016635978523993 78.575016292279358
-60.208724715014327 -131.478041766067207 77.561956280925642
-50.046725747252630 -131.708662923613787 77.028382252006480
24.216595261932838 -130.343995624549905 77.206611395480138
-94.157685457595164 -130.399741040364830 77.173566160744841
-57.899620203145354 -132.329090706489552 78.099543122373291
-88.223801253594445 -132.330938366586395 80.635732273390005
-58.598813972386132 -132.109678275558252 78.840196089218111
-95.290074965888479 -131.421560366137214 79.351571537262146
-56.091927516699030 -132.809834466914538 75.659026695358222
-89.785140968957236 -131.905298464539698 79.778263269465853
-54.571694788166184 -130.786665233388760 77.432441499581302
-50.477762973187914 -132.777745624324297 77.651930376352681
-51.808345942751814 -133.355977861642771 75.787878783549786
-55.126360401850320 -133.801506343459209 77.654725756325874
-51.466627066434690 -133.165734016134650 79.116681409878865
-96.637359934964167 -133.567743041078131 76.793167214107740
-89.704922472931017 -132.168140282474297 78.496248265954080
-50.052921759875993 -134.074243438587814 77.761345410771511
-49.320919436742329 -133.883061621892921 78.270008939919521
17.133413562241984 -134.106807588806248 75.820442759094192
-50.920369734019296 -134.551962254270592 79.802937768847457
-91.405053039211580 -135.007736299113901 77.608579162675795
20.720449143933315 -134.509020900669697 79.302195738137740
-97.533025593779399 -135.054675312985950 78.237743293061271
-50.767652967399869 -136.990852203211915 78.980849453298134
21.174014489003739 -137.750977856486884 82.043235402118725
-97.224794443418816 -134.836965056441016 78.687308244950543
-92.687116788980973 -134.301166845732098 79.199273587766271
-97.796629920797557 -138.597636619979113 77.623907263999214
13.217118996033120 -137.776357407155388 79.551731176159151
-90.718610694719743 -140.916075069344913 79.906292690927287
-100.296775831008475 -138.171152303720419 78.146453808829406
-91.342437318314396 -137.107695612344031 78.429531144278641
12.259802978339620 -138.962288227681285 78.395988835493000
20.874048310573080 -138.814851605280523 77.532066320613140
-98.486922948837758 -138.855975328929532 77.710516384058863
14.405089965718650 -137.241210908704630 76.353171998327767
-101.386592868252876 -141.973420826728017 76.964718450185188
-92.411037154498871 -141.941834428548475 77.647875829796902
14.309595596585899 -141.343072075772341 80.901411982861575
14.638306376629187 -140.953928983374823 79.938093844184266
16.121035353861483 -143.385846785510921 79.040031356477286
12.195064722120138 -140.841183553440715 79.277783903900144
-100.705163322682395 -142.979763041827454 78.479643148728869
-94.226028546786864 -143.991627214512192 79.859871201030032
-92.287478107447455 -143.652065736831105 76.925849266298542
-101.170853165360015 -144.241794447007692 77.552961743268909
-94.913568395480212 -145.796435367728691 79.178143148505001
-94.237990542656703 -144.971552601446774 78.910257788538956
-100.205118193947612 -147.474695624216452 80.350220135570808
-95.393546024690451 -146.828146338840668 77.723702525831271
-104.176900490314040 -149.830353727034208 78.822633142168669
-102.520836998626692 -152.007170648319601 77.438820832038957
-103.167083928499693 -149.602508550300939 78.848048962264315
-100.710195502400111 -152.954153839842860 80.364861380921198
-99.327303625134775 -152.795840104721123 80.436078664072923
-104.327194987990552 -152.408810445283819 77.099256715844461
-97.921806822396363 -154.581557727517122 79.189598497222846
-103.324192049669719 -154.423867862347436 78.224886088074470
-104.150326629699705 -155.935108550890192 79.026852769185268
-99.329776359539423 -157.216717848616952 77.805698569587861
-108.739444609237850 -158.305250997950566 77.799211287716034
-100.712131925483192 -157.849045164396443 78.008027588946263
-106.421533235332461 -157.154190196879654 77.506414866888449
-101.708465577218917 -159.965895881182007 77.811091829906147
-108.999731512146781 -159.547824846061729 81.616883412152845
-102.068220724962416 -159.716356167829986 78.430899200291719
-107.558050084724385 -159.350896385772501 82.065801089664205
-107.786479971512861 -161.006275751918793 78.904940616343509
-102.286510873278800 -164.189969261830214 78.055532461406756
-109.384868820640165 -161.143656913792796 79.693822378406892
-100.755093622153254 -164.583755304503995 79.745027362422107
-150.689891982609623 -165.750845242226973 76.869236588807723
-106.837999535381002 -164.537447048738215 77.149544472017524
-147.977146303619321 -165.668115267589485 77.643684426313214
-103.960182610248268 -163.676246559947742 78.753348215898214
-110.579511910161486 -165.323875310499005 75.876152800982524
-152.554266333079568 -165.743020653289904 77.214792247611058
-141.684031581146286 -164.833688584907719 78.725277438947373
-153.611855668155073 -165.741689605410329 79.000765484612458
-139.939327087403740 -166.582599893701740 77.099706275351252
-103.261363763137126 -164.016569099469336 79.423082090973026
-141.465538468026466 -166.593202859728848 79.523164685096390
-109.030737612541898 -169.060086618443023 80.249053558955566
-156.209092946269777 -168.605820886421213 77.490805563357554
-103.063481608372882 -168.043082365836852 80.098840049060968
-153.411984239326472 -167.797117073935397 79.572281407043647
-110.303976030032231 -168.917001126845975 76.589207480727865
-105.853184121176625 -172.009997356993438 80.543979451379059
-152.289225250594541 -168.904072983014458 77.849622677973784
-155.054456877718565 -171.734835196665045 78.911790526085554
-142.295302247132440 -173.211038194205230 81.887986422935356
-111.719654739621873 -170.592169569783721 79.826755958299159
-104.258855197508254 -170.778863330108607 80.419393120061059
-152.648042834717273 -172.539359214140831 78.793597990270186
-139.115607313162428 -172.768249644486588 78.043258163247017
-111.836554125705064 -173.379254620473006 80.214789093823484
-104.948525345528736 -174.138748241899805 78.131866238358526
-152.381091809563060 -176.494204543883598 77.228769523163308
-113.597777201035200 -174.451389932400616 76.316705294860185
-140.820002185404121 -178.925339223986100 80.222002706571530
-101.905196999806876 -176.498026899776391 81.999781258370319
-106.644009128980201 -177.634599189208444 77.781081052796978
-140.854854677498679 -177.123581708004764 78.705867213911731
-150.314057001419087 -177.755413992340920 78.092849502950457
-112.851923468392911 -178.087241322046253 76.781354291243403
-144.551457295978878 -176.626094876282451 79.570518973022544
-151.941091472658485 -180.980427616006352 76.852147310474805
-145.061133278773582 -181.228227775203663 79.968178809767181
-112.358662102681251 -176.500404091914476 77.557831200142672
-108.678594308979299 -179.895334461907765 79.672076456306186
-151.444170557425025 -182.011396706955594 78.049971661822795
-107.697079354457159 -179.679616528142361 80.096991745220194
-144.615996567124853 -181.861670473641510 80.310052408339374
-114.440009745596114 -183.034051182231082 78.188885961628102
-108.976798436350194 -183.144835499420111 78.160641367560430
-113.999630114258366 -181.322500369960778 77.558289983540419
-150.695010802280848 -181.286097171241892 76.318381686829383
-150.004573578357025 -184.400818662150471 78.126855987207094
-142.910098374802232 -183.671580830707995 78.925463230388061
-152.723625659621433 -183.803490486065954 81.070800354571617
-153.465518470203222 -186.284723303931912 78.237932418737188
-129.561784575610488 -186.107175659985529 76.518389765416288
-128.918305623648052 -185.147409215579899 78.006685543660595
-124.287866199473513 -184.417800905625938 80.379261263996995
-110.246306708116251 -184.052718085731328 78.523710893611025
-109.823707014809457 -181.166106392788095 78.327222563068077
-155.425071612480423 -184.053117509940336 76.793933327157902
-144.570653609119688 -183.074592905035928 76.853938416493406
-134.548228483050707 -186.157824771868491 80.063987001075958
-124.795062582817735 -186.427169514000354 78.330005597379468
-124.724968799138935 -185.153199478418173 77.479152567621455
-113.468028314918442 -185.610006897389212 80.569185323168085
-144.076039265123370 -184.377144248172073 77.160509688179545
-130.810722354026609 -187.851255703962977 78.655471709972446
-141.979469079099118 -186.768312936539644 76.797034984944418
-122.891252196727024 -187.000707606967353 78.900938141098592
-108.144329994520589 -184.916387673657255 78.643388819170823
-154.489605845841766 -186.738476579634437 79.935320953696831
-136.321306821592088 -187.179770037278416 78.063490128185194
-142.011195708731520 -184.137212806068391 77.910118559852378
-135.691487427848415 -185.556739253507516 77.460870172735440
-134.706118751595028 -183.145880015686942 77.083415530522927
-121.266097232660442 -187.956050853008207 77.318468261998277
-114.396879688856885 -188.405256683174258 79.708986785444708
-112.051839003779449 -184.013484445681968 79.435471001563243
-120.690303328159885 -187.225323714743297 78.757815207484171
-117.438074591182442 -185.522687799192369 79.662154664914638
-148.801642119533312 -188.015853004123869 78.778143470659728
-148.976314335121430 -186.823534393881943 80.297976806049405
-107.660101648638857 -187.011243539469007 76.762152614425901
-146.069511538017650 -188.427971039271711 77.811520158757318
-110.664404316602926 -189.864886746696186 78.560942126552305
-148.102848628463221 -192.104262468899861 78.307825394301972
-148.362245912852330 -191.066467241312068 78.703553670550349
-113.166243658618512 -192.495812799275654 79.155963328294234
-140.341622936886068 -190.737613812240596 78.087054378203220
-141.353779371260430 -192.045275523885266 79.525518012451045
-136.776387195551507 -191.073499092070847 76.095062400686189
-139.647811893456577 -191.579399266454629 80.744481804174498
-134.777775828939980 -191.818478678651843 79.763828719945778
-112.383365024772246 -192.237708148115416 78.319028396933390
-142.435965336748410 -192.967493381610382 79.844536086170038
-142.747272121356502 -193.482904555924790 80.029110954077979
-131.896257799950718 -193.792420151644222 81.051603756692458
-131.935636383463589 -193.427616776338994 78.576504381081776
-119.126645166472301 -195.993117163996430 78.730451886990465
-115.110692582861958 -195.982500951118652 81.328938107177137
-143.581269533679119 -193.313963480064217 76.468162203009882
-145.704721835117766 -195.583173392385561 77.560859370407485
-144.503403978637465 -197.539988236670808 79.090609653108672
-142.712358373171526 -198.300739684449297 79.998645873830910
-150.185230141482350 -202.077623082509064 79.752806381824911
-144.849830515880257 -206.124361884767666 76.979137013975901
-147.430965611633184 -205.633191249307060 81.166919409997462
-148.830022175498186 -208.497361859382835 77.141941354021881
-149.644637536363462 -206.580408526413663 77.539164117205814
-145.940898119228564 -208.202661609753278 76.352667052744479
-149.963306028315628 -206.970268723908305 78.874360627768738
-146.535562867475448 -210.244902573401731 78.927302247772758
-143.936520820455314 -211.875755949552399 77.943655812209002
-151.025468432760334 -210.469958751634294 81.126504992696837
-149.217945515838665 -213.674378023556557 79.060367351553026
-128.399362773684373 -213.386976101106512 77.351776430133967
-126.050984400684897 -216.031677754893821 76.406284065270881
-133.548215512549319 -215.286139512625198 80.643675108352340
-128.829091423705876 -214.793984429453161 76.639719973620089
-108.481099186020813 -214.970615700041208 80.186239196925172
-133.529017134208573 -218.158434209891141 78.613446973081167
-110.398021292199701 -215.625522352419438 77.552836290994421
-109.009522283960280 -215.467481564184340 79.011927764513857
-108.651110483998224 -217.735977222557665 77.427652735110811
-139.092712720524020 -217.204680972121054 78.102628394774044
-135.878484284304989 -219.259504589554666 76.098153155363278
-133.047833868014607 -217.612739170729583 78.822806484607540
-124.737646684433756 -217.694061579808192 78.117957276341230
-124.308587361471169 -214.943607720291283 77.042097005044653
-117.596159769614999 -215.849599905892660 79.902878942598150
-110.588676643987341 -215.571405307722699 79.122740107330713
-139.573561938822365 -218.717858378664943 78.297751575285815
-135.582306242543183 -217.577439245411227 76.406914865436249
-113.985680198969490 -216.595446674700980 78.886597509830366
-112.299530782128187 -218.440403664290017 75.391851073049054
-110.339290504464998 -218.971315318115671 79.325860124148520
-120.953662165553069 -217.921531578624268 78.635270757977452
-122.484392256613788 -218.090849431863575 79.166254488415532
-109.997772634943047 -217.410225507058925 79.815385763145031
-138.322938232651182 -217.593296703395396 78.395842711280295
-112.387103106045359 -219.382937750431836 78.968440182266463
-122.837520327586603 -220.113072016556970 78.573850018166922
-140.394933329096631 -217.000973266014427 77.600915668036166
-114.351723159640898 -221.189146531098913 77.011103857089893
-142.242646247838792 -219.275581641670897 78.702287548887071
-136.750060258284861 -219.612509167894558 77.112926494083581
-111.305242650614360 -219.987348187646461 79.743060818789090
0.334456728189962 -219.267071613047108 76.744028981806736
-137.107154851970819 -222.434470458357737 78.104593722850936
-133.492852806406120 -220.258309389147541 78.221549257965592
-123.046503625266382 -218.757307263680133 79.535071195884797
-121.846018448214664 -221.072037103832685 77.880399735594906
-120.171576660124501 -218.567852605752705 77.228340590858096
4.474714696494637 -222.727706409065320 79.837308767401822
-112.911389554740865 -220.320305102220829 80.401308266489849
-116.806492689988687 -221.520106870084362 77.795706208566003
-137.768466629634418 -221.640966599133520 80.087362853113760
-136.666866034908054 -220.584068161383072 80.778137583196056
-134.798849367469984 -221.266965055424606 78.527780079437335
-120.622428994178605 -221.488617503095639 75.688526840442535
-114.505226591924412 -222.891599742408602 77.814570641692541
4.786086526018476 -219.472669714547436 77.223430739373200
3.886542800209994 -220.175897171232776 79.458866706995153
4.390786175715326 -220.389102447407339 79.805651728329877
-134.152926396373886 -221.976491532666415 78.219825688797584
-124.403264509656623 -223.321661422083537 78.489379632139730
-113.307622855665670 -222.477100192940100 76.060901199891376
-122.985511530591950 -223.735992344806135 76.568185025210653
-116.873594885113704 -222.203921271333911 77.842722028068110
-132.069736112970503 -223.997146121057398 79.021491302500195
-125.564297819305693 -222.866365986777083 78.384216354849869
-116.070890889746664 -224.770364255412034 78.084178170447316
-115.508107300835505 -221.984217301623232 78.675629419761790
-133.776184387523813 -224.194112076193761 80.748969975240442
-124.659441891863111 -226.677669820906743 80.303679865649272
6.265931497223715 -222.874262305674080 78.532136878689684
6.502538426422250 -226.362375516102190 79.827154161143639
-128.932905474399973 -224.314539064001792 79.227809266588253
-123.944626186616873 -222.783215604881093 78.599294189017129
-125.690270814446876 -223.111344138716703 77.552731682551084
-121.270283905385085 -222.625524174993416 77.907476895402738
-118.461368468985924 -223.203524879373504 78.713910979379961
-116.856740494447308 -224.982665747196450 76.279063139739037
-115.903025828694666 -224.350982097145391 78.983853587857411
4.258189967563029 -223.196566760953630 78.701534944149714
3.031035217340039 -222.292367351344978 79.241912218722376
-124.452477590355841 -222.900336505426282 78.055237542919414
-1.093784326221620 -225.689892571760538 77.249810522439688
-149.361861000361131 -226.243213137139492 79.681463217770414
-143.389023972533948 -223.899851512288535 76.626512650405630
6.861379622465622 -225.031822802493480 77.240109534130525
-148.033320405997046 -227.558312792339166 77.736629965636951
4.257183927650456 -225.580162089393468 78.861665548718094
-7.228019806439249 -226.673892299954417 79.664020418948994
-4.320461478115470 -224.432866999394435 77.873725171455504
-151.459855309399586 -227.996216218727028 76.633039911431851
-146.579131465894704 -225.602437737573467 78.323332631825920
8.265038127475066 -230.680977880982880 77.322488524099455
-12.240036634274315 -227.144959250017394 79.496660661844359
3.713355185582923 -226.040795026804489 78.053688626480167
11.040973836886266 -227.519501096575993 77.813210852256148
-7.860329131102906 -229.470434611962219 78.028464820274792
1.163289995361865 -230.787375190435171 76.574670722182205
0.612641373782291 -229.790848910989155 79.386085332445660
11.072975792744510 -229.747655453329287 79.652894085089500
-149.755454190426263 -230.706500636665766 79.776326023853215
-145.454119862529325 -230.787420015038634 79.316957262490021
11.427272290422620 -231.136123620756166 79.816717306685916
7.243871834267393 -232.245587539646607 80.029439285253346
11.367552183018361 -230.692581497358361 78.732622612840927
-147.077375161206703 -231.016238592580123 79.889790371021988
5.577107883901023 -232.158505364970381 79.489290158155555
-8.121541563089878 -232.343262874890769 78.231953508469942
58.201127821444267 -231.579868681137185 77.979672355932649
16.803514499092650 -231.913571879028126 79.521602424284893
18.059004572716571 -234.101690605011925 78.530714724932608
-146.618255739222917 -233.022764378300622 77.560045081522716
-10.417417886847181 -233.564504569391914 79.825141707493643
-7.492126752787324 -230.664505208244719 79.160129886265807
59.374265457267647 -233.363858965543244 79.406092599596192
56.955235799648300 -233.323652752279230 76.435478560321229
59.964642276770704 -233.420445307744359 78.432948669586438
54.538562378579847 -234.392055141259760 78.907231750691679
-9.862452920022317 -231.924976027356252 79.188657000247616
9.537835624176113 -235.696762068555984 79.743002057891019
-152.691933791007386 -232.648288410134427 78.569743351996550
52.822557100611476 -232.819374643577476 79.362917877175363
57.941386579258698 -235.247671262175970 78.476588881240346
53.916263283567432 -235.493149566210093 78.273735406460105
-149.985645153299743 -234.218892746463837 79.500487074530383
-8.968191664492963 -234.663954749252980 77.910834931356376
54.041698951199614 -235.972751923720978 76.367507800987767
56.751069726056500 -235.789005255017400 76.289264953645329
57.438324501536812 -234.176341971892668 80.794813559917500
-11.045917924137711 -237.624390758631392 79.590497469632012
19.183945897982746 -235.806729441299609 78.079724815762916
50.896921990342165 -235.354674735508951 80.223019749894860
53.731920975174091 -237.476957300532376 78.342175283018506
-149.333903502671205 -239.082318192494483 79.329749102753425
21.191774672885000 -237.676593025683417 81.771085511790830
-144.040533373656473 -236.821836153464744 79.504280232338004
45.595002997065919 -237.051849051677408 78.998098092248142
55.492077266636514 -240.183199301438663 79.453639057431985
-146.398766738308694 -239.636358267185813 79.235279261038784
-12.582245338881647 -237.701945261977414 79.554977660601921
20.544545234064994 -236.992061769363346 78.591490445356783
-148.904211028469120 -239.420379232887910 79.162177804839118
44.501553964146680 -242.068378996852687 79.725750207017043
51.833704465104141 -238.810353565821458 77.924355163284758
-7.734265248214706 -239.170023354003092 75.455105663096901
21.090997626447923 -238.002820922566258 80.552629457792747
43.314512086173139 -238.813212669797196 76.472710033997259
-147.859474643115448 -238.854076141220304 78.685075332558384
54.333269327752156 -241.634414231351315 79.805550849527847
-151.945215439952108 -240.032923024123306 78.298208627972230
-8.749803584573947 -241.884609208364509 78.259940119859394
51.734103546217689 -242.538209322749452 80.095351467997645
-8.869021968254293 -240.578774515141617 79.850505627956437
48.405969754874413 -241.633905404481027 79.137136013194038
-152.241486178114457 -242.813202233455286 77.072058026795744
-9.058935837285469 -241.674620028763911 79.101526615920477
35.228607763641691 -241.672222121277514 79.824628727594913
46.954127531977278 -244.346013279949631 78.193228179316307
25.461089321762795 -243.635803427300090 78.585440456433091
32.675828777882394 -243.367675446830532 80.799018281182441
48.345368775809881 -246.832467448689215 76.543794586865232
-5.185985304788336 -244.173888511506362 77.195045226657015
43.794443903203017 -243.273997326387246 77.699643847126708
37.187844741368913 -246.789578496733043 76.737195196836510
-125.334728680852166 -244.617561375077599 78.866527645285800
35.645804056132455 -246.491457849706535 78.174281264695736
37.410445795233336 -243.726982683996937 77.734903209465145
-132.499153779002313 -246.043221141534616 78.371286353780860
-127.021582463015761 -246.405498903285093 76.436331836719603
-124.921674792725497 -246.004641256337493 81.331887338351351
27.460946419619116 -246.051944847410653 79.788618635918041
44.455470717835198 -244.246863130718680 78.419724034490400
-135.244570017437269 -249.627943777906410 79.911757306574870
-135.591868267132895 -246.108421508652555 76.937612137445910
25.251465086206494 -247.628839952929809 79.052791566239407
34.102522885043889 -244.929691321687102 80.690954235815184
39.051796965551389 -247.583183908777130 78.228766881867529
-143.244819244624779 -246.210466757914560 79.724136810113748
-130.249528486772050 -245.151291504441161 79.190912701265148
-7.034272108861249 -246.628829812014999 79.314009626567440
-3.032774647019680 -249.072582916947056 78.897405524586972
-151.021549692411327 -248.477391213394526 78.397781716935015
-136.595248553044570 -247.195476660741576 78.016277954976786
24.258731058820860 -245.749307095428236 78.394930401080828
30.591783388633829 -248.471568419763344 79.148496147625949
35.353946053004151 -246.702112511658072 77.523492168576368
40.874400693395309 -247.903839476204269 77.481413588357157
-144.838098219597839 -247.370544908134946 77.086748020612461
-147.647092293264137 -250.370742342442497 81.610417884112195
30.973576129667887 -249.445874092683425 78.435587914741276
-134.520679822484993 -248.594692821408273 78.089683064337777
-5.076266112134755 -248.634734056664001 78.493514647743510
29.201236977438196 -250.863985796043607 76.463039657504339
35.861961848990283 -251.698715446398808 78.914055000937182
38.935962297301415 -249.553869763833006 77.818090390050244
-140.647897084995151 -249.700362353126650 78.395293492007752
-140.677597618031484 -249.284096875967180 76.870075058964105
-149.209939403292509 -250.435509730010153 78.450336579435842
-137.617099362739680 -248.686024662466878 80.609191951517332
-4.010648217064399 -251.279908596316147 77.793711469466544
29.336821930497688 -249.357524362906986 77.161492540232501
33.888226155807040 -252.091769588922773 79.478392802042094
-124.349811117442741 -249.756935561292153 77.801821207672205
-2.143940511554093 -249.713771194552919 78.187261117315344
28.017486461885312 -248.030522675752081 81.082016725119331
29.727764078233971 -249.248622910645622 79.988385507529728
-147.101326270776667 -249.923377070258084 79.808419559164278
23.691713480232202 -249.260889587012798 78.594839489020003
30.649291370257181 -248.885619650184594 77.945725809546460
-146.871829413881642 -249.994719630361033 80.439461926556277
-3.293159290349655 -250.936008912560283 77.140070644215143
30.112984965720742 -250.787048172983532 79.156194085575535
-151.362292379295212 -251.814572223693460 81.750555366227857
27.256100721171535 -252.000205618600546 77.372796995207537
37.342969226426092 -250.961439168980291 78.181769570982638
-141.817359713946701 -249.244085171457129 78.457994287616117
-117.541647323625654 -253.861647994928774 79.738841402571978
26.874314162619132 -252.289084406807035 80.025409880550541
27.482845087403685 -253.458534677635555 76.984305123811083
-134.197368594273740 -253.063847919114210 78.757990476731351
-132.758466762242136 -250.531404052962955 78.293409170731650
-126.371370608782271 -254.112902661718635 77.069009212202431
-122.784714367114830 -253.411854137850924 78.181888324719878
-118.784571041243467 -252.111757533589241 78.609806246333449
-2.440060652343676 -252.036005341025202 76.832795906838726
32.698800566089034 -254.601045873456997 77.844572171526195
-133.775710645569461 -252.423503191732834 79.342383139173549
-130.649604426351743 -254.865545878427668 78.935000014178627
-131.103754634326521 -253.869804012013560 76.634088606465241
-124.214793918245491 -253.460468833528182 77.707122249873038
-119.949917584101158 -250.409156380820605 78.184845863615578
-117.080871908989280 -252.449745498487573 78.311148525307374
-114.077241510455480 -255.080018633434008 78.036491590942830
23.814370222343754 -254.367106764020036 77.929837417991607
-132.964850913148297 -252.007373785268499 76.186985887647808
-129.624496455748528 -252.096291001073723 79.928609299470935
-126.858469470798141 -252.050054803795547 78.242942224999695
-120.984703353580741 -251.706429283685679 79.868991216062824
-2.680175612566645 -250.458218210590246 76.913514539979758
28.516404071371344 -252.388254336130387 79.148829696893699
-123.418998104731372 -251.714855296754422 79.178018512063375
-118.962948586719065 -255.986442506471292 78.572859872440119
-115.869033260746974 -257.050175601371450 80.088141666820249
25.272976830463652 -254.259477308519479 76.615441873614870
-0.644377326705843 -253.506978494280645 77.926743470269315
26.917555997876491 -255.249128118469400 79.425017644532261
24.264564316757649 -256.712841480271209 78.217290357305586
25.281606310020450 -256.583161778760370 78.282904456281315
-2.863379091725631 -258.733136235159975 81.615778881647500
-2.712897346850635 -259.418367404736216 75.843150763250776
23.687620895571509 -258.956111004369006 77.847530652412701
-3.820645970276147 -263.078829258109351 78.367937282501572
-0.328162369866937 -259.860719640425089 77.555589016875032
-2.182175189432159 -265.121555705974345 78.499321175051861
-2.861087387150312 -264.858861339437908 78.188814979406914
22.133823694815771 -266.764295869902128 80.544001687237099
-3.386576858919214 -266.565663064544310 76.838723700930473
-2.898540792133680 -269.192199443174843 81.201402542956927
-2.380197479497552 -267.492149208393471 78.172369599890672
19.094680063379293 -270.454395571397129 77.876917665225506
21.958783704240513 -270.855248647030066 78.174119326962114
-5.156431215003733 -269.832542389320110 76.631433113578822
-4.576792057205179 -273.538804468899059 77.276788214615962
18.409361868557873 -275.097658680966390 79.690284698036578
-146.662508278987360 -274.447086195390511 80.478520288974337
-6.036798334730008 -274.755497709946610 81.070028464564132
-156.196859538532237 -271.561352049570814 77.882953732967721
-128.341128255854670 -276.930519778677706 77.792485415707986
14.167488645458169 -275.839885058183540 80.081619522225949
-129.133469585316703 -275.048304945901805 76.671902952703036
-126.508657635177713 -275.034073295385838 77.738892742652155
-2.117077274481604 -274.964331731703510 78.020920025304633
-5.315195568650000 -275.920333354483830 78.708624665360759
14.650905868470748 -278.871225017955680 77.647978273814772
-157.452379263151300 -280.664943159828226 81.196218534574385
-124.506568847172346 -278.800575826611407 78.286032318595730
-121.525258719868390 -279.116680621957414 78.982519755812731
-117.756481566646315 -277.960250144975817 80.528228483157449
-151.752713715278674 -277.397009384484079 79.522968617590763
-133.493872323246393 -280.684954136924375 79.129043331445786
-134.018169316850475 -279.369946040986122 77.493325121290837
-131.806440569182314 -279.163479723161629 80.643631811687854
-126.715515000073793 -278.204334025402716 79.320309720409583
-127.245989497204832 -278.931591384510966 78.123600841313788
-4.128544430691921 -276.176497174498650 77.559576167259479
12.395141078441767 -280.794411984634053 78.810555648282516
-150.062638644213195 -277.166085469019208 76.408907860801023
-123.843961630249538 -277.349606500249593 79.878599008198307
-120.362923378022202 -279.330153046178395 79.627912314520842
-116.413820035984557 -277.524697233725192 77.114149342926424
-115.879059547100823 -279.281343225705939 79.371919235905722
-126.985474350687838 -281.490857663070642 77.538778054649740
-3.273533967257174 -279.018429651486429 78.671944676559946
-150.968632442650915 -279.594568040040031 76.447049682965684
-132.713958074582166 -278.958332161732415 80.422793128938665
-131.379970553803219 -280.943238833959640 75.447932226570913
-128.201094451259763 -279.456415228561127 77.625267922272656
-124.094947298770819 -279.986052741331605 78.011786666280514
-120.291846361089142 -280.278863102944342 77.887649738236419
-116.223638735030576 -280.207786044724344 77.872399841480359
-116.859004607704520 -281.057990384480036 77.956690870067760
-4.252336386923068 -278.295132279775316 79.881575513590860
-126.039666121345050 -277.810380278083244 77.890330079682158
-126.676165875455752 -281.128108981256673 78.735766115210950
-156.649842588502707 -280.093720249844750 75.362762713993419
-129.905604469340062 -282.100256478835831 77.844056925716430
-126.277274973583758 -282.198361810220831 80.020135904877208
-119.491105318499137 -280.566310735904722 80.473346779508404
-132.634957039265117 -281.019805725559991 78.586368027860175
-132.925053204437319 -279.592467477629668 81.077465710770326
-128.794489637935868 -282.340806278065429 82.756644492029992
-1.368120280096832 -282.029209294478164 79.527739864012617
-154.637507598891119 -279.819789546584389 77.745808691215032
-128.645715514420232 -280.796525873591861 77.415420680036064
-127.987245808135555 -281.250715887773595 79.704131318360425
8.263606060906534 -279.421757518180641 77.821841267034912
-143.497304675568529 -283.254856138584103 80.303007286698829
1.779874381926495 -281.674086586441319 77.325877993198517
2.748680544955395 -282.855838217087523 79.159645727981797
-145.418861735441283 -283.211633018059729 76.966887935158212
-153.565803422727186 -284.982212472913886 79.431979806061051
-144.954312269165001 -285.500731757803976 77.223968047491525
-152.030378646713700 -283.457934679101584 77.425028028847251
-146.542749200860300 -284.715560910714316 77.906751331262342
-150.165431789427799 -282.051364423004088 79.542906990918397
37.715107018105115 -1.569145678013927 75.008721279918888
39.614989931287155 -3.581393098881140 74.588605904988754
46.783788650190615 -8.021462220390596 78.207671888230095
46.342983594526764 -8.518081118033841 77.045225067047539
33.119509223913603 -7.193609528094562 74.753433159936151
29.460425825623506 -8.830610689859487 78.411115984496604
47.042004727932380 -10.289742239502718 77.280824088735315
43.067415430697864 -8.934904499824260 77.334919420162251
42.895522932910289 -11.375221239884748 76.395317072896418
19.315081723071344 -12.600761284443028 77.598044017237370
45.766480226104541 -14.155937666337898 77.250472523853674
49.611436370182766 -21.914829519456369 79.292985787419283
44.026013497903023 -19.335254794732244 79.835548283237159
21.783378640167282 -18.927024551858814 78.078670632752647
43.138249405605443 -21.102710574132715 75.584054267269948
21.514140459204576 -22.790303888722036 77.896629168357620
46.008508961713368 -20.769932045540102 77.870631896395409
40.346350024022151 -22.842556512932198 76.363611970628639
39.838624577560616 -22.182463348925353 76.175601763630340
38.917603699997741 -26.490692940205676 77.954853556079186
32.378866151076878 -28.853988614550978 76.368715249102564
34.234137249703871 -26.207253194475136 77.006523556960914
37.451657937631730 -24.997194143312662 78.485154538733738
33.692469699521169 -28.001249139439814 78.284932218797110
24.552161287450318 -27.431959248668640 78.412868330543290
35.795420307507200 -28.275618975607188 76.124449201125771
42.297779472041896 -29.697047196652342 77.245413771238532
40.773989111032279 -32.200955511413987 80.960844109859551
-59.774461337241760 -33.345009073831605 76.287717314268150
-65.633542953161097 -33.162573979410141 73.128374354430264
-51.971338803848710 -35.800722313614841 77.429377828238160
-71.333722500044374 -34.567387458560319 77.410448324410609
-76.597725685740016 -34.642201536207040 77.804778119663993
-44.401335539943936 -38.427472255761224 79.499614724319528
-75.700113813372297 -35.444003351084589 76.063749983497189
-41.281013220722976 -34.538315347779388 78.196753832940388
-38.874616532423964 -35.379089998975118 74.872246346633318
-80.045032284899492 -38.711258095441465 78.202993786611358
-81.242343027285301 -40.632004048494629 78.820035345098574
-24.898790591520150 -39.267000103321934 77.297346860532087
-86.280581351914066 -39.237757900616849 76.560331237291166
-22.458616719297574 -39.385069307993433 74.328115433651533
-18.518807067201738 -41.364444255938778 76.098747476346801
-87.715764678849609 -42.206493761406136 76.441200400091091
-19.573892412957839 -42.882590961472907 78.784491931686958
-17.575129785572472 -44.607511712097050 75.688753702358895
-90.982004668175989 -45.882679384143685 77.129916074911151
-14.951115898569425 -45.200992968066437 74.832652265794849
-90.208322289338014 -43.964042185073659 76.311425274326240
-14.073687475746008 -45.769199554192042 76.153384914789939
-90.114718551117235 -44.722101054157903 78.834803104105987
