# This PCD file was generated using the MATLAB® pcwrite function
# from Computer Vision Toolbox®.
# .PCD v.7 - Point Cloud Data file format
VERSION .7
FIELDS x y z
SIZE 8 8 8
TYPE F F F
COUNT 1 1 1
WIDTH 796
HEIGHT 1
VIEWPOINT 0 0 0 1 0 0 0
POINTS 796
DATA ascii
111.714326421050771 -102.262370324440923 81.693884269383929
44.745953539646479 -102.472225574095475 80.349254895097033
-96.001105683601310 -103.819481760390474 82.087866968300389
-81.217747536198090 -103.283897899805268 81.107514150882878
38.211254872846311 -102.676129548863784 81.194523661572092
105.363691657194963 -103.487877902653125 81.668572429966929
-81.826117922663101 -104.081162574254591 81.548899269980453
41.733054921521259 -104.753033301033440 80.393842265128413
-82.385607320628239 -104.444196782125218 80.933579479945138
112.915903725242245 -104.196252185289879 81.086854831438856
-76.395758979515293 -105.493086154748369 81.796042420590155
43.010494838951985 -105.109847395338278 81.010598514373754
-95.959030473406841 -105.629987753483150 81.552847471658907
37.670865969490997 -105.984618045639678 82.027227897307796
39.973595762676240 -104.966616591345314 81.133138334043466
106.821737612509153 -105.923348359776185 81.645997609170450
-82.942554152297831 -105.636254836451613 80.750586040503762
43.057861235870952 -106.382896146768161 80.778642535219433
106.212019907215435 -106.425753715885222 81.351151370371582
-76.798787046395418 -107.955733596418668 80.993991379823598
41.184368738876969 -106.714029864856656 80.852839960870185
113.736526296390181 -106.566820384735379 80.391888551978667
-84.087834339033137 -107.270307469449619 81.391568309032138
107.532912597753153 -107.442170210667967 80.075056599849532
-90.574547664143850 -107.693873127610317 81.743276696754279
-96.452180354200436 -108.060812619046445 81.012796222573783
-83.883653480486146 -107.934272448282215 81.513841797915589
37.949535725078896 -107.577534245313885 81.189542285383922
40.565745664863307 -108.450433172119261 80.385890943611699
40.896469756241267 -108.114117792087470 81.301733649776310
42.490029480064202 -108.192219328017188 80.650789111062551
112.464842460561172 -108.099347954195792 81.315433547840740
36.759120720900114 -108.443825181976749 81.623454974591994
-84.368310283107036 -109.498538645566512 81.948542279814703
-90.959643766775727 -108.385661288251057 80.984933555575552
40.161632385014400 -109.517409240075366 81.018399309645005
40.652645016871922 -108.693498112470024 80.562698397096270
106.712938450464264 -109.385790482488048 81.120452992994203
-78.267081075975966 -109.349662148047429 80.701638348311448
112.145776715179409 -109.677364377766807 80.928152907401426
114.961731637266567 -110.038931655228197 81.044543900708533
-85.579649568122846 -109.922773018551226 81.317008583906883
107.619292434160087 -109.369364307000552 80.920027283404409
108.578515700880061 -110.088561905381937 80.161866450586999
-93.940396315764559 -111.698595412057500 81.399922098066540
-78.989272975992151 -110.348074703296604 80.716598538763847
40.083164208343774 -110.951198780768848 81.495882184121953
-94.062032435200095 -111.005432828354287 80.912115189289253
-92.048318751298197 -111.140621120766198 80.823668936885056
113.974384138696252 -111.293864044449236 80.949491494666944
-79.183646030068431 -112.202530630853303 80.312449522457527
38.594783320826046 -111.454094057636866 80.868061108072069
108.789978779187564 -112.171285779160257 81.300691821523145
-79.833628331710585 -112.444092887510124 81.699099781042506
-78.491112475110995 -112.328893381032870 81.601926543178507
36.153671690184169 -112.457231261665910 81.066432964480654
108.564225591036617 -112.471871185215434 80.045750166338479
113.914127649230764 -112.787277694952095 79.975862251668275
-86.270607505549265 -112.470842009654120 81.613442072931022
37.786200530306061 -112.123150910388972 80.564592253920679
-77.269177692301483 -113.198664380285692 81.115187397864318
-61.402388410786273 -112.977467887422009 80.668927867035549
-59.918354923194570 -113.368050360082307 81.278641413845833
113.864014471954050 -112.997209703701301 80.739089630536640
-80.542111602070747 -113.000756211067468 80.832018844684313
-79.883077707660220 -114.076176571020113 80.679524203481733
-77.129875300870708 -112.671001984355286 80.986305333196597
-57.190397473715109 -113.136304640553135 80.976409148373506
34.014298178004587 -114.344093457926874 81.152601930006895
107.978285512654708 -113.039949975623600 81.310422788203994
109.869406769128219 -112.955465533064299 80.261949066029601
-57.416359775007948 -114.092957250668888 81.386024201780003
36.343563662858550 -114.029944960603530 80.692734301725991
37.692482643070264 -114.292690580939194 80.786475576955496
-86.207420892924461 -114.951997269709906 82.186170971619958
-81.063739528001349 -113.776709958117763 80.806640208318285
-60.451717744649727 -114.040705183571134 81.549088922711931
-79.953732040647040 -114.070442138169611 80.171361714355385
-86.974286454066046 -115.463911940850167 79.998802720684452
-80.892282830344698 -115.069555375742425 80.618566723202761
35.039447661735778 -115.026153369998724 81.446715256379804
-61.672837517463250 -116.377795807336426 80.907837628409126
34.264992051223395 -115.607190992565734 81.067253601732659
36.823142010124485 -116.075455160383157 80.558705579639920
-82.023088983450279 -116.013897140470078 81.131697027400691
113.429062046123974 -115.866708562219486 80.178705602896613
-88.252882949696073 -116.307305084917928 81.975454313022226
-82.461810969423198 -116.064501945180780 81.245372330481132
-81.563514892660493 -117.524611402546867 80.836208374506953
34.889155100436945 -116.574469967208145 80.112421912250738
110.095352238975750 -116.664732458026435 81.901257844756174
110.570773067501307 -117.779115125419068 80.903818612297769
-74.503882733787805 -116.923706150250240 81.888237414536917
-58.840451107738495 -117.103583415394354 79.257292836679312
111.353054739225186 -116.988447666544317 81.453559545809298
113.277500465860214 -117.892777212917977 80.785221530622692
114.698102325673645 -117.298816376098216 81.406485377120731
-82.781906480229878 -117.470044421543648 80.769919417604825
-83.222678988607470 -117.402370484906029 80.761845366382317
-53.167266257013459 -117.339345143318937 81.769289510881961
-88.232768807799403 -117.453265236857732 81.381041434412495
-57.584558658185173 -117.778523082014900 80.823665401604032
33.722631498076936 -117.454762086494028 81.429201807927143
37.045219913683844 -117.983898080138488 81.140255736677247
-81.795895482364770 -118.122323061098797 81.179572589033810
110.074951746498115 -118.454853780847543 81.135573954454060
-74.263753573143717 -118.989407185842055 81.833649361385511
-52.566523598483286 -119.810292274510971 81.558448656121058
114.686795512090754 -118.715435181643784 81.113576475110534
-84.033201407069328 -119.860776566158535 82.175703636031798
34.356063538450115 -118.781069313340367 80.987176884795431
36.510313517344358 -119.728543505065232 80.994078974081404
-80.983589077637944 -119.647823027725821 81.209663337044063
114.014213451187175 -118.998745766782974 80.797225505440863
-76.351483147032482 -119.110921047685565 80.637937319365889
-76.961999017540151 -119.808942082311319 81.157325607512618
35.810324094848468 -119.758730124501284 80.686853909759506
114.558553629950111 -120.045294443362621 80.253178044644571
-75.823056173304337 -120.559308394423596 81.279477574198850
-73.110007369709194 -121.789722654678485 81.020708351152990
-49.869672660497571 -121.229883165295632 80.953018118476081
113.086463245694631 -121.156575259764054 82.033004626487994
-89.109246406700791 -122.073427813928276 81.966472725958212
-52.836619260413443 -121.964144828885907 80.821963321045473
110.683248517539042 -122.428544325904710 81.707368860410014
-80.433771314682403 -122.571582332205566 80.761604700433978
-77.394053123268449 -121.406324802302237 81.203887203113638
115.048903962648211 -122.237927111852343 80.340714426547336
-49.084010195661406 -123.012913318072322 81.362245797801151
31.544869630421651 -122.469705120823335 79.695364362249720
-61.726569550250645 -123.540142378679036 81.347527888468491
-59.985214178993957 -122.985058754480036 80.947601771978455
32.931265713963249 -123.070944647031467 80.570089274458354
111.106411090199401 -122.578072748547385 81.416487870626455
111.505891926780791 -122.881499496700826 80.271250682332919
112.766257327488731 -123.206347163805987 79.783118098598294
-52.371016172991219 -123.359049872338375 81.336220537649922
-61.193109665590399 -124.382295913004214 80.390834663290605
32.614608433735029 -124.009669040713675 80.595540133463260
-80.118640730342065 -124.240686142297932 81.335850291072248
35.392530946339264 -123.511385931140495 80.830141802750958
113.396368372136763 -123.436383179931397 80.884229971984425
-59.483117734453053 -124.926753261203856 81.841795311540906
-51.436284437346707 -124.249936020410985 81.167193945258688
33.740644852210572 -123.997656365302163 80.972986755148057
-76.942376293350264 -124.852532794561938 82.333260166861436
-74.298110551662589 -124.451898932672464 80.930971861483130
-50.170471158578316 -125.747732936459073 80.820536238304513
-91.726862903564950 -125.591267661652978 81.133804574896232
-80.008928873267735 -125.333900413925704 81.004792707244590
-61.048740335184085 -125.323328034959644 81.151554059225560
31.060441754196312 -126.132132693737049 80.830246242481607
115.032482709223729 -125.866037060399378 80.937992737185269
-87.046863574370263 -125.791392726683711 80.071352400069287
30.608494961138817 -126.232120500555055 82.011386158660514
-59.457884403829198 -126.324814707772617 82.717089993313721
-50.651361799929568 -125.995648290087075 81.672505116818812
-47.310998703505810 -126.521320223743402 81.761587206482531
33.816970388873735 -126.811847084111861 80.974619444315678
-92.655078885588637 -126.917245775475607 80.446521287435885
-76.780423052089589 -127.661404448861589 81.361368328554732
33.926474146537103 -127.681625293969205 81.222491838243613
111.518248386520909 -126.924467287552886 81.137792660394567
113.062517809547586 -126.691144550210510 80.395286560758834
-87.802626736842171 -127.712984734458814 80.499732861130894
-74.804673869908200 -127.323973420616255 80.738160632310468
-73.747641159626795 -127.750924461270756 81.427871420493176
-75.248316506009914 -127.095458845323179 81.826799875389781
-71.503898876949179 -127.311084077551698 81.050401482069631
-50.080327439019236 -128.141958241007103 80.726341635297914
-92.316700826076072 -128.660406068130442 80.714293208859132
29.364330946321566 -127.998001284124570 80.909644595857387
31.521804759037359 -128.071928218898762 80.888988535276894
31.806411726358121 -127.348096146890924 80.418706222230838
113.366651186731602 -128.415784955220914 80.815250115265641
-89.584589509130097 -128.996904986300649 81.037844787360342
-73.746699222777977 -128.849719563214933 81.070357422842775
34.741014704515287 -129.313786577985383 81.493617610850933
-92.032394533027457 -129.482409896648505 81.037324204880605
-77.620004888156487 -128.574863138505265 81.981807367433746
-75.542307000197837 -129.401627891741526 81.617211008653214
111.556914596014778 -129.931693300005691 82.214883775351254
114.715666076140607 -128.979953073376009 80.909968895123313
-61.059192042547267 -129.742701241601878 80.891595561045477
29.030546581427494 -129.766491149363247 80.093775027459429
33.199181993255394 -130.452220042201446 81.100363255766325
113.713025002581659 -129.960813436477423 81.065492551281750
-46.069200457211032 -129.253535074830864 80.883338373250893
-48.456051976044790 -130.603021166869382 80.840105951992712
28.227856661696094 -130.033932155027856 80.285673435159680
112.220709168892355 -130.115993194719920 80.589923596239203
-93.451446285275395 -130.474480262300375 81.809469196785628
-90.737584632566296 -130.512135671111167 81.734815462881912
-89.472510494719373 -131.008683877856441 81.656041938906810
-89.755330653910562 -131.172099964547670 80.647444936886956
-71.115867093747170 -131.039976511375698 81.407724683824156
-57.498387357208117 -130.692963424457218 81.082013555280994
29.243602061903633 -131.774033814780154 80.886647917799920
29.631592460467186 -130.435519851963704 81.191077965461673
31.094065223513869 -132.136071186847090 80.326240907785859
32.343976776082620 -132.442022688567761 81.456491781372407
-59.055126590655476 -132.313692027925896 82.379876740845077
-94.422372551104829 -132.779641821667298 80.830896959095611
-69.524036845395287 -131.653491072581090 81.001887888318933
-91.125394251393757 -133.130989233655356 80.674598091654460
-48.849981993966956 -133.385685158068696 80.455810344106865
-46.114550806458766 -131.907615152725384 81.376563837370156
32.396359231331992 -133.125471609686400 79.454429681596849
-93.850204351856817 -132.738679631924214 82.066051284069118
-76.568138910615701 -133.292396667692060 81.721455691053052
-55.057818841846782 -132.741011645425999 80.900451865692617
27.041629117329638 -133.487715496217362 81.109152317791555
113.767951060998968 -133.580814100765650 81.428060818877341
113.897614357808436 -133.055240626280693 81.837554903137047
-57.839798418613633 -133.572341557617534 81.113551095405356
-92.236180007359607 -134.447617339855498 80.629409161676634
-70.036303145790839 -134.134279056390625 80.865537669117202
32.385445494936512 -134.041290807536058 80.993395882656870
-94.719513321852943 -134.458139772713764 81.464057048776908
-91.619142138696191 -134.647385592108208 79.876781007471990
-54.207053005354517 -133.940639588620371 81.652986146458687
-44.809301970194333 -135.889318816603094 81.628117323152537
18.193205453604222 -133.428686477823533 80.633116649403959
19.586010271758656 -134.543211882962396 80.908648925126286
27.595521469165977 -134.006638997312507 80.789554093824819
-95.744831599408869 -135.425811739444526 80.141981619951650
-69.467713690711932 -135.418571808054509 80.300133617904592
-51.621652835232751 -134.393549390596888 81.059441830097668
17.542462799687353 -134.203399290405542 80.997471137341719
-53.784827706651839 -134.742930866570390 81.095360214397616
-51.567242005409931 -135.377315369780661 80.562138763450676
-48.058934318546683 -134.342968321985126 81.062123218417241
-44.951055142041156 -135.166709473533075 80.542038815544871
29.755535966691689 -135.680015891696854 79.851973383658930
30.566789375189643 -134.533121306879536 80.786117033392259
31.545704739472477 -134.869346941084956 80.409824915998072
-95.202032117371715 -135.423424501714067 80.581821510336226
-94.163093118498580 -136.085532732282530 81.229627886506648
-92.727769880126004 -135.571061533641171 81.963947635955606
-92.578996146881622 -135.364412834760685 81.527722911986373
-75.878264250143999 -135.494005549613121 81.891886063711212
-56.368496642534581 -135.535055680667256 81.540513558225726
18.853406924058213 -135.496997263844406 80.990070688178051
21.139384870279770 -135.002275501182140 80.673059199531082
-70.035528326302639 -135.910469749385385 81.417723003490053
16.037133842454921 -136.094185516809972 81.013268917455193
26.702747433967343 -136.236607562364270 80.773733705353592
-93.354040254535420 -136.156191232478534 81.454228468095380
-74.368221007073473 -136.402633620440582 81.257132055298172
-74.147097545944405 -136.867053935000257 79.818777671951835
-56.125608447137317 -136.880429831744976 81.419671574079388
-51.953400640412262 -137.361497027455499 81.819007719507624
-50.437202882430000 -136.309669293332348 81.242326566508737
114.303470438670445 -136.830527105631546 81.402292082992076
19.230981630440269 -136.776665795596358 81.481944951475910
-94.031662184079337 -138.016968836685891 81.813328953428396
-50.261592637600451 -136.758516760792133 81.791266918693907
-43.339985242355333 -137.183254016437189 81.168230125243880
25.430786641209739 -137.127282697982281 81.393637361570754
-96.059614475374218 -137.994080872636090 80.491281854360508
-93.119436136213693 -138.640118626586485 81.117460539077868
-74.372874523109886 -137.729208121741038 81.761140588367468
-69.534674772154020 -138.646465678588271 80.900035245697509
-53.849078748376783 -138.459978760865368 82.129521433316512
30.651155097850943 -138.135756508831491 80.809771760479947
31.598111124737834 -138.051533494954754 80.527412354200621
-94.900523559980499 -138.661396513328043 80.799061305433668
-73.015457318001467 -138.581194226706486 81.564448205434175
24.753202804147485 -138.985761288741713 81.690679771592656
-71.302796229908068 -139.605725160941205 80.779025989335167
-70.201852761279852 -139.291714370932624 81.091409512212039
-54.309419841398096 -139.141485740093060 81.203920648613590
30.992950943743651 -138.725060579343705 80.330109947396068
-72.174327302187749 -140.132704910733111 81.158139348083708
-43.866749312533301 -139.643395398189853 80.474443428613654
11.315309014047790 -139.632041191158692 80.733165861346109
-94.158908828823670 -139.671145546902920 80.441252471124727
18.504286024671043 -140.025132257911793 82.041806534803172
18.166849833111058 -139.811469006787263 80.912787817330809
-70.363360718407307 -140.883288285838120 81.198634383491935
-43.105661556718552 -140.872757379320547 80.998408159764153
25.678721995532893 -140.715387288351280 81.280480090301424
-97.859667655718468 -140.659428841202811 80.584937820318927
-95.994336465747210 -141.079318045649075 80.999726507134170
-94.739147788366722 -140.716200443977897 80.181548645172455
-50.728954430041071 -141.320345312247468 81.433023613978719
9.688530578107679 -140.836890109371041 82.039450957565776
17.649257203597266 -141.345448034598348 80.560305702992864
24.029603739279242 -141.024744780440926 81.226228985044813
-42.490451483253636 -142.111339306610859 81.368272379476394
17.433910101961292 -141.424613492202582 81.400170751194281
29.656198040049507 -141.871256227940478 81.566700228695908
9.142993162422387 -141.951330437754962 81.573221270561916
16.709608354014911 -142.652493814192098 81.539056519469099
-50.887498241297152 -142.028964181283129 81.655453690292930
24.148631460290421 -142.766703309902738 80.699744173074450
29.542416803746015 -142.835302699745426 80.094055040401713
-97.789103000902188 -142.992082720467948 81.072397023235879
-97.947456652148119 -142.808299043157575 81.187113341000625
-97.019280924717364 -142.515123375870559 80.626508437441174
-50.286129654953150 -143.187961172424423 80.956192082680431
-42.066542688924088 -143.152452207826599 81.082627406122157
30.685220240189118 -143.061163370426527 81.772766336561730
15.542282646569236 -143.963910778353380 81.042309208401818
7.901602774667744 -143.799575024402770 82.182706482958551
-98.771423876196465 -143.242752329300828 81.433709138015999
-98.638002206527986 -143.917570341070473 81.543786949165849
-41.371667513122077 -144.316405807940015 80.484206676570835
14.183586361661877 -146.197412064697772 81.418211100954963
-98.349281740741716 -145.499522063427946 81.162981708556273
-97.133067741398690 -145.305205752286781 80.627941512936971
-40.849282719037980 -145.962016596669656 81.592922909806120
7.576549120130423 -146.469495578920288 81.108090417386293
29.395508944472265 -146.006804112347879 81.736881335837026
-99.811178414384997 -145.853764702200920 81.107298424514326
12.540694411382043 -146.171657735368768 80.405056798489809
-45.551589101193649 -146.635923470986455 80.625131698727614
8.647267024279197 -145.948849057916675 81.313576870622768
9.603512531312386 -146.670924634734092 80.797094795827320
23.791240032829336 -146.187321947796420 81.020140107097717
-100.035226107878387 -146.435568594874610 81.390372197061168
-97.962633455305166 -147.664081350102492 81.346775938025729
-47.284176931363476 -146.037401177667164 81.027586146128655
12.983304902286568 -146.898670654175390 79.960386676667838
9.723050016123620 -146.950512010617587 80.321900597815471
8.704061165925891 -147.790768381589828 81.549316941554423
-101.557092255887724 -148.191869746349425 80.881528067940110
-98.851102190767534 -148.309494521490564 81.836701664210921
-45.693037452534135 -148.158475158350598 80.421215012788551
-38.497694151526815 -149.274342076392173 81.199621852165848
-99.045624370528557 -149.210822897936993 80.676038917327546
-45.081997092159078 -149.161426327673524 80.622062893008405
-40.967413818376322 -148.959993659405256 81.014849112907100
22.388566196820481 -148.901922345982030 81.411721158265294
-101.466483610497320 -149.259637550812471 81.196614638244398
28.805089827375653 -148.711260364559706 80.657109226805474
-41.754769085323275 -150.334383004943476 80.854106257618511
-101.578069228532769 -150.797840517008552 80.337898551659407
-100.807464092916007 -150.909256917085742 81.726895038841974
-99.930817733931221 -151.337275531301856 80.767622365960094
-99.117978995032814 -150.560067774271403 80.877119914493676
-43.773851477235304 -151.100197958817375 80.383484339026481
28.724550127738301 -150.917297371657668 81.076107253112767
-38.362168669600770 -151.386867228997602 81.803804567994973
-39.832425561896528 -151.421162987265916 80.464501468188232
-102.907758908937794 -152.346600087021926 80.887683201322986
-42.251547507639515 -152.529869674934275 80.481713404222234
-36.467586364870847 -153.476865110990786 80.899819758229867
28.608549486090883 -152.324405389288529 81.267244246797858
-101.632917051814090 -152.889711153593936 81.428666755613108
-101.692945761265989 -153.636472985818273 82.257027872019719
-37.165095418941220 -154.604928663323278 80.818698958976924
-103.411530227433417 -153.660077664825792 81.040951912932115
-41.901428489469097 -153.713894437044274 80.590666545910679
21.311044702719439 -153.616273528853156 81.081617258294500
28.999561304375092 -154.375538998689791 81.323291900941840
-103.570399592500053 -155.051134863576038 80.363916557093972
-100.901684697655455 -154.181346951036915 81.288792226263269
-39.914683020464686 -154.416251783151637 80.595471088459760
27.878602598847095 -154.128529738725291 79.704005356329873
-38.538295079018020 -154.885868523045957 81.036583951483394
-35.577171289188755 -155.711425991975545 81.292881071411315
19.766860967129567 -155.982596831337617 81.367983283958964
-103.767585371667224 -155.250210414277262 80.942868116808611
-100.613614840770268 -155.835903390933566 81.342306069490789
-40.719234290753960 -156.040099701502498 80.972605283417806
-101.006628327102661 -155.480267245696837 81.110081615889399
-105.123866076008554 -156.175057044772359 80.302353520829456
-104.334344073725589 -156.425900959332949 81.934213407746412
-38.137177969287436 -157.733684144195252 80.346706104066214
-40.645074538175351 -157.461299827130233 80.689564295048683
18.602963905729208 -156.596907166752999 81.319613840674393
-40.745577742299808 -157.763541220066685 80.959539435724352
-105.481139927870828 -159.028049583280620 80.461892646974789
-103.503254633113897 -158.281190627416521 81.463556779687181
-100.785647596442828 -158.049248037561483 80.614877483995556
20.569307846994747 -158.668373239904042 80.500000284541471
-104.221273871044119 -159.323893158465182 81.256986947507286
-33.990362595078118 -158.199144777345055 81.495780711534408
27.811360372714176 -158.871539503552640 81.711683612561146
-105.108412642404332 -159.183917327303391 81.479336485005419
-103.161842910836725 -158.737248326547814 80.777917221795292
-37.625049559287270 -159.728669320040666 80.701300060082346
-34.626523054958163 -158.747912290879412 80.798942638196834
23.149075637483815 -159.367824146156636 81.237318795559901
18.914886058806236 -159.916864131389019 82.224269598735077
-106.255217156027541 -159.681342684730794 80.863242417322851
-32.716157534317645 -159.632146305013208 80.957674450306669
-38.431219094923094 -160.666544857856479 81.076880312576819
-106.762144481780481 -160.245635272787069 80.344062945264085
-103.818828174765812 -160.563509059170997 80.987692704201464
-103.443720242881255 -159.958738375454999 80.661702293947357
27.867326939606734 -160.030281430328102 82.435560861196294
-33.572613608359802 -160.195302686967779 80.605255780035648
-35.329759182954490 -161.125454373791996 80.851608474877452
22.840767478076742 -162.440603050278554 80.964188477398878
24.063529159541634 -161.293835039217470 81.198218130543026
-107.250354550083998 -162.155653815361859 80.458034410077317
-105.010450916056527 -161.984396158735422 81.542016976111668
-105.031621891875190 -162.669627141341493 81.495712610894799
20.056446080334368 -161.333522802770091 80.979191560516497
-33.842486883256363 -161.853465590097301 80.766058490753636
-30.678370289140947 -162.072417577437704 80.885751499284595
21.300784697383744 -162.551423421463085 81.920329242796782
21.274479944488746 -162.344038067343064 80.454434014769703
26.238170577092898 -162.273278502644587 81.217782307350888
-107.814010783366371 -163.488625666837521 81.576255162355181
-107.148201652608066 -162.796835929229843 80.489269547135081
-103.477123144006782 -163.166743642181615 80.948721936575282
-35.972956677500470 -163.221316916397427 80.987356214171740
-103.780490104338156 -164.163507571195453 81.908596377064413
-35.183873956837935 -163.736664612068040 81.540134738308240
17.459640223972766 -164.571732126293142 81.199273097851346
21.029548242929565 -163.467973970439857 80.721298921540097
26.679520181827250 -164.407155467326248 81.038587932787962
-150.536713661773206 -164.461780914597455 81.725292819191850
-108.845344858380940 -164.705825120327177 80.610404216697717
-35.487836092283004 -164.623248505378655 80.816676514758086
-30.933507809739638 -165.241004901441073 80.822375350467198
-151.730349773235361 -165.714506681667530 80.962293862946666
-146.930669775597011 -165.204060252950256 81.416835261201612
-143.188303919472503 -165.258747746991332 82.076763296861131
-108.415599306929948 -166.123959040558844 82.619675660668861
-104.833295580618952 -165.225950868706605 81.426587043668903
-146.527192629552587 -164.831632734750087 80.915193279713733
-141.878037424555629 -165.652778706337386 81.348460084122536
-140.976281691675894 -165.833159985574468 81.777589706404484
-108.590818904664758 -166.057641051307229 81.824819509806019
-105.855540618769837 -166.221207654444413 80.677532076023240
16.494433708599352 -166.505336584654373 81.788320383203370
22.244215593052978 -166.769307139552438 80.871177542529182
23.040432618844008 -165.645868169100112 81.399247198105087
26.404379455037500 -166.495640718957929 81.879041151471199
-152.479414488124604 -166.426281392643517 81.663741238125340
-34.195289663397162 -167.295191963897878 81.792700508276667
-32.977866169278073 -166.448780747973217 81.264927967602361
21.285501020438915 -166.003788925538828 81.655680283848611
-29.120504894136367 -167.359422542704436 80.755157033763666
-105.473770668195044 -166.974929778706553 81.675962789970129
-109.607405143883568 -167.909886525016816 80.169613903317625
-109.190616160999312 -168.143733900915436 81.625312733029233
-30.559410966281821 -167.746769672314031 79.995318680344127
20.426927813518180 -167.781159105075403 81.816566283678142
-32.597854162641333 -168.823371727842357 80.818405571534782
21.813179432873326 -168.336632880574683 81.315502135141870
-153.048745082610338 -168.356940011674766 81.422245359273774
-140.316666557652610 -168.960564774958812 82.322041431730824
15.923421346064709 -168.612925354777815 81.115885418996740
-153.553603200896731 -169.138377336537502 81.577601653032332
-28.967396687979090 -169.312581227195921 81.263737506993095
-141.451202705866450 -169.854667918077638 82.003327025034352
-32.885462933890331 -169.675266597148095 81.694650890700004
19.840157463236068 -169.631886260845022 81.684862643329012
-109.831539726293542 -169.016748540256003 82.030285711502316
-27.088371935711432 -169.788882932345103 80.945139807091763
25.023151368951435 -169.363533531041242 81.486648834696481
-30.271421550440088 -170.435780185514147 81.118818470398452
-26.455660538592706 -170.370677445808383 81.306179766919996
20.908915796251485 -170.506870112330802 81.364171746960039
-153.730316120404439 -171.706675147620757 81.630019733777871
14.453713304648190 -171.140404111261887 81.704201861959149
-152.660525395108834 -170.149932229363657 81.793491507788048
-141.669287306809025 -172.039952913183726 81.343601938439761
-31.827315513084464 -171.428265352847262 80.532212698188729
-28.605664408640692 -171.829036108322271 80.714711668906290
-25.105129754862343 -170.853076424638346 81.139157313279327
17.896137445548298 -171.578500250832121 81.217611970277900
-140.345994452923520 -172.179360908625597 81.308672759445983
-105.734163318245763 -173.040275092937094 80.376442268749244
-30.222910984657254 -172.854803018944267 81.524924647244916
-27.356913702663668 -171.809685418547730 80.593428648269622
19.391887581566539 -170.740677016896655 80.866943672662430
25.412378339615387 -172.768147108688709 81.271554759349272
-152.489003652252563 -172.964753131734767 81.479761961166687
-29.696882915477126 -173.050765642089345 80.712958969918077
19.179065740915213 -173.730944026230588 81.440175571890023
22.386218736459821 -172.073255339788943 80.909562248508280
-29.937989122873780 -173.199091644484525 81.692426614112122
-153.208211629496560 -172.829161692784652 81.294216653747725
14.176660769503840 -173.155652459994513 81.980414065352207
-140.781843123046116 -173.651120816193611 81.883946207608815
-111.635029622532031 -173.884433580449979 80.887204649157454
-30.206128447195944 -174.974239113095763 81.212732572874984
19.911157952535756 -174.000520237732502 81.136527022041847
21.201351833757027 -174.477831971049540 81.867075064405697
-107.057662685498798 -174.794938513816305 82.161334950519532
-27.096491340575760 -173.718604026271322 79.615820876235119
-25.675400164402564 -174.130507673436028 80.608199571417842
24.512013263565375 -174.339447169959897 80.631042905041824
-23.731630365107765 -175.017162689950879 80.464254233908790
-22.877587430552836 -175.494098758492896 80.481043136972431
17.087085260174931 -175.787344115533472 81.442606113660688
-152.769265492228129 -175.761921516614876 81.539944197815444
21.613087784274569 -175.115516029216906 81.707347793802967
-110.736766666606172 -176.191035938360386 82.283163895091533
13.856632025554191 -175.448045369129005 81.096322440859524
-141.318018964084047 -176.810455025384982 81.571123598076042
18.695985436972286 -175.807205089292268 80.452861012626343
24.248539510272792 -177.350649127061700 81.383306933551012
16.627800221168560 -177.228228845734037 81.489943415127755
21.290837350954977 -177.569945920840354 81.308818832573110
-142.489781490818842 -177.888136133666791 81.321199021189415
-142.160525468815507 -177.959541924592969 81.350902890195883
-112.679623595246980 -177.454895241341575 80.207531010069786
-28.648064932859793 -178.303554622211522 80.529744488044699
-21.810309052297377 -177.687823134354176 81.314306834717925
19.976131514045456 -177.187713992513238 82.125182137748794
19.642435426468150 -178.870986543559752 81.122129635606228
23.470975589937439 -177.864380854360064 80.757778184937337
-151.641108377523494 -179.307133943025235 82.288130806226917
-20.656825172902494 -178.411039465772376 80.606432368842960
14.121334968025124 -178.549070296071307 81.777664623288402
-107.350403455419254 -178.589233785756903 82.380843113961845
-27.577628476351428 -179.312637814972874 81.230360465797133
16.354285127480722 -179.388765467673494 81.130280245237969
18.630447010807643 -178.419070698401356 80.050932453834747
22.928147736571002 -179.327767278883300 81.934055298571650
-112.171858128586564 -180.033482059380333 80.792515803006737
20.273105077524349 -179.988741746404116 81.655571229433065
-142.753405716318213 -180.406567831976616 81.764727445578572
-27.788703044335762 -180.196211642182135 82.145577811763786
16.146159291840554 -180.277093009018813 81.877932115962494
19.483071236094172 -180.314937444362755 81.515410887383950
-108.459430799768654 -181.193718129844370 81.077010610367907
12.914432278225542 -180.453115675466705 81.442875400817968
-19.325744085618357 -180.555170399009199 81.252462326828507
13.660127965740154 -180.879922278720102 80.785788406087505
-112.669052653449882 -181.015286978636624 81.040471358912242
-27.562604495295666 -182.558810318548041 82.034012269787482
17.006466252381738 -180.799971061552441 80.261688549953277
22.465924608598211 -182.046775841924216 81.840121070042002
-18.340247226155878 -182.235252997358856 81.654204082771642
-151.693997851808803 -182.523549671889185 80.770261301908320
-154.075764772040856 -183.312304436361330 82.668428638555213
-151.556678351924262 -182.608675501589374 83.004786758784320
-113.820527143966913 -182.374588274478356 81.148926097150706
12.554734888890170 -183.372625437006036 81.846255581033446
15.948186952666955 -182.648013244453779 81.171507620586382
19.064461896729306 -182.152929722516689 81.209589896987410
-157.542590741672058 -183.151826350778606 81.136930965218454
-141.407233979893363 -184.456090967252550 81.391977452398010
-107.375933723275168 -183.619306859864793 79.981126450672932
22.385115815372529 -183.398324319609259 81.438834618241174
-157.566945730221022 -183.914662527282786 82.946369699620533
11.957824009549586 -183.784555412075605 81.475586184563383
12.688059932707587 -184.632441582181372 81.050579129904747
16.227366337146428 -183.515835896980747 80.639046496781134
-128.998960359192324 -183.729980991056834 82.440069985626849
-127.596464334843645 -184.424839076651892 80.747754669621514
-125.271943655826064 -183.452532948353621 81.203351252300763
-108.095866780366038 -184.634867054129387 81.302507222081900
-25.823786969689419 -184.686808502303876 80.942837206345772
21.108068382153473 -184.054551728540844 80.846952278962831
-159.934904256137656 -184.174320538561346 81.908072890854370
-140.076185975442257 -184.772058872109028 80.851980927738765
-121.894763516409228 -184.683689423875535 81.899680557746578
-160.139240849107040 -185.569871528738105 81.735823098466582
-117.761856830424449 -185.584066955490187 81.315504735431588
-113.573863523023448 -185.919024489591294 80.824160631884880
15.181612248931186 -185.426995510228153 81.708897947913869
-139.632979263789366 -185.070983206995294 80.920865210156336
-139.890191965533631 -186.183475531167119 81.374092776762410
-135.358786406281098 -185.782471506706685 81.050783969072882
-121.474998462368816 -185.863444904231557 81.371075998641231
-114.924275723041859 -186.227275730146800 81.770183851554279
17.427816239357984 -184.587829370992353 81.411730488735571
18.311459267428372 -185.400998805205091 81.034886063002887
-162.149722676936506 -185.221123276830809 81.452109762119846
-116.239981781974024 -185.733803184820999 81.088911019997653
-113.971314982843651 -186.848177994528243 81.082402845793666
-114.867308487831821 -187.026096877613526 80.541437911500893
-15.094159187577539 -185.939560872949613 81.211878704017209
21.209006226873324 -186.909092559021559 80.814592613550346
-24.715566804646816 -187.078360377693514 81.668822084704516
-19.352931598437756 -187.300323983646337 81.319981552037220
-108.071148720979139 -187.850906148456346 81.797371146859163
-23.416519425008946 -188.082519393718371 81.172960625566105
-163.022132141681112 -187.611011886354873 81.768628616071979
-109.060613271690613 -187.636947674205771 81.717125177355570
16.583135988161075 -187.104392606706313 81.361218646118729
17.896080052082826 -187.622343669919843 80.774726123491547
-20.152318492967769 -187.975108078020412 81.448550758802995
-19.853153097214992 -189.027656611881952 81.252512766567278
19.521886099214569 -188.309605821829336 81.062295774223031
14.666695498734571 -188.560726088728160 81.182228924042278
-164.860838433401483 -188.700528532880327 81.975378286796655
-23.714861311610836 -189.262565119451182 82.002067358445871
11.067030043267787 -188.867409019270866 81.482420821017755
-17.776305204200085 -189.988176244358613 81.353289546327389
15.387582683505551 -189.350525558892315 81.561815351762135
-23.588228066756791 -189.003533644479802 81.776783572305192
-12.644880764765359 -189.871801690722066 80.884378127482378
20.112556632724125 -189.934712255090460 81.387927379768897
-19.428917354051897 -191.197897015384399 81.328757387716507
15.683045452193690 -190.098101989402466 81.610897307970490
18.526931067450576 -191.014976707959676 80.622803063465327
-165.459573167414931 -190.857867587116971 82.177948597745456
-13.255666135710785 -191.815264190294727 82.053331892285598
-17.548781752230429 -191.564944115067817 80.973944154018398
-112.347740834987704 -191.873474632048413 80.518361257632662
-22.653683538843488 -191.388062619613891 81.641031557942725
-18.980119893314164 -192.541585525367680 82.434164384802713
-166.592804535713071 -192.995458867070170 81.387853150166791
-112.613904526695663 -192.957728058872050 80.483347400922213
10.582928292743295 -192.715089360462883 81.253850942388596
19.777606284752171 -192.571921840950154 80.631127506410195
-140.237131627219441 -193.903884857921781 81.813526938070297
-122.403590297107428 -193.223987131700397 82.066297419006972
-116.446194631040015 -192.807712900131975 80.967787625291820
-112.206431997028943 -192.781933831861238 81.837516556746905
-112.874719603242156 -193.745974686083230 82.252177135103068
-18.559233680055527 -193.412731391562147 81.124250916494390
-17.693942967498010 -192.858094270027351 81.282128326566209
-157.193103753944541 -193.388488361033751 81.077915363883022
-137.047549813504190 -192.495721582815804 81.000867148344824
-12.507052800161967 -193.103761232909505 81.114312750877303
18.943865274960100 -194.114041394661541 81.225045044635635
-166.425172545966831 -194.203035938074947 82.116716556032799
-122.787208326783968 -194.277650403705906 81.763540276374115
-132.554696053306969 -194.238680085918503 81.179041626358398
-16.986586027034345 -193.783891331452367 81.919723329431633
-15.212180964430638 -193.481877026126597 81.803584230444670
10.108888195616561 -194.635787296926651 81.124883301891572
-158.674346414863578 -194.330261827238388 79.620484220840240
-131.385742125523336 -194.462675575241292 81.557472569710399
-123.094873163019230 -194.834752852600531 81.805064863720474
-22.155297204311264 -194.063912505073404 80.962798100380169
-142.708621479214457 -195.438756993047690 81.777572739455664
-124.602846140073254 -195.775579915775182 81.070477215780159
-18.317111564869681 -194.988211663017239 81.904203267287372
-11.157573807671419 -195.025743629411494 81.491626421676216
-166.310209705702277 -195.150439558576778 81.155113649698492
-22.634863178101941 -195.815234035629004 81.503825334202702
-143.328262985644471 -196.840596740157906 82.451452018651210
-10.456592905354857 -195.979932307451776 81.475280523994400
17.931874041683685 -196.423489079728142 80.620960032619621
-143.414474309221731 -196.653221509123512 81.684270328297984
-16.033694971965584 -195.680848758346343 81.322392451363470
-143.384037770485406 -198.077727031119991 81.857698097831616
-13.441086293370729 -197.655411947656518 82.203171834674720
-166.143709603378170 -198.731634927745688 81.075660743360700
-158.263505082473898 -197.856348743378533 81.364258820538808
-20.088390058631163 -197.798432475584661 81.031419056860486
16.632132279045557 -198.074775938442230 81.162303541976399
-154.236325892053799 -198.321517619276960 80.023972128818428
-15.913888307097821 -198.468064844512327 81.127402378224716
-14.611217542943118 -199.555701730618154 81.027406420326301
17.687093195111306 -198.685486811591801 80.966269801763090
-151.204798486398630 -198.117765272045233 80.206550663656557
10.114376720137109 -199.625616795362930 81.197128261521939
10.362605615172944 -199.220482119863789 80.645853576181324
-157.043956790515949 -199.157013474397871 81.032752188389324
-18.470330857881365 -199.465859848977573 81.836933724656930
-14.911155583860198 -200.306932658813253 80.962475234320124
-8.127757859667019 -199.899217065108786 80.877608535418432
-156.076103984304382 -200.970664707041493 80.918283894615968
-12.793990642719736 -200.403358022808675 81.731226602853098
-166.321872739439044 -200.925174060067803 80.994828733015467
-158.653907078851375 -200.327820970250002 80.716111211482385
-6.770238901501642 -200.642795799737200 81.432354507639801
16.068465093885216 -202.061896865143950 81.099881608663921
-154.049107266242999 -201.628150268195128 80.370165117407481
-144.357258691309084 -201.374029620964222 81.314813646942397
-18.040301203392957 -201.939411582927676 81.879556558738329
-14.820217979665275 -201.220895617114678 82.051573247551701
-13.498182565580695 -200.986977921734592 82.605798681713040
10.887136386720695 -202.278869897726707 80.943244938429075
-154.276761784958751 -203.175763322305613 81.011985969492400
-152.372599732907560 -202.874066516394549 80.621159524953995
-151.484773241303600 -202.525116373907082 80.824146517551867
-14.134284306889361 -202.360714562340121 81.658420909743199
-12.014349461072904 -202.834658820286592 81.269752535920588
-6.958627697556330 -202.952013119220226 80.725587249736563
15.958962848199526 -202.730964672331481 81.734949226849238
-166.934531306261306 -203.354776993207139 81.647780559981626
-156.062442474016166 -203.545183654587959 80.784999265719648
9.455753697576286 -203.858466465473953 81.512475121077983
15.495618981265814 -203.244503887819974 81.611959737296402
-15.604386408569724 -204.358077444701081 80.831945583326572
-11.957355879787835 -203.730204882582427 81.313523369028417
-157.590221059800683 -204.820311563045777 80.971952169363121
-155.828355209977616 -204.434037279441696 80.849263735309307
-11.381544494337410 -204.790762615136231 80.400568692035122
-5.260422438005193 -203.513138166715294 82.026680645392588
14.659244505145020 -205.187276124094751 80.380586968024701
-165.903026080577774 -205.594304693150491 82.030604565066227
-5.317523795170324 -203.676262739912573 81.395314951272880
-15.427486456783793 -204.767625360228806 81.691407266751185
14.936813170062440 -205.277679589342142 80.800869590528634
-5.125865368636561 -205.072099047986001 81.804575013275340
-10.306298474419108 -206.229052149887224 81.552287625003345
-10.345749527602681 -205.563337180738699 81.361030292241054
-152.764684162068846 -206.696752206702371 80.296793799296267
-15.300711619854104 -206.503798109096721 81.649969266089840
-4.193428877081214 -206.557155890820638 81.105942467104057
13.737350599183205 -206.870620177617496 80.848041109585665
-158.135571825096349 -207.234684518117319 81.178420135464933
-151.523959323462805 -206.465995484246918 80.740303485935385
-143.494491767291436 -207.351529403883177 80.937160830597023
-9.001150026878166 -207.195317143050744 81.791889692012461
10.141808721808209 -207.041547384268029 80.854918148569141
11.352472633967144 -207.585944578129869 81.580759775338962
14.817379182967334 -207.238349274784724 81.572409852437517
-14.115584504215580 -207.693894973980946 81.406040241370604
-8.343643910310272 -207.508918944776013 81.852042677230045
-166.602894805120172 -207.782444305548523 81.691010464043828
-157.385361600412551 -208.344451235842655 80.937067958822965
-96.512403691967037 -208.331566667775803 81.014330863856628
-13.763933162626980 -208.495879160325273 81.447176893803473
11.878594953504608 -207.806666352107328 81.058691901320330
-152.877595164350879 -208.316750735704062 81.172608621141208
-96.499470889537804 -208.529010357035219 81.661774915842443
-8.726061094786841 -208.185139840728112 81.434739125131642
-3.913820072241036 -207.565419452715361 81.566461433663548
10.741954849780868 -208.425185266169450 81.445622431995062
-99.614180686299804 -209.187680686757602 81.278164975412324
-99.073796075886605 -208.241777847049946 81.040434959894043
9.465856189521615 -207.792078398774350 81.655455709197113
-158.346329895655117 -209.344959783604850 81.003517837996597
-151.845581212192400 -210.084727677209884 80.529770151404733
-13.379503655215224 -209.268102238482953 81.407310159080254
-98.709762817838154 -209.976676268289339 79.859802786030286
-6.660775558864381 -209.900223482376020 81.329220839800584
-97.069384762510154 -210.280628205549306 81.105336862755507
-95.795579386997531 -209.717582777243081 81.680259130835736
-11.980793755604251 -211.173937424511649 81.504025188531656
-8.680216600344966 -210.677891408995066 81.828032564542383
-7.515660554197614 -210.438660750200881 81.033744196969607
-6.131011747585120 -210.497798502035693 82.063513349332140
-166.779698144880598 -210.722487386978372 81.289630531246814
-158.576756651264787 -210.434608677972051 81.019143337976473
-151.122286844838754 -210.818629948430157 81.175898719863298
-2.328344072779526 -211.927567455756588 81.361911564919708
-155.086762074903646 -210.858151335313750 81.488970714178762
-97.630018529605820 -211.612854443645375 81.526765543795506
-144.629941918210505 -211.571917040317402 81.190812165453849
-8.113711048161775 -210.851627718935958 81.871475151794627
10.724049640758908 -211.000715325006013 80.497897789047883
11.864752697296700 -211.735058594375658 81.775023228437576
13.224555959888843 -210.996372228023233 81.926893614270284
83.891858011029569 -211.011482850136247 81.127318249126247
-144.035518878152629 -212.739078693082973 81.716920522381386
-97.839523150786817 -211.439081656751824 82.362963614138252
-11.580839587759193 -212.391689608475957 81.492973753362222
-0.682739957402217 -212.573324224064351 81.154734731462128
11.191188000343288 -212.220255488501437 80.426030589565841
-156.146445827623467 -212.558769437339208 81.466803525601122
-106.719042356193427 -212.327700965227592 82.232934944654417
-6.476844363325066 -212.033399914192813 81.108532966882322
0.518024814171819 -212.080156351657479 81.051077431078227
83.722195265571287 -212.572147411731692 82.117946271883710
83.710493115732291 -212.820095313457188 81.219226235469989
-155.959683950092682 -212.884260639756405 80.375581628531535
-151.284858741262354 -213.592563910085318 81.381861707594780
-99.201550876385085 -213.696866846443669 81.044744787582175
-154.528627589460768 -214.100833128542121 81.680961014043859
-142.729357495106086 -213.402650617812640 81.844197174298316
-125.535195900316012 -213.698091317255063 81.277781050312413
-109.331763690670897 -213.574966619206037 82.043556113327625
-10.586654273418091 -212.958247854410246 81.640808347664048
1.326726823915949 -213.201965017075565 81.328543596356255
-144.241078467829681 -214.081886746937101 80.865933363224286
-142.085246967710560 -214.060778860798507 82.092909158456351
-133.687898621212980 -213.954745709197596 82.495472420505294
-131.233953286472456 -213.485023094154400 81.941782313273691
-110.449174445585513 -213.872490874327525 80.920021080589194
-2.912597024046476 -214.537625369394590 81.971227862122575
10.415959012472763 -214.089691139867512 81.300860950774705
10.891230987100180 -213.736199334568681 81.820529151340978
12.417705320039333 -213.751430282866608 81.056577203833854
82.534341870325449 -213.654796970773162 81.361248076967357
-155.389861464993260 -214.686845107552870 80.723345047122265
-153.415031470168685 -214.333150708874598 81.489089963987084
-133.431589755051704 -215.262611120000031 80.081091953029429
79.155221603382074 -214.839725653740516 81.402404690567423
-141.364656173963368 -215.488403178269067 80.722888605260493
-134.778980950002904 -214.813436547490085 81.786905839043825
-110.828656753012936 -214.741197718572437 82.025010211290635
79.137869544501626 -214.876916558678943 81.446563501244455
-166.013507827597721 -214.673489716240880 81.701952658335983
-141.394396039021899 -214.646273190237650 82.034969066196396
-124.138215090167279 -215.370994582376710 81.018886819287431
-101.619749844851071 -214.707639358829766 82.969819453482160
-3.358022808570830 -214.339702153333576 81.604354905284339
11.782241630143060 -215.437529650048390 81.276931880051677
12.112992602844898 -214.737610114718620 81.156659066175280
82.835946421202124 -214.780538602482437 81.377676891906901
-155.535653468053567 -215.473555211744753 82.241455091314705
-155.735708682577865 -215.231281252726717 81.615669675230919
-154.225283189928035 -215.777024520241184 81.848858884288930
-123.222754784466431 -215.460023370726077 81.546957503100089
-8.528138496790005 -216.506305238065892 82.070334200196399
-112.842662780788231 -215.203472121885738 81.361805126192280
-103.081950533552572 -216.107217781725495 81.764056822734304
-3.391899667809814 -216.379349786417322 82.232976428445554
-1.986462783335485 -216.024181072678800 81.882092697759887
