# This PCD file was generated using the MATLAB® pcwrite function
# from Computer Vision Toolbox®.
# .PCD v.7 - Point Cloud Data file format
VERSION .7
FIELDS x y z
SIZE 8 8 8
TYPE F F F
COUNT 1 1 1
WIDTH 800
HEIGHT 1
VIEWPOINT 0 0 0 1 0 0 0
POINTS 800
DATA ascii
-37.269927666681241 -232.069635075815967 92.879360185148201
-49.207173475261122 -233.292233734685169 90.668287009717929
-43.961062941103492 -233.485731864895882 92.358806590708241
-37.170063647230855 -231.653079067641869 94.064176201635675
-36.336131681974152 -234.530614670310285 94.474575653760994
-34.581128061021573 -233.030265867022251 92.247489139618622
-39.107974599338526 -233.535926917334933 91.859315100380485
-46.316374299600682 -235.056722132917400 93.480817076410418
-45.509908835167579 -235.419850789347407 90.897766882877434
-40.875905854044177 -235.661102836571160 92.264298203863888
-39.868592658443092 -234.989631121698068 93.458250390877708
8.245249465091462 -234.516635720581746 93.825351573899866
12.966492826814640 -234.933890387498167 92.931125167866668
18.594684692555681 -236.705597920689655 93.920230794723111
20.660515878101041 -235.395970687556826 91.555805021365884
19.379979159467570 -237.990032960149648 90.942991704489955
10.227242771473479 -236.154610989877085 90.355285292091224
13.738677325716383 -234.005962833230484 93.468269736534253
2.970225086624138 -239.787997341410886 93.557301446278572
18.048471273000942 -237.849482674284019 93.287708871662801
21.703814753370345 -239.880045980876844 92.176623059233947
3.692321579315407 -237.173016016938277 93.151148925206741
0.637497794538612 -238.431665744445354 94.365471329381847
7.566628195953963 -238.953766180684255 94.276707781798592
10.950351201057567 -239.797639999606588 92.220628453137692
-0.340704483919550 -240.673182389587140 92.715140157027179
2.046876082928577 -241.127745851023832 91.871497161340656
10.566184801599126 -237.179994078096286 91.554430195758499
-2.098211778107884 -237.869530722836117 92.462272297092653
-3.700955170523605 -238.776783915036333 91.688862868134052
-3.822996430125485 -240.432501052963630 92.291989154598809
-2.454295003389344 -237.172392331764598 94.954399971677290
9.646519990742084 -237.470916357701242 94.677517033068867
-2.070377597529026 -240.958954313164867 94.576206785178769
13.896264733018764 -240.769497808429662 92.952639679583513
12.422613228219046 -241.511591610764185 92.128261512179733
13.003387848036441 -244.911330590270410 94.288836740170098
-9.474060211039331 -242.252828190164990 94.136331970024514
13.892282605711504 -242.243613439626898 91.579633304350409
-11.343096665634446 -245.676899594904171 93.597335462273719
18.137978079724505 -241.521877507881783 91.677387576748572
17.669126992943163 -245.165472166288595 95.574906449064784
-153.665979977035761 -245.485143483052497 92.489103267863769
-9.960353656496009 -247.878162860462965 91.431487087162779
16.722569749872953 -247.587179195954093 93.917197489782950
-145.532997342261012 -249.151401079715413 92.977770708334120
17.503677674013201 -251.046890876806003 92.798259907996680
-148.138911637619941 -245.748845564869214 93.108793088443846
17.536600239492465 -247.497966595819150 93.322397331776429
-145.088473038806143 -250.302693157464944 92.233659322305002
-10.211535897251521 -247.446357091829100 92.893354181312731
-147.400378503569584 -251.099246338423256 95.009436104586015
17.088448797779971 -249.300002026269851 91.100983171703291
-148.215237017803446 -252.772469040588362 93.735552827657415
-140.578134194434966 -252.236297795350367 93.279949873948411
-155.104559790337476 -252.406322228585680 92.961078802142993
-142.861468001928159 -252.917086070233040 94.836778772648103
-155.755443546639668 -253.644086610133797 94.464487589920523
-143.941653823726710 -255.440727166432623 90.866978807902683
-145.440714286502356 -255.098930976925544 92.593519958276318
-143.966301349915597 -257.227235010287586 92.554078984456282
-10.054204107867712 -257.876319968814073 92.652368095451635
-6.104802320210312 -258.822683530686334 95.384147704966949
-152.758742814176770 -260.966146389453741 92.680829114340327
16.825366434290750 -260.199170647133769 94.079116822157658
-150.867785045049317 -258.386508092658289 91.777809367052257
-149.090552400236447 -259.246380552867095 93.467691132214952
-7.876552524132427 -263.564639871686211 92.623554991943152
-150.690395342233955 -258.677417794158714 95.820075521471324
-149.690903477992123 -262.924977293652546 93.520627675036010
-147.708630478007478 -259.070942912985515 93.980032808815380
-8.222527140208628 -263.147547298711117 93.629469751813346
-2.049590219233306 -263.369606082001155 93.468934589873356
-6.671380835392553 -261.413075832076458 94.705169051034375
15.929470300548441 -265.678252857273435 93.222594908202808
-149.733044156652539 -267.321859533854763 93.740874325168576
-147.552164123237048 -265.847820744387889 92.521178418670559
-5.052082372532868 -268.834224725584818 93.470831381501597
-2.928867608420107 -266.308153876606013 95.927670700557385
13.492894240028550 -266.610168271289638 92.187515109147270
-150.671168107912308 -264.358425385512419 94.961601155146383
-148.714768386199040 -265.102137679719362 92.519575327182324
-146.422138604582130 -269.621660535666535 94.667488715526545
-2.169286676418319 -268.710770819308948 93.369216028288463
-148.801371329266431 -267.352276536828697 91.964199395339747
-150.332308940358729 -267.211063657059128 90.625499949733722
0.472666614554791 -268.294415882435828 90.600700510307362
-153.237848082953377 -269.491939474709000 91.841295258601193
7.479315466878768 -267.992512038567099 92.861995989518178
10.398306581300675 -267.889973347563568 93.738037649093556
4.716921419494905 -269.697567126392528 91.823446647859299
-144.971167620805943 -267.461857023136474 93.093488688672466
1.730486572018404 -270.549563833966090 92.823025887565279
2.499928853477437 -269.603119616327888 92.081928129535413
8.737729458094330 -267.852384804076053 92.514546032155195
7.153446513933240 -268.864217654742447 92.203228452214674
-153.799998576180485 -269.779639174558156 96.051237484562904
6.060128375014183 -268.132145985175157 94.757965522094096
-146.736061493038562 -269.398315803733055 96.291958874385656
-153.183730410287097 -273.783006510705320 92.469059258125881
4.131787508609701 -272.266763885763680 93.254184483795001
-144.358302061779511 -272.007756689771611 92.773434039198563
-146.839630975599675 -274.353748397730840 93.545666780689302
-153.333041165601969 -273.598006651495155 94.207720238620951
-148.171918214521043 -272.910452999027314 95.795514303129451
-153.742744913727194 -273.805040415983456 92.857668407595156
-143.817508504678528 -274.751835227649678 92.059010817237663
-143.420534671460899 -273.354304860125637 93.281002263570130
-144.938936584413597 -274.393287002994896 93.781747870718092
-145.573323837799791 -276.445248148658493 93.314237291099417
-138.292827064147019 -274.513740808223986 91.921570192148565
-139.225135675884360 -274.907525408418849 91.347995684507197
-136.574224264453989 -277.155393005889835 93.923255519895619
-135.609976177988386 -278.680862172721277 92.959398911462713
-156.480159842782456 -279.526969418565727 91.611261273552358
-147.945617576721162 -278.344296222067953 93.165521766854553
-136.386551086715400 -279.711565666076126 92.184622884052914
-146.849746315421783 -279.926178266600004 93.197763345945859
-135.227114832347098 -278.964991143957889 92.866576756378592
-155.467860601567338 -280.428506828123886 93.075725515253069
-141.300114959927498 -282.532081883156820 93.402316498998118
-144.544147306452857 -280.397240865637457 92.375210338373904
-137.992851030838608 -280.121619063998878 94.525770791313775
-155.186641021091958 -282.441641066634361 92.305024153779129
-141.978614424986205 -284.820357417794241 93.067370661393241
-155.150781026640203 -282.809902458821512 92.843375087645683
-143.864926171572478 -285.246915125390331 92.762672864486802
-151.646870724034812 -284.748925701330734 94.265623417482530
-150.723427831832311 -284.243190901209630 94.381442184634011
-149.922779768702469 -284.380019963650170 94.292144686248847
-152.791368774556815 -282.615248354319590 91.015074353102349
-146.967006383181456 -284.146594506240604 92.623373735948249
-150.268052484118556 -283.665991282254936 91.342749054221940
-152.308831726671514 -287.006583543919817 94.497850350926768
-146.524844454937352 -288.243202005313719 93.932583576250295
-151.764014866911026 -288.724746214842526 94.065584170967881
-150.285241514570401 -287.472303148348146 92.834064567816682
-143.967306804854047 -291.919435720794922 91.346693069499068
-150.946021603744754 -291.153773962343564 91.639141551557273
-147.898100443177412 -292.985585148352811 93.158138158590930
-148.120609306053439 -290.116082592908697 92.329854411745330
-63.126589698410172 -53.403856775421950 92.352769403461963
-58.150720258042242 -52.276174756757655 91.262658285574318
-67.388584273648448 -51.320762553493530 90.613664688148020
-65.773739613357606 -54.707999016845690 90.767541841695049
-60.351154472072125 -53.360023483063266 90.975925149716943
-56.033831304981732 -53.663262211873594 90.271657887617238
-53.156241174601369 -53.116869943183787 91.702777573074300
-65.244926087266961 -55.916944559509631 92.400093669917268
-69.712214167277182 -54.067744404860719 89.469948609318138
-65.508281348571316 -52.564259534459268 91.424593087956367
-59.789708225751951 -53.821254932149770 89.511892839333441
-47.453282768057626 -56.183584397467982 91.744911655144534
-44.712056317695492 -54.172855217439761 90.785508123170445
-44.815889812268175 -53.608000190266964 90.843831201808314
-40.383725757411028 -55.140243273430528 86.281118210088806
-53.232620707218508 -55.691265956222949 91.624858767883865
-66.653387437354851 -56.635490081518000 93.051108295871359
-73.167168014260810 -56.450097227481791 91.516347867635773
-42.620853362289878 -57.064408401936120 91.746950617133038
-46.640505804331973 -57.222150166983511 90.853873202449705
-32.765400347935049 -56.523495593585906 90.807550824848491
-76.563071754270993 -56.507134091551180 92.490393643124875
-37.285220711796093 -58.737159912468073 89.517929532648864
-73.872099425071681 -59.112227026013997 89.226857043778807
-40.421412264195610 -58.003581776497512 90.512761924394695
-38.719562863000803 -56.699625039957752 88.934530445255021
-33.841235505146827 -57.924554458898413 90.460361881357485
-75.587394612153460 -58.596253680339387 91.245658240344028
-77.182846021426911 -59.286493017980320 92.177258841918430
-35.421612089197687 -58.852400713814419 91.709675129246051
-38.863133571680478 -59.612297035009064 93.241626751715032
-79.603250950241872 -58.841693314134105 90.287529027100845
-37.794486513496857 -59.586056179279183 91.977276938510940
-32.955169608790953 -59.626471162836282 91.214121644794204
-75.606998669209702 -60.329156022894168 91.628142177824188
-30.240024745004959 -59.750247590528062 92.342669346320605
-77.860012289840199 -60.573064364593662 91.789171609676544
-36.287474285811435 -60.647457113917497 91.143972616507995
-77.632706355880927 -59.748871361554393 90.885599156957213
-28.408781330911598 -60.748550488398308 91.506161708876860
-80.463627023894247 -61.484088182186966 92.255627326265341
-78.736605240233061 -62.559211343458003 94.302899087793890
-31.395048851534700 -61.477778929309480 92.834205102413065
-80.380603537412384 -63.817127572365465 91.867987685167080
-29.628552708874455 -64.843921063010924 91.530367409392980
-27.340056041244036 -66.107928344991080 92.790948408215030
-84.418441363213674 -63.384886141394347 92.543425592137368
-82.428513526519396 -66.633818774181634 89.786296090628284
-27.748497131287017 -65.808312885085101 93.354180213124508
-84.565329601428701 -67.348266392888874 90.878005732384722
-28.810178208994245 -66.907146292040366 91.605288936795645
-83.102434643488110 -68.305237260105201 90.560968315931945
-31.141978965405830 -69.543907270391671 92.836337823348842
-81.786620355144862 -69.101713510992255 94.241994149688381
-31.793027872146403 -69.037675567565373 90.871247358783791
-83.748484998720556 -71.405492544925380 90.116867588867834
-35.857153230903194 -72.409012419503227 93.189427499522751
-83.735544030370704 -70.124302939020041 92.035523447363900
-33.388934610708873 -74.221887990457887 94.026597140720085
-83.705538485038986 -74.618222486919606 92.781325878807650
-84.053144569006932 -76.107009443565843 93.652859086419852
-87.432445287613135 -75.330621572142206 91.304084829859292
-41.343657818500830 -73.678743001845177 90.167293266767231
-48.789587004028832 -75.741542258894981 90.897484514681437
-42.007020754883840 -74.011465347019268 94.069724312173719
-42.522257036727090 -74.042214449962813 93.276167144543365
-87.435399424133777 -73.519339560778619 91.343095276209183
-87.326006524741402 -79.014824423260521 90.099764511334811
-85.101829509808297 -79.334089564834215 91.499606510248626
-51.619025105722557 -80.022280768595863 91.676482498720958
-88.737708150253582 -80.513653593946643 91.963471681700909
-89.133431044480517 -80.635271750251704 90.950876962924923
-51.270076607934129 -82.679952863848925 92.156581512843260
-88.357433093582827 -81.492767354494944 92.617401512712448
-58.467136938619028 -84.669548396205229 94.375404519711239
-88.592009835797242 -83.678632854233072 91.632947008350058
-62.601499258408012 -85.169691822755254 93.190665339228744
-62.493216690461907 -87.532243232632965 91.929774871823398
-66.077396068459450 -91.380744811824144 90.323747229117544
-64.389379226307369 -88.533606216637835 88.954213357619963
-73.735697244737196 -90.372853319892471 95.740852155269977
-74.726541594524889 -91.522838479230145 92.736398770569039
-71.279253676006391 -90.957648581467140 92.450130081411984
-72.593711706500315 -89.688487194214147 89.471991341907355
-79.164667194297436 -91.568224772747968 90.576164430902026
-79.803375382323111 -96.731135693631074 94.196584954905205
45.492055893564221 -92.798632495712837 90.597298809138778
-78.396636116657504 -95.929873337007237 90.228275023172245
47.927895772472041 -96.432124723060610 89.711790083761272
45.724034910828685 -97.097450768888208 90.742798676635786
-80.477591707285939 -94.360487146356107 91.892772860447764
50.147014780275263 -97.564495866893139 90.098769254416297
-81.609548307937132 -97.518001220917071 90.888440730684380
44.924048289245718 -96.434099435772694 88.268493928525743
47.083529704274746 -98.418386034274647 90.014119588594440
43.403698003196290 -93.731445935004160 93.178653281332984
44.336442597511791 -96.573548811780171 88.735572573404383
-88.366598630207122 -98.500180490874598 92.330550402143032
-83.109079475627198 -97.450549083811154 92.059003553861046
41.991129610785002 -98.657583146459629 93.945601833462263
-87.504100151418939 -100.578209283585352 91.704539482757014
48.255553089342570 -100.118661018089966 89.158387306332898
-87.270499760658510 -100.193411871887889 88.770161511118630
40.939479980252145 -101.646691326315576 89.348247068973819
-88.241544999950392 -102.032602517218564 92.286254803281324
-85.452803900885868 -98.898863498624991 90.432132025739662
45.873433344446994 -102.544791821417775 89.713272616235813
39.805061982378980 -101.447780501653526 89.324897233078090
45.943651831007330 -101.931107598549929 92.648164342562495
39.696741581228835 -103.436241368787293 91.931432586536644
34.720721495263639 -106.553855906698629 89.644642172931086
45.452520118752084 -106.335962014478369 91.445816117748194
42.032740305282751 -105.808063822388803 89.216876330775150
38.696295710686620 -106.808620462754902 92.606627820764785
33.242501288909622 -106.760834747279716 91.639113050151394
39.512724435864030 -109.837349489234583 90.265437040034755
40.137904101051362 -110.134041407809107 92.440349054786481
36.987463831201303 -111.902406841972720 90.707478937964026
44.266335339516488 -110.471165761165068 89.025426230482537
39.976143872007349 -109.142989185206147 94.316775732415664
33.123887938184055 -111.594898075435410 89.752945318810461
33.886147890740752 -113.170867888834536 91.825894145357481
41.026691046763737 -111.572471394068359 91.407814351218377
38.270966980227143 -111.972564472674236 92.600000638371384
38.246125527852385 -114.986313875091099 88.905860609471446
33.106359120399539 -114.419557808144546 91.308217338317533
35.308114669418174 -118.526488083256822 90.406217902467688
32.636338081159053 -118.013843536571500 90.674338039666495
34.816919131221510 -116.288704503285430 91.212431269250459
41.496303010421869 -117.972942205884038 90.203160224245991
32.687311913068314 -119.377240847751494 92.371676132605600
34.736429185115597 -121.577157951219561 92.256288001844055
34.931765080325142 -119.215776930073417 89.468801521966512
36.806924499184952 -119.235112005121351 90.193307635860009
41.252172506366733 -120.444161458686580 90.759413497512128
33.651808524699028 -119.502808824095894 92.736326762047824
25.325194920143161 -121.730964117270275 91.842864998630887
33.007920463980817 -122.707213771528671 92.232477271998320
35.439995215898868 -122.042332172248649 92.059557162101399
39.899404668427835 -123.406297421844755 92.902025834311772
32.627387980577836 -123.065383333768978 90.706905027287831
33.581197802080148 -124.512112860085637 91.856165389439042
27.667012699766740 -125.197604147168164 89.576090103001448
32.592073046608995 -124.276377127403833 91.958823944970845
32.471560020078797 -124.581822243222234 93.700731329928331
32.615107783183362 -124.868303779961565 90.458925679417035
39.191592860724320 -125.406153063213026 91.422824998004572
35.167614971712190 -124.441554396489352 89.091712693530809
33.069311370017083 -127.601446566017813 93.063184019822032
31.754893584711592 -131.114178020047831 91.353613280802463
32.999049844673628 -129.837034015980350 93.146286920725586
28.534938602221416 -130.199990857331272 89.954022744083233
35.092194641743589 -132.144454728297291 91.429053723036390
26.445569640629571 -130.621957991708967 91.121430117656942
29.762816053689818 -129.448164775154908 89.708179432270114
32.028426710753088 -131.230218672806018 91.681529819667276
28.640422560056621 -132.726697102363744 91.283475125589462
33.922563888335489 -130.400546573784652 91.352877405953947
31.150521071301164 -132.339113708352215 89.193678979188036
33.608867877468242 -134.407785925003907 90.049711950745305
30.868463638832917 -132.311873371675205 89.663458677396065
28.910515284145720 -134.120346786597565 89.414121990749749
30.100351341683332 -135.451680551168835 92.679248105007588
34.282751782282133 -136.997299412474263 91.461477457690052
26.716317183396754 -134.476518753923841 89.742627833567042
-46.795334362545979 -137.174716815400927 89.919957131568836
-50.183860196699420 -137.164849283029895 90.280464077560424
-46.089338066047965 -138.141067574731153 91.070657188167829
29.264129527761995 -137.864000272990296 91.582987048339064
-47.367151040374509 -139.679419797869542 91.952633458846691
-41.085992721569113 -140.925546428928811 88.358129641168787
-44.812405547046829 -137.390261991494896 89.719883416042236
24.693176146670545 -137.265520536621125 91.557870322934136
-45.612811666433515 -140.947994278914422 89.580555654917518
-45.006964763362838 -140.466611011994871 90.097950952847583
29.175665962477023 -140.014974646744378 88.362931403811544
-51.290709289809570 -139.020938796163676 90.760966496154836
-42.768952475960816 -138.965912002542950 91.893162414997875
24.678035377401937 -138.069160591498814 92.177959513205593
28.507193131922598 -140.035323700446270 90.385687359414959
-46.915132694978432 -141.073191974998991 93.404489271004735
-42.665067607368137 -140.682724707506026 91.330605994152947
-51.080775203159860 -138.763703186208602 92.118467995450473
32.415184456932003 -140.289084547197319 91.705528998729704
-41.469781714735198 -142.103742738100408 91.039111934217203
-46.921324320006931 -141.471662483831977 92.596702600080107
-40.077763229253158 -141.346137438638351 91.076758479183795
32.512184799140066 -142.785682895121340 89.236277607730571
-47.170631796326624 -143.998656860594991 90.593721746068184
-41.945198342152281 -143.683143874387071 93.076443098883857
21.647635625074738 -141.913050227066179 90.547057054184179
-40.177413168820415 -144.316797882840291 90.805182666467388
-44.130109747958407 -144.281524719553602 91.714034020636660
-37.593350377812811 -144.486742057241742 88.988098946730815
31.345532351015468 -147.200955114141266 91.605884260911054
34.104457987256694 -146.243905480329801 92.075240130043284
23.566699604427136 -145.331441805586053 93.421487692964973
-37.767966758956135 -147.085646013784896 92.470232915137174
-46.823634922146695 -147.462992273388750 90.775972245911106
30.284277982466637 -148.749604375002235 89.360030145094370
23.215081490793153 -147.748819926972430 92.623431741752825
23.006671466027083 -150.040290435612974 91.971793525310773
-34.453501399737966 -148.423814301443088 91.635014290743754
-66.958716548518439 -152.471077185411815 87.534600536262261
22.874005312028412 -153.535044121866548 92.336167094328417
-63.793894179568682 -149.568907545829319 91.503025457212971
-45.274492912342808 -151.023330389821325 89.790645843684516
-42.353610482027818 -149.923415365821171 91.551381541911596
-34.419223905577446 -149.804981675494190 92.639096464275042
28.707337066069840 -150.533354092210374 91.256015883670926
-66.023821490252971 -149.442291937330424 90.293566377790327
-61.563290471375730 -153.742078867756646 89.846167130918488
-33.447439585389340 -152.952917869629715 92.227605912674363
-65.570497855705867 -153.412496233775471 91.794355260851091
-44.673522700161705 -151.972330710925405 93.018557808246968
22.140359333358511 -152.587347769629787 91.291013789095260
-63.533132889122854 -153.641853172889256 92.605191109246491
-62.627548526429678 -153.184639147604116 92.079358481312511
-59.565959005183970 -154.059339989860689 91.451329437266509
22.293786148790407 -157.487447343550514 91.159455308018735
24.854338074739140 -156.217036856125731 91.367481698165108
-64.105567448597853 -154.960354783103355 90.442162794656909
-33.596642853551238 -153.324861442698648 90.041642620547819
0.053585006176614 -154.992276227570926 88.345237768939754
-59.023126800164299 -155.733461421171995 93.419367037156562
-41.819271096467737 -154.983454628080835 91.133490321491692
-32.079086667404091 -153.189458603278382 90.488715344903866
-3.727063951766472 -156.201507623757777 90.744021019164435
-2.261082605416776 -156.676879223545143 89.463199229259970
-64.267940515780708 -156.908748607053866 91.216791982428276
-60.390337861075885 -157.369055092786596 93.141839727693608
30.255976565914988 -156.790799179223853 94.262443596162953
-63.732032388178972 -154.105651795667882 92.831690041925555
-58.595018588900153 -157.505137051288841 91.411142220960457
-6.343271615163830 -154.181722913333914 90.822708922584710
-0.785586663716144 -158.678407238509692 92.058213259765807
-4.536993610760208 -155.611062329443001 91.196157966167917
27.457186840976945 -156.487498879897970 91.208041419869815
-32.072188485407942 -156.263007135486845 90.784099351511728
-43.136269855090497 -159.254826110076749 90.884502274130156
21.508669193606597 -158.041991895057691 92.075479708380556
-62.809033767449741 -156.712221549102424 90.027218836799165
-0.736559165475851 -157.429737202340448 90.498162918449850
-39.809957893973689 -160.132041778367324 91.753453832597970
-31.157626846012327 -160.776470247761125 93.620105319152231
28.820121869507012 -161.534115779490264 91.658738420345983
-8.486858019966860 -159.545873874777072 93.501417075862335
-28.939838237187104 -160.363135953589364 91.085119228631555
21.616047038620568 -160.419494687266422 91.068716587964303
-61.311166440512750 -158.997551017842142 92.058739991380250
-39.099679989168941 -163.391758098848157 93.159154380023850
-30.143456246395782 -160.795001896107834 92.654104799389501
18.664051800138264 -161.254998268766911 91.834443030773997
26.923347836683533 -161.795486490923338 92.652079929564451
-13.302098921830847 -164.620694237520183 94.139020084580096
25.124163101272448 -163.050241192002829 93.263958213084976
-60.630277728848135 -162.418367145553361 92.818574719197727
-56.398804451727031 -160.914904525500617 92.526404767369371
-3.043507632469933 -160.701011357599043 91.804306278882535
26.438504217280038 -159.881596559008386 91.633710661987251
-37.197694968922264 -161.630501843351851 91.242432540947021
-13.212595316971582 -161.621635325859245 93.141871780032901
26.926770379560335 -162.192488636213454 90.543365680388035
-6.005096026462659 -163.996280517550417 91.753092451351591
-35.280331380079943 -166.364338787419626 91.083868780184190
-14.036087850498886 -163.764434641729736 92.248875331342290
-6.566303097335085 -167.115926324624269 94.046331929279276
17.209983211642552 -165.718496438656103 91.310527705032882
19.650555835290067 -164.357828759516622 89.676856224249434
-29.510202979014412 -163.436847432215245 91.465117575694038
26.512264856863425 -165.098825311585244 90.279561097801434
-18.875569347459940 -163.857059902423600 89.203565754403030
-8.598823166476960 -165.634478629986035 93.683262255389266
21.665375695399856 -164.716512418873691 90.769835130969412
-25.837936834298290 -165.147591905665877 89.290246081458903
25.960645422781244 -168.160961283502417 92.569941703455768
-57.856531845794798 -167.176875037183777 91.577282449875739
-19.117967127402142 -165.904567451608870 93.097729647407647
-34.745889011031288 -165.354797132308136 90.953569060040522
-24.594547548265169 -165.143614414388423 90.001289310796409
20.570550844878124 -168.264277768556752 92.605611779069307
23.023429775981676 -164.546473597375268 94.017983759682494
-10.128536222567257 -166.841343188806860 89.341305933030895
25.043090760398233 -169.202436426771357 90.827900827556022
-58.992987904939703 -168.968620463854478 93.592495815772750
-54.326961669890260 -167.861930040140606 91.844886115103449
-21.595815786827256 -170.454791355854553 92.336870845632120
20.462970966207568 -168.170399362047618 92.684776432740676
25.684527117415776 -168.682468805976413 92.337975036678046
-54.458389715121122 -169.654035851263330 90.325618222344730
-34.877299535307493 -168.087697310020843 90.016626996745828
22.026928514981261 -169.865464826462897 90.560773380158849
-50.601499998395326 -169.225044299193911 94.270241768817570
-11.397548076700087 -170.634339923977365 91.267839131286649
-24.030700354985054 -169.206921320530654 90.316235908080770
18.919357401035672 -168.970912770057225 90.772272675520739
22.077306598911321 -170.408968962397893 91.067351479698758
-16.020246594420286 -170.937606572583860 90.538652948467146
-51.533809306645935 -169.318929930050501 92.388049317554021
-16.774053875680604 -169.697462483253673 90.251795304827581
-55.882076716972243 -172.291546442749876 89.486738398492804
-34.483089748545368 -170.216589924402399 91.539451767033867
-24.073178083897901 -170.510340049795303 92.714376706637552
20.434025359492260 -170.065888715375252 90.473536118821784
23.815030303129234 -173.554969826902919 89.690163724418582
-54.827747171861802 -171.858559186202228 89.036059141551092
-26.913204703137509 -169.356915941195041 92.216078171533113
21.065215496751236 -174.967174789439724 88.976899552125516
23.941807528131068 -169.461955561670237 91.098410949112960
-48.672863551287449 -173.616278999916034 94.119229717472209
-56.274882785369861 -170.369573355702187 91.112143824638864
-54.401024497691800 -170.307628317174277 92.985069572171597
-52.164453851607909 -171.464241303249338 91.574054395268234
-49.096517587811853 -172.003863137264318 88.849941069937614
-20.193619687780270 -172.181883604250459 92.181418203950159
18.748535793947660 -171.765726072252988 89.182655628747241
21.926159815133083 -171.524417758369964 93.300504521245301
-56.294303456826626 -173.889636698397425 89.828414563469394
-31.157450966108435 -173.151463441272313 92.522297278239847
-22.752657439823643 -174.791005465366425 92.052106014343138
-18.895640076020602 -173.791686466439359 87.939477921409747
-51.863869268858984 -176.261273348078220 91.625929754689068
-55.666046813251825 -173.443208477655588 91.779835238663580
-52.314753425980278 -173.589825992974227 92.635758234024152
-21.956935925604824 -176.705459436214056 90.687713949660591
20.311359413203370 -173.720287637217893 91.436246098813356
-31.049421258943983 -173.570024320008031 91.812062436309660
-24.444497675402225 -175.638708978329475 91.411231110612832
-145.940326146711641 -174.092827372106456 93.165401449655519
-46.671929466372973 -175.349141726704886 93.891221444380633
19.617229080065950 -175.156121147681489 93.473845799778076
-50.966641124942292 -177.145862863400509 92.898541078495867
-33.808413119543147 -177.099860774690853 91.508436273272110
-54.295265290271487 -175.914750133163182 93.514149653478611
-30.323673542980327 -175.418872267055320 91.724922502620871
20.853244224749488 -176.141770975030340 90.107640325667802
19.627596697245298 -175.794021838233050 92.591860574374820
-46.818627728066517 -177.697784794735583 91.333650634844560
-44.002618856259332 -175.709857027567608 90.138822110775919
-48.816181765149636 -176.677368336965088 92.932754443606228
-29.715051260145227 -179.492998636023572 91.157922040431174
-49.267974093486252 -176.988062814141898 93.139818742608156
-20.924463495123796 -176.058622323254923 90.556650368891098
19.211392599808626 -178.564815812226499 88.671712043481890
20.321743133657836 -177.756784585128287 92.294290369942743
-52.228925887284902 -177.391337462755757 91.826195658193512
-28.884547117772780 -178.803291952387525 92.631994610878607
-19.086255148495042 -178.633851585508893 91.988823974032456
-32.645888313603237 -179.320056507395577 92.037781279881585
-28.813466256341005 -177.135463222335574 90.579317161830247
-25.544825278476004 -180.023167459275527 90.258860199332972
19.830935434756626 -177.745856322605675 92.785962218512012
-149.851814701290238 -179.324775656985963 93.618655498481488
-46.986527304333229 -180.992350384030715 91.548650646344626
-47.900473947580515 -175.763090755120885 93.455895906104729
-29.826181606010824 -179.671877286390071 92.527905412975926
-29.413022127001540 -177.767097087170015 90.431457470389390
-28.995510884008318 -180.042667951412739 92.672772637295765
-51.455680267905258 -180.914414490989742 92.168909728166511
-46.393220352941270 -180.636303870027405 92.736386876630291
-42.690554061369120 -181.175842830437261 91.799017114924908
-21.928278377955767 -180.462299951387820 88.800225791185127
-19.812808981461124 -180.184405909793981 91.629069410500136
-44.747353434192348 -180.839270950519250 93.535520869727137
-44.014283531361947 -181.326370147358375 92.622133143149227
-16.858967745336884 -181.732573289096791 94.975267572624944
17.356315496354554 -179.249714275544960 91.285410464744032
16.822455464288886 -179.694894981247330 93.163564143811570
17.734443554882517 -183.546454077605375 90.788308034114777
-49.274894662138664 -183.134812177758903 90.917029506636794
-47.225122323079859 -182.652606348565200 90.990014032583957
-41.165855380719975 -184.052575803702325 92.101524009877480
11.831598886655033 -182.458027995278172 90.750547570474779
-45.424733478566843 -185.406108236027592 92.169129685786714
-18.043155317440053 -181.515688993097626 89.737356005481729
14.711551849895359 -183.071352473909997 92.916734021622048
-47.460637008231934 -182.763625525941535 92.033948852217108
-42.833162914830652 -184.213820850441238 92.327557912700939
-149.739910772641508 -185.192517488684643 91.010095434515833
-144.882520114309784 -184.300165572726854 92.982748353184249
-45.861512266300934 -182.917597206185519 90.709563158758300
-42.124554305423608 -183.604541842129237 90.594417112745717
-25.092696827715105 -181.688751871662504 92.841313099764633
17.394997017734433 -184.976998869788474 91.166187170295416
-38.384764862427488 -186.550022639348811 91.977622249492782
-142.883219571941567 -185.105408528912989 92.666748838536591
-47.506591943579799 -184.993300886545370 94.705829851740518
-17.526884537912281 -184.444215862610378 93.193978288626496
-24.102347245925142 -186.098102539465970 93.109047752859766
14.057311795807701 -186.499699128988937 91.831497708849014
-153.205691052769083 -186.950805624623939 91.127197150978873
-143.565284613128853 -187.555863704458005 89.838530293322052
-38.216221585030254 -185.973136432163273 89.297817938982561
-42.414671833008526 -186.562701058424409 92.239564165604122
-42.009650761405908 -184.000755353128113 90.633546361524637
-22.274152967781077 -186.398622501290589 90.664693172875019
16.697460720137975 -185.294505511728545 89.872364052470175
-153.922079609090929 -187.592897806436724 89.859401433059617
-49.034817840859610 -185.783533463275830 94.471430174858739
-17.191722778719111 -184.664458270429520 91.915937089062567
-39.192070937173050 -185.002901211596054 91.545311718695586
-37.641305554395124 -185.467634334251244 89.513890348142567
13.229599432046424 -186.898998367533665 91.358039497723254
14.089751009637773 -188.480409758572080 91.417084983880869
-24.601449560054746 -190.390173584334718 93.143666080581056
19.374310488812768 -189.121260007185384 90.458469324364728
-144.958020036874899 -189.020545081530884 91.506525926165935
-42.992066996471564 -189.003627647492266 89.315217769405891
-40.491986767193453 -187.379664996407939 89.515240770346878
-17.268917523181742 -188.327903742613501 93.218075927991038
-17.894916856541712 -190.133034184186982 91.565020319319103
16.565797829964904 -192.017604886255043 92.805842843811874
-147.460831292304960 -190.357070103429436 91.269308262641090
-43.691589537601999 -192.711595025333679 88.805199755347829
14.322342641958754 -189.054766445201807 92.164069445253816
17.400824116823468 -191.150863480303087 88.694661267244797
-135.072475518618347 -189.731989967560935 92.076224385602629
-41.314819316056138 -192.986729148115643 93.422871214176226
-31.489637414775128 -190.067405502049354 92.897894953542249
-13.891316045211257 -189.688786554275140 90.667362874684002
-51.389900102813868 -191.787662903175431 90.338795521152875
12.067563668236501 -189.649139243707879 87.410832809146683
-142.126980274707222 -188.970194667254361 92.209746680947120
-141.184620461817985 -190.013323766583056 90.876147581318449
-137.461067020712846 -190.736813752631662 91.944056872115240
-35.236235807934051 -192.557761396079798 90.770068281279237
11.659511836000465 -191.097256730166720 92.140367618172988
-150.464067839342789 -190.370422505119308 92.166287292340925
-54.418301222609557 -191.725168252310112 90.209938790530714
-35.240805962710141 -190.609773817908774 91.579790325994210
-11.377078307670036 -193.049718264555167 90.243884165622688
-14.743181838902361 -194.285712793139538 90.370681873779759
-141.913974006376975 -189.283338748610390 90.631018171278882
-44.324977055769402 -193.327545946440637 93.382784795454214
-54.185426940096541 -193.063198115362042 92.279753804322723
-55.321215203101723 -191.475403462732174 90.582433603048798
-21.818521955920879 -192.992764188258889 92.563717789098689
-152.987408940240641 -191.955351453280059 93.680764810665224
-55.594643425322921 -190.954739110241491 92.683243984949101
-143.708905490424939 -190.329298655093623 91.893156640432167
-55.886573137302250 -193.258950325395688 93.876681118672494
-17.965467847367893 -192.144460962538233 92.293514093035441
-13.929642417881420 -193.438205957043721 92.556819896823612
11.726618499705298 -192.523328288486056 89.704285483719104
18.094694621751572 -194.934714703052833 89.393003086090928
-148.915896563470653 -195.399390047090975 92.804990089776609
-54.608371034905467 -193.139747217005777 93.076547239429800
-36.112680293243585 -197.785196839799312 89.600392248462001
-31.670895134998389 -192.934977048987548 93.131030445368495
15.663097337059046 -194.501871543647837 89.338509861113039
-146.088385531301554 -193.782081741612444 91.742880501321252
-60.766916144424442 -192.819317823749429 90.088933705171129
-60.455864410224322 -196.529351951958489 91.962692742463346
-54.691095512918324 -191.929196839199392 92.308345871201354
-13.968823703698872 -194.397836309625006 91.660933189459314
11.617550761004113 -195.731779726521722 93.777047497353081
14.603666024236073 -193.967877211890055 90.634205785651176
-149.301197254688958 -195.399470568142021 92.942215977170193
-146.073175393497678 -194.250026262114972 95.193344924051942
-61.949792162482083 -193.609817945213621 92.424556708318036
-60.530536788775642 -195.290286798532662 89.537460737947626
-63.980161146094716 -194.241816024623489 92.885980958066739
-58.192830835362130 -192.959642597780913 90.322546411725526
-56.363553074870140 -195.006216950855958 91.432301618777430
-19.057466727850564 -193.409828875830215 93.330577574773429
-10.310499601922476 -195.710101566663127 91.967293607207068
-57.000794382890120 -195.634597242193252 90.922676070954040
10.515152003926010 -193.260053600201957 93.694030782660718
-55.642287677456814 -194.200481106541218 91.598545723054400
-40.049934886828595 -195.774809057623145 91.099417432042131
-32.464923498259687 -196.976576992222618 92.497106188001680
-12.793683254995921 -195.061896540713150 91.860195226649452
-70.423875462041522 -196.425770480477695 90.522986243233589
-60.246723874195297 -195.887537827301969 91.257756848381263
13.233430022545882 -195.758757296903411 90.383840620683230
-148.475247854844099 -197.706706785824281 93.492110093932666
-70.577482129960643 -196.853340475740566 90.778894267531555
-58.692259836005377 -199.504062424904674 89.488804696420374
-72.822393270518319 -197.224211685246019 94.350472939062811
17.826467069084888 -197.444166597554698 88.319754278944771
-37.905266694435660 -198.417036882033756 90.265049402434414
15.361140770163056 -196.521384084646257 91.410972816166733
-62.159323636513683 -199.927409454421195 91.638951348712894
10.929722592631220 -196.958862794812632 91.942105058094185
-75.805074885479712 -198.304553494574947 92.178282013985708
-10.299480595376306 -200.192324303824506 90.062979955727769
10.178505127687471 -200.153328113810289 91.531805364703715
-64.543545427236424 -198.740411418187023 92.633633430493191
-17.583061622975574 -199.405284733733225 93.235908262813311
-64.068981933764675 -201.329592245535082 91.936161869463419
-15.875398290841943 -198.992542061806830 90.436975966811076
-151.376794550634173 -199.689282541542127 91.673719126284738
-62.137735997756202 -198.142706760900353 89.377377916026845
-83.589028982952854 -201.124896986460840 90.405494180834509
-8.925288420902906 -202.139332627515785 89.522220076814946
-152.751815462986855 -201.470615665251103 93.257846855832611
-66.863270906983871 -201.584258801005518 91.395633408746193
-24.628434569904258 -201.282033781421944 91.416095779845548
8.589835556492265 -200.518819497853457 90.674733479316146
-83.706721209163490 -202.186399353359292 90.937265029597782
-66.663430061044281 -201.171665259498553 93.372226461626511
-6.912339039131250 -201.330948301813947 93.112845962576785
-32.440273483714151 -200.545586036728110 93.602352566154792
-7.127309018824637 -202.661477980471943 90.440232940966283
16.654221792257221 -203.345484410263708 89.298127356495996
-81.474657786050955 -204.138856749970557 90.954422341281173
-69.572111120411265 -202.986816427779843 91.763892081365981
-14.866926450209087 -205.142745431086837 90.042389026070808
-83.229513820019818 -202.986392754103946 90.794933238913785
-83.587398457548858 -201.553441786585694 92.804530604327070
-72.336913219239804 -203.185879273181428 92.632138273425426
-27.397899709145491 -202.342970545958252 93.480001650122972
10.593164844206399 -202.432637671910726 91.699050519280235
-74.266173115740699 -205.625294396667982 93.915629536679475
-71.550445236546608 -203.966116850372032 90.372674925735097
-7.556318778754818 -203.403911798805410 91.158222089779485
-81.886628449904222 -204.776426492986531 92.508385493366774
-29.995724722635472 -207.820027218648107 88.323181482541457
-14.287088144631600 -204.136522479184862 92.196142984479550
-82.730221616591635 -204.320071323044544 91.058669865911909
-81.589878503741929 -204.601761163216963 90.759859626817587
-78.066670383151077 -207.072686896670405 91.919366960637944
-24.405766134055334 -205.306237445731739 92.604053705901691
-81.449289662260014 -207.627281377166724 91.890618194388125
-22.508873080174823 -205.880764959384351 93.629944726050852
-11.536315597962737 -205.604751512147544 93.020418764323594
-7.186674993627467 -205.243401363679709 92.404588085323283
-26.655807419433653 -205.699260652594887 93.465906493304061
-20.277825869684399 -204.705206321158300 92.717981091637711
-3.094015626124932 -206.780433245715358 92.462159313399738
17.148461019681307 -205.494102113366552 90.707607827444818
-23.829063848099917 -208.388268220540169 90.991679685537804
-2.908003393689190 -207.816601875494115 90.258654395386102
-25.038763992128601 -209.206870455372524 91.650754624935828
12.598229828801086 -210.318645724609524 92.308622671252678
8.629142133884573 -208.365849422797311 91.418001557218162
-24.627441355666910 -210.643316812077927 91.241832971117233
-22.567422688698201 -208.352290428300222 92.365455761915413
-11.536574256953845 -208.666521289063525 91.059502945766511
12.580406274358401 -205.578531162032647 93.941090000627455
15.236988600286804 -207.838283928066176 91.400608640619737
-24.947506475791755 -209.255831009812454 92.844438279750989
-26.108352282712790 -207.279499892853579 92.666404636577667
-23.933945309069820 -210.070863411705545 92.722036341637036
-11.817554431249505 -208.811812461278606 93.356956387844278
-3.911673711039039 -206.913861069778932 93.008827421146790
12.656766891883276 -210.706862086820877 88.751263276353413
12.984820405821100 -208.755003222707813 88.937104020527883
-0.899481525256708 -212.811960947371375 92.625263587189991
-8.870406302015542 -212.708234068910485 90.256155888961970
14.786398861508863 -213.442205414865839 91.220202105941922
-144.880348070161432 -212.581628380938071 89.910001410517467
-7.425873235335292 -214.281407981423428 90.454331881571832
17.870715428069769 -215.790276532250004 92.699562877090315
-4.780424473438868 -213.988920327107706 90.673999096090796
17.199852230502344 -215.724749556664648 90.455531202067334
-144.705667563555551 -214.593703505290648 91.860113510846489
-7.133863432954555 -216.217271776424269 91.336341840801339
6.162494964222429 -217.470215440292094 90.592325661241929
8.712291252602210 -214.376681901946171 91.436710140963086
14.357097310310929 -214.409272475130194 92.720187523930150
-141.692342095087326 -215.817756233437450 90.103370373485447
1.923382992832351 -216.151543649238874 91.818098292935645
17.877422394691589 -215.713529530202010 93.740608447324291
-146.137767625069898 -215.336739417015451 93.715188747405719
9.146630406453037 -216.325815491385242 92.761452560812245
-153.696560487766533 -216.143326117996736 91.086592976633412
-145.684745489579797 -218.239040977093964 92.854113087284802
-9.477094215880589 -214.384319640861094 90.304165414504908
9.112846409998875 -216.540662758468727 92.627616187253437
12.361931325663727 -216.723621280160557 91.399152491262285
14.018895678681975 -218.112208461317948 93.315630489244683
12.229270361223476 -217.074592852491804 92.865064240977645
-147.899514639394539 -218.437385524658879 93.671508339501088
-5.630634396653656 -221.405960827424934 91.615539150704024
4.547202801058952 -220.543257890959410 91.667956852675857
-147.301896625187851 -218.009773102680185 92.129660180793365
8.059511937001885 -220.559651397700037 92.874798532420542
16.021837146136445 -216.470138983354133 93.315214820893502
-151.649597112604397 -221.707869143057025 90.174213090484770
11.626362144626167 -221.272064749575122 92.125805552788052
-4.190271897985316 -218.505749632842537 91.067059596926839
7.678857292367812 -219.853304936710373 94.547380898554906
-150.359794876603615 -220.124469246131213 92.933328027372312
-2.736060985024816 -221.205543932401810 91.152363943647615
3.070894103479517 -219.475931325782028 88.993036650132240
-4.801845896749890 -222.519026491196314 91.534704771167441
-0.288754259987981 -220.311066333504272 93.092025393894033
-0.099111656343458 -221.167946272067297 91.589648322201896
13.936984861071140 -222.945661985434583 91.055647420962813
1.334542301438418 -221.805562372482001 91.159538035014535
-141.983503367013924 -222.293977799876643 93.789839840158393
20.796798314411252 -221.967819181666670 89.034210444248458
-143.524746351983026 -223.103836663507963 89.189835786797545
-149.630575382252374 -225.858636014882109 90.971700518423646
10.904797967251115 -225.247973897240968 90.869050094374984
10.952614131885568 -222.041508003036512 95.109448907607145
18.229699223889252 -223.960852141519155 92.194579224458735
-0.882084015664312 -224.947653712717397 90.695147788450100
2.601839291308643 -224.017935642373629 89.596415615073681
3.165578289739884 -226.346649713732262 90.460389703788181
7.802468301900889 -226.634528385156926 89.553589801010446
16.109509089965563 -227.201201840055887 89.201408172055778
15.726668425847992 -227.954201704407353 92.393459969574792
2.348169560596688 -227.035896346582973 90.685426364469137
8.905269534332888 -225.980311574084936 92.951375956618847
11.505192682905601 -225.569635311057141 91.983832944041879
5.969450970146712 -228.082436391520275 91.829887711302788
19.349927239558930 -227.440268806799054 93.074041164684274
-146.397098998988668 -226.505819180663082 92.512915829285461
-29.852662677079984 -227.915568833846038 93.356444514842011
-28.707294835591654 -227.121720084029619 88.483864063299976
-32.624838469913911 -230.612130383853923 92.140994188748024
-27.089213290212491 -226.982215928661589 91.511316532182022
-33.321224185242848 -229.149570552257330 91.107775237926987
-22.467004741815018 -229.243024382052738 92.382939522667868
6.910537152391015 -231.406988752368704 94.415413077952351
-27.241207768479423 -231.253390771957243 92.827422495143736
-145.364900260264136 -231.253704701849642 92.950079772519359
-40.730745087407101 -230.054496822860216 92.114792878819998
-44.743782113933499 -232.039138883609297 90.468969982484367
-24.257408583792245 -229.573942462729548 89.430494342673427
-47.417356112517247 -233.032296458898031 89.349964657061818
-144.809869791903395 -229.417798506708294 90.212197615405842
-149.948079475920252 -232.444261927405989 92.696013732355539
-150.112196009348821 -230.845297325496460 90.443843084648989
-43.827927394860318 -231.497483440353562 91.728686941723353
-45.299188466854346 -232.491028135780795 91.766940956236411
20.703698283204233 -231.325277961358267 90.894938105734340
-28.794211175004651 -231.537830677698366 92.154743683959552
-25.374314677318754 -230.684365587850266 91.523079286333669
-22.988603039891998 -233.107982354120736 89.867590637984847
12.615768709976953 -231.649720702964345 89.662588965752491
-46.990191727801054 -231.494859887539178 89.883762042160114
-31.250006635467457 -232.685646922243279 93.660218709813492
19.638471926712914 -234.224830452373851 94.676234718703981
-48.423685651724384 -232.104682834876911 92.788955568607392
-29.868157873512288 -234.017415760243381 90.995519381384653
-50.996200961184648 -233.799735911557605 91.051922592035936
-36.895237242680963 -234.889619801543688 91.754047502859578
-37.161857718138563 -231.434765636974106 93.001437691414921
-30.744529365611644 -232.540709152007850 92.203870404954387
10.292591786631769 -234.551457261875697 92.949682080916673
10.281669933963300 -234.453391699697647 94.048066276680942
-32.586131546154391 -235.694582046491576 89.210725108206816
17.392533836568813 -233.937595074600324 89.223044313236088
-49.021271687849080 -234.418288259321798 90.213735952498524
-53.622153314507543 -235.356243600792624 89.981835937135060
-49.902654466565359 -234.669039826107962 91.765990398109494
-48.097313987700780 -233.420191192824547 91.657642221790951
-48.170046952600686 -235.433008280999871 91.690474007420406
-38.443760100298988 -234.351358818870864 90.964860090534430
11.173674341449340 -237.968894258003530 90.233752681479743
-43.452027977598405 -235.013944142738438 93.066967917282469
-38.283588140688813 -235.669597336938921 92.193872087031522
-50.152196270049579 -234.730597101877748 92.945026313806181
-44.878686710506550 -234.249634247225089 91.934505246990568
-42.936831798811411 -235.812574993337023 90.571389299483371
-150.102787980285370 -237.453694068196995 90.768298220890216
