-134.759124755859 -67.360939025879 -222.327957153320 1.484454631805
-115.258041381836 -79.278068542480 -222.997940063477 5.899968624115
-113.338409423828 -69.198715209961 -223.330108642578 2.919120550156
-9.015151023865 -75.303085327148 -221.328689575195 3.036451578140
-17.139719009399 -73.942993164063 -220.378936767578 1.980942726135
-2.892280101776 -67.427734375000 -227.480239868164 2.464394092560
-11.968696594238 -66.417739868164 -224.275421142578 2.646738529205
13.521756172180 -71.827644348145 -232.038711547852 2.257961750031
-22.319732666016 -67.955871582031 -226.607955932617 5.034630298615
-168.663345336914 -67.891685485840 -214.357910156250 3.938678503036
-7.501872062683 -71.361648559570 -231.305053710938 1.748768448830
78.921905517578 -66.689956665039 -231.829711914063 4.583955287933
9.798296928406 -73.186187744141 -231.155258178711 1.896685957909
-7.591763973236 -69.810523986816 -232.872177124023 1.942809939384
-159.273864746094 -67.202377319336 -229.740173339844 0.771508216858
-145.249710083008 -67.897407531738 -222.769332885742 1.998097062111
58.836338043213 -69.636054992676 -235.677825927734 3.040893077850
-7.729762077332 -71.550857543945 -230.695236206055 1.935221195221
8.939002990723 -73.381851196289 -227.093963623047 1.840948224068
67.509353637695 -74.351646423340 -226.759216308594 4.868477344513
74.679229736328 -70.718994140625 -234.097869873047 1.961019515991
69.255157470703 -72.513633728027 -241.728805541992 1.095682978630
-4.103144168854 -74.779602050781 -232.304901123047 1.729004383087
56.327163696289 -68.263381958008 -235.809417724609 4.646026611328
-21.633724212646 -74.305358886719 -237.283752441406 2.462383747101
-16.669584274292 -66.885452270508 -237.107482910156 3.793156147003
5.550797939301 -70.508193969727 -236.319061279297 1.673817157745
61.767055511475 -75.554161071777 -235.829040527344 3.588227748871
65.048934936523 -68.803253173828 -240.696029663086 1.386729001999
46.265155792236 -71.537864685059 -244.502960205078 3.426008939743
58.571914672852 -75.305007934570 -241.635070800781 0.614880979061
-17.834938049316 -77.446098327637 -246.163742065430 3.418190002441
-86.555419921875 -66.539901733398 -252.145401000977 2.436251163483
-79.526039123535 -67.778976440430 -249.396453857422 3.030601739883
41.554523468018 -74.906944274902 -245.622955322266 4.854654788971
-154.270874023438 -72.180297851563 -243.746826171875 3.075074434280
32.610939025879 -70.593589782715 -255.467727661133 1.327961444855
-94.925102233887 -75.982650756836 -247.185089111328 5.051949977875
-159.761932373047 -64.847175598145 -247.864532470703 2.582280635834
-142.385086059570 -60.802009582520 -246.386138916016 4.820006847382
40.725212097168 -70.299911499023 -252.711166381836 0.473491400480
-128.236740112305 -65.754196166992 -253.065521240234 2.018998146057
-120.300514221191 -71.586677551270 -249.350265502930 6.647867202759
-94.326057434082 -65.164314270020 -252.054168701172 2.853474140167
-15.566692352295 -65.654335021973 -245.327621459961 3.763246297836
29.401641845703 -70.410026550293 -254.695983886719 1.027186751366
22.247655868530 -67.403869628906 -257.169982910156 1.888462662697
-162.837860107422 -63.526786804199 -254.683853149414 6.019220352173
-117.405006408691 -73.555686950684 -257.435577392578 1.733699917793
-16.315258026123 -70.691795349121 -259.388580322266 3.828230142593
-134.856826782227 -69.816444396973 -260.118743896484 2.286787748337
-17.563045501709 -69.380065917969 -267.470672607422 4.191648006439
-166.697067260742 -69.531562805176 -264.841156005859 1.077443599701
-9.332001686096 -72.055320739746 -275.820739746094 2.871666193008
-163.472000122070 -71.346885681152 -281.214752197266 2.527207851410
-168.052536010742 -73.858947753906 -271.596435546875 3.478792428970
-145.697586059570 -71.057830810547 -279.108703613281 2.676885604858
-175.036102294922 -73.186462402344 -277.805725097656 7.338304519653
10.919063568115 -74.697402954102 -286.594879150391 2.560300350189
-106.578643798828 -72.102066040039 -281.384155273438 4.212728023529
-91.056335449219 -64.334442138672 -280.913909912109 8.994383811951
-171.993591308594 -66.492996215820 -277.490753173828 5.882678508759
-96.092185974121 -77.408248901367 -276.999938964844 8.797096252441
-159.238693237305 -71.392662048340 -282.725402832031 2.037957668304
-80.775428771973 -72.785797119141 -292.282684326172 3.641834735870
-75.608474731445 -69.895797729492 -284.531646728516 1.953746080399
-86.930450439453 -72.843772888184 -287.335479736328 0.179942011833
-7.006556034088 -68.907043457031 -285.520263671875 1.078942775726
-93.673202514648 -70.619461059570 -282.578796386719 5.977084159851
-102.797424316406 -73.153984069824 -285.482879638672 1.508392572403
-122.084869384766 -70.863288879395 -287.494659423828 2.323890447617
-120.324829101563 -66.519851684570 -287.668457031250 1.460801124573
-137.763916015625 -70.922203063965 -285.487701416016 1.428919196129
-146.176513671875 -70.220001220703 -294.702331542969 1.977510094643
-148.647079467773 -72.197273254395 -305.983062744141 3.635479211807
27.472982406616 -64.445571899414 -12.588216781616 2.935865640640
36.503841400146 -67.224067687988 -14.187153816223 3.985079526901
32.982795715332 -70.707550048828 -16.127393722534 1.980048894882
47.946594238281 -64.519973754883 -18.249780654907 0.999917864799
26.789754867554 -67.433837890625 -29.806610107422 2.891662359238
-72.164001464844 -66.271720886230 -42.276782989502 3.559688568115
91.669769287109 -63.064346313477 -66.185607910156 3.582970619202
-16.961572647095 -64.554199218750 -64.032867431641 3.843299865723
106.055068969727 -68.371307373047 -73.605445861816 3.305832624435
95.730926513672 -73.455238342285 -75.370300292969 1.086267948151
70.083282470703 -69.730712890625 -78.010879516602 1.922438025475
73.638999938965 -73.301795959473 -81.294342041016 2.611213684082
-42.618206024170 -72.100578308105 -78.292709350586 2.130769252777
62.461856842041 -74.159652709961 -80.165863037109 5.661451339722
-91.920112609863 -68.398391723633 -84.126617431641 2.474886178970
-46.000656127930 -65.385574340820 -80.771919250488 3.193077802658
-54.656436920166 -75.145774841309 -81.278884887695 6.763906002045
103.720275878906 -76.436714172363 -98.377708435059 3.107952356339
61.568733215332 -72.658416748047 -89.518798828125 2.315719127655
68.778953552246 -68.083839416504 -89.944435119629 1.947037696838
-93.192794799805 -60.886310577393 -92.443290710449 5.666093349457
109.574615478516 -71.214767456055 -91.329627990723 5.490900039673
43.986007690430 -67.057136535645 -97.724151611328 1.503219008446
103.580024719238 -68.696762084961 -98.231742858887 1.192425727844
108.407241821289 -66.039260864258 -106.480720520020 1.687613248825
101.502319335938 -69.557922363281 -103.575805664063 1.382147073746
75.564521789551 -72.750617980957 -98.410461425781 0.735681533813
88.132408142090 -71.715614318848 -107.308303833008 3.609366416931
51.476024627686 -67.616394042969 -109.818168640137 0.373565971851
111.909904479980 -65.019813537598 -102.550048828125 4.482776641846
48.718059539795 -73.262001037598 -102.925674438477 2.805596113205
40.046733856201 -67.007118225098 -100.376907348633 4.449027061462
114.497375488281 -70.196098327637 -110.664215087891 2.410548210144
-77.026908874512 -63.929492950439 -104.458312988281 1.457631230354
46.725418090820 -67.577743530273 -111.296913146973 1.686678647995
34.339653015137 -72.135375976563 -114.138923645020 2.485242366791
107.092239379883 -66.406768798828 -110.603042602539 0.722326576710
38.763847351074 -65.761009216309 -109.924346923828 3.991494417191
-86.120483398438 -67.834281921387 -106.538597106934 1.739097356796
-94.078865051270 -63.685459136963 -109.447319030762 1.865781068802
103.159439086914 -74.768005371094 -119.686981201172 3.518990755081
-93.901237487793 -68.888732910156 -113.836250305176 4.234226703644
40.315158843994 -72.787872314453 -119.242630004883 2.265013217926
37.471595764160 -69.156311035156 -120.702178955078 1.369770884514
-83.967582702637 -68.056091308594 -119.144813537598 0.738810360432
33.808204650879 -66.920387268066 -132.272659301758 1.919923305511
112.697479248047 -71.001960754395 -131.448654174805 2.087672233582
-52.656398773193 -68.403327941895 -134.235336303711 1.990676641464
-87.290214538574 -66.435234069824 -128.168151855469 2.345963478088
38.921680450439 -73.913818359375 -128.769119262695 1.314625501633
-86.475898742676 -62.831256866455 -131.739364624023 1.125903606415
-87.743492126465 -71.632377624512 -135.820999145508 2.453014612198
-49.568401336670 -68.909820556641 -132.407257080078 1.923156261444
-70.542037963867 -65.583061218262 -134.554397583008 1.847768545151
-50.041431427002 -67.649116516113 -128.651153564453 2.880241394043
117.535652160645 -66.076553344727 -137.046813964844 3.566148042679
-71.446723937988 -70.572479248047 -130.323913574219 1.955374002457
38.112079620361 -70.180335998535 -128.903289794922 2.243753671646
-78.082901000977 -66.150329589844 -136.400207519531 2.010111570358
-71.830856323242 -68.459045410156 -130.874053955078 3.090919494629
-93.209777832031 -65.706016540527 -136.905319213867 1.986635208130
-54.709701538086 -64.678977966309 -141.765762329102 1.421705722809
31.858926773071 -63.680381774902 -144.168563842773 3.278943538666
27.586149215698 -67.405418395996 -147.081726074219 1.722787618637
20.529232025146 -62.545089721680 -142.390975952148 1.843473792076
112.796806335449 -68.906959533691 -146.334365844727 1.180353283882
-91.217666625977 -66.327087402344 -146.782119750977 1.683329343796
11.387531280518 -70.596275329590 -149.983505249023 1.808157444000
-71.558998107910 -67.690887451172 -150.315139770508 2.320905208588
23.964958190918 -67.323158264160 -147.167007446289 2.976617097855
-49.237396240234 -67.108085632324 -151.541183471680 0.788070917130
9.948290824890 -67.301002502441 -151.447372436523 2.563954353333
16.588012695313 -72.355857849121 -156.773559570313 1.192171096802
16.977848052979 -74.958122253418 -161.568359375000 3.716626405716
-50.750629425049 -71.351516723633 -159.454391479492 2.408377408981
-38.515987396240 -66.905845642090 -151.787719726563 5.212136268616
-47.381797790527 -69.679801940918 -158.270965576172 2.251704454422
-103.609489440918 -69.282592773438 -167.675247192383 1.561321854591
21.442113876343 -71.070350646973 -172.703430175781 2.195863008499
-34.291427612305 -68.956001281738 -174.377273559570 1.429773926735
14.994047164917 -74.547698974609 -176.028671264648 2.420954465866
-142.951461791992 -67.396377563477 -169.985443115234 4.405934333801
-31.926973342896 -64.729125976563 -169.168670654297 4.442079067230
-156.679443359375 -75.147911071777 -171.705612182617 7.072903633118
24.059326171875 -62.940200805664 -179.736312866211 4.148526668549
-34.254611968994 -70.694610595703 -167.028747558594 2.486896991730
-107.325080871582 -65.483955383301 -170.899749755859 1.639832019806
-107.587471008301 -74.599136352539 -178.906036376953 4.786862850189
-31.169485092163 -62.675823211670 -182.458557128906 6.008666992188
-24.764526367188 -74.500579833984 -178.358627319336 1.914748430252
11.898619651794 -67.969078063965 -186.798812866211 4.649544715881
15.150094032288 -65.774551391602 -196.534362792969 1.241625547409
12.599019050598 -69.730545043945 -185.129806518555 3.478618621826
-143.242218017578 -65.954353332520 -180.860122680664 3.737061738968
23.024194717407 -64.404136657715 -187.818725585938 4.272331237793
5.021516799927 -68.415634155273 -194.354141235352 4.627407073975
-136.112945556641 -66.188766479492 -187.668395996094 5.479142189026
-113.803176879883 -67.743148803711 -189.992568969727 0.877428770065
13.857468605042 -66.994331359863 -201.280700683594 2.855413198471
-119.227844238281 -66.415168762207 -191.455551147461 4.645850658417
-108.401588439941 -61.127037048340 -187.350280761719 1.846933364868
-167.608154296875 -69.684127807617 -194.867675781250 4.636065959930
-25.391019821167 -67.161788940430 -196.785903930664 2.073327064514
10.044398307800 -67.050643920898 -197.478073120117 2.300939559937
-145.848541259766 -68.963958740234 -198.091751098633 1.289600849152
-138.672607421875 -71.872909545898 -201.230972290039 0.962437510490
-22.767883300781 -66.670753479004 -204.793716430664 3.163143634796
-13.519335746765 -70.078887939453 -202.422409057617 1.776429176331
-15.090501785278 -70.475418090820 -202.969116210938 2.269997596741
-140.054077148438 -73.299438476563 -197.002624511719 2.361631155014
-18.588289260864 -68.906936645508 -209.930725097656 2.230562686920
-10.677452087402 -75.099769592285 -211.722244262695 2.877552270889
16.710994720459 -65.620918273926 -209.159072875977 3.152702569962
-18.131246566772 -74.581748962402 -208.756484985352 2.070334672928
9.057155609131 -70.478073120117 -206.914077758789 1.263099193573
-12.463566780090 -70.829849243164 -212.409759521484 2.978997707367
-24.394004821777 -65.065345764160 -208.607437133789 5.645635604858
10.226321220398 -76.355583190918 -218.418853759766 1.545419812202
-3.901921987534 -75.939727783203 -216.564270019531 1.584869027138
9.627931594849 -64.579803466797 -218.319702148438 3.276736974716
-8.219099044800 -72.693534851074 -225.459976196289 1.321912050247
-161.913223266602 -69.908645629883 -220.193084716797 2.364372491837
79.007560729980 -73.140296936035 -219.033859252930 3.478951931000
-137.270736694336 -65.864547729492 -218.199203491211 6.457669734955
-136.828475952148 -71.364501953125 -216.189285278320 7.527100086212
-9.709539413452 -70.312072753906 -222.398040771484 1.136011123657
4.957789897919 -69.076309204102 -232.838653564453 2.181696176529
-159.887924194336 -68.365570068359 -224.855636596680 0.884346425533
87.797676086426 -67.936088562012 -219.708160400391 2.099128723145
-3.318176984787 -67.775093078613 -223.839477539063 1.660220503807
-0.854644000530 -70.039932250977 -219.013214111328 1.061790108681
72.133804321289 -73.628593444824 -229.993972778320 0.506389856339
-1.632138967514 -66.282150268555 -233.685470581055 2.509740352631
-15.556812286377 -71.078315734863 -222.323974609375 1.777403593063
-129.261413574219 -65.320991516113 -228.405624389648 1.540209412575
-7.150014877319 -69.104560852051 -235.221252441406 1.701949596405
0.756402015686 -66.669837951660 -228.022796630859 3.043912649155
64.140960693359 -66.757606506348 -237.171234130859 1.522630691528
-160.044952392578 -71.255462646484 -231.179199218750 3.434573173523
-15.396818161011 -67.766548156738 -242.640655517578 3.307115793228
-172.152770996094 -72.000968933105 -232.564620971680 4.026379108429
8.412769317627 -64.677391052246 -239.299957275391 0.969376444817
-165.694610595703 -70.488517761230 -232.501647949219 2.381776809692
-162.346359252930 -71.080474853516 -240.763046264648 2.874822139740
55.761371612549 -70.541183471680 -243.776489257813 1.493162393570
59.027912139893 -72.376403808594 -241.109100341797 2.083462476730
53.381931304932 -71.048965454102 -244.414459228516 1.444064974785
49.140171051025 -69.995079040527 -248.032302856445 1.948006272316
-155.503784179688 -70.519470214844 -237.030029296875 2.129026651382
-158.482192993164 -64.884414672852 -240.874694824219 1.480451703072
-14.989379882813 -74.504188537598 -246.591018676758 3.088037967682
-153.048019409180 -68.172492980957 -241.385238647461 3.173986196518
15.929882049561 -70.404670715332 -248.998336791992 1.825524091721
-173.403335571289 -75.567260742188 -244.907287597656 8.003458023071
-171.063278198242 -66.847328186035 -243.741241455078 4.868069171906
-84.450492858887 -71.630699157715 -243.028793334961 5.135704994202
-173.050735473633 -67.927467346191 -251.871459960938 5.750104427338
-87.702453613281 -69.047935485840 -253.553085327148 1.529468894005
40.460090637207 -68.761833190918 -252.112152099609 1.561194539070
19.255733489990 -73.539802551270 -255.069000244141 3.213222742081
-160.726791381836 -70.491523742676 -256.983428955078 3.239712476730
-103.733352661133 -61.593845367432 -255.284179687500 5.051995754242
37.288665771484 -69.691345214844 -253.308776855469 1.663351178169
-109.368202209473 -78.309585571289 -253.384323120117 5.360733985901
-156.338165283203 -65.195884704590 -259.912994384766 2.228614330292
-106.627227783203 -68.282989501953 -252.156860351563 2.462629795074
-171.762634277344 -72.277214050293 -253.099639892578 3.115602970123
-115.892433166504 -70.287979125977 -258.844390869141 2.184233427048
-156.355697631836 -71.822334289551 -260.246215820313 1.904819369316
-161.990692138672 -66.020454406738 -256.821533203125 2.673914909363
-168.439971923828 -68.079238891602 -257.615966796875 2.249711751938
-167.855209350586 -67.073631286621 -256.098663330078 3.524328231812
-168.516830444336 -69.179740905762 -258.416809082031 1.550580978394
-170.925689697266 -69.984306335449 -253.992706298828 2.242408514023
23.786893844604 -71.472732543945 -263.721435546875 0.591128170490
-151.018600463867 -74.364166259766 -256.900360107422 2.111573457718
-154.563507080078 -69.236022949219 -279.226867675781 2.330895662308
24.543277740479 -70.198516845703 -273.899475097656 2.921839475632
-15.298631668091 -72.985130310059 -271.852539062500 2.821024417877
-128.555191040039 -66.858078002930 -279.511688232422 6.544941902161
-139.700973510742 -69.833213806152 -280.896331787109 3.815668821335
-137.057357788086 -68.784660339355 -283.914367675781 0.980085313320
-131.253158569336 -69.799308776855 -280.504547119141 4.089702129364
-116.538269042969 -68.153892517090 -286.718719482422 2.565918207169
-107.453804016113 -64.818092346191 -279.525238037109 8.687781333923
4.427330017090 -74.296791076660 -292.348358154297 1.919955849648
-87.812408447266 -71.049072265625 -286.306671142578 2.085558891296
-152.073242187500 -70.073669433594 -280.935180664063 1.492160916328
-105.753028869629 -70.601577758789 -286.278930664063 2.886296749115
-135.501754760742 -66.750778198242 -287.027221679688 2.442822694778
6.646119117737 -72.608703613281 -285.345642089844 3.207380294800
-114.390258789063 -62.100124359131 -282.562561035156 8.358849525452
0.711781024933 -70.607391357422 -291.498107910156 1.635999321938
-146.535522460938 -69.066284179688 -281.227996826172 2.576381683350
-155.968917846680 -69.670066833496 -289.357971191406 1.161568403244
-163.288040161133 -68.451629638672 -310.322540283203 6.026666164398
-159.756149291992 -67.535766601563 -305.244445800781 6.355367660522
49.937480926514 -70.575599670410 -23.524066925049 2.097938776016
27.661382675171 -66.893440246582 -35.076244354248 3.520310163498
32.182392120361 -68.372161865234 -34.735481262207 1.967791557312
-39.857749938965 -70.150688171387 -43.757881164551 4.962165832520
-8.751202583313 -64.612220764160 -60.270545959473 1.014954566956
97.026054382324 -68.771003723145 -67.781318664551 1.707826375961
70.556327819824 -61.816776275635 -68.177200317383 2.631716489792
-23.134073257446 -66.325141906738 -71.217979431152 2.295163631439
-98.351768493652 -71.776939392090 -83.227981567383 3.677819252014
-40.962337493896 -66.932159423828 -81.538970947266 2.833180427551
60.570373535156 -67.432098388672 -79.321716308594 3.560764074326
66.194526672363 -71.430252075195 -83.969779968262 2.304689645767
53.512374877930 -64.920516967773 -86.534805297852 1.565570473671
-57.746170043945 -66.183601379395 -86.910171508789 1.958513498306
69.055564880371 -62.727615356445 -88.442481994629 3.548817634583
44.343788146973 -72.304344177246 -97.039100646973 1.320745944977
70.631233215332 -70.771217346191 -94.208244323730 1.941793799400
-59.200561523438 -65.249702453613 -92.668586730957 3.891208410263
52.688854217529 -69.990333557129 -90.643089294434 1.797497391701
48.004280090332 -70.732574462891 -96.778663635254 2.184538364410
104.561286926270 -64.256828308105 -102.394989013672 2.624741077423
-63.850505828857 -67.123580932617 -94.354232788086 1.924897193909
112.848434448242 -67.598770141602 -100.057594299316 3.208167314529
-77.700683593750 -70.824089050293 -97.239006042480 2.287705421448
54.994041442871 -71.173538208008 -105.303840637207 1.444182991982
49.495121002197 -66.090270996094 -99.932312011719 1.798971891403
92.296188354492 -64.114540100098 -103.981903076172 3.036680221558
84.608856201172 -68.224205017090 -105.655342102051 1.161052227020
57.569721221924 -68.950332641602 -103.910919189453 2.607470512390
-75.871261596680 -68.133346557617 -107.884521484375 2.019737005234
-77.220191955566 -66.766807556152 -112.443962097168 1.921094775200
-80.137214660645 -68.446350097656 -113.465629577637 2.098942518234
-93.022048950195 -73.689888000488 -112.853462219238 1.875922441483
104.114120483398 -61.375980377197 -117.548355102539 5.756235122681
-89.358573913574 -70.723587036133 -113.795326232910 1.652333974838
-74.555183410645 -62.348995208740 -117.421646118164 1.750409245491
109.946517944336 -67.333419799805 -116.849609375000 2.595106840134
-59.093574523926 -57.970844268799 -113.499008178711 1.029895901680
113.892646789551 -73.748420715332 -131.796447753906 1.990864157677
110.527389526367 -70.822280883789 -129.873336791992 0.828289985657
106.169616699219 -70.656242370605 -127.660552978516 2.964743375778
-93.319129943848 -68.209724426270 -132.226409912109 1.863400101662
-45.403335571289 -67.783912658691 -138.314239501953 3.019720792770
-80.698982238770 -64.212280273438 -139.225967407227 2.475914955139
-69.181015014648 -67.504257202148 -144.284866333008 2.812284946442
-68.729927062988 -66.425224304199 -145.229263305664 2.390738487244
-54.753883361816 -67.029487609863 -139.980773925781 1.309584736824
-45.807849884033 -73.282768249512 -140.778289794922 2.302524805069
14.080203056335 -68.318862915039 -145.188323974609 1.930071949959
-93.459037780762 -62.730903625488 -136.631042480469 2.390854835510
-46.149169921875 -65.862907409668 -142.846298217773 2.117237329483
-50.962432861328 -58.830532073975 -143.127899169922 6.063354015350
-42.430255889893 -65.265258789063 -150.747390747070 4.073961734772
26.734197616577 -71.393096923828 -158.748092651367 1.301672816277
-50.831336975098 -69.220314025879 -147.866195678711 1.861239194870
-101.976249694824 -61.328468322754 -143.512924194336 6.354058265686
-47.296180725098 -63.766914367676 -151.511444091797 4.123914718628
25.455633163452 -71.677597045898 -144.124053955078 1.762325167656
-96.510429382324 -75.206680297852 -158.759460449219 6.738845825195
22.877511978149 -71.400321960449 -156.023635864258 2.341601848602
-108.495323181152 -63.448249816895 -163.724029541016 3.666303634644
-101.812835693359 -68.175857543945 -159.005401611328 1.183109521866
21.708812713623 -68.707824707031 -164.218765258789 2.171373844147
26.161073684692 -66.346649169922 -165.616912841797 2.840173959732
-111.017883300781 -70.927619934082 -167.918823242188 5.508672714233
-142.892288208008 -64.025413513184 -167.497207641602 6.496304988861
-19.279788970947 -69.026390075684 -187.592681884766 3.222849369049
-28.268131256104 -67.208610534668 -177.310424804688 2.910374879837
-117.694442749023 -69.783538818359 -181.392608642578 5.988015651703
-144.460830688477 -62.757846832275 -180.127410888672 1.883582711220
-102.357528686523 -63.962631225586 -176.281433105469 1.237391471863
-160.352218627930 -67.824356079102 -182.518524169922 7.358504295349
-132.110076904297 -73.527717590332 -189.701736450195 5.485884189606
-133.966674804688 -70.750205993652 -190.541564941406 5.406082153320
-20.187911987305 -66.341941833496 -184.546447753906 4.567686080933
-120.080558776855 -68.768920898438 -193.755203247070 1.677377223969
-119.569328308105 -63.289348602295 -194.878067016602 3.931753873825
-29.455345153809 -71.572319030762 -189.753616333008 2.093997478485
-155.301788330078 -64.521171569824 -189.466094970703 2.991680860519
-133.904205322266 -69.332778930664 -199.223739624023 3.052932262421
-126.110427856445 -64.826950073242 -198.266601562500 2.490388631821
17.374784469604 -72.347297668457 -199.648574829102 1.805942058563
-163.629577636719 -68.052520751953 -195.490966796875 2.904984474182
11.468024253845 -66.790008544922 -214.532989501953 2.267014503479
12.871818542480 -70.693275451660 -213.134582519531 1.114308476448
-16.877220153809 -63.712253570557 -207.426223754883 3.337277889252
-6.462279796600 -68.723617553711 -214.107910156250 1.944015383720
-173.515350341797 -64.117332458496 -204.199615478516 6.767370700836
-160.685104370117 -62.685291290283 -206.020431518555 4.185484886169
-96.430229187012 -67.499504089355 -214.158645629883 3.064256429672
-98.510589599609 -70.757980346680 -216.621505737305 1.308541059494
-162.668609619141 -69.378601074219 -220.252304077148 1.792453169823
-110.269668579102 -65.147048950195 -213.838104248047 7.846928596497
-13.115119934082 -66.525741577148 -209.119247436523 1.845705628395
-129.839782714844 -70.282974243164 -215.678375244141 8.177142143250
-144.700500488281 -68.340148925781 -217.084594726563 0.781412780285
-4.810445785522 -71.482284545898 -218.658462524414 2.580141305923
-135.892166137695 -65.709426879883 -218.417907714844 5.690557479858
-125.299224853516 -73.435859680176 -216.527145385742 7.956880092621
-115.995910644531 -71.723686218262 -218.478713989258 6.652835845947
-3.229118108749 -61.632530212402 -226.671707153320 4.235220909119
-109.462806701660 -65.566642761230 -226.701248168945 2.538216590881
-163.196884155273 -60.518253326416 -216.249740600586 5.346882820129
-147.532958984375 -67.171699523926 -220.218429565430 1.491863608360
-166.669174194336 -67.292846679688 -219.325073242188 2.603229999542
-10.001798629761 -66.793830871582 -222.845703125000 2.628850936890
-10.072389602661 -69.450988769531 -230.852371215820 1.490973830223
76.659141540527 -72.783279418945 -224.407791137695 1.143503665924
-3.149262905121 -71.940208435059 -226.374267578125 2.226802349091
-145.315933227539 -67.983055114746 -232.026153564453 2.468226671219
-16.413249969482 -66.131027221680 -226.621322631836 2.617797613144
72.115119934082 -69.846183776855 -226.872177124023 0.794102907181
72.156455993652 -69.959487915039 -232.474807739258 1.828680992126
-136.304321289063 -65.983154296875 -226.231643676758 1.436010241508
-158.166961669922 -72.398178100586 -222.135345458984 3.512281417847
-115.764564514160 -65.857238769531 -227.649658203125 1.874568939209
-127.321548461914 -62.403583526611 -231.077377319336 3.139885663986
-164.737747192383 -66.367118835449 -228.755416870117 2.965213537216
-162.848815917969 -68.833190917969 -229.066680908203 3.173788070679
-149.812820434570 -62.017696380615 -226.899566650391 2.457406044006
-16.783502578735 -66.200988769531 -231.656829833984 3.851709604263
-8.024108886719 -67.531494140625 -239.319244384766 1.836514592171
-162.516494750977 -66.526412963867 -236.103622436523 0.703900754452
3.574805974960 -69.631408691406 -234.750030517578 1.185830116272
-1.130447983742 -70.479621887207 -235.520080566406 1.486033320427
-161.288955688477 -67.598396301270 -231.172546386719 3.113840818405
16.066148757935 -74.281333923340 -238.619964599609 2.382830858231
48.593521118164 -72.408691406250 -244.807479858398 2.600520849228
46.956825256348 -73.104049682617 -242.331558227539 3.401043176651
-19.440656661987 -70.030929565430 -244.244903564453 2.345910310745
45.024181365967 -68.223274230957 -248.401504516602 0.858255684376
-162.445755004883 -63.262207031250 -242.712615966797 3.902817726135
-159.402145385742 -68.687934875488 -240.453872680664 1.392519116402
-163.553665161133 -73.566802978516 -242.843933105469 3.922451019287
53.373489379883 -68.619064331055 -246.440231323242 1.120238423347
-96.202033996582 -66.867965698242 -248.014984130859 3.492538928986
-126.891021728516 -66.625823974609 -249.180816650391 4.551062583923
-108.833602905273 -74.097152709961 -247.599533081055 9.268988609314
22.283182144165 -74.580551147461 -255.660736083984 0.622275948524
37.353183746338 -66.452812194824 -250.013076782227 2.390870571136
-103.156417846680 -65.144042968750 -249.709823608398 5.483942985535
-95.640037536621 -62.888828277588 -244.779449462891 5.659200668335
42.952037811279 -75.112014770508 -253.983489990234 4.133763790131
38.374160766602 -67.116661071777 -255.623687744141 1.933256149292
-157.058471679688 -74.543807983398 -251.135192871094 2.804908037186
26.054567337036 -69.482109069824 -258.203979492188 0.801037788391
-146.479309082031 -71.382431030273 -258.912231445313 1.771859049797
-115.648605346680 -68.296104431152 -257.464569091797 1.940940141678
-140.947814941406 -65.526733398438 -256.213836669922 1.492592692375
29.846099853516 -68.423538208008 -261.189422607422 2.494960308075
-129.146514892578 -66.997573852539 -257.242797851563 2.046296834946
-14.243405342102 -67.286437988281 -253.876296997070 3.329100608826
17.164653778076 -73.257415771484 -269.086669921875 5.395007133484
-7.166088104248 -75.932006835938 -261.581695556641 3.928189992905
15.698348999023 -72.306716918945 -278.283691406250 3.007942676544
-157.882141113281 -71.622528076172 -276.095581054688 2.292527198792
-15.072234153748 -67.018196105957 -278.037322998047 4.805722236633
-156.066757202148 -72.475776672363 -275.351409912109 2.776306867599
-126.052650451660 -72.049484252930 -279.364196777344 5.129266738892
-166.873001098633 -76.008750915527 -279.488555908203 3.275213479996
-118.660102844238 -68.412231445313 -281.497344970703 6.375981330872
-107.332923889160 -69.675598144531 -285.063903808594 4.124291896820
-10.545726776123 -67.512458801270 -281.785919189453 2.197414636612
-111.403022766113 -71.154693603516 -283.117706298828 3.925959348679
-120.462158203125 -66.130447387695 -277.915954589844 9.362307548523
-126.316093444824 -64.807891845703 -286.332824707031 1.632158398628
-143.215194702148 -69.042854309082 -284.087432861328 1.482988595963
-130.823379516602 -64.533515930176 -285.318115234375 3.043192625046
-162.259811401367 -74.652214050293 -282.892089843750 3.315662384033
-150.950759887695 -65.078384399414 -285.311737060547 1.427965044975
-163.364654541016 -65.234062194824 -296.408416748047 7.138065338135
-158.762435913086 -66.819694519043 -304.427795410156 5.767284870148
-164.311721801758 -65.878799438477 -294.708587646484 5.922142982483
-143.938949584961 -70.139793395996 -304.101135253906 1.801860213280
-153.259185791016 -72.007591247559 -308.399627685547 2.307988405228
39.020481109619 -67.020576477051 -5.349332809448 7.200098991394
51.985298156738 -72.068313598633 -15.573858261108 4.963733673096
27.019243240356 -64.629959106445 -19.906728744507 2.091320514679
54.279575347900 -67.533882141113 -24.550951004028 4.651948451996
30.752449035645 -69.400283813477 -31.962408065796 3.103901624680
34.829601287842 -67.755455017090 -31.258611679077 4.317026615143
-54.721572875977 -61.433059692383 -44.513690948486 1.490556001663
79.840042114258 -62.199459075928 -58.826705932617 1.768712997437
84.856018066406 -68.862876892090 -66.867378234863 2.288494110107
-87.337219238281 -68.404617309570 -58.169921875000 3.580809593201
-10.477840423584 -63.672630310059 -56.875900268555 2.792003870010
-90.322265625000 -68.178703308105 -66.690856933594 2.511708974838
98.930450439453 -70.485969543457 -66.870849609375 3.821843862534
-9.869881629944 -63.574195861816 -64.328834533691 1.366036176682
69.539604187012 -71.021293640137 -79.968185424805 1.314749717712
-42.002201080322 -71.357810974121 -77.094696044922 3.009573459625
-24.193437576294 -69.930191040039 -70.872489929199 3.116566896439
57.589714050293 -61.983619689941 -85.253028869629 2.873862743378
-41.324104309082 -77.330604553223 -79.841979980469 2.137101173401
66.825271606445 -57.349918365479 -86.347419738770 3.575732946396
53.994987487793 -73.034271240234 -89.547622680664 1.543962121010
56.850147247314 -66.563423156738 -93.018486022949 2.138658046722
59.874645233154 -74.678840637207 -89.125251770020 1.760318160057
57.786159515381 -62.441860198975 -94.314071655273 2.837011098862
100.458679199219 -63.621295928955 -97.957885742188 1.095486044884
108.474548339844 -61.980968475342 -99.523536682129 3.499603033066
62.061458587646 -70.600028991699 -99.390792846680 2.240829229355
109.118980407715 -62.869373321533 -100.388061523438 3.869717597961
-76.268013000488 -65.967872619629 -94.190727233887 5.195365428925
-71.969871520996 -67.003463745117 -98.569168090820 1.526556372643
101.756805419922 -63.649269104004 -98.038513183594 1.560689806938
54.685989379883 -68.596031188965 -99.500816345215 1.160465598106
71.789947509766 -69.667304992676 -96.285835266113 2.064369916916
-70.175140380859 -67.088157653809 -104.309997558594 2.432610511780
-84.426910400391 -65.192703247070 -103.241455078125 2.123571872711
88.410392761230 -71.986358642578 -102.512428283691 2.389585256577
40.376552581787 -69.766548156738 -100.996429443359 2.109920263290
107.221427917480 -63.427932739258 -107.130386352539 3.940987348557
49.126468658447 -70.937713623047 -111.980903625488 2.755556583405
112.223258972168 -68.555076599121 -102.086990356445 2.695064544678
-76.711616516113 -66.932861328125 -107.502357482910 1.771579265594
104.358306884766 -62.429183959961 -108.517974853516 4.614993095398
-82.378684997559 -63.832607269287 -116.960861206055 1.926812648773
-57.598072052002 -69.825927734375 -123.872131347656 2.318134307861
-56.080158233643 -66.485778808594 -119.868499755859 1.532803177834
-70.710548400879 -69.385047912598 -126.012779235840 4.684742450714
-49.863700866699 -68.670730590820 -127.213325500488 4.085432529449
-83.299057006836 -68.834465026855 -129.278976440430 1.983385801315
-76.907310485840 -62.552989959717 -127.317588806152 2.409885644913
-78.742622375488 -67.798194885254 -127.955810546875 1.314348101616
-60.806529998779 -72.756492614746 -137.991485595703 3.156436920166
-70.362007141113 -67.507575988770 -136.971115112305 2.660671472549
-59.915100097656 -72.815261840820 -128.986343383789 2.199492931366
-56.897014617920 -67.047531127930 -138.640762329102 2.188821554184
13.487936019897 -62.845901489258 -142.916610717773 2.450628757477
-90.878837585449 -68.059379577637 -135.891769409180 1.258498907089
-48.219402313232 -73.057006835938 -144.715698242188 2.875982761383
-94.700134277344 -65.351806640625 -144.934722900391 1.452623844147
-101.515533447266 -63.739048004150 -142.533706665039 5.253245830536
20.093791961670 -70.499610900879 -152.384063720703 2.578827142715
14.641568183899 -69.235313415527 -156.453063964844 1.897690057755
-95.378990173340 -70.103782653809 -155.541213989258 4.009272098541
-104.015533447266 -67.838539123535 -146.616683959961 5.543214797974
-100.054206848145 -65.736053466797 -162.579589843750 1.908541440964
21.146438598633 -67.318824768066 -168.139739990234 0.911192297935
-112.421745300293 -67.078315734863 -167.968643188477 3.495685338974
24.303989410400 -67.680969238281 -162.791381835938 1.643693804741
-148.520950317383 -67.557830810547 -170.545639038086 3.229512929916
17.489006042480 -67.351463317871 -173.746475219727 1.262279748917
24.037698745728 -69.267013549805 -183.830047607422 1.505965471268
-152.648345947266 -65.439933776855 -179.705963134766 2.390080213547
20.489267349243 -69.817771911621 -172.720230102539 1.712623834610
18.431169509888 -60.063980102539 -178.966171264648 6.838818550110
-145.935104370117 -71.717407226563 -176.680358886719 0.733941674232
-152.830795288086 -63.511337280273 -183.142211914063 2.554288864136
18.880451202393 -68.775100708008 -185.379394531250 2.266108512878
17.630460739136 -71.444023132324 -187.810211181641 2.046578407288
-142.721313476563 -70.067962646484 -188.122711181641 0.599596500397
-110.723731994629 -68.024162292480 -192.251022338867 2.045746088028
24.691398620605 -68.708786010742 -197.179763793945 3.088110923767
-126.526168823242 -68.106918334961 -188.974258422852 4.825708389282
8.317720413208 -71.486747741699 -198.355224609375 2.103258848190
-129.945510864258 -60.382625579834 -188.249618530273 8.637653350830
-162.923385620117 -64.500091552734 -182.037078857422 10.589920997620
-161.635192871094 -65.672286987305 -189.836349487305 5.998965263367
-157.989562988281 -69.525672912598 -186.708709716797 5.667090892792
-22.726316452026 -68.758438110352 -203.828994750977 1.805129170418
-170.061950683594 -70.060127258301 -192.282287597656 8.101772308350
-28.863489151001 -63.306659698486 -189.538253784180 4.580752372742
-16.886186599731 -69.620857238770 -190.618362426758 2.890542984009
5.757599830627 -61.669967651367 -193.457672119141 7.867299556732
-158.340896606445 -68.170150756836 -199.824966430664 2.874977111816
-108.091255187988 -65.806182861328 -197.459045410156 0.590864300728
-18.039339065552 -64.016403198242 -196.544128417969 3.706395387650
-162.567825317383 -60.677936553955 -194.572723388672 6.819528102875
15.996047973633 -69.066299438477 -199.927902221680 1.288014650345
-172.406906127930 -64.778411865234 -199.212707519531 5.922674179077
-121.180458068848 -70.140708923340 -196.753570556641 1.441808581352
-117.481636047363 -64.442329406738 -203.386184692383 2.096978187561
-124.170883178711 -67.168220520020 -198.058959960938 2.116937398911
-17.254350662231 -66.694557189941 -199.506622314453 2.604384422302
-20.486753463745 -68.944847106934 -200.339050292969 1.687505722046
-165.725296020508 -66.821357727051 -204.968597412109 2.766814231873
-161.402404785156 -64.629844665527 -205.090545654297 2.692948579788
-166.610214233398 -68.209297180176 -212.767288208008 2.513609647751
-141.249572753906 -70.415130615234 -207.590667724609 3.252298593521
-147.247543334961 -66.846725463867 -218.662536621094 1.591285467148
-3.069974899292 -66.198997497559 -216.245620727539 2.478459835052
-10.702934265137 -74.000007629395 -214.005813598633 2.397836923599
-102.757286071777 -65.070457458496 -215.340560913086 6.523970127106
-9.825446128845 -66.236412048340 -232.053741455078 1.897937297821
-170.927688598633 -63.931560516357 -223.835464477539 5.008510589600
-107.209358215332 -65.376327514648 -228.712570190430 1.929397702217
0.217501997948 -68.773033142090 -223.822067260742 1.878713250160
-0.042909000069 -67.607368469238 -226.708572387695 1.420362234116
-114.115272521973 -67.789031982422 -228.395263671875 1.546532392502
-3.615041017532 -69.730567932129 -224.483520507813 2.424127340317
-120.793334960938 -63.854953765869 -228.481903076172 1.076542735100
-10.265689849854 -64.314750671387 -228.755706787109 2.592636108398
-3.975744009018 -66.996177673340 -232.147933959961 1.608495593071
-4.830248832703 -67.291038513184 -236.060272216797 1.263177394867
70.168281555176 -64.469367980957 -235.627395629883 2.782154083252
-11.899588584900 -71.769348144531 -234.609542846680 1.982274770737
7.691987037659 -69.205993652344 -233.440353393555 1.190541505814
8.989659309387 -67.438461303711 -235.315490722656 2.275689125061
2.805207014084 -69.893074035645 -236.020507812500 1.521054744720
1.741240024567 -70.559875488281 -238.935287475586 1.604033470154
60.846694946289 -62.744533538818 -238.314163208008 4.169938564301
66.477302551270 -63.787242889404 -239.534347534180 4.243134975433
4.095098972321 -67.625442504883 -245.935028076172 2.698428869247
49.438640594482 -70.579193115234 -240.967819213867 1.881543755531
52.860046386719 -73.658027648926 -238.787551879883 4.390769481659
44.295658111572 -63.911304473877 -249.359146118164 1.823675513268
39.680274963379 -64.808609008789 -249.852645874023 1.841205835342
37.942749023438 -67.195190429688 -256.800659179688 1.672284483910
-132.997772216797 -61.558605194092 -253.982131958008 2.958621025085
-11.495062828064 -67.236251831055 -244.777511596680 2.189472675323
27.600900650024 -66.164459228516 -255.461654663086 2.291904449463
41.215015411377 -66.869140625000 -243.944519042969 5.964968681335
26.624874114990 -71.831527709961 -250.604705810547 2.772307395935
-106.929374694824 -70.663497924805 -254.317214965820 2.897978782654
27.304988861084 -69.916320800781 -253.872207641602 1.860737681389
-148.163925170898 -69.991928100586 -255.636032104492 1.964634418488
-119.416687011719 -70.700546264648 -250.423522949219 5.820466995239
-113.663146972656 -67.901916503906 -253.088394165039 2.597584724426
-4.690074920654 -71.826080322266 -255.904174804688 5.746868610382
-154.809341430664 -69.051902770996 -250.720947265625 0.895271718502
34.007637023926 -68.972572326660 -261.002319335938 1.620726585388
-110.826728820801 -66.247726440430 -250.373535156250 5.336489677429
22.875980377197 -73.782943725586 -256.428344726563 0.706403076649
-137.713195800781 -71.205284118652 -258.615875244141 2.656302928925
-119.759384155273 -67.186897277832 -260.722290039063 2.535914659500
-113.991012573242 -67.357017517090 -257.074890136719 1.160041093826
-116.923164367676 -75.141258239746 -255.521057128906 0.729696631432
-144.421142578125 -69.872703552246 -249.057312011719 2.392619609833
26.823347091675 -69.210151672363 -256.832305908203 1.608996510506
-119.907218933105 -65.690643310547 -256.912048339844 3.791270971298
-147.740051269531 -69.347679138184 -257.300781250000 0.935519874096
-8.124641418457 -65.618057250977 -267.573638916016 1.078114748001
-153.316101074219 -70.560813903809 -273.755920410156 2.297117233276
-12.536605834961 -69.686485290527 -285.856445312500 4.158963680267
-8.980364799500 -65.890716552734 -278.348907470703 2.077990293503
-138.028305053711 -67.315490722656 -283.353729248047 2.288822412491
-133.020172119141 -68.499504089355 -286.276184082031 0.859083890915
-139.341094970703 -67.197296142578 -288.992401123047 1.657654404640
-130.423736572266 -65.121398925781 -284.222595214844 3.026456832886
-159.640304565430 -67.731498718262 -287.800262451172 1.883550405502
-161.755340576172 -68.643348693848 -293.302642822266 2.764759778976
-152.414779663086 -72.302009582520 -295.228637695313 1.339134216309
-153.341033935547 -70.112167358398 -298.334991455078 0.645139098167
-148.850402832031 -67.466880798340 -291.775848388672 1.027416825294
-154.785659790039 -67.463943481445 -299.587188720703 1.800640344620
-149.958923339844 -65.004074096680 -310.203521728516 1.993294715881
22.429548263550 -69.013122558594 -23.542081832886 2.743295192719
53.426803588867 -69.626937866211 -34.768367767334 3.166390180588
27.364631652832 -73.070022583008 -34.195545196533 1.406287074089
34.751213073730 -66.439033508301 -41.668430328369 1.773195862770
-39.118579864502 -58.357494354248 -44.848064422607 0.950638055801
-72.242431640625 -61.639759063721 -45.675098419189 2.320573806763
82.441131591797 -66.122161865234 -60.416004180908 1.586145401001
76.026748657227 -67.446052551270 -60.565879821777 2.230177164078
74.686706542969 -69.278900146484 -63.687992095947 1.807907819748
-98.714523315430 -65.485702514648 -66.497192382813 2.398790836334
100.452896118164 -71.591018676758 -74.908668518066 2.208357095718
-26.549118041992 -68.475547790527 -81.579605102539 3.904720544815
63.575218200684 -64.246345520020 -73.825813293457 1.806298255920
-40.519569396973 -61.889232635498 -79.963806152344 1.660682320595
-54.033954620361 -63.623378753662 -77.364913940430 0.756380200386
53.012897491455 -67.018920898438 -88.837562561035 1.091511964798
103.914375305176 -64.915512084961 -90.203132629395 2.755676031113
64.577461242676 -64.435935974121 -91.339538574219 2.100641489029
57.665214538574 -64.826766967773 -89.968276977539 2.991078376770
49.249759674072 -62.961975097656 -100.342254638672 1.955251812935
57.483043670654 -62.479038238525 -100.515701293945 2.990452051163
103.915901184082 -64.667121887207 -97.251289367676 2.466925859451
70.095237731934 -66.103729248047 -106.523925781250 2.546120405197
52.975769042969 -66.760055541992 -104.348228454590 3.450477838516
76.843177795410 -73.038986206055 -106.423461914063 3.506864547729
99.720268249512 -62.822914123535 -107.014022827148 3.102674722672
-72.811546325684 -62.844104766846 -94.569633483887 3.625959873199
-85.581489562988 -65.978698730469 -105.263206481934 1.920133352280
-81.007461547852 -66.466758728027 -107.373054504395 2.348666429520
-59.758998870850 -65.874786376953 -114.632698059082 2.409110069275
-56.729869842529 -70.299453735352 -122.168518066406 2.136411666870
-94.006866455078 -65.174888610840 -116.398567199707 3.484132528305
-73.248176574707 -68.647277832031 -114.350364685059 1.933877110481
-76.586685180664 -70.319221496582 -128.220870971680 0.979690313339
-59.949310302734 -62.551372528076 -123.504753112793 3.324635982513
-87.586181640625 -61.926605224609 -125.756202697754 1.957187891006
-89.338554382324 -64.690155029297 -125.868309020996 2.076112270355
-48.131370544434 -69.727081298828 -131.065963745117 1.136891722679
-50.491352081299 -68.068031311035 -133.380126953125 1.955337405205
-77.394020080566 -69.655731201172 -133.612350463867 1.637645483017
-54.460842132568 -68.904548645020 -137.209121704102 3.133564472198
-73.583412170410 -71.067657470703 -140.395629882813 0.331905245781
19.856101989746 -64.114685058594 -137.015701293945 2.294294834137
-57.806243896484 -71.429740905762 -139.978408813477 1.429961562157
-55.639606475830 -62.677314758301 -142.023880004883 2.093486070633
8.775464057922 -71.222152709961 -152.567077636719 2.632973194122
17.337398529053 -65.172996520996 -148.347106933594 0.897419393063
-142.124237060547 -67.345832824707 -167.166488647461 7.228167057037
-110.786216735840 -64.800521850586 -172.347732543945 3.188502550125
-112.094909667969 -62.455356597900 -184.832916259766 3.511342287064
-154.022781372070 -68.776931762695 -183.770660400391 3.450508356094
-114.139465332031 -65.899932861328 -180.645721435547 2.234768867493
-152.534729003906 -61.395454406738 -190.314437866211 4.167784214020
-115.402824401855 -65.648757934570 -193.497344970703 1.092319726944
-152.173431396484 -63.145053863525 -194.721374511719 2.293127298355
-151.117843627930 -66.179260253906 -200.283615112305 1.668092727661
-155.070129394531 -71.648216247559 -199.103546142578 1.786742210388
-150.838790893555 -66.752990722656 -218.208053588867 3.602075576782
-151.182769775391 -70.244750976563 -219.889862060547 3.438131332397
-107.191452026367 -63.807960510254 -222.876358032227 1.176049590111
-101.904182434082 -67.031738281250 -215.699172973633 5.135480880737
-124.973510742188 -61.454845428467 -226.449066162109 3.260953664780
-109.037300109863 -67.025009155273 -220.195358276367 2.395704269409
-159.141708374023 -67.372947692871 -224.139099121094 1.067851662636
-5.111811161041 -66.949501037598 -221.838607788086 1.368365049362
-135.136871337891 -70.502067565918 -224.019332885742 1.623693943024
-155.695938110352 -67.591896057129 -229.059768676758 2.442773342133
-140.737228393555 -70.670700073242 -226.352981567383 1.681206345558
-12.617198944092 -65.847709655762 -231.191955566406 2.938470602036
6.621700763702 -67.636817932129 -241.435699462891 1.423457264900
60.625537872314 -61.974815368652 -238.955383300781 5.058568477631
15.410775184631 -72.221374511719 -246.985977172852 1.034833192825
52.062084197998 -67.453071594238 -240.815124511719 3.923667669296
38.090847015381 -70.739921569824 -247.866409301758 4.141921520233
58.961788177490 -64.043495178223 -251.186141967773 4.391532421112
-155.705993652344 -67.129165649414 -242.488311767578 3.539307355881
-149.983612060547 -71.122680664063 -248.377029418945 3.162458181381
41.011955261230 -66.454948425293 -254.606048583984 0.859036505222
25.331798553467 -67.868095397949 -252.198516845703 2.628770828247
45.852870941162 -64.207275390625 -252.021820068359 1.934883952141
-147.999969482422 -70.405448913574 -256.268554687500 1.411830186844
-140.215515136719 -65.547889709473 -248.507965087891 5.410816669464
-126.824470520020 -64.552871704102 -253.427886962891 1.634085536003
-135.965332031250 -67.030914306641 -249.922103881836 5.412821292877
-142.714874267578 -68.407386779785 -251.946640014648 0.793823301792
-125.824714660645 -66.387931823730 -254.160507202148 0.775584638119
-145.848937988281 -65.026542663574 -253.952377319336 1.321357727051
-129.937591552734 -70.056045532227 -252.291519165039 1.992604970932
-123.199775695801 -68.377975463867 -259.367767333984 2.443565845490
-131.933059692383 -67.725524902344 -259.434722900391 1.893120050430
-124.956115722656 -63.257705688477 -258.527893066406 2.154930114746
-8.107352256775 -68.341918945313 -263.543151855469 2.628087759018
26.486000061035 -63.649452209473 -259.309356689453 1.800760984421
-148.661956787109 -61.265541076660 -261.178863525391 1.895007252693
23.189378738403 -69.484718322754 -268.750518798828 1.802167296410
-9.154721260071 -61.631271362305 -273.285675048828 4.031384468079
14.076514244080 -74.480491638184 -280.655212402344 3.807783126831
-144.635299682617 -68.096244812012 -283.294403076172 1.479006052017
