-42.968608856201 -81.388282775879 -198.047088623047 0.802029132843
-143.489517211914 -82.221679687500 -196.820465087891 1.002193093300
-71.140907287598 -75.392745971680 -202.151321411133 4.009125232697
-39.292186737061 -85.133918762207 -203.596832275391 3.844397068024
14.283828735352 -83.480148315430 -202.288879394531 3.549914836884
-74.966438293457 -83.148880004883 -206.854827880859 2.833651781082
-30.939178466797 -79.074882507324 -209.375137329102 1.645646095276
10.214330673218 -81.569290161133 -216.228134155273 2.326771020889
-155.338119506836 -81.583526611328 -208.346466064453 3.493135452271
4.406342983246 -81.862625122070 -223.878494262695 3.482529163361
10.246589660645 -84.051879882813 -220.997695922852 2.522096157074
15.546814918518 -80.195747375488 -221.879623413086 2.451242923737
-140.785583496094 -86.555427551270 -217.444686889648 4.181285381317
-147.191543579102 -80.910751342773 -220.457260131836 3.452019929886
9.165598869324 -84.869911193848 -232.547149658203 3.584327936172
14.482048034668 -81.529022216797 -233.370513916016 1.289495229721
12.561885833740 -82.987663269043 -233.398651123047 1.878800511360
-151.660903930664 -85.999908447266 -232.446640014648 2.471894264221
-148.422424316406 -92.822715759277 -229.109558105469 8.304178237915
8.741674423218 -84.666534423828 -230.910430908203 4.578226089478
-44.919963836670 -84.257957458496 -238.963577270508 5.553379535675
14.836240768433 -84.120903015137 -244.421051025391 2.248195409775
-46.898036956787 -85.972740173340 -237.302185058594 8.398634910583
-148.072204589844 -88.481788635254 -248.823898315430 4.021120071411
15.203138351440 -86.452331542969 -249.029449462891 2.702923297882
-147.521423339844 -86.354469299316 -247.015548706055 1.814898252487
-157.797897338867 -85.551818847656 -249.572555541992 5.028855800629
9.827422142029 -83.936973571777 -251.752426147461 3.123320102692
-12.193283081055 -80.178581237793 -247.638168334961 5.436582565308
-12.571180343628 -84.181480407715 -259.450012207031 4.356901168823
-147.792877197266 -90.645240783691 -250.855484008789 5.224076271057
-159.617935180664 -78.921508789063 -253.445388793945 5.159808635712
-147.582702636719 -87.448371887207 -255.028137207031 1.582361578941
-154.229187011719 -81.901107788086 -262.582641601563 0.911159634590
-151.264022827148 -86.747261047363 -259.266387939453 2.383470773697
-11.465615272522 -88.300590515137 -265.124847412109 5.463074684143
-10.154004096985 -85.698402404785 -267.646209716797 5.398377418518
9.966940879822 -85.409408569336 -262.841125488281 1.694229602814
-1.029994010925 -88.853874206543 -273.691925048828 3.970424890518
-1.736153006554 -84.523170471191 -283.051483154297 3.792554140091
-143.565597534180 -83.446823120117 -281.432312011719 2.271897792816
-150.883285522461 -86.390792846680 -284.539916992188 1.523821115494
-56.892967224121 -69.146629333496 -57.725002288818 5.865728378296
-41.982635498047 -69.123023986816 -60.324424743652 4.477625846863
-42.179080963135 -65.263854980469 -61.970821380615 8.494878768921
-41.735771179199 -67.056327819824 -60.996200561523 6.424675464630
-63.250308990479 -75.538597106934 -60.761955261230 2.751026153564
-73.064125061035 -68.379150390625 -64.871185302734 7.802446365356
-37.154018402100 -70.791564941406 -72.015197753906 3.434259176254
-39.291656494141 -75.433288574219 -81.075714111328 0.969522356987
-46.142829895020 -78.029701232910 -82.378273010254 4.059655189514
-82.603157043457 -69.398262023926 -81.764328002930 7.713387489319
-70.934822082520 -76.899620056152 -101.866065979004 3.118738174438
45.631469726563 -72.479209899902 -105.795013427734 2.558275461197
-83.350898742676 -72.377708435059 -102.928131103516 3.433410644531
45.154373168945 -75.348426818848 -118.874977111816 2.068196296692
42.250812530518 -72.941192626953 -122.096679687500 0.953170299530
35.250358581543 -73.058464050293 -119.347183227539 1.549540996552
30.132913589478 -79.147705078125 -124.206909179688 2.844899177551
31.222333908081 -73.932106018066 -130.858612060547 2.097218036652
24.115375518799 -72.494087219238 -143.182983398438 0.938522517681
-48.335140228271 -80.184112548828 -150.952117919922 3.636640071869
31.115009307861 -75.643432617188 -139.859558105469 2.412058115005
24.671974182129 -80.227699279785 -153.413909912109 0.556884527206
-42.044086456299 -78.916831970215 -146.112838745117 3.413842439651
26.367017745972 -77.109893798828 -152.318450927734 2.424597024918
-48.768848419189 -73.707702636719 -154.690902709961 1.129567980766
25.123134613037 -77.765876770020 -163.364990234375 0.816920876503
-61.890449523926 -79.041885375977 -164.389389038086 0.864582180977
-4.401662826538 -81.498130798340 -169.230636596680 2.637928962708
-33.279125213623 -77.317138671875 -168.668502807617 1.698228001595
-9.262694358826 -79.688110351563 -167.827819824219 1.184575796127
-58.239814758301 -77.998031616211 -170.144073486328 2.253507614136
23.227041244507 -81.134513854980 -169.255416870117 3.026639223099
-14.452902793884 -77.046066284180 -180.656341552734 2.390606641769
-25.173152923584 -73.565353393555 -182.841857910156 1.234414219856
-52.983959197998 -74.973930358887 -177.934463500977 0.699102163315
-30.692424774170 -80.083328247070 -182.346481323242 2.021010160446
15.606040954590 -82.706222534180 -188.368133544922 3.923530578613
-149.781265258789 -81.629386901855 -179.360107421875 5.370184898376
-30.970420837402 -79.758934020996 -184.458602905273 1.833563566208
-50.607521057129 -75.874961853027 -184.512084960938 1.491640567780
-151.807846069336 -82.867179870605 -180.568481445313 5.528627872467
-143.768630981445 -80.349792480469 -187.857192993164 1.074506282806
-25.829414367676 -79.743507385254 -193.135177612305 2.762485504150
-24.655553817749 -80.182968139648 -190.530700683594 2.216620922089
-46.782653808594 -78.155838012695 -189.891601562500 0.855168461800
-20.098651885986 -81.967727661133 -190.572982788086 3.081188678741
-49.631752014160 -79.799232482910 -192.871444702148 1.898614525795
-48.607299804688 -80.281669616699 -191.766418457031 2.731518983841
-55.410079956055 -82.517120361328 -194.387634277344 5.264443397522
-21.568918228149 -76.439933776855 -202.224380493164 1.370261311531
-147.129440307617 -80.971054077148 -207.610717773438 2.818412542343
-60.652484893799 -78.422332763672 -204.233078002930 2.634105205536
-61.478610992432 -76.946365356445 -204.594467163086 3.204475164413
-35.159561157227 -73.475616455078 -203.880645751953 2.719612836838
-13.753362655640 -76.892196655273 -203.051376342773 1.760576009750
-36.458900451660 -78.247062683105 -204.986557006836 0.985553622246
-82.335762023926 -79.777053833008 -203.246643066406 7.124562740326
-145.833328247070 -86.606147766113 -200.698898315430 3.724408864975
-35.248836517334 -81.820594787598 -204.288330078125 3.003499984741
3.946743011475 -84.236465454102 -204.998977661133 7.933603763580
-69.411437988281 -83.099792480469 -205.951629638672 3.492260456085
-66.225761413574 -80.032905578613 -208.937637329102 1.817188978195
-27.447080612183 -75.816291809082 -210.310043334961 1.288176059723
-11.671265602112 -88.331062316895 -208.434066772461 6.920272350311
-29.419610977173 -83.504890441895 -212.001541137695 3.482415914536
17.044834136963 -80.488952636719 -212.343399047852 2.335764169693
-153.186904907227 -75.890060424805 -210.326690673828 3.426595211029
-14.063577651978 -87.739074707031 -214.675888061523 7.541249275208
-159.980346679688 -83.624511718750 -217.270446777344 9.358016014099
4.735770225525 -83.432518005371 -227.205307006836 4.885493278503
10.367279052734 -77.441787719727 -223.588348388672 2.714677095413
-3.632538080215 -81.248313903809 -218.893615722656 2.214347362518
13.290611267090 -83.033508300781 -225.578475952148 2.186034679413
-142.182434082031 -87.780204772949 -225.711029052734 4.213018417358
9.156268119812 -83.106597900391 -224.049591064453 2.378390073776
-156.475875854492 -79.256324768066 -219.891204833984 5.283499717712
-147.969619750977 -82.733688354492 -225.534301757813 1.404387235641
-2.854641914368 -82.945556640625 -217.669769287109 2.819025754929
15.982263565063 -86.280181884766 -230.215377807617 5.118132114410
-33.809009552002 -78.994995117188 -233.787918090820 4.714405536652
-148.621200561523 -82.385307312012 -230.727874755859 1.202136039734
-39.736259460449 -81.560699462891 -239.761886596680 3.529106855392
-49.483806610107 -80.756149291992 -235.754287719727 7.633302688599
-39.731994628906 -80.027412414551 -235.425628662109 4.975501060486
16.641748428345 -83.816368103027 -240.847824096680 3.189278125763
-53.108383178711 -76.946197509766 -241.611907958984 2.591518163681
14.401971817017 -83.707565307617 -242.365844726563 2.287488460541
10.401741981506 -80.109756469727 -237.361434936523 2.320249319077
6.115197181702 -85.189636230469 -246.134033203125 3.824229717255
-42.752883911133 -87.002357482910 -241.634506225586 5.761398315430
21.289497375488 -86.112220764160 -243.713653564453 5.109132766724
-146.040374755859 -83.172531127930 -238.634063720703 1.988889098167
17.277151107788 -81.180168151855 -248.163375854492 0.518079340458
-2.940542936325 -88.294250488281 -245.558685302734 6.534580707550
7.314023017883 -82.725524902344 -238.124908447266 2.871090888977
-153.475173950195 -78.187637329102 -245.995529174805 0.835145056248
-150.085113525391 -87.909339904785 -249.108306884766 3.530805826187
-145.232086181641 -84.352973937988 -248.789291381836 2.363139390945
-155.531036376953 -83.355545043945 -251.145156860352 3.108512163162
11.856795310974 -79.379150390625 -260.677062988281 4.602715492249
-158.660232543945 -79.655143737793 -263.629425048828 5.046739578247
-10.829565048218 -85.624855041504 -270.242523193359 5.990022659302
-155.629531860352 -86.405303955078 -258.614410400391 3.905833244324
-148.415481567383 -82.989868164063 -273.200927734375 2.577521562576
-158.008071899414 -80.644134521484 -266.960968017578 5.427059173584
-158.100128173828 -88.106307983398 -275.203247070313 5.850840568542
-135.282974243164 -88.898063659668 -280.745239257813 6.871960163116
-157.964721679688 -86.337402343750 -280.290405273438 7.293515205383
-150.712585449219 -89.394348144531 -282.021667480469 3.289724826813
-151.511642456055 -86.197746276855 -281.077728271484 3.235363006592
-158.036880493164 -88.542327880859 -287.362030029297 5.988516807556
-149.732772827148 -82.996253967285 -283.708068847656 1.410106539726
-157.467422485352 -86.596176147461 -292.297241210938 3.463316440582
-152.312530517578 -88.101409912109 -294.585571289063 3.064192056656
-152.380798339844 -82.389488220215 -297.406341552734 1.912399768829
-53.119110107422 -61.242660522461 -57.094898223877 10.654425621033
-61.097373962402 -68.771247863770 -59.268798828125 6.906075477600
-43.645019531250 -69.103752136230 -56.938999176025 4.652519702911
-21.623018264771 -72.060760498047 -71.994674682617 0.749605774879
-49.417171478271 -74.855545043945 -83.151924133301 3.355900287628
-86.064369201660 -79.949592590332 -91.215362548828 2.308389425278
43.588569641113 -73.881278991699 -105.334823608398 2.885376214981
-72.471710205078 -74.532775878906 -94.488212585449 5.923034191132
45.859336853027 -76.660736083984 -112.232032775879 1.088071465492
42.780868530273 -74.267234802246 -121.138145446777 1.778453946114
42.339641571045 -75.125587463379 -122.275543212891 1.868236780167
36.585315704346 -75.828613281250 -133.007141113281 1.943095684052
32.798110961914 -73.384887695313 -132.568954467773 1.874128341675
34.602527618408 -82.626731872559 -132.469512939453 2.423674583435
32.566043853760 -73.192001342773 -148.760757446289 0.965311288834
-45.093193054199 -71.549514770508 -145.584350585938 1.221617579460
30.104173660278 -77.756347656250 -137.596206665039 1.901662588120
-66.089744567871 -71.576873779297 -147.966552734375 1.066650629044
-35.595691680908 -78.700050354004 -148.113906860352 5.451339244843
-61.311531066895 -78.592750549316 -157.833847045898 2.794025659561
-39.052295684814 -78.100326538086 -153.778427124023 1.723141908646
31.650600433350 -77.606643676758 -155.142105102539 1.629693508148
-35.806854248047 -82.723060607910 -152.987503051758 5.001889705658
-1.587038040161 -78.514961242676 -170.800613403320 1.245274186134
34.283542633057 -71.315979003906 -163.248184204102 2.132603645325
-10.682970046997 -78.075447082520 -167.429153442383 0.741732597351
-58.630496978760 -76.523963928223 -157.735076904297 5.165696620941
-37.670783996582 -73.714080810547 -166.050750732422 2.912539005280
-32.687580108643 -74.219215393066 -169.970367431641 3.312174320221
23.366556167603 -79.850265502930 -174.747329711914 2.789287090302
-53.908428192139 -78.929534912109 -171.204055786133 1.626099944115
-28.188119888306 -72.894508361816 -171.144424438477 1.483870029449
21.590755462646 -78.041007995605 -182.593978881836 0.899715781212
-52.408988952637 -79.403717041016 -180.566101074219 1.791725993156
-25.532123565674 -72.262214660645 -176.994354248047 0.611138045788
-55.321922302246 -74.871086120605 -179.669647216797 1.977725148201
-42.348503112793 -77.932868957520 -190.594696044922 0.638790607452
-30.190761566162 -76.896018981934 -185.531372070313 1.450693368912
-42.462837219238 -80.770240783691 -191.068618774414 1.605424761772
-23.884588241577 -78.134498596191 -188.343032836914 2.292383432388
-139.021530151367 -79.972648620605 -188.838867187500 4.908125877380
19.478168487549 -79.218406677246 -198.469314575195 2.532397985458
-134.737762451172 -77.082359313965 -191.412033081055 4.831944465637
-21.993051528931 -75.970848083496 -192.449920654297 2.393984079361
-21.808229446411 -76.131568908691 -193.051605224609 2.333194017410
-43.202575683594 -79.465438842773 -189.685363769531 2.473229169846
10.758500099182 -76.406356811523 -195.410461425781 1.241631150246
-17.588008880615 -82.195114135742 -194.420333862305 2.865605115891
-57.065738677979 -81.184982299805 -199.707229614258 1.679355263710
-36.146133422852 -79.626937866211 -199.218734741211 1.716947197914
-62.319099426270 -76.630256652832 -201.748443603516 5.477397441864
-70.205406188965 -78.269012451172 -205.433044433594 0.777209103107
15.151177406311 -78.015342712402 -206.947113037109 2.112745046616
-87.981994628906 -78.586334228516 -205.639129638672 6.347393512726
-30.212575912476 -80.545661926270 -211.039733886719 1.386480331421
-81.978157043457 -80.628517150879 -203.826263427734 6.674955368042
-150.857986450195 -81.111061096191 -205.281250000000 2.636780500412
-8.959240913391 -80.458976745605 -211.244033813477 2.979045867920
-8.483725547791 -78.752281188965 -214.614288330078 2.357091426849
10.754532814026 -81.349723815918 -214.339614868164 2.453698396683
10.344040870667 -74.850067138672 -223.628646850586 1.045307517052
-3.488975048065 -82.970390319824 -224.972137451172 4.006420135498
-144.003982543945 -79.031097412109 -211.838226318359 1.060234546661
-152.027816772461 -85.907615661621 -225.709365844727 1.841668963432
-156.001663208008 -78.163978576660 -224.477798461914 1.609025716782
-1.115581989288 -84.480079650879 -232.935745239258 6.367946624756
-0.089763000607 -80.157325744629 -234.097534179688 4.267792701721
-26.714767456055 -86.995201110840 -237.903915405273 7.565255641937
-153.122085571289 -79.300262451172 -230.240325927734 1.583461403847
7.322357177734 -83.754119873047 -240.269210815430 4.050858974457
-25.726333618164 -76.399551391602 -237.662551879883 1.917402148247
16.505460739136 -81.564117431641 -233.390167236328 1.495655298233
-55.640892028809 -80.841934204102 -238.347198486328 3.943192720413
-53.432804107666 -82.585693359375 -244.454711914063 2.949236392975
-149.624374389648 -87.699424743652 -236.741714477539 3.441788434982
-65.010093688965 -83.464004516602 -242.685180664063 6.197757720947
-5.593197822571 -82.030654907227 -242.798660278320 5.225029468536
-13.497153282166 -80.252182006836 -250.903900146484 4.447216033936
-150.409698486328 -87.524841308594 -250.091064453125 3.220632553101
-135.169998168945 -81.108047485352 -248.293548583984 7.511957168579
-138.643264770508 -80.823219299316 -249.677154541016 5.892171382904
13.898110389709 -82.240287780762 -255.499862670898 2.306700706482
-149.469772338867 -85.482635498047 -263.365081787109 1.105760812759
14.324901580811 -84.864059448242 -263.492614746094 1.886142015457
-148.285369873047 -82.191452026367 -266.372467041016 2.473645210266
-1.131214022636 -86.853927612305 -273.777465820313 2.284666299820
-146.174972534180 -85.375892639160 -273.420684814453 2.246451854706
-4.989943027496 -87.625106811523 -279.586395263672 7.690494060516
-157.192703247070 -82.438034057617 -275.486724853516 4.756065845490
-147.888824462891 -81.638984680176 -274.835876464844 1.539973258972
-140.630599975586 -89.095146179199 -277.606781005859 6.489224910736
-153.930191040039 -88.303314208984 -285.092864990234 4.318946838379
-25.252786636353 -83.115951538086 -286.106658935547 6.320116996765
-155.763534545898 -84.484069824219 -283.140655517578 3.307314157486
-151.687011718750 -89.090606689453 -286.193420410156 3.972805500031
-156.577728271484 -85.320991516113 -298.861175537109 4.537859439850
-52.211917877197 -65.876724243164 -52.297267913818 5.645299911499
-35.765506744385 -73.871788024902 -58.385196685791 2.494264841080
-72.223426818848 -72.043022155762 -62.068466186523 5.514527797699
-27.308187484741 -67.266311645508 -63.082794189453 5.373034000397
-23.651649475098 -70.643493652344 -66.954589843750 5.501560688019
-83.607490539551 -70.815208435059 -73.381866455078 4.055912971497
88.026618957520 -72.928024291992 -84.482757568359 3.929251432419
-32.250278472900 -68.094512939453 -81.351852416992 2.832749128342
84.936470031738 -75.007514953613 -85.688316345215 3.476791381836
81.503669738770 -71.736030578613 -88.568519592285 6.278464794159
87.842636108398 -70.824272155762 -86.318534851074 6.473910331726
88.273262023926 -69.067893981934 -91.187698364258 7.195145606995
92.627838134766 -70.495620727539 -94.586601257324 3.500359535217
-88.411041259766 -67.460983276367 -87.755638122559 6.079280853271
57.930164337158 -72.398864746094 -104.313568115234 1.870703577995
-94.286842346191 -61.577083587646 -106.248100280762 2.820034980774
48.710819244385 -74.931091308594 -106.173866271973 2.019655942917
51.976867675781 -73.512451171875 -111.790786743164 3.583720207214
40.602653503418 -71.757820129395 -112.950798034668 1.193247675896
35.004642486572 -74.617294311523 -135.467727661133 1.760653614998
27.843055725098 -73.648513793945 -138.631500244141 0.908493876457
22.838418960571 -67.538627624512 -141.812530517578 2.104975461960
33.516902923584 -70.576507568359 -141.190093994141 1.613274693489
-45.962257385254 -77.519119262695 -148.792831420898 1.553558349609
-48.376296997070 -75.944404602051 -146.039001464844 2.124014854431
-40.454483032227 -74.233413696289 -153.278625488281 2.402363538742
23.828918457031 -72.900306701660 -151.914489746094 1.567199945450
29.778318405151 -74.858489990234 -165.875350952148 1.850109577179
-33.201824188232 -72.432128906250 -164.656707763672 1.778146743774
-35.008636474609 -70.260002136230 -154.784973144531 2.978316783905
-45.420104980469 -77.504112243652 -154.055953979492 2.108536481857
2.062958002090 -72.789505004883 -160.381668090820 2.060450077057
25.386703491211 -75.637222290039 -148.851959228516 2.919164180756
33.403297424316 -71.634452819824 -157.760253906250 1.543266534805
29.037437438965 -74.091346740723 -168.268157958984 1.561899065971
-6.363305091858 -75.508720397949 -169.014984130859 2.137089014053
-4.585287094116 -76.802612304688 -166.874374389648 2.147986888885
-58.099723815918 -73.717460632324 -161.502517700195 4.337407112122
-60.831813812256 -75.312652587891 -165.568649291992 1.665706872940
-43.764568328857 -77.158279418945 -164.641159057617 1.771180629730
-37.905296325684 -73.829574584961 -163.012161254883 2.036300897598
21.639009475708 -71.239151000977 -169.149902343750 2.919609785080
-23.276075363159 -80.766471862793 -173.756973266602 3.874347209930
-30.818595886230 -73.636245727539 -177.219772338867 2.986143589020
-62.838691711426 -79.861541748047 -173.398147583008 1.411884903908
97.670158386230 -78.345542907715 -182.130523681641 5.849827289581
20.927593231201 -79.815620422363 -172.387939453125 1.841396093369
-26.170755386353 -76.260513305664 -175.581405639648 1.254862666130
-51.820838928223 -76.232772827148 -173.216217041016 2.113319873810
-21.747243881226 -73.125755310059 -176.747589111328 2.495706319809
112.087745666504 -77.042007446289 -182.495056152344 2.685079336166
-56.023036956787 -78.885063171387 -179.437454223633 2.162437200546
11.838463783264 -79.173538208008 -187.092117309570 3.349879980087
17.542041778564 -76.385627746582 -176.017410278320 1.358144521713
-56.224857330322 -81.573577880859 -171.374633789063 2.753306150436
-24.993047714233 -75.186546325684 -178.395477294922 1.439963221550
-56.166893005371 -79.532043457031 -171.602767944336 1.285223126411
-36.661743164063 -77.904487609863 -172.666198730469 2.315319538116
-29.586805343628 -76.878944396973 -183.006332397461 1.887217998505
19.102487564087 -77.561279296875 -185.820968627930 0.936179518700
-48.901626586914 -78.569084167480 -183.211380004883 1.105918288231
102.764228820801 -76.442054748535 -190.672836303711 1.777335405350
-51.554141998291 -73.497825622559 -184.448593139648 1.091878652573
5.798027992249 -77.414268493652 -199.622344970703 3.684727430344
19.829048156738 -76.598480224609 -195.918731689453 2.565699100494
-50.190788269043 -77.180236816406 -186.325683593750 1.660833358765
-17.258985519409 -77.955116271973 -185.204116821289 1.689148783684
98.845764160156 -77.445793151855 -195.174606323242 3.567193984985
95.381713867188 -81.664070129395 -195.115432739258 6.566922664642
-50.431060791016 -75.566177368164 -181.881240844727 1.427713036537
-150.580154418945 -83.938690185547 -190.381149291992 2.894346714020
-46.518505096436 -77.235290527344 -191.211822509766 1.459752678871
-145.919052124023 -78.569648742676 -188.329467773438 2.146826505661
-136.138656616211 -73.462036132813 -189.541946411133 6.339567661285
-47.526462554932 -80.354507446289 -190.857437133789 2.192997694016
8.453317642212 -80.119178771973 -203.953140258789 2.584545373917
-17.304868698120 -75.499206542969 -201.080535888672 1.832146286964
14.827714920044 -75.355888366699 -198.491897583008 2.429152488708
89.955001831055 -82.746849060059 -212.386077880859 5.308466911316
-36.273941040039 -76.172088623047 -197.729919433594 1.297871589661
-15.459907531738 -76.121917724609 -200.109603881836 1.412170052528
-17.752332687378 -76.381256103516 -210.022735595703 0.864998042583
-36.586669921875 -76.963935852051 -199.737243652344 2.573140382767
4.906828880310 -78.414108276367 -203.029342651367 3.505417585373
-80.832611083984 -79.468574523926 -204.230941772461 5.402611255646
14.554542541504 -79.798965454102 -211.746520996094 0.870693683624
-36.509784698486 -77.162170410156 -201.036102294922 1.892929077148
-146.570236206055 -82.083251953125 -198.177886962891 1.316328167915
-143.248458862305 -74.408561706543 -201.854675292969 2.189712047577
-89.847663879395 -79.144325256348 -206.084228515625 6.711306571960
-36.521236419678 -76.124794006348 -204.667190551758 1.599221110344
-16.460350036621 -83.554267883301 -208.003524780273 3.957599639893
-34.703895568848 -79.207145690918 -201.379058837891 0.743517935276
-92.686836242676 -81.268859863281 -210.062911987305 5.508267402649
-88.646507263184 -80.401100158691 -206.858489990234 5.686776161194
4.384560108185 -84.755058288574 -217.006851196289 6.205874443054
-151.228393554688 -73.064987182617 -204.380905151367 0.950446724892
-16.300180435181 -82.465576171875 -208.304519653320 3.316437005997
7.163702011108 -85.705360412598 -215.261749267578 5.886799335480
-146.260360717773 -77.542655944824 -211.274566650391 2.161400079727
-24.884931564331 -80.518844604492 -211.547042846680 1.825953722000
-1.031241059303 -75.014701843262 -216.694259643555 2.007830142975
-10.184551239014 -80.187332153320 -215.800765991211 1.699216246605
-154.583679199219 -75.137428283691 -214.511093139648 4.331559181213
-142.087265014648 -69.632995605469 -218.292144775391 2.710916519165
-6.436635971069 -79.844108581543 -221.948318481445 2.954847574234
-150.500762939453 -84.717887878418 -217.557128906250 2.693525075912
-1.337337017059 -75.173889160156 -226.214157104492 2.423559188843
15.042243003845 -79.408027648926 -232.626953125000 1.382940173149
-4.453874111176 -82.369758605957 -226.026046752930 3.241569995880
-4.307514190674 -74.422256469727 -229.339035034180 1.842254400253
6.090157032013 -78.554107666016 -228.593307495117 1.219756126404
-154.945648193359 -80.823143005371 -230.172683715820 2.663725614548
-22.240594863892 -77.614967346191 -229.585494995117 2.340822219849
-37.254096984863 -82.557594299316 -233.726409912109 7.130860805511
-0.819800972939 -78.610946655273 -231.226852416992 2.951474905014
0.191771999002 -85.727569580078 -238.829635620117 7.069816112518
-0.839204013348 -78.362106323242 -229.856170654297 1.631703138351
-61.094398498535 -79.780693054199 -236.594497680664 8.321248054504
-151.834976196289 -77.073387145996 -240.196289062500 2.780869483948
-156.122268676758 -80.626701354980 -238.247497558594 5.978231906891
8.738298416138 -82.753593444824 -243.789245605469 3.195220708847
22.224285125732 -83.021110534668 -243.443176269531 3.320878982544
-64.258781433105 -77.704833984375 -241.690795898438 5.010349273682
-145.502380371094 -85.421089172363 -243.101959228516 3.665427207947
-156.573562622070 -84.460556030273 -245.096954345703 6.478082180023
-157.199844360352 -85.422927856445 -247.441970825195 6.777019023895
-146.468917846680 -78.613945007324 -253.432739257813 2.666383028030
-144.864791870117 -81.999794006348 -247.649795532227 1.070069789886
-10.423382759094 -83.195968627930 -252.150787353516 3.214203119278
-148.939208984375 -82.941360473633 -253.113952636719 2.205833435059
-18.023464202881 -83.190109252930 -263.636352539063 6.800058364868
-151.398025512695 -80.798904418945 -262.896362304688 1.871944665909
-152.180130004883 -82.276985168457 -273.226959228516 3.155807733536
-152.550567626953 -81.082847595215 -275.049835205078 2.746071577072
-8.048515319824 -78.675003051758 -281.577819824219 4.708446979523
-152.474777221680 -78.551910400391 -274.293914794922 0.805554389954
-30.241670608521 -84.763778686523 -281.424774169922 9.073775291443
-30.708486557007 -80.382812500000 -280.704895019531 6.797537803650
-18.439630508423 -81.077941894531 -289.457092285156 0.948198854923
-18.761754989624 -80.648696899414 -288.711212158203 0.577937364578
7.415772914886 -86.190933227539 -287.682769775391 6.912980556488
-129.505783081055 -85.079734802246 -281.675720214844 8.643664360046
-65.952468872070 -83.588577270508 -281.133453369141 7.951971054077
-46.289203643799 -80.389282226563 -285.217285156250 4.072937011719
-37.663238525391 -83.981849670410 -282.686248779297 7.426956653595
-13.348063468933 -81.661010742188 -289.809753417969 3.579013347626
1.059548974037 -84.483253479004 -284.300140380859 4.698273658752
-146.531494140625 -84.405548095703 -288.768554687500 0.896595716476
6.004011154175 -84.403961181641 -292.289886474609 6.112999916077
-158.494705200195 -81.345092773438 -293.464172363281 4.005163669586
-158.815444946289 -88.186569213867 -291.638885498047 5.184473991394
-158.659713745117 -80.528839111328 -303.148498535156 5.432932853699
-148.187820434570 -83.485748291016 -300.641235351563 3.114280700684
-46.783470153809 -66.949409484863 -45.618656158447 1.419453859329
-50.087467193604 -71.351966857910 -50.943206787109 4.137194633484
-63.451183319092 -65.438796997070 -49.314754486084 4.486021518707
-36.744300842285 -65.890243530273 -57.844024658203 7.735917568207
-31.921031951904 -68.003791809082 -54.934440612793 3.738669633865
-15.883877754211 -67.684616088867 -66.452537536621 2.687213897705
-78.055648803711 -65.448707580566 -63.315658569336 8.650915145874
88.220596313477 -70.018447875977 -78.224487304688 5.044003963470
-87.456016540527 -66.780914306641 -67.779449462891 5.498313426971
83.606323242188 -67.340888977051 -77.227218627930 6.196319103241
90.948570251465 -65.347099304199 -84.555519104004 8.683959007263
100.351776123047 -67.301078796387 -90.179786682129 2.319175958633
-58.503307342529 -73.019088745117 -90.703392028809 3.366637706757
84.590599060059 -71.977279663086 -96.039924621582 2.410930633545
79.364372253418 -74.692726135254 -90.210800170898 4.233177661896
89.103363037109 -70.182563781738 -90.285026550293 6.280714035034
-56.717899322510 -70.556083679199 -92.062828063965 2.400049448013
51.285682678223 -68.535964965820 -96.693550109863 2.498177051544
47.857643127441 -70.444473266602 -104.970863342285 1.148473143578
41.897739410400 -71.733741760254 -101.743759155273 0.783290743828
38.375179290771 -71.188888549805 -99.977119445801 3.996922492981
-89.668113708496 -66.249923706055 -97.814056396484 6.431070327759
37.198051452637 -69.999885559082 -115.391456604004 1.194194078445
-82.701797485352 -71.027908325195 -100.944007873535 2.583394050598
41.790695190430 -73.736816406250 -125.197906494141 1.874125123024
34.354907989502 -72.941337585449 -118.591308593750 1.791634440422
35.734889984131 -64.448883056641 -119.856834411621 3.928263187408
46.204616546631 -69.696449279785 -115.910026550293 2.121547222137
42.740264892578 -75.236862182617 -126.164924621582 1.734728813171
-50.163326263428 -66.315544128418 -130.284332275391 1.791171669960
38.727066040039 -77.061241149902 -131.885726928711 1.856051802635
36.509330749512 -73.058036804199 -141.968414306641 3.187968254089
-54.783004760742 -70.846633911133 -138.428070068359 2.341709136963
-44.010501861572 -73.058471679688 -135.132904052734 3.348871707916
35.884788513184 -71.805541992188 -140.484436035156 2.667526960373
111.374526977539 -68.582992553711 -141.567276000977 2.599223613739
113.089691162109 -70.043869018555 -147.139709472656 1.607456564903
27.424257278442 -74.629577636719 -139.022125244141 1.380774378777
-39.572097778320 -76.158363342285 -144.555297851563 4.882114410400
117.133850097656 -80.830696105957 -152.915878295898 4.032788753510
-36.812973022461 -71.555923461914 -147.921737670898 3.101976871490
-67.573043823242 -73.222557067871 -156.330993652344 1.026643753052
110.976051330566 -78.655227661133 -156.206375122070 2.034775733948
22.732868194580 -75.699989318848 -163.409164428711 1.843560576439
1.122357010841 -75.216316223145 -159.251464843750 1.746898531914
111.713233947754 -74.184265136719 -153.313690185547 1.362269878387
-64.073188781738 -73.880142211914 -160.375732421875 1.267924547195
-38.527301788330 -75.511596679688 -160.370635986328 2.084367752075
111.559066772461 -75.686920166016 -165.348266601563 1.903671383858
28.026058197021 -69.096252441406 -156.388153076172 1.901715278625
-61.635879516602 -67.835029602051 -159.202087402344 4.565802574158
112.714828491211 -75.275718688965 -166.434371948242 2.988737583160
-65.399551391602 -76.067024230957 -162.912353515625 1.536168932915
-49.457542419434 -78.308204650879 -176.677368164063 1.764710545540
106.026443481445 -74.536087036133 -171.633911132813 0.739993453026
-59.680145263672 -73.089096069336 -166.620422363281 1.582516789436
112.123420715332 -74.639213562012 -178.347808837891 1.943497419357
-61.491367340088 -74.052902221680 -170.576538085938 1.652735590935
-16.094121932983 -72.644699096680 -173.525314331055 4.813552379608
-10.498305320740 -80.762237548828 -178.064361572266 0.574158430099
107.735557556152 -76.828598022461 -167.075302124023 2.228176832199
21.372003555298 -76.205955505371 -168.524444580078 1.507878899574
30.584154129028 -70.066680908203 -167.119628906250 3.720108270645
-58.191581726074 -74.049468994141 -171.896804809570 0.744372367859
17.042751312256 -73.647880554199 -178.994216918945 1.200515389442
-57.696071624756 -75.504837036133 -169.169494628906 2.872342824936
-53.183177947998 -74.514968872070 -188.278549194336 2.047788143158
10.462759017944 -73.387329101563 -181.748840332031 3.705584526062
-56.397621154785 -70.416503906250 -174.258056640625 3.702048778534
105.533859252930 -73.746803283691 -188.795715332031 1.942445516586
25.333932876587 -78.384468078613 -179.103286743164 1.173697352409
-35.640216827393 -73.327400207520 -183.603530883789 2.074928045273
-43.740055084229 -78.260658264160 -184.651580810547 3.024706363678
10.448914527893 -78.306594848633 -188.361907958984 4.590170860291
-20.370880126953 -77.043853759766 -183.791519165039 1.852579593658
-48.536895751953 -77.656372070313 -190.053436279297 1.365874648094
101.404953002930 -79.914505004883 -182.580261230469 2.987610578537
9.156286239624 -79.539970397949 -186.854827880859 6.047491073608
-133.613525390625 -82.232246398926 -191.273376464844 5.871820926666
-49.301589965820 -78.459732055664 -189.977279663086 2.023285388947
93.560401916504 -76.046569824219 -198.624145507813 2.977759361267
-150.658584594727 -82.391510009766 -193.147583007813 1.636541485786
17.217302322388 -77.212821960449 -197.072494506836 1.088027596474
-44.625965118408 -73.810897827148 -201.012207031250 1.359235405922
-31.580141067505 -80.102439880371 -202.097244262695 2.683169364929
-38.363727569580 -77.774238586426 -196.591949462891 1.712036728859
-46.598529815674 -82.571434020996 -192.321411132813 3.070725679398
99.331039428711 -77.164253234863 -204.515594482422 1.626346349716
-22.200099945068 -80.603088378906 -195.681152343750 1.789563179016
-151.314376831055 -76.433815002441 -192.224105834961 1.621791481972
14.656235694885 -79.386863708496 -198.550384521484 1.888255119324
-78.438323974609 -81.302574157715 -199.101043701172 7.264019012451
-145.643112182617 -75.049095153809 -205.083023071289 2.602901697159
92.327201843262 -80.190574645996 -213.096832275391 3.391108512878
-34.334003448486 -75.619674682617 -202.332992553711 2.638614177704
-30.367225646973 -77.993003845215 -206.443145751953 1.213153839111
8.340167999268 -78.061660766602 -206.676773071289 2.123132944107
-73.084259033203 -81.232009887695 -201.418151855469 5.118232250214
-28.547218322754 -84.784080505371 -200.891052246094 7.569691658020
-9.800948143005 -79.326248168945 -212.849990844727 1.022282838821
-71.956596374512 -78.651802062988 -207.809738159180 0.849099457264
-15.776835441589 -78.391754150391 -213.324752807617 0.996637940407
6.203845024109 -69.529083251953 -208.626419067383 2.745602607727
10.944536209106 -81.108116149902 -217.785842895508 1.812841415405
-153.056701660156 -79.403511047363 -208.598571777344 2.661887884140
-10.616935729980 -77.635688781738 -210.260421752930 0.988603770733
-103.197959899902 -74.120521545410 -213.075592041016 6.291516780853
-23.746995925903 -77.589111328125 -215.052795410156 1.067540287971
87.186164855957 -83.416297912598 -211.265869140625 6.938714981079
7.089975833893 -76.597900390625 -221.459716796875 1.743137478828
19.391939163208 -77.595718383789 -213.481430053711 2.928976774216
78.403526306152 -79.470527648926 -213.378768920898 5.663991928101
-0.840933024883 -82.943840026855 -225.871475219727 2.589070320129
83.601257324219 -78.633148193359 -216.118347167969 1.880226850510
-22.876108169556 -74.263473510742 -220.264343261719 1.389063358307
14.647883415222 -74.942726135254 -215.553527832031 1.951226592064
-150.146911621094 -79.220603942871 -209.978286743164 1.297100424767
-27.722164154053 -79.978065490723 -221.459640502930 3.405766963959
-0.243672996759 -76.369834899902 -227.269454956055 2.100414276123
-158.254470825195 -83.487762451172 -215.934600830078 8.551154136658
-139.453216552734 -81.287895202637 -219.182052612305 5.206173896790
1.388594985008 -78.071662902832 -219.947189331055 2.562019109726
-5.741309165955 -75.065391540527 -221.784118652344 1.716890811920
-139.202468872070 -74.906188964844 -220.956497192383 3.150455236435
-149.663894653320 -79.661262512207 -232.845886230469 1.685115575790
-151.081436157227 -79.465347290039 -226.734603881836 1.655061364174
-34.090251922607 -80.470321655273 -231.904739379883 6.696901321411
-144.868286132813 -82.567794799805 -234.285369873047 1.099307537079
13.053372383118 -81.064140319824 -238.113464355469 1.799542903900
3.031912088394 -79.455612182617 -241.160018920898 1.823134183884
-153.100677490234 -73.601264953613 -229.449890136719 3.543915510178
-152.192474365234 -79.036148071289 -235.817993164063 2.382498979568
-48.284004211426 -81.751899719238 -240.189956665039 4.934803485870
-34.278282165527 -80.643867492676 -241.978378295898 0.780692458153
1.575361013412 -79.726974487305 -239.116058349609 1.851330161095
-38.911640167236 -81.751235961914 -240.223159790039 3.018484592438
19.265941619873 -80.272743225098 -243.473648071289 1.568831443787
-8.838861465454 -82.759414672852 -248.482589721680 6.032425880432
-147.415740966797 -81.098518371582 -244.072692871094 2.920530080795
-12.763962745667 -85.515579223633 -248.480590820313 7.220901966095
-151.021209716797 -77.464187622070 -238.296005249023 1.853370428085
-68.170440673828 -82.089790344238 -243.989746093750 5.375919818878
-150.020217895508 -87.766746520996 -249.667785644531 3.365892171860
-130.474746704102 -80.441856384277 -249.951629638672 7.930329799652
-155.800842285156 -79.933189392090 -248.163177490234 4.394502639771
-13.991513252258 -78.771240234375 -263.263885498047 3.676617622375
-149.192810058594 -87.481384277344 -262.856750488281 0.779075682163
-152.628479003906 -81.591590881348 -260.186981201172 1.047117590904
-15.268057823181 -82.072563171387 -266.535308837891 5.939618110657
-147.778244018555 -81.544929504395 -261.202117919922 0.740521967411
-10.028270721436 -80.690818786621 -272.652374267578 1.811361670494
-49.581264495850 -81.642974853516 -278.575469970703 7.912982463837
-138.881774902344 -79.895881652832 -279.991790771484 6.513255596161
-139.466659545898 -81.658302307129 -277.275085449219 6.195751667023
-127.047187805176 -78.685882568359 -273.929412841797 9.999565124512
-55.832176208496 -81.613265991211 -280.653564453125 5.489220619202
-115.902275085449 -80.670440673828 -276.204559326172 10.567743301392
12.235509872437 -82.366722106934 -289.146728515625 3.608977794647
-61.016281127930 -80.568443298340 -282.811035156250 6.063230991364
-144.975357055664 -82.406761169434 -284.448089599609 0.847757995129
-67.338096618652 -81.361732482910 -284.467926025391 4.068162918091
-148.815719604492 -87.922828674316 -284.265533447266 0.678362011909
-120.548324584961 -80.023536682129 -283.183074951172 5.090877056122
-49.983482360840 -85.243179321289 -284.665527343750 7.350618839264
-37.601692199707 -82.804809570313 -286.487670898438 4.537847518921
-141.989486694336 -78.525245666504 -287.686431884766 1.867643356323
-17.854448318481 -76.918617248535 -278.568969726563 5.286718368530
0.760504007339 -82.140892028809 -283.704559326172 3.026954650879
2.655884981155 -81.111831665039 -286.879364013672 4.095396995544
11.077468872070 -84.105285644531 -292.048553466797 4.800636291504
-153.970947265625 -87.287033081055 -288.684753417969 2.058658361435
-149.049423217773 -80.323272705078 -284.507110595703 2.331791877747
-62.616325378418 -65.419929504395 -56.738464355469 9.070836067200
92.349136352539 -69.795631408691 -72.212455749512 3.177199602127
82.088554382324 -69.644264221191 -76.718338012695 4.725055694580
-24.501598358154 -70.665008544922 -72.047744750977 2.375116348267
87.053550720215 -66.693115234375 -74.339843750000 6.747561931610
-34.685249328613 -70.901107788086 -75.055900573730 1.214600920677
85.934349060059 -65.050201416016 -81.729156494141 9.468688964844
99.312568664551 -64.885299682617 -80.175559997559 3.738067626953
-61.840179443359 -63.105213165283 -90.717262268066 2.959294557571
75.493629455566 -70.126487731934 -93.370780944824 3.584071636200
82.560379028320 -67.687217712402 -97.185523986816 3.470459938049
99.253242492676 -72.483680725098 -94.950202941895 2.259124994278
57.930408477783 -71.510490417480 -95.442024230957 1.982832789421
-64.644309997559 -67.281478881836 -95.827674865723 2.674272537231
-71.464805603027 -65.705513000488 -95.446983337402 3.809205293655
52.994354248047 -72.181236267090 -101.779998779297 2.065873622894
-85.274688720703 -71.033645629883 -95.835540771484 6.549397945404
49.095813751221 -68.040428161621 -116.411216735840 3.596909999847
112.475585937500 -70.540710449219 -120.248046875000 1.167313218117
114.409492492676 -74.073753356934 -130.648574829102 1.394676089287
22.082551956177 -70.095138549805 -134.425720214844 4.856528759003
111.867126464844 -73.478439331055 -126.999801635742 2.116586446762
30.068470001221 -69.377876281738 -131.069534301758 2.062511682510
114.275260925293 -66.389755249023 -132.971221923828 2.903462886810
38.482475280762 -69.734634399414 -132.571517944336 1.945851445198
-55.031192779541 -71.680747985840 -135.213607788086 2.892996311188
37.187477111816 -76.368728637695 -142.727752685547 1.360784292221
110.133605957031 -70.214424133301 -135.200439453125 2.253164052963
-45.046337127686 -70.599166870117 -138.901260375977 1.103877902031
32.866153717041 -71.655128479004 -147.834609985352 0.501224815845
-55.530422210693 -66.636978149414 -136.144668579102 2.316908359528
-57.965145111084 -72.100494384766 -139.176025390625 1.346218466759
-51.681327819824 -75.772682189941 -144.542572021484 2.031082391739
-63.719444274902 -75.851661682129 -149.869262695313 3.195331096649
112.874137878418 -77.122787475586 -147.253051757813 1.494321703911
-49.157249450684 -79.347534179688 -149.664169311523 3.064361810684
23.661697387695 -78.180915832520 -153.327514648438 0.398909538984
108.192535400391 -74.773735046387 -162.173187255859 2.211182594299
-64.696586608887 -72.870590209961 -149.005676269531 2.198730230331
-42.998107910156 -74.374443054199 -152.149459838867 2.344546556473
9.697266578674 -70.774925231934 -151.365570068359 3.092068195343
-67.595764160156 -73.379043579102 -149.211914062500 1.581617355347
-63.372718811035 -75.837516784668 -152.741348266602 2.363019704819
0.736808001995 -73.805244445801 -158.797668457031 2.616459846497
-43.614879608154 -70.272842407227 -163.018096923828 1.354842424393
29.255023956299 -71.854858398438 -164.906463623047 2.563951015472
-62.933212280273 -69.967620849609 -162.723129272461 2.744630813599
-55.714805603027 -75.790962219238 -161.029891967773 4.894447803497
15.508419036865 -76.693756103516 -156.703201293945 3.626919746399
-30.036949157715 -72.901802062988 -163.953399658203 3.064555644989
-28.381856918335 -76.478134155273 -161.851043701172 4.109961032867
15.101554870605 -75.930999755859 -171.482192993164 3.123705863953
-43.375022888184 -77.124885559082 -167.690750122070 3.583343029022
-10.476767539978 -75.712837219238 -168.303985595703 1.921278715134
-65.329292297363 -70.853797912598 -165.959594726563 2.425625562668
-7.352910995483 -71.919387817383 -170.279037475586 2.771428346634
-21.899490356445 -74.950866699219 -175.431167602539 2.612533330917
22.077571868896 -72.330726623535 -181.244186401367 2.343489408493
-38.753372192383 -75.877204895020 -167.301101684570 1.930298924446
20.840433120728 -70.705863952637 -173.175506591797 1.434006810188
-23.170768737793 -71.402084350586 -181.377014160156 1.486341953278
-32.196613311768 -77.134033203125 -173.133255004883 2.807076215744
-148.717269897461 -72.516662597656 -183.511367797852 1.817839980125
-18.369268417358 -79.382705688477 -179.427246093750 1.917553186417
-141.237319946289 -73.575462341309 -181.168792724609 1.586663007736
-154.010940551758 -75.203582763672 -178.369171142578 3.546746730804
-50.027732849121 -73.489295959473 -183.361572265625 2.067633867264
97.630271911621 -75.467895507813 -194.579086303711 2.347439289093
-145.387512207031 -76.418983459473 -181.997741699219 1.693998456001
-147.125244140625 -73.653732299805 -187.296920776367 0.848639607430
21.793256759644 -74.240028381348 -193.607696533203 3.871846675873
-139.049133300781 -75.882972717285 -187.798736572266 3.558010816574
12.977031707764 -72.371818542480 -196.135299682617 0.674795627594
-139.058929443359 -78.474235534668 -190.958541870117 3.325096368790
12.386124610901 -72.232650756836 -194.655456542969 0.913441658020
-133.775573730469 -72.217605590820 -188.157653808594 7.111135482788
4.318873882294 -72.997299194336 -199.287887573242 4.673669815063
-152.645126342773 -75.911079406738 -193.825881958008 2.051581144333
94.084724426270 -76.781478881836 -205.893386840820 1.290349960327
-17.875993728638 -79.128120422363 -203.571609497070 1.519469499588
-31.620113372803 -75.510498046875 -204.033935546875 0.975934684277
-13.017645835876 -71.686325073242 -201.512756347656 0.924285113811
-146.777633666992 -80.812545776367 -201.781417846680 2.475162029266
-36.443943023682 -76.225761413574 -198.491622924805 1.556561708450
-84.887725830078 -78.250274658203 -197.183624267578 12.606537818909
-27.970722198486 -78.055946350098 -203.724319458008 2.477179050446
13.481554031372 -77.537300109863 -210.194595336914 1.381343245506
-147.779098510742 -74.618362426758 -206.449386596680 1.578735351563
-90.669342041016 -79.283393859863 -211.805892944336 3.224667549133
-30.784545898438 -76.037445068359 -214.494873046875 1.540956139565
-28.772405624390 -77.191558837891 -215.864700317383 1.804829955101
-9.878711700439 -78.366584777832 -205.371459960938 2.900731801987
-28.467050552368 -75.736999511719 -203.636917114258 3.378227949142
-85.467193603516 -77.576309204102 -214.770080566406 1.476283311844
-91.132148742676 -82.350631713867 -212.417236328125 5.031582355499
-24.515834808350 -76.759216308594 -217.067672729492 1.484547972679
-3.637566089630 -85.636520385742 -220.429138183594 5.030156612396
-157.177307128906 -78.927566528320 -208.061920166016 5.136977672577
-3.995659112930 -79.118553161621 -217.417831420898 1.364801406860
85.732398986816 -82.364334106445 -226.248031616211 6.296790122986
-141.098098754883 -79.878967285156 -214.507659912109 3.125071048737
-5.829885005951 -78.164688110352 -217.430297851563 1.074240684509
-141.082992553711 -79.100097656250 -217.136138916016 4.522744655609
-148.749465942383 -85.612304687500 -215.886047363281 4.255272865295
-7.615239143372 -76.842231750488 -224.448272705078 0.749573528767
19.994335174561 -78.135246276855 -211.690780639648 3.361974477768
-140.797302246094 -75.884445190430 -220.937072753906 2.015799999237
-19.521699905396 -79.532966613770 -223.362716674805 1.356199264526
70.641975402832 -78.991897583008 -224.109588623047 8.161170005798
72.939682006836 -78.847640991211 -232.531250000000 4.976171016693
8.567493438721 -80.149902343750 -226.476516723633 3.507791042328
-35.667495727539 -79.717315673828 -230.910446166992 7.987724304199
-25.770496368408 -86.405731201172 -237.083877563477 7.477548122406
0.574661016464 -77.305198669434 -239.585128784180 1.274705529213
-49.062675476074 -74.501480102539 -238.356918334961 1.377058863640
-23.281183242798 -76.914810180664 -238.501098632813 1.586340904236
8.023501396179 -75.706459045410 -235.802459716797 2.391976833344
-65.498184204102 -79.473701477051 -239.503616333008 7.188309669495
-38.230571746826 -83.633941650391 -238.510452270508 5.181162357330
-41.034126281738 -77.658279418945 -240.353805541992 0.798243999481
-150.286666870117 -76.591598510742 -237.158172607422 1.346461176872
-47.378742218018 -82.202064514160 -242.786560058594 2.989662647247
-54.991683959961 -71.950317382813 -242.159011840820 2.628859043121
-68.181739807129 -78.995628356934 -242.853515625000 4.839140415192
-12.871639251709 -83.366485595703 -241.646377563477 7.661817073822
-81.635955810547 -80.932296752930 -248.378509521484 4.724267005920
-159.022460937500 -85.389190673828 -243.940216064453 8.926542282104
-143.072845458984 -78.160797119141 -245.093887329102 3.254701852798
-124.284767150879 -81.348823547363 -250.497024536133 6.274770259857
-160.998184204102 -76.138442993164 -249.486938476563 1.018245458603
16.109392166138 -87.012535095215 -262.687591552734 3.272874355316
-17.579805374146 -82.981651306152 -264.252380371094 6.876849174500
-157.912857055664 -83.475814819336 -264.671112060547 4.071132659912
-155.984741210938 -87.506553649902 -268.916015625000 4.466487884521
-149.362442016602 -84.013298034668 -276.466186523438 2.484647989273
-62.044406890869 -76.657142639160 -274.435577392578 10.817322731018
-42.340473175049 -76.611610412598 -280.564147949219 5.635907173157
-22.567457199097 -79.517730712891 -284.850982666016 2.763606071472
-12.785563468933 -77.472587585449 -275.190246582031 1.595433354378
-69.700706481934 -84.637687683105 -278.750366210938 10.018610000610
