-49.981830596924 -66.681732177734 -128.910964965820 2.786947965622
117.528358459473 -69.463180541992 -138.272613525391 2.533179998398
-71.464225769043 -69.071159362793 -130.436767578125 3.305128812790
38.075420379639 -71.466941833496 -129.642593383789 2.311998844147
-78.021217346191 -64.532386779785 -136.513046264648 1.953122496605
-71.797569274902 -66.953323364258 -131.002883911133 3.468772411346
-93.134559631348 -63.705936431885 -136.935928344727 2.845929861069
-54.650177001953 -63.704227447510 -142.023880004883 1.796309471130
31.900068283081 -64.938583374023 -144.927398681641 2.885565519333
27.516544342041 -68.577697753906 -147.784072875977 1.485076785088
20.613706588745 -63.499141693115 -143.095245361328 1.446865677834
112.664115905762 -72.249954223633 -147.508392333984 1.702524781227
-91.217285156250 -64.461174011230 -146.818191528320 1.044228434563
11.224960327148 -71.377967834473 -150.566131591797 2.729756355286
-71.620994567871 -66.356719970703 -150.451065063477 2.700202703476
23.898187637329 -68.403648376465 -147.849472045898 2.295409917831
-49.299415588379 -66.354934692383 -151.809005737305 1.508844375610
9.861618995667 -68.059486389160 -152.050094604492 2.302638292313
16.338689804077 -73.327209472656 -157.370269775391 0.682852029800
16.633708953857 -75.979026794434 -162.144653320313 3.859035968781
-50.967082977295 -70.625045776367 -159.676681518555 2.492630004883
-38.577980041504 -66.428833007813 -152.118225097656 5.064558982849
-47.549781799316 -69.030021667480 -158.526855468750 2.442575693130
-103.803596496582 -67.275535583496 -167.614318847656 1.795043706894
21.129863739014 -72.300865173340 -173.337951660156 2.233863830566
-34.540531158447 -68.777153015137 -174.712951660156 1.105219244957
14.575681686401 -75.640281677246 -176.596450805664 2.921930313110
-143.097625732422 -64.404144287109 -169.716888427734 4.289412498474
-32.038326263428 -64.568206787109 -169.554443359375 4.204016685486
-157.028762817383 -71.816581726074 -171.292236328125 6.005377769470
23.912021636963 -64.299995422363 -180.455276489258 3.782151937485
-34.504688262939 -70.453956604004 -167.350082397461 2.861231088638
-107.440063476563 -63.410583496094 -170.850189208984 2.147995710373
-107.982124328613 -72.583427429199 -178.776153564453 3.095309257507
-31.307191848755 -62.647346496582 -182.865570068359 6.036837100983
-25.181821823120 -74.596839904785 -178.700592041016 2.046135902405
11.585518836975 -69.075981140137 -187.404983520508 3.478554487228
14.834371566772 -67.047637939453 -197.177383422852 1.359785676003
12.250605583191 -70.840599060059 -185.724899291992 2.895282983780
-143.415710449219 -63.047134399414 -180.601745605469 2.342010498047
22.792186737061 -65.805267333984 -188.518768310547 3.344257354736
4.654776096344 -69.410491943359 -194.916961669922 4.305915355682
-136.335052490234 -63.521198272705 -187.448165893555 6.222325801849
-114.086296081543 -65.664794921875 -189.885711669922 2.680834293365
13.483055114746 -68.274055480957 -201.905609130859 2.119462490082
-119.483863830566 -64.211036682129 -191.329193115234 5.321332931519
-108.502204895020 -59.166786193848 -187.331192016602 3.624869585037
-167.951110839844 -66.271286010742 -194.437911987305 6.470437526703
-25.729715347290 -67.400459289551 -197.186447143555 1.796461820602
9.692307472229 -68.200767517090 -198.081039428711 1.839290976524
-146.199630737305 -66.134696960449 -197.791748046875 2.148327112198
-139.118881225586 -69.252510070801 -200.946578979492 1.024124145508
-23.142232894897 -67.044326782227 -205.212966918945 2.705574750900
-13.969781875610 -70.667526245117 -202.865066528320 1.806616902351
-15.553750991821 -71.028388977051 -203.399398803711 2.514533758163
-140.511291503906 -70.607482910156 -196.698333740234 1.385654568672
-19.051437377930 -69.429924011230 -210.354232788086 2.252430677414
-11.311841011047 -75.837821960449 -212.137374877930 2.263068437576
16.324117660522 -67.040657043457 -209.811614990234 2.449462890625
-18.732358932495 -75.104446411133 -209.133850097656 2.272519588470
8.562271118164 -71.681480407715 -207.481430053711 0.846060454845
-12.992495536804 -71.529617309570 -212.851425170898 2.736768245697
-24.749366760254 -65.430183410645 -209.031036376953 5.928038597107
9.513199806213 -77.683990478516 -218.941696166992 2.066220998764
-4.588644981384 -76.891555786133 -217.010437011719 1.319425463676
9.215950965881 -65.896347045898 -218.940429687500 2.753655195236
-8.874067306519 -73.611412048340 -225.909042358398 1.950624942780
-162.413391113281 -66.855323791504 -219.792419433594 2.299786806107
78.349243164063 -76.232780456543 -219.975433349609 3.211856842041
-137.664428710938 -63.425582885742 -217.973556518555 7.059093475342
-137.350738525391 -68.917854309082 -215.918945312500 6.987366676331
-10.285177230835 -71.166839599609 -222.859283447266 0.938814818859
4.347001075745 -70.394599914551 -233.393371582031 2.552379846573
-160.376953125000 -65.403976440430 -224.479507446289 0.967164695263
87.265098571777 -71.260795593262 -220.744445800781 2.194586277008
-3.839808940887 -68.806297302246 -224.358810424805 2.258250951767
-1.406391024590 -71.092475891113 -219.527328491211 0.528886020184
71.400672912598 -76.637886047363 -230.891677856445 3.053042173386
-2.174402952194 -67.440208435059 -234.226699829102 1.996720790863
-16.149553298950 -71.782752990723 -222.745376586914 0.948205411434
-129.704254150391 -63.173175811768 -228.229660034180 2.723333835602
-7.771442890167 -70.133567810059 -235.706741333008 0.728863596916
0.236864998937 -67.840927124023 -228.574569702148 1.981520295143
63.543449401855 -69.625801086426 -238.082214355469 0.821841478348
-160.644973754883 -68.342262268066 -230.776992797852 2.708445072174
-16.025098800659 -68.648002624512 -243.090377807617 3.250221967697
-172.775833129883 -68.789787292480 -232.087066650391 4.009287834167
7.874845981598 -66.140182495117 -239.911819458008 0.893002152443
-166.280944824219 -67.442390441895 -232.073837280273 2.122392177582
-162.997711181641 -68.189537048340 -240.348739624023 2.421735048294
55.031227111816 -73.249694824219 -244.606918334961 1.004334568977
58.265590667725 -75.145187377930 -241.942459106445 0.642259001732
52.635887145996 -73.701881408691 -245.226943969727 1.742454051971
48.401100158691 -72.570556640625 -248.829544067383 0.904718995094
-156.121139526367 -67.772041320801 -236.659652709961 1.202347278595
-158.977508544922 -62.095413208008 -240.535644531250 3.864686965942
-15.812971115112 -75.427001953125 -246.984878540039 3.986751556396
-153.632064819336 -65.525489807129 -241.048782348633 3.874313354492
15.186041831970 -72.139472961426 -249.603164672852 2.393506288528
-174.189819335938 -72.427162170410 -244.391281127930 8.353636741638
-171.621261596680 -63.760334014893 -243.313613891602 6.412122726440
-85.155960083008 -70.749351501465 -243.052581787109 5.298512458801
-173.683578491211 -64.858016967773 -251.422805786133 8.024813652039
-88.403068542480 -68.173385620117 -253.580032348633 2.151106119156
39.731361389160 -71.150421142578 -252.870422363281 1.028506398201
18.394947052002 -75.409774780273 -255.665435791016 1.953825473785
-161.459442138672 -67.779296875000 -256.582550048828 2.340362787247
-104.248565673828 -60.326957702637 -255.283981323242 5.599963188171
36.530250549316 -72.008666992188 -254.040954589844 0.750568389893
-110.296615600586 -76.876571655273 -253.208419799805 5.577776432037
-156.954559326172 -62.622486114502 -259.582427978516 2.720939874649
-107.293594360352 -66.913291931152 -252.082855224609 2.485970973969
-172.514129638672 -69.249481201172 -252.620834350586 4.333017349243
-116.646247863770 -68.737304687500 -258.700103759766 1.659123539925
-157.143051147461 -69.248908996582 -259.858551025391 1.307731151581
-162.607910156250 -63.276172637939 -256.451904296875 5.114524364471
-169.112182617188 -65.176116943359 -257.191894531250 5.130263328552
-168.493026733398 -64.172988891602 -255.686691284180 6.311296463013
-169.221832275391 -66.281021118164 -257.982818603516 4.099869728088
-171.624252319336 -66.986351013184 -253.538330078125 5.030069351196
22.926191329956 -73.532386779785 -264.360961914063 2.263332843781
-151.852874755859 -71.897918701172 -256.521362304688 1.594729542732
-155.397583007813 -66.869773864746 -278.870635986328 4.658051013947
23.654724121094 -72.363998413086 -274.553710937500 3.185428619385
-16.232521057129 -74.114128112793 -272.256347656250 3.003613710403
-129.339218139648 -65.159736633301 -279.323760986328 6.783747196198
-140.565231323242 -67.860671997070 -280.619384765625 3.996637344360
-137.913589477539 -66.905570983887 -283.661285400391 2.617361783981
-132.117126464844 -68.039352416992 -280.275939941406 4.376483917236
-117.402008056641 -66.823104858398 -286.587615966797 3.006681442261
-108.193107604980 -63.659866333008 -279.474853515625 9.472529411316
3.332215070724 -76.102661132813 -292.851989746094 1.904734253883
-88.757408142090 -70.447845458984 -286.314025878906 3.029524326324
-152.939620971680 -67.785194396973 -280.585815429688 2.588094711304
-106.680297851563 -69.541801452637 -286.188110351563 3.523116588593
-136.325027465820 -64.938484191895 -286.800323486328 3.822590351105
5.634644985199 -74.412696838379 -285.876770019531 2.256879806519
-115.075782775879 -60.791294097900 -282.495941162109 8.960660934448
-0.282938987017 -72.312454223633 -292.012359619141 2.694405078888
-147.379837036133 -66.922164916992 -280.918762207031 2.400716781616
-156.873397827148 -67.353378295898 -288.989471435547 3.266500949860
-164.282714843750 -66.125549316406 -309.921783447266 7.778084754944
-160.698699951172 -65.257354736328 -304.871917724609 7.860093116760
50.508861541748 -71.273521423340 -24.332851409912 1.944509744644
28.266109466553 -67.121063232422 -35.789409637451 3.626827955246
32.749866485596 -68.711906433105 -35.461654663086 1.440831184387
-39.364219665527 -68.725059509277 -44.058624267578 4.524593830109
-8.224564552307 -64.123107910156 -60.794929504395 1.329932928085
97.366027832031 -71.047027587891 -68.871025085449 2.664876461029
71.080398559570 -63.422229766846 -69.176177978516 2.751889944077
-22.710830688477 -65.560386657715 -71.645256042480 2.666495323181
-98.112709045410 -69.189529418945 -83.180000305176 4.222112655640
-40.609401702881 -65.798820495605 -81.859100341797 3.743668317795
60.888851165771 -68.874526977539 -80.215019226074 2.872691631317
66.381660461426 -73.054244995117 -84.860427856445 3.174546718597
53.854740142822 -66.244461059570 -87.409187316895 0.669509172440
-57.400104522705 -64.667022705078 -87.141006469727 2.231653451920
69.437271118164 -64.465690612793 -89.424011230469 2.931627273560
44.438949584961 -73.480094909668 -97.797279357910 0.620298624039
70.773200988770 -72.595375061035 -95.129241943359 2.039019823074
-58.864173889160 -63.744972229004 -92.898872375488 4.472510337830
52.877937316895 -71.326126098633 -91.468963623047 1.348651409149
48.139812469482 -72.000236511230 -97.571189880371 1.707849264145
104.809448242188 -67.019638061523 -103.564521789551 0.941427826881
-63.570270538330 -65.513587951660 -94.541870117188 0.823148190975
113.022315979004 -70.552391052246 -101.245628356934 3.747508049011
-77.527122497559 -68.883193969727 -97.315910339355 1.938166856766
55.065597534180 -72.691726684570 -106.131858825684 1.738869309425
49.729930877686 -67.424377441406 -100.773071289063 1.698686122894
92.542808532715 -66.577377319336 -105.082832336426 1.708510279655
84.743415832520 -70.503250122070 -106.677116394043 1.563826680183
57.705322265625 -70.523376464844 -104.772781372070 2.088994979858
-75.692550659180 -66.330162048340 -107.994400024414 2.135035276413
-77.033081054688 -64.968193054199 -112.557678222656 1.974153518677
-79.997970581055 -66.581214904785 -113.548255920410 2.034727096558
-93.008522033691 -71.488403320313 -112.817756652832 1.461230516434
104.346443176270 -64.256500244141 -118.739311218262 4.588928222656
-89.276206970215 -68.624763488770 -113.805915832520 2.267032384872
-74.285697937012 -60.662158966064 -117.588249206543 2.490820407867
110.029014587402 -70.354919433594 -118.022529602051 1.969922900200
-58.694557189941 -56.647563934326 -113.791397094727 1.154393076897
113.721931457520 -76.994781494141 -132.935836791992 1.277147769928
110.443809509277 -73.967445373535 -131.018859863281 1.895035147667
106.104827880859 -73.671401977539 -128.782836914063 4.460608482361
-93.280105590820 -66.166389465332 -132.235107421875 0.502915441990
-45.405811309814 -67.016693115234 -138.598739624023 3.812616586685
-80.603652954102 -62.552066802979 -139.340438842773 3.550860643387
-69.203460693359 -66.179954528809 -144.436248779297 2.583929061890
-68.730583190918 -65.120826721191 -145.392440795898 2.758793592453
-54.743755340576 -66.037673950195 -140.218505859375 1.179889559746
-45.964988708496 -72.524040222168 -141.013076782227 1.938629150391
14.003108024597 -69.129669189453 -145.806121826172 2.907110691071
-93.306228637695 -60.723209381104 -136.685836791992 1.640114665031
-46.129154205322 -65.115623474121 -143.142837524414 2.219292640686
-50.763065338135 -57.965179443359 -143.457550048828 6.847894668579
-42.442920684814 -64.680015563965 -151.069808959961 4.362630367279
26.494295120239 -72.640777587891 -159.410675048828 2.024808883667
-50.924987792969 -68.394599914551 -148.106979370117 1.592517018318
-101.825378417969 -59.161796569824 -143.530990600586 7.593024253845
-47.273471832275 -63.064331054688 -151.819030761719 4.823821544647
25.295257568359 -72.768890380859 -144.777709960938 0.637458026409
-96.805427551270 -73.303535461426 -158.688415527344 5.064612865448
22.654834747314 -72.526412963867 -156.664382934570 2.884903430939
-108.515617370605 -61.285053253174 -163.685699462891 4.116463184357
-101.928138732910 -66.141830444336 -158.964675903320 1.272836804390
21.506824493408 -69.874298095703 -164.875579833984 1.043791770935
26.009527206421 -67.639579772949 -166.319274902344 2.141101360321
-111.252845764160 -68.732704162598 -167.801605224609 3.718678474426
-142.937789916992 -61.014884948730 -167.258117675781 7.614224910736
-19.613859176636 -69.342849731445 -188.012420654297 2.826299190521
-28.492048263550 -67.209114074707 -177.695236206055 2.849150419235
-117.977493286133 -67.532310485840 -181.246551513672 5.459987640381
-144.548034667969 -59.814449310303 -179.889633178711 1.312284231186
-102.467185974121 -62.062244415283 -176.272903442383 2.272666215897
-160.577316284180 -64.493225097656 -182.146667480469 8.720046997070
-132.532745361328 -70.976974487305 -189.441040039063 6.189565658569
-134.322830200195 -68.160118103027 -190.294158935547 3.488160610199
-20.435216903687 -66.610412597656 -184.984283447266 4.286505699158
-120.409904479980 -66.561576843262 -193.603622436523 3.829688787460
-119.765716552734 -61.106548309326 -194.776473999023 2.866368293762
-29.863622665405 -71.646080017090 -190.093475341797 1.952822804451
-155.485397338867 -61.379032135010 -189.151000976563 5.245520114899
-134.275466918945 -66.818191528320 -198.988418579102 2.583069562912
-126.363800048828 -62.505081176758 -198.114395141602 1.823332667351
16.872270584106 -73.701179504395 -200.247543334961 0.617566943169
-163.935974121094 -64.747207641602 -195.097824096680 5.064608573914
11.021396636963 -68.120765686035 -215.145370483398 1.869325995445
12.333411216736 -72.046669006348 -213.721435546875 1.023471117020
-17.193672180176 -64.259689331055 -207.904266357422 3.231811046600
-6.949570178986 -69.591865539551 -214.601730346680 1.497992396355
-173.769393920898 -60.634422302246 -203.783630371094 8.216241836548
-160.917770385742 -59.546173095703 -205.689636230469 5.777135848999
-96.855766296387 -66.069480895996 -214.151397705078 3.279522657394
-99.033065795898 -69.294433593750 -216.574264526367 2.123943090439
-163.155349731445 -66.306663513184 -219.851898193359 1.492418050766
-110.628570556641 -63.361495971680 -213.772399902344 8.178182601929
-13.514617919922 -67.182609558105 -209.594390869141 1.037238121033
-130.333847045898 -68.011001586914 -215.457122802734 8.380192756653
-145.148208618164 -65.700996398926 -216.795471191406 1.933372855186
-5.395531177521 -72.430213928223 -219.137695312500 2.850419998169
-136.283660888672 -63.307594299316 -218.201416015625 7.302073478699
-125.880256652832 -71.285949707031 -216.304534912109 8.101401329041
-116.547981262207 -69.828643798828 -218.323623657227 6.929393291473
-3.610831975937 -62.692176818848 -227.244216918945 4.063149929047
-109.908630371094 -63.910289764404 -226.635833740234 2.841908454895
-163.433822631836 -57.402198791504 -215.922744750977 8.129090309143
-147.968399047852 -64.487068176270 -219.923065185547 1.321291208267
-167.095855712891 -64.111595153809 -218.919906616211 3.630070209503
-10.490244865417 -67.646186828613 -223.335525512695 2.846043109894
-10.675856590271 -70.368263244629 -231.318496704102 1.767377734184
75.979011535645 -75.861305236816 -225.338806152344 2.815659046173
-3.792152881622 -72.995643615723 -226.858596801758 2.053384065628
-145.842529296875 -65.454597473145 -231.735794067383 2.553129911423
-16.904884338379 -66.851692199707 -227.080169677734 2.092903852463
71.496902465820 -72.829978942871 -227.802474975586 2.560642242432
71.502258300781 -72.991661071777 -233.404067993164 2.115028381348
-136.748794555664 -63.636737823486 -226.010040283203 2.393046379089
-158.743377685547 -69.456108093262 -221.734466552734 2.473354816437
-116.221237182617 -64.047752380371 -227.545867919922 2.643725633621
-127.706413269043 -60.328983306885 -230.937377929688 5.129946231842
-165.197174072266 -63.315277099609 -228.368698120117 2.360933542252
-163.373626708984 -65.831352233887 -228.669479370117 4.117107868195
-150.155471801758 -59.333152770996 -226.635223388672 1.782475948334
-17.306524276733 -66.954734802246 -232.112716674805 3.474506139755
-8.629309654236 -68.573371887207 -239.813079833984 1.145765900612
-163.024124145508 -63.593387603760 -235.727767944336 2.854575872421
2.939047098160 -70.930320739746 -235.292007446289 2.058379888535
-1.790774941444 -71.664489746094 -236.027969360352 0.721558094025
-161.795227050781 -64.654670715332 -230.794708251953 3.997644901276
15.284660339355 -75.930488586426 -239.192779541016 2.245293855667
47.812114715576 -74.942062377930 -245.581039428711 4.432056903839
46.172863006592 -75.574417114258 -243.089950561523 5.554070949554
-20.134777069092 -70.821784973145 -244.652069091797 2.527293920517
44.329532623291 -70.697334289551 -249.190567016602 1.503108024597
-162.909179687500 -60.388038635254 -242.364883422852 6.616196155548
-159.991653442383 -65.870491027832 -240.076904296875 1.810474395752
-164.280303955078 -70.661697387695 -242.401260375977 2.243956089020
52.677463531494 -71.289772033691 -247.273468017578 1.295850634575
-96.811431884766 -65.730178833008 -248.012649536133 2.488495111465
-127.490608215332 -64.713714599609 -249.005981445313 5.116291522980
-109.620605468750 -72.630432128906 -247.463211059570 8.607905387878
21.391319274902 -76.532516479492 -256.265411376953 1.967526316643
36.696804046631 -68.745094299316 -250.773651123047 2.453095197678
-103.729469299316 -63.843490600586 -249.682678222656 6.013040065765
-96.129028320313 -61.739501953125 -244.814712524414 5.870191574097
42.049438476563 -77.577804565430 -254.701217651367 6.838835716248
37.667373657227 -69.482223510742 -256.384063720703 0.927622914314
-157.861221313477 -71.874412536621 -250.720611572266 2.692412376404
25.276435852051 -71.553802490234 -258.873840332031 2.576253890991
-147.250961303711 -69.050277709961 -258.584564208984 1.632683038712
-116.343559265137 -66.740715026855 -257.338836669922 2.541447639465
-141.556076049805 -63.315250396729 -255.968139648438 1.771096467972
29.076042175293 -70.617736816406 -261.889770507813 0.883529305458
-129.802413940430 -65.095848083496 -257.051513671875 1.824669003487
-14.926172256470 -68.292518615723 -254.336090087891 3.027512311935
16.229024887085 -75.192543029785 -269.672912597656 5.068257808685
-8.117284774780 -77.180946350098 -262.006958007813 2.931210994720
14.733169555664 -74.282455444336 -278.869262695313 3.237421274185
-158.757461547852 -69.144134521484 -275.700103759766 3.701360225677
-15.890524864197 -68.207420349121 -278.493438720703 4.983036518097
-156.960067749023 -70.037178039551 -274.958953857422 3.412254810333
-126.969070434570 -70.411972045898 -279.145874023438 5.669090270996
-167.877136230469 -73.327682495117 -279.004058837891 1.242621421814
-119.498878479004 -66.982986450195 -281.352233886719 6.690988540649
-108.228858947754 -68.565513610840 -284.972167968750 3.763857603073
-11.400307655334 -68.848861694336 -282.263305664063 3.132442235947
-112.323799133301 -69.923606872559 -282.990173339844 3.953269481659
-121.220970153809 -64.625709533691 -277.780395507813 9.643874168396
-127.088859558105 -63.225177764893 -286.174896240234 3.175740957260
-144.076919555664 -67.007759094238 -283.797119140625 1.057986855507
-131.581604003906 -62.827140808105 -285.136993408203 3.757914781570
-163.251037597656 -72.118293762207 -282.445312500000 2.688074111938
-151.715957641602 -62.857398986816 -285.011474609375 1.414247870445
-164.195083618164 -62.789581298828 -296.035614013672 9.231968879700
-159.682235717773 -64.560028076172 -304.067108154297 7.008499145508
-165.148223876953 -63.395511627197 -294.324951171875 8.151947021484
-144.946578979492 -68.254989624023 -303.796203613281 1.978408217430
-154.336639404297 -69.920257568359 -308.025390625000 1.172422051430
39.793582916260 -67.287170410156 -6.127585887909 6.938485622406
52.564846038818 -72.750816345215 -16.381874084473 5.050880908966
27.771484375000 -64.713768005371 -20.636522293091 2.105043649673
54.920989990234 -68.352546691895 -25.410531997681 4.606699466705
31.310560226440 -69.679672241211 -32.671756744385 2.638994216919
35.432422637939 -68.133689880371 -32.005329132080 3.399010419846
-54.005062103271 -59.637126922607 -44.804851531982 2.446856021881
80.406387329102 -63.962982177734 -59.875682830811 1.257274746895
85.203208923340 -70.820137023926 -67.887138366699 2.412280559540
-86.867973327637 -65.888092041016 -58.214923858643 3.540081977844
-9.906602859497 -63.111038208008 -57.398727416992 3.005071878433
-89.896545410156 -65.658004760742 -66.720375061035 4.800270080566
99.231399536133 -72.802352905273 -67.956680297852 4.676122665405
-9.340345382690 -63.091178894043 -64.855567932129 1.348688721657
69.759643554688 -72.697097778320 -80.881584167480 1.584280371666
-41.735553741455 -70.158729553223 -77.371078491211 2.927496671677
-23.859741210938 -69.134140014648 -71.262756347656 2.270693302155
58.013156890869 -63.401988983154 -86.175926208496 1.999829053879
-41.226249694824 -76.169906616211 -80.070701599121 1.638893127441
67.357276916504 -59.015235900879 -87.362625122070 2.931134223938
54.112453460693 -74.393066406250 -90.354804992676 1.364223837852
57.111186981201 -68.026870727539 -93.897369384766 0.508264660835
59.950645446777 -76.183731079102 -89.951744079590 3.112939834595
58.144351959229 -63.941677093506 -95.233665466309 2.930620670319
100.750656127930 -66.241989135742 -99.109786987305 2.369256973267
108.796363830566 -64.820335388184 -100.735046386719 2.884711027145
62.180133819580 -72.249053955078 -100.264259338379 3.639220952988
109.412818908691 -65.732200622559 -101.595550537109 2.153619289398
-75.953086853027 -64.039588928223 -94.317703247070 5.898517131805
-71.708679199219 -65.221649169922 -98.711448669434 1.937093496323
102.047142028809 -66.303802490234 -99.197555541992 1.931780695915
54.857654571533 -70.058235168457 -100.349571228027 1.342565298080
71.947402954102 -71.539031982422 -97.222808837891 2.362397670746
-69.950614929199 -65.400703430176 -104.461441040039 1.138942003250
-84.142852783203 -63.132701873779 -103.328216552734 3.075449228287
88.466247558594 -74.334625244141 -103.523635864258 3.121264934540
40.514434814453 -70.875289916992 -101.753662109375 1.448013186455
107.461860656738 -66.299057006836 -108.321914672852 0.962348759174
49.166625976563 -72.362480163574 -112.777236938477 1.696613907814
112.360984802246 -71.509529113770 -103.263137817383 2.677157163620
-76.499740600586 -65.105407714844 -107.617805480957 2.547048330307
104.617004394531 -65.239227294922 -109.701744079590 2.519350767136
-82.141639709473 -61.941406250000 -117.070236206055 1.783346652985
-57.563186645508 -68.624252319336 -124.070503234863 1.117632746696
-55.936958312988 -65.290252685547 -120.104446411133 1.387710332870
-70.672561645508 -67.866531372070 -126.140274047852 3.650384664536
-49.821727752686 -67.695365905762 -127.465438842773 4.086881160736
-83.262001037598 -67.022048950195 -129.339447021484 1.955544590950
-76.700645446777 -60.889617919922 -127.468528747559 2.208879232407
-78.672882080078 -66.091415405273 -128.051177978516 0.847832739353
-60.928653717041 -71.591102600098 -138.145660400391 2.539618730545
-70.340950012207 -66.091270446777 -137.116149902344 3.085374832153
-59.985862731934 -71.596519470215 -129.145568847656 1.635353088379
-56.878700256348 -65.989608764648 -138.866241455078 2.022153615952
13.564047813416 -63.624347686768 -143.578231811523 3.199229240417
-90.858451843262 -66.109443664551 -135.915435791016 0.777756989002
-48.393207550049 -72.270011901855 -144.938491821289 2.269829511642
-94.662773132324 -63.381641387939 -144.959472656250 1.985018134117
-101.420524597168 -61.574996948242 -142.533706665039 6.010210990906
19.916528701782 -71.524124145508 -153.016906738281 2.041672706604
14.474396705627 -70.155349731445 -157.065567016602 1.147916197777
-95.525215148926 -68.204193115234 -155.520660400391 2.257001399994
-104.048332214355 -65.643623352051 -146.566986083984 4.568941116333
-100.128990173340 -63.778064727783 -162.569641113281 2.292165994644
20.956918716431 -68.504570007324 -168.805099487305 1.264216423035
-112.558341979980 -64.849342346191 -167.876541137695 3.400583982468
24.135728836060 -68.902069091797 -163.471847534180 2.017071485519
-148.672622680664 -64.427940368652 -170.244003295898 4.372902870178
17.266805648804 -68.491119384766 -174.390441894531 1.252868533134
23.704860687256 -70.658569335938 -184.494232177734 0.712005436420
-152.798675537109 -62.282772064209 -179.398574829102 0.853334724903
20.209192276001 -71.024536132813 -173.360092163086 0.814075291157
18.363700866699 -61.274482727051 -179.677886962891 5.503796100616
-146.229965209961 -68.703948974609 -176.357315063477 2.141520500183
-152.952148437500 -60.379253387451 -182.850189208984 2.647557973862
18.552780151367 -70.048133850098 -186.018402099609 1.725594878197
17.220792770386 -72.704696655273 -188.419036865234 1.703274011612
-143.042770385742 -67.233947753906 -187.831527709961 1.809665799141
-111.028396606445 -66.043487548828 -192.159149169922 2.494811296463
24.293754577637 -70.230087280273 -197.851760864258 1.930670022964
-126.808181762695 -65.694686889648 -188.791992187500 6.480625629425
7.847896099091 -72.598548889160 -198.910156250000 2.693509101868
-130.025070190430 -57.879688262939 -188.114364624023 10.344855308533
-163.059982299805 -61.100391387939 -181.679214477539 10.860157012939
-161.848175048828 -62.371009826660 -189.475326538086 8.371705055237
-158.283615112305 -66.289726257324 -186.335433959961 5.520505428314
-23.148233413696 -69.124160766602 -204.230575561523 1.134766459465
-170.398391723633 -66.562583923340 -191.835464477539 9.415172576904
-29.059875488281 -63.396724700928 -189.952590942383 4.426537513733
-17.254104614258 -70.023849487305 -191.046432495117 2.570504903793
5.567953109741 -62.678504943848 -194.082748413086 6.800435543060
-158.677688598633 -65.036582946777 -199.460647583008 1.398530721664
-108.371009826660 -63.937610626221 -197.400924682617 1.379712939262
-18.298900604248 -64.442047119141 -197.013534545898 3.591322422028
-162.681060791016 -57.394668579102 -194.249084472656 9.053656578064
15.576041221619 -70.388496398926 -200.547241210938 0.583468556404
-172.648757934570 -61.281440734863 -198.797607421875 7.466021060944
-121.562110900879 -67.930107116699 -196.583786010742 1.410837054253
-117.758377075195 -62.384380340576 -203.286087036133 2.124032974243
-124.483406066895 -64.893310546875 -197.897659301758 2.224156141281
-17.599981307983 -67.164321899414 -199.957290649414 2.159149169922
-20.893587112427 -69.338233947754 -200.751953125000 2.386627435684
-166.055526733398 -63.543048858643 -204.573608398438 3.242952108383
-161.678939819336 -61.463832855225 -204.738983154297 3.797712564468
-167.021575927734 -64.973785400391 -212.354919433594 3.576601982117
-141.695327758789 -67.783164978027 -207.303817749023 2.049614667892
-147.665603637695 -64.156356811523 -218.371688842773 2.115307331085
-3.506656885147 -67.172920227051 -216.780334472656 1.725547075272
-11.322746276855 -74.757110595703 -214.430130004883 2.769152641296
-103.125679016113 -63.489612579346 -215.318161010742 7.565057277679
-10.354100227356 -67.171318054199 -232.548858642578 1.030573725700
-171.293823242188 -60.680828094482 -223.434753417969 6.124988555908
-107.662971496582 -63.794631958008 -228.661499023438 2.777425050735
-0.330691993237 -69.894081115723 -224.352920532227 1.871888637543
-0.578324973583 -68.746582031250 -227.247817993164 0.804253995419
-114.626190185547 -66.027297973633 -228.284179687500 2.134449481964
-4.190249919891 -70.758918762207 -224.984313964844 2.016838312149
-121.202125549316 -61.924716949463 -228.366683959961 2.819892168045
-10.725708007813 -65.211219787598 -229.265014648438 2.783347368240
-4.526338100433 -68.081085205078 -232.669784545898 2.466554403305
-5.411170005798 -68.387069702148 -236.574523925781 1.543373107910
69.636177062988 -67.479377746582 -236.592391967773 1.595674037933
-12.583744049072 -72.670837402344 -235.045150756836 3.019699096680
7.073400020599 -70.599197387695 -234.009475708008 1.550463914871
8.404639244080 -68.881324768066 -235.907089233398 1.221066832542
2.155535936356 -71.182960510254 -236.555801391602 2.235410213470
1.057718038559 -71.846969604492 -239.458633422852 0.974217772484
60.345920562744 -65.539657592773 -239.240859985352 2.974214076996
65.940795898438 -66.736190795898 -240.484024047852 1.618221879005
3.444288015366 -69.032913208008 -246.496612548828 3.259934902191
48.726276397705 -73.102371215820 -241.762115478516 2.392542600632
52.080856323242 -76.249099731445 -239.574951171875 4.785507202148
43.705585479736 -66.376403808594 -250.181091308594 2.081443071365
39.065982818604 -67.159606933594 -250.640609741211 1.492720007896
37.227157592773 -69.559646606445 -257.557861328125 1.219542264938
-133.494369506836 -59.532863616943 -253.815902709961 4.866657733917
-12.123770713806 -68.235671997070 -245.253845214844 2.290214300156
26.923049926758 -68.253684997559 -256.168975830078 2.586574554443
40.582523345947 -69.208671569824 -244.723800659180 4.811349391937
25.831491470337 -73.852706909180 -251.257980346680 2.994629859924
-107.669105529785 -69.303466796875 -254.220901489258 1.450919032097
26.540931701660 -71.983184814453 -254.545654296875 2.681068897247
-148.880187988281 -67.589538574219 -255.310943603516 2.286310672760
-120.130096435547 -68.988479614258 -250.256088256836 6.042120456696
-114.322883605957 -66.360420227051 -252.977600097656 3.664518833160
-5.503876209259 -73.091789245605 -256.379150390625 4.968485355377
-155.470321655273 -66.438476562500 -250.366424560547 2.781827688217
33.223255157471 -71.271339416504 -261.721618652344 2.155835390091
-111.429222106934 -64.756362915039 -250.293243408203 6.350978374481
21.999727249146 -75.756835937500 -257.043212890625 1.416359901428
-138.481582641602 -69.094711303711 -258.339599609375 2.091866493225
-120.443870544434 -65.554405212402 -260.582550048828 2.858280420303
-114.660278320313 -65.841041564941 -256.966705322266 1.947934150696
-117.780792236328 -73.534393310547 -255.329330444336 1.082973361015
-145.096801757813 -67.510398864746 -248.754882812500 2.863037586212
26.059988021851 -71.289985656738 -257.508911132813 2.101577520370
-120.530990600586 -64.022697448730 -256.784576416016 4.586999893188
-148.449859619141 -66.970420837402 -256.983551025391 1.759323477745
-8.847823143005 -66.896888732910 -268.081848144531 0.666606843472
-154.152099609375 -68.179710388184 -273.395690917969 4.328244686127
-13.469987869263 -71.005638122559 -286.303619384766 3.023641109467
-9.773826599121 -67.238662719727 -278.849334716797 1.091539859772
-138.843429565430 -65.407379150391 -283.107818603516 4.316329002380
-133.884460449219 -66.743644714355 -286.048400878906 1.683682799339
-140.186050415039 -65.303337097168 -288.739715576172 0.784546673298
-131.190643310547 -63.415763854980 -284.038757324219 4.413056373596
-160.484893798828 -65.308525085449 -287.427612304688 2.239573717117
-162.654937744141 -66.212501525879 -292.909820556641 4.448793411255
-153.422271728516 -70.124816894531 -294.857391357422 0.724770188332
-154.310684204102 -67.938354492188 -297.977142333984 1.971981763840
-149.715408325195 -65.353340148926 -291.466613769531 1.328079104424
-155.694671630859 -65.264762878418 -299.243835449219 3.460822582245
-150.869522094727 -63.018867492676 -309.908203125000 3.810559511185
23.050104141235 -69.008789062500 -24.207881927490 3.058933258057
53.954795837402 -70.509414672852 -35.604549407959 2.786094665527
27.817121505737 -73.280387878418 -34.853946685791 1.458072781563
35.326179504395 -66.903732299805 -42.425468444824 2.351462125778
-38.330944061279 -56.964244842529 -45.254383087158 2.507643699646
-71.532043457031 -59.405822753906 -45.864784240723 2.578102588654
82.897140502930 -67.964172363281 -61.445949554443 0.426058262587
76.450302124023 -69.124931335449 -61.547954559326 1.555089950562
75.045547485352 -70.949256896973 -64.646514892578 3.331783294678
-98.216094970703 -62.749874114990 -66.502159118652 0.774404287338
100.677680969238 -74.013847351074 -75.993225097656 1.935740470886
-26.240728378296 -67.710327148438 -81.968414306641 4.502954959869
64.006370544434 -65.720260620117 -74.763893127441 1.324318885803
-40.028861999512 -60.755725860596 -80.329902648926 2.072865486145
-53.567504882813 -62.121910095215 -77.639389038086 1.118507981300
53.288318634033 -68.348800659180 -89.690933227539 1.174953818321
104.217941284180 -67.558494567871 -91.363967895508 1.403568267822
64.900032043457 -66.083435058594 -92.280754089355 1.999673485756
57.988281250000 -66.285896301270 -90.866897583008 3.880403995514
49.562019348145 -64.294410705566 -101.208503723145 1.172464251518
57.803775787354 -64.023513793945 -101.432914733887 2.797515630722
104.184188842773 -67.369812011719 -98.413894653320 1.284654974937
70.283721923828 -68.019989013672 -107.481361389160 2.806250572205
53.166225433350 -68.220191955566 -105.202781677246 3.134003162384
76.853057861328 -75.124320983887 -107.359626770020 5.699219226837
99.979385375977 -65.501579284668 -108.168113708496 4.562038421631
-72.420364379883 -61.008483886719 -94.743110656738 2.328546285629
-85.329017639160 -63.905994415283 -105.336540222168 1.613260149956
-80.781463623047 -64.528602600098 -107.468086242676 1.512496232986
-59.568042755127 -64.541213989258 -114.853256225586 1.974840283394
-56.697299957275 -69.105392456055 -122.367843627930 1.217917323112
-93.796752929688 -62.981288909912 -116.430313110352 3.007861137390
-73.121643066406 -66.965599060059 -114.470390319824 1.037057876587
-76.583549499512 -68.668861389160 -128.306793212891 1.568280220032
-59.725906372070 -61.289138793945 -123.752349853516 2.123118638992
-87.350669860840 -59.977363586426 -125.851898193359 3.279571771622
-89.173583984375 -62.696071624756 -125.930259704590 2.302735567093
-48.139682769775 -68.828170776367 -131.318634033203 1.825134038925
-50.470199584961 -67.128974914551 -133.633529663086 1.815691947937
-77.405517578125 -68.030555725098 -133.699096679688 1.230309724808
-54.482273101807 -67.896110534668 -137.432556152344 2.561263084412
-73.672279357910 -69.596687316895 -140.491546630859 0.801698982716
19.932510375977 -65.005531311035 -137.702926635742 2.645292043686
-57.907287597656 -70.358299255371 -140.160934448242 1.589671969414
-55.530231475830 -61.681709289551 -142.293914794922 2.760425090790
8.582571029663 -71.958709716797 -153.129348754883 2.022178649902
17.320775985718 -66.094871520996 -149.010299682617 1.478458404541
-142.252731323242 -64.350921630859 -166.903228759766 7.223993778229
-110.891136169434 -62.651184082031 -172.284286499023 1.749075055122
-112.213279724121 -60.378963470459 -184.781539916992 4.179822921753
-154.281753540039 -65.617790222168 -183.426544189453 3.847990751266
-114.320266723633 -63.734645843506 -180.553314208984 3.689885616302
-152.644561767578 -58.332328796387 -190.041931152344 5.147812366486
-115.652664184570 -63.559909820557 -193.399215698242 2.057574748993
-152.354034423828 -60.127777099609 -194.435638427734 1.013074994087
-151.409027099609 -63.234878540039 -199.977462768555 2.222250223160
-155.492492675781 -68.590881347656 -198.727966308594 2.194564819336
-151.250549316406 -63.967041015625 -217.897613525391 2.463927984238
-151.693389892578 -67.462966918945 -219.547332763672 3.192882299423
-107.570610046387 -62.177955627441 -222.839202880859 2.537954807281
-102.325004577637 -65.475021362305 -215.664733886719 6.157852649689
-125.307655334473 -59.401470184326 -226.330825805664 5.050552368164
-109.482055664063 -65.324005126953 -220.120162963867 1.684586763382
-159.601455688477 -64.424728393555 -223.775787353516 0.926359593868
-5.599956989288 -67.918251037598 -222.354949951172 1.507000684738
-135.683944702148 -68.165145874023 -223.765625000000 2.005288600922
-156.191497802734 -64.773246765137 -228.713912963867 3.036303043365
-141.300460815430 -68.210327148438 -226.065841674805 2.308107137680
-13.129895210266 -66.704124450684 -231.674591064453 2.227742433548
5.996297836304 -69.070823669434 -242.011795043945 2.207131862640
60.140686035156 -64.769989013672 -239.887405395508 3.389418601990
14.632658004761 -73.925239562988 -247.572326660156 2.437411308289
51.429458618164 -70.043136596680 -241.651229858398 2.501033067703
37.337543487549 -73.031364440918 -248.594421386719 5.071696758270
58.352527618408 -66.898780822754 -252.090255737305 3.114134073257
-156.269027709961 -64.423934936523 -242.145660400391 2.887093067169
-150.685241699219 -68.612014770508 -248.032257080078 1.535459876060
40.327148437500 -68.879562377930 -255.387161254883 1.440240144730
24.630538940430 -69.871139526367 -252.878448486328 1.507884621620
45.238994598389 -66.734565734863 -252.849929809570 1.447264909744
-148.730560302734 -68.012443542480 -255.940811157227 2.754262447357
-140.779067993164 -63.289978027344 -248.266677856445 5.781281471252
-127.396278381348 -62.679122924805 -253.271041870117 3.263876914978
-136.576522827148 -64.893035888672 -249.692153930664 6.439825057983
-143.370819091797 -66.113632202148 -251.666351318359 2.009179115295
-126.447998046875 -64.545257568359 -253.993515014648 1.203426480293
-146.429412841797 -62.670879364014 -253.683242797852 0.686586380005
-130.641983032227 -68.091133117676 -252.069702148438 2.726397037506
-123.905464172363 -66.645675659180 -259.198303222656 2.168162822723
-132.619506835938 -65.770851135254 -259.221221923828 1.470506429672
-125.525650024414 -61.475280761719 -258.392547607422 3.146454334259
-8.876216888428 -69.586135864258 -264.028259277344 3.131985187531
25.849962234497 -65.743621826172 -260.031768798828 1.374255061150
-149.188201904297 -58.900436401367 -260.925689697266 1.047036409378
22.349893569946 -71.572334289551 -269.403472900391 1.768429994583
-9.809588432312 -62.933506011963 -273.821990966797 4.554177761078
13.042445182800 -76.434043884277 -281.212768554688 3.261336565018
-145.467727661133 -66.018508911133 -283.004211425781 1.464588046074
-129.079666137695 -68.490745544434 -281.049346923828 4.987716674805
-135.107879638672 -60.660240173340 -284.605865478516 5.730952739716
-163.906173706055 -59.993877410889 -285.915954589844 7.384201526642
-130.873107910156 -59.901161193848 -283.517456054688 6.732195377350
-122.324012756348 -63.945495605469 -283.226043701172 5.237609386444
-129.362899780273 -69.133026123047 -291.423919677734 1.594692468643
-156.786361694336 -68.604141235352 -285.170104980469 3.043441295624
33.137439727783 -69.260116577148 -10.007048606873 3.130066871643
33.281558990479 -70.268608093262 -16.251577377319 2.187984228134
41.319110870361 -65.042526245117 -19.918321609497 2.036267042160
51.424133300781 -61.157638549805 -22.515680313110 1.613500595093
32.053230285645 -72.045852661133 -26.470653533936 4.712239742279
22.421167373657 -69.140373229980 -31.838880538940 2.425130605698
-30.678455352783 -65.912246704102 -42.347919464111 5.830099105835
-78.274940490723 -65.288482666016 -48.952453613281 2.013411521912
-14.424950599670 -64.863891601563 -56.636093139648 2.261914968491
76.518585205078 -65.382621765137 -64.590400695801 2.647081136703
105.996826171875 -67.612487792969 -69.566101074219 4.903864860535
66.498725891113 -64.751632690430 -83.466835021973 1.075981140137
63.095638275146 -61.620422363281 -83.784606933594 1.484854936600
99.845207214355 -69.382118225098 -85.186729431152 2.056850194931
-62.683300018311 -60.849510192871 -86.976982116699 1.413103342056
-64.383834838867 -64.011001586914 -85.599960327148 2.267353057861
52.630210876465 -64.086288452148 -91.327262878418 2.176123142242
-66.367729187012 -66.846366882324 -91.678642272949 2.943742752075
-71.574378967285 -63.239860534668 -97.429893493652 2.638277530670
-93.822830200195 -62.871803283691 -97.025505065918 4.284985542297
-74.580108642578 -58.863975524902 -95.068237304688 3.730614185333
48.350524902344 -62.705657958984 -101.409706115723 1.756968736649
-64.495704650879 -66.694213867188 -99.284416198730 1.177207231522
49.312435150146 -64.631805419922 -103.408241271973 1.676674604416
96.738723754883 -67.569389343262 -105.514961242676 2.336761951447
90.620590209961 -68.645423889160 -113.847373962402 6.755351066589
-70.779373168945 -63.237731933594 -111.269325256348 1.421429872513
-85.537918090820 -65.044227600098 -107.364822387695 2.107863664627
-61.129226684570 -63.757293701172 -114.921859741211 1.293913483620
-94.782058715820 -58.030796051025 -113.640953063965 4.174997806549
-75.778747558594 -66.426849365234 -122.758117675781 1.339321494102
-93.139930725098 -55.017864227295 -121.853775024414 1.409809827805
-63.195312500000 -62.477306365967 -112.908561706543 1.985719203949
-59.337841033936 -57.286663055420 -117.723060607910 0.907107770443
-89.478668212891 -65.103073120117 -125.555511474609 2.131011486053
-63.241096496582 -67.311752319336 -122.472312927246 3.087566137314
-83.493743896484 -62.528316497803 -128.798477172852 2.939806222916
-82.880233764648 -64.209312438965 -130.183700561523 2.631546735764
-61.075656890869 -69.704391479492 -132.473937988281 2.649758577347
-59.914318084717 -60.320045471191 -130.160858154297 2.615021705627
-54.582492828369 -57.391048431396 -130.217422485352 2.310954570770
-98.347961425781 -59.580047607422 -126.193771362305 4.051679134369
-97.222793579102 -58.738765716553 -139.781524658203 5.225643157959
-90.450920104980 -63.538856506348 -131.294021606445 3.523680448532
19.076646804810 -69.756729125977 -148.721649169922 2.097085714340
-50.147968292236 -65.426048278809 -136.824981689453 2.707020759583
19.351739883423 -67.337715148926 -149.805435180664 1.338907718658
-98.598838806152 -64.585952758789 -160.409347534180 1.594403386116
-104.127388000488 -69.561714172363 -165.536544799805 1.681207895279
-103.095657348633 -59.478168487549 -166.122787475586 2.118742227554
-108.996963500977 -56.226669311523 -168.729644775391 7.133156299591
-109.827873229980 -64.134033203125 -173.402877807617 2.508160591125
-111.497024536133 -63.095928192139 -173.552047729492 1.094007968903
-143.563446044922 -59.880157470703 -180.284606933594 1.511395335197
-112.694717407227 -62.160907745361 -180.438003540039 3.566408634186
-135.611663818359 -59.869838714600 -195.593048095703 4.632601737976
-152.228225708008 -65.379493713379 -191.828491210938 3.240102291107
-130.078231811523 -63.611351013184 -192.513259887695 3.654381513596
-159.657257080078 -64.582160949707 -188.656555175781 6.544834613800
-148.955703735352 -67.139625549316 -195.841415405273 1.887143611908
-127.892890930176 -57.041736602783 -191.560058593750 8.475150108337
-136.246643066406 -60.797733306885 -193.959686279297 5.072922706604
-141.678375244141 -69.807823181152 -200.291229248047 1.841881036758
-133.269058227539 -65.803085327148 -216.863784790039 6.666711330414
-111.574691772461 -67.042427062988 -225.175567626953 2.064517974854
-144.766082763672 -64.157707214355 -221.180786132813 2.656234741211
-122.557167053223 -62.379367828369 -226.576431274414 2.684177875519
-119.072425842285 -58.331844329834 -225.261413574219 7.665237903595
-124.207138061523 -65.613044738770 -226.714096069336 0.556862056255
-135.654800415039 -63.062686920166 -228.004806518555 0.666662037373
-117.727676391602 -60.498535156250 -232.911102294922 3.955384969711
2.596507072449 -66.687957763672 -234.541976928711 1.796922206879
-155.361526489258 -65.326393127441 -232.270294189453 2.979131937027
3.180933952332 -68.234672546387 -234.565109252930 1.907028198242
1.210170984268 -63.333591461182 -242.402420043945 1.524062395096
-0.720471978188 -70.464866638184 -240.376510620117 1.686159849167
10.286665916443 -64.529464721680 -239.388458251953 0.558233082294
-145.982696533203 -60.397720336914 -228.575820922852 2.528134822845
-9.102493286133 -70.201965332031 -246.039031982422 0.544868886471
16.466993331909 -68.050971984863 -238.058639526367 1.522322773933
48.061557769775 -67.015724182129 -249.939651489258 0.425469011068
47.434551239014 -67.459007263184 -251.007141113281 0.567886233330
-150.029479980469 -65.754096984863 -245.979751586914 2.190557241440
-8.559565544128 -69.333663940430 -248.730484008789 1.600852370262
17.787141799927 -69.536689758301 -253.031967163086 2.893792390823
-134.478546142578 -57.366870880127 -252.157897949219 7.636897087097
-125.656211853027 -62.807834625244 -251.322769165039 3.577485322952
-127.271286010742 -66.497398376465 -252.404769897461 1.539767146111
23.599777221680 -68.105827331543 -256.601043701172 1.563528299332
-137.009994506836 -60.292812347412 -260.647094726563 4.445950984955
29.615026473999 -66.066398620605 -258.404418945313 0.888147413731
30.478065490723 -68.697410583496 -262.057556152344 2.957272291183
-157.747665405273 -65.881584167480 -261.418975830078 3.273788928986
-150.304687500000 -70.145706176758 -279.883758544922 2.192416667938
-152.708496093750 -59.226562500000 -281.046081542969 3.472662210464
-148.635055541992 -62.382190704346 -289.457611083984 2.678050994873
9.635638237000 -72.462921142578 -290.476837158203 2.168182134628
-159.240432739258 -61.835060119629 -296.954895019531 6.029348373413
50.143352508545 -70.033134460449 -25.413890838623 2.070389509201
38.836528778076 -71.981613159180 -38.779300689697 1.841291427612
-56.196575164795 -58.843524932861 -43.138320922852 0.771588861942
-68.422706604004 -59.428379058838 -43.344177246094 1.951183915138
-23.733680725098 -60.074005126953 -48.452995300293 4.199466705322
-20.252433776855 -67.623870849609 -52.079753875732 3.501673698425
-7.288033008575 -60.345302581787 -64.970458984375 3.953375339508
-25.448715209961 -58.989017486572 -67.711524963379 4.749481678009
66.501228332520 -66.500663757324 -74.641281127930 1.980395436287
-93.875602722168 -54.966575622559 -74.867897033691 5.378723144531
-44.227512359619 -64.011276245117 -84.598785400391 1.492220997810
56.142852783203 -67.928321838379 -85.629531860352 0.350961655378
62.192680358887 -66.886489868164 -85.563964843750 2.263219594955
62.064952850342 -67.286651611328 -88.317207336426 2.091609477997
108.736915588379 -66.768829345703 -91.912719726563 2.760478973389
53.995849609375 -63.830131530762 -88.888671875000 1.322780609131
99.588172912598 -60.333374023438 -101.072875976563 2.313318967819
-82.369804382324 -64.802177429199 -99.792633056641 3.018695116043
-90.725044250488 -61.559680938721 -96.543312072754 7.317992687225
75.279319763184 -62.953090667725 -114.063049316406 3.603872299194
-77.508079528809 -62.886783599854 -99.935317993164 2.973450660706
-76.980369567871 -67.835845947266 -108.627517700195 2.063742399216
-83.916572570801 -69.620452880859 -115.105705261230 2.860255956650
-54.918838500977 -64.911170959473 -122.930458068848 2.290886878967
