83.343589782715 -83.910652160645 -222.426452636719 6.704039573669
-143.706497192383 -77.248855590820 -222.358840942383 2.382653474808
-8.467443466187 -78.341682434082 -218.094177246094 1.895438313484
-143.536209106445 -76.275085449219 -224.915893554688 1.742120504379
-151.376739501953 -82.689971923828 -224.567062377930 1.305186867714
-9.849403381348 -76.455718994141 -225.074264526367 0.596638143063
17.008092880249 -79.320762634277 -211.032135009766 2.341998100281
-142.988235473633 -72.789916992188 -228.440444946289 2.464344024658
-21.844257354736 -78.953826904297 -224.818588256836 1.835378646851
68.224548339844 -80.372314453125 -220.825759887695 11.999379158020
70.972763061523 -79.646583557129 -229.080780029297 6.119584560394
6.355466842651 -79.962173461914 -226.503402709961 1.932866692543
-37.562801361084 -78.209411621094 -233.188919067383 6.193536281586
-27.473268508911 -84.634094238281 -239.330718994141 5.349889755249
-0.869535028934 -75.962013244629 -239.755264282227 2.178942918777
-50.441608428955 -72.150505065918 -240.903305053711 1.866340398788
-24.738029479980 -75.121452331543 -239.888366699219 2.070477724075
6.393819808960 -74.819023132324 -235.478927612305 2.220607757568
-66.880355834961 -76.654045104980 -243.280212402344 3.585316658020
-39.786041259766 -81.485244750977 -241.188644409180 2.173580169678
-42.376739501953 -75.326759338379 -242.714355468750 2.333448171616
-151.605590820313 -72.063194274902 -245.140319824219 2.892642974854
-48.664001464844 -79.531898498535 -245.813659667969 0.784282684326
-56.110481262207 -69.188873291016 -244.803329467773 2.784583806992
-69.371231079102 -75.865615844727 -246.719070434570 1.044139623642
-14.294799804688 -81.549278259277 -242.970199584961 6.176756381989
-82.543083190918 -77.080329895020 -253.068801879883 1.923673987389
-160.124938964844 -80.128578186035 -253.019271850586 5.840448379517
-144.006622314453 -73.191993713379 -252.786148071289 1.453499674797
-125.017433166504 -76.383598327637 -257.430938720703 1.845062971115
-161.630554199219 -70.445129394531 -257.939636230469 2.059403419495
15.701046943665 -84.249305725098 -262.690399169922 0.800585567951
-17.776262283325 -79.360633850098 -265.695404052734 6.106374263763
-157.870513916016 -76.687065124512 -273.457885742188 3.222190141678
-155.791748046875 -80.429267883301 -277.891632080078 4.410726070404
-148.711242675781 -76.526977539063 -284.798278808594 1.636862158775
-61.507530212402 -71.296669006348 -277.668212890625 7.662371158600
-41.505809783936 -71.230598449707 -282.741058349609 2.776185750961
-21.587965011597 -74.247100830078 -286.201507568359 3.044516324997
-12.302290916443 -73.153190612793 -275.916717529297 3.456276178360
-69.066436767578 -78.757156372070 -282.971954345703 3.147910118103
-83.859977722168 -79.462913513184 -284.120635986328 3.826308488846
-5.057175159454 -78.135009765625 -279.347320556641 2.018277645111
0.492428988218 -78.620719909668 -288.523071289063 3.653517484665
-142.424194335938 -72.607025146484 -285.279205322266 0.816126406193
-83.242332458496 -72.096343994141 -284.105529785156 3.815736770630
-149.812255859375 -72.751792907715 -286.702056884766 2.418430328369
-97.575607299805 -83.415306091309 -283.876617431641 7.448315143585
-81.533454895020 -74.764358520508 -283.772155761719 1.554208040237
-88.476860046387 -72.329574584961 -293.570373535156 2.542381525040
-65.634727478027 -75.183357238770 -289.424530029297 2.224802970886
-32.946517944336 -70.022598266602 -292.134765625000 2.580295801163
-11.010251998901 -76.373695373535 -287.277313232422 1.671734452248
-153.533950805664 -66.883430480957 -298.217041015625 1.935276508331
-151.343948364258 -71.386451721191 -299.947509765625 2.219427347183
-146.364822387695 -72.440422058105 -304.111999511719 2.482354879379
-160.121032714844 -72.943870544434 -304.273895263672 3.902501344681
-63.597366333008 -73.938308715820 -53.692302703857 1.934121131897
-55.423835754395 -76.905525207520 -50.380084991455 4.637579917908
-46.813674926758 -79.261009216309 -51.093837738037 4.614240169525
-84.377746582031 -79.506858825684 -60.318817138672 6.481417655945
-36.275516510010 -76.470283508301 -61.808769226074 2.476814031601
-41.227252960205 -76.923294067383 -76.971771240234 3.977165937424
67.630119323730 -84.006950378418 -78.155311584473 9.033879280090
68.356971740723 -80.499458312988 -74.780136108398 5.998808860779
65.944503784180 -77.671615600586 -78.711402893066 6.391293048859
93.525512695313 -77.154731750488 -85.018493652344 1.971621036530
61.906303405762 -82.258827209473 -84.482109069824 10.285839080811
41.579887390137 -82.302291870117 -84.753807067871 13.663600921631
45.230869293213 -85.002922058105 -96.989471435547 7.154295921326
-72.773307800293 -75.121994018555 -99.841835021973 2.847203493118
-80.238800048828 -71.537673950195 -100.330062866211 1.623539447784
38.536079406738 -80.568908691406 -98.883155822754 7.275746345520
-88.360137939453 -81.730789184570 -108.197456359863 1.997546315193
-99.002265930176 -74.094421386719 -108.820999145508 3.750781297684
44.985023498535 -79.239471435547 -104.032135009766 0.459783881903
101.301933288574 -79.416870117188 -110.115287780762 6.013086795807
27.150436401367 -80.775390625000 -121.345123291016 5.126303672791
36.721271514893 -80.594940185547 -114.440567016602 3.972223997116
34.240467071533 -77.589561462402 -118.926300048828 1.555012941360
24.053695678711 -80.367858886719 -118.333442687988 8.201866149902
103.232048034668 -80.566291809082 -115.596740722656 6.270256042480
33.382041931152 -81.696899414063 -127.289932250977 2.929331541061
28.802043914795 -74.638206481934 -128.267318725586 2.578824281693
-50.059333801270 -75.574165344238 -139.520263671875 2.658649444580
-75.839828491211 -79.325874328613 -141.253646850586 3.877229928970
-58.447071075439 -75.422943115234 -146.323654174805 2.358244657516
-80.098510742188 -80.523666381836 -143.935836791992 8.127598762512
-44.069736480713 -76.474029541016 -145.085952758789 2.572360992432
100.840576171875 -80.615600585938 -150.891876220703 9.659427642822
-77.069023132324 -78.313247680664 -154.271560668945 5.368140220642
17.852916717529 -83.293510437012 -142.685272216797 8.311594009399
23.199768066406 -81.095344543457 -145.857055664063 3.877981662750
106.006988525391 -83.463554382324 -157.060592651367 7.504399299622
4.347785949707 -81.129074096680 -155.719818115234 4.820461750031
27.845680236816 -75.997131347656 -151.387878417969 1.940240263939
-68.347892761230 -78.667747497559 -157.150009155273 1.546676635742
-45.522666931152 -78.808105468750 -170.825195312500 2.824411153793
16.205499649048 -78.044868469238 -159.416717529297 4.035692691803
-70.480590820313 -75.213760375977 -154.732452392578 1.975225806236
-75.209403991699 -76.140899658203 -163.508834838867 5.373164176941
108.595993041992 -82.375610351563 -160.623397827148 5.379988670349
-13.448690414429 -78.979240417480 -161.993057250977 6.518737792969
-70.440238952637 -74.627189636230 -169.845565795898 4.197052478790
-39.753585815430 -78.863235473633 -164.316696166992 1.862190961838
-59.393486022949 -75.151466369629 -169.369201660156 1.241675496101
25.424980163574 -77.528320312500 -170.876800537109 2.041905403137
106.304954528809 -77.495239257813 -167.251831054688 3.443735361099
97.377265930176 -78.321746826172 -178.057449340820 7.105591297150
100.093505859375 -79.402572631836 -183.885681152344 4.300294399261
101.640518188477 -77.392761230469 -170.744232177734 4.645329952240
-56.028205871582 -74.914535522461 -189.438690185547 3.447807312012
-52.678256988525 -72.993637084961 -180.605072021484 2.140467643738
22.448429107666 -77.988922119141 -179.703918457031 2.995636940002
-52.811542510986 -75.017280578613 -183.218750000000 1.690390229225
-25.628713607788 -77.354064941406 -180.784698486328 0.718234002590
-55.836685180664 -79.264953613281 -188.956604003906 2.385091304779
-156.566940307617 -73.044281005859 -191.951675415039 3.019720315933
96.258720397949 -81.912414550781 -187.157989501953 8.600888252258
-49.004184722900 -73.456199645996 -192.050140380859 3.147991657257
-17.309146881104 -78.739845275879 -195.891494750977 1.635209918022
-144.251083374023 -73.848274230957 -192.105255126953 1.886778831482
-46.251071929932 -73.838508605957 -195.959243774414 2.857790708542
96.544044494629 -78.288955688477 -191.176330566406 5.689025402069
102.760803222656 -77.782066345215 -179.503158569336 2.289329051971
-47.891517639160 -76.119216918945 -192.954696655273 1.830426096916
-27.268419265747 -84.173690795898 -196.139755249023 5.287248611450
-151.880432128906 -77.439651489258 -199.463760375977 2.211288213730
-29.767431259155 -76.598793029785 -192.611587524414 1.562493920326
-164.108459472656 -74.412429809570 -196.455139160156 3.913406372070
-157.347625732422 -81.298118591309 -204.495025634766 4.831043243408
-149.122970581055 -76.407569885254 -201.052688598633 2.382894754410
-43.147926330566 -77.283920288086 -198.001480102539 1.007020711899
97.078330993652 -80.736900329590 -197.655502319336 3.949181079865
-46.566989898682 -74.285385131836 -197.124725341797 2.770625829697
-147.073593139648 -78.043296813965 -204.052642822266 1.366230010986
-41.864555358887 -72.332031250000 -202.577651977539 2.530944585800
-26.537145614624 -82.288887023926 -206.866287231445 3.082920074463
93.075233459473 -82.291915893555 -200.390701293945 6.501676082611
85.962509155273 -80.871696472168 -209.396163940430 6.681767940521
-41.003429412842 -74.393280029297 -214.345932006836 7.563366889954
-92.623374938965 -76.849411010742 -208.328903198242 4.702058792114
-80.159927368164 -76.750610351563 -209.597885131836 1.512920975685
-23.673631668091 -76.930877685547 -207.313110351563 3.938895463943
-154.572647094727 -76.298194885254 -201.753250122070 2.692465305328
87.006088256836 -78.646827697754 -208.692337036133 5.728784084320
84.275054931641 -75.768859863281 -212.780303955078 2.104550361633
85.573234558105 -79.626136779785 -215.505630493164 3.569603443146
-107.001663208008 -75.939308166504 -217.188659667969 5.102782726288
-158.700042724609 -76.406364440918 -220.483001708984 4.492838859558
-24.450309753418 -74.721618652344 -220.569885253906 2.075635910034
76.496231079102 -75.249267578125 -222.178833007813 3.346039295197
-154.495040893555 -78.133430480957 -221.386535644531 3.577598094940
-33.406921386719 -78.118736267090 -214.491989135742 1.914027810097
-138.149291992188 -72.304916381836 -231.681915283203 1.670583963394
-15.456888198853 -79.673332214355 -228.146438598633 4.522850036621
13.076670646667 -76.258628845215 -224.783218383789 3.297584533691
16.003440856934 -78.418930053711 -229.456268310547 1.917830348015
-159.474319458008 -76.845352172852 -234.677337646484 2.911179542542
-130.432708740234 -70.302848815918 -231.495880126953 3.623103141785
-12.318591117859 -76.383010864258 -232.225524902344 1.708273768425
-3.843300104141 -76.013023376465 -234.172775268555 1.749115705490
64.972229003906 -78.227813720703 -226.607864379883 7.256354331970
65.491142272949 -74.850975036621 -234.228134155273 3.123488903046
-4.206048965454 -74.536659240723 -236.750045776367 2.270259857178
12.157432556152 -72.844886779785 -236.210327148438 1.983725786209
-35.021217346191 -68.044830322266 -238.368484497070 6.477596282959
-36.717922210693 -85.116668701172 -239.404983520508 5.730803966522
-52.608928680420 -75.816482543945 -233.732742309570 7.142426967621
-44.315593719482 -73.726600646973 -237.248626708984 4.003224372864
-20.499864578247 -77.881790161133 -239.814712524414 1.260419845581
-55.828872680664 -73.703155517578 -241.718688964844 1.687439203262
-2.182276010513 -77.504859924316 -241.786132812500 3.084341764450
-72.371673583984 -77.655868530273 -240.752304077148 6.963756561279
17.515254974365 -78.640884399414 -243.374252319336 2.972169876099
-146.496994018555 -76.554351806641 -243.234054565430 2.055645704269
-76.813453674316 -78.068626403809 -251.302490234375 2.798980951309
12.469993591309 -78.238601684570 -246.178497314453 2.600857496262
-164.918609619141 -72.237937927246 -248.763854980469 0.646312415600
9.449074745178 -81.404106140137 -250.013763427734 1.743170380592
-84.043815612793 -69.005004882813 -248.801284790039 2.261718034744
-79.561576843262 -75.693702697754 -248.390518188477 2.595175266266
14.803288459778 -79.196769714355 -250.508331298828 2.408703088760
-93.270721435547 -74.218635559082 -249.205001831055 2.381007909775
-129.465560913086 -70.353973388672 -253.337997436523 1.417740821838
-136.202835083008 -77.919921875000 -259.364562988281 1.212437987328
-139.926971435547 -77.193283081055 -251.763427734375 3.500105381012
-150.531143188477 -75.637023925781 -260.740875244141 1.974170446396
-149.643661499023 -70.280860900879 -251.739883422852 2.449601173401
-137.827209472656 -72.127914428711 -260.666229248047 3.482549428940
-165.302886962891 -69.615898132324 -259.797210693359 2.059998273849
-131.499359130859 -73.867996215820 -266.020904541016 1.835872411728
-139.807266235352 -68.263038635254 -261.861022949219 1.382497906685
-165.919067382813 -69.860885620117 -269.291961669922 2.888083934784
-159.198791503906 -70.525100708008 -263.838623046875 1.815418124199
-151.682632446289 -71.586669921875 -264.898620605469 1.932446599007
-152.307281494141 -74.322998046875 -264.897827148438 1.891296982765
13.803855895996 -79.408538818359 -275.244445800781 2.660617113113
-169.963973999023 -73.224525451660 -265.393218994141 3.212106943130
-154.938278198242 -75.091560363770 -272.706665039063 2.711111545563
-8.742253303528 -84.728057861328 -269.381561279297 5.106289386749
-158.539031982422 -70.622833251953 -274.213836669922 2.237534999847
8.640209197998 -80.377456665039 -279.649688720703 2.051580667496
-155.948257446289 -72.725219726563 -280.741302490234 3.266546249390
-169.046707153320 -74.299942016602 -288.072204589844 2.918636322021
-158.768920898438 -76.228469848633 -277.477966308594 2.212922096252
-167.647720336914 -70.452796936035 -288.464721679688 1.943997263908
-2.690048933029 -80.166168212891 -283.693237304688 3.603184223175
3.876071929932 -82.080612182617 -278.120513916016 1.532053709030
-108.013999938965 -71.970855712891 -290.956207275391 2.372406244278
-159.274063110352 -79.666816711426 -287.128540039063 4.566242694855
-151.195922851563 -70.739334106445 -284.287414550781 3.450560569763
-109.121856689453 -72.877182006836 -290.263824462891 1.544118523598
-156.293304443359 -76.471488952637 -292.255279541016 1.971739888191
-151.546432495117 -77.729293823242 -287.936614990234 1.404806733131
-77.962608337402 -78.422447204590 -291.274536132813 2.151582956314
-170.947158813477 -75.327400207520 -288.468475341797 3.302085638046
-125.594741821289 -69.904304504395 -290.191711425781 2.420442104340
-46.190464019775 -80.287666320801 -283.295074462891 4.702219963074
-154.636383056641 -72.842483520508 -286.952423095703 3.506292819977
-134.483474731445 -68.304557800293 -292.529907226563 1.792043209076
-22.958003997803 -73.374786376953 -291.642242431641 2.132929325104
-131.990936279297 -69.462516784668 -291.881591796875 0.687408626080
3.150221109390 -77.721557617188 -291.503509521484 0.898402631283
12.137533187866 -73.953544616699 -288.726135253906 1.660735249519
-136.328536987305 -69.136009216309 -289.799957275391 2.530568361282
-148.472930908203 -75.219223022461 -297.662872314453 1.166377186775
-158.997482299805 -76.407913208008 -314.590515136719 5.236033439636
-78.831207275391 -71.463996887207 -50.664398193359 1.308307051659
-28.616256713867 -71.033843994141 -62.841102600098 4.532802104950
-26.569200515747 -80.458023071289 -62.141819000244 4.567091941833
64.569984436035 -76.765403747559 -73.935424804688 7.914827346802
83.570899963379 -78.929161071777 -70.969207763672 3.737491130829
-43.012775421143 -76.825492858887 -77.243560791016 3.376016855240
69.336891174316 -78.288169860840 -76.110046386719 3.426245450974
83.338996887207 -83.508972167969 -78.042694091797 5.480129718781
59.715858459473 -79.358650207520 -79.778839111328 9.765942573547
66.704788208008 -77.738540649414 -85.981376647949 5.011557579041
-56.697387695313 -77.223304748535 -82.773437500000 7.589871406555
-98.379119873047 -78.386436462402 -87.855979919434 6.595236301422
52.746490478516 -81.895706176758 -89.686912536621 7.544569015503
43.932754516602 -81.010948181152 -95.947303771973 5.560018539429
86.609603881836 -75.520339965820 -96.347160339355 2.264379978180
-97.096847534180 -69.925354003906 -99.981773376465 3.475885868073
73.972541809082 -74.013145446777 -95.588562011719 1.703169107437
65.453781127930 -79.772186279297 -96.785324096680 6.335612297058
84.812522888184 -82.183738708496 -93.289184570313 3.611036777496
77.219985961914 -79.529304504395 -91.902450561523 2.916914463043
74.325843811035 -82.305961608887 -94.404113769531 5.850599765778
-94.533866882324 -77.394622802734 -100.978744506836 6.012614727020
37.737514495850 -75.542854309082 -101.008743286133 5.674686431885
98.663940429688 -81.075736999512 -105.776084899902 9.203829765320
100.690643310547 -80.565391540527 -105.644111633301 7.597178936005
43.579528808594 -81.898506164551 -116.231239318848 2.217321395874
106.857406616211 -83.358413696289 -114.547134399414 8.474264144897
111.439834594727 -83.576072692871 -129.909759521484 6.758250713348
-56.511272430420 -73.133247375488 -127.129730224609 2.534767866135
21.925397872925 -77.294067382813 -131.184066772461 6.090761184692
35.139080047607 -81.889755249023 -129.877380371094 2.643362760544
18.959785461426 -74.771659851074 -138.409667968750 5.396049022675
106.896751403809 -83.800537109375 -131.987274169922 7.910103321075
105.509719848633 -81.335357666016 -125.207923889160 6.305749416351
-79.139114379883 -75.039093017578 -146.421737670898 3.981816291809
-49.284275054932 -74.903030395508 -138.228347778320 2.749994754791
-76.796272277832 -73.138153076172 -150.609619140625 4.208127975464
13.099685668945 -75.227722167969 -144.650955200195 3.461056947708
106.510055541992 -76.467475891113 -143.019653320313 3.863499641418
-59.649036407471 -77.524215698242 -149.892349243164 4.281982421875
-77.764183044434 -74.051734924316 -150.322814941406 5.328929901123
-44.849773406982 -79.354949951172 -149.016418457031 0.226790651679
26.331903457642 -71.783866882324 -150.104171752930 2.150197505951
103.303253173828 -75.342964172363 -145.363388061523 7.154443740845
111.366958618164 -78.300849914551 -156.632583618164 1.506266117096
-73.655212402344 -71.820167541504 -154.044265747070 2.920047760010
-80.237258911133 -77.646026611328 -158.454956054688 8.956475257874
16.460083007813 -82.040863037109 -159.981658935547 6.579938411713
-65.520065307617 -72.684677124023 -164.987808227539 1.807800531387
-37.771034240723 -73.577690124512 -160.835998535156 0.988527357578
3.158984899521 -78.774459838867 -160.754699707031 2.568929433823
102.054977416992 -76.241279602051 -156.478012084961 6.731816768646
4.528951168060 -81.002433776855 -164.999450683594 3.147413969040
-37.747959136963 -76.248344421387 -163.316253662109 2.125492095947
-8.567263603210 -70.858894348145 -161.658981323242 7.200404167175
101.464958190918 -74.979263305664 -161.858444213867 6.835671424866
-47.027050018311 -73.133895874023 -161.309814453125 2.026735544205
25.159889221191 -74.527282714844 -169.701263427734 3.114105701447
109.079559326172 -83.959869384766 -167.289352416992 6.300847530365
-62.184494018555 -71.691741943359 -173.532196044922 3.207574844360
-33.073974609375 -79.450149536133 -172.980804443359 2.379990577698
96.517509460449 -79.629806518555 -169.528121948242 10.316164970398
24.121860504150 -74.719505310059 -164.246658325195 1.806129336357
99.504646301270 -80.805603027344 -170.892135620117 8.434217453003
-41.828140258789 -71.175704956055 -176.693176269531 3.250022649765
104.505172729492 -83.053710937500 -175.794113159180 7.297283172607
-68.231483459473 -71.518539428711 -175.529525756836 5.360660076141
-30.947549819946 -80.582344055176 -175.180938720703 2.993282794952
-152.195129394531 -66.444450378418 -183.867477416992 3.272813081741
-59.047153472900 -74.156219482422 -176.888961791992 2.076500177383
-152.297760009766 -73.510925292969 -185.363449096680 1.944260001183
-39.879467010498 -73.120025634766 -180.987518310547 2.872473716736
23.813606262207 -82.691780090332 -175.287948608398 4.480461120605
100.765647888184 -80.081474304199 -178.569519042969 4.627263069153
-41.292110443115 -74.895050048828 -179.539093017578 1.551698565483
5.637856960297 -77.158424377441 -187.602569580078 7.043255805969
11.618500709534 -76.107521057129 -201.968902587891 2.155922174454
-154.092437744141 -73.524406433105 -187.575912475586 3.613271474838
101.626525878906 -82.176086425781 -190.944198608398 5.877436637878
-28.040519714355 -73.499519348145 -190.110534667969 1.457953453064
95.644348144531 -80.317398071289 -182.276092529297 8.209003448486
7.179741859436 -73.523162841797 -187.018798828125 5.273900032043
-144.406921386719 -72.773368835449 -204.928451538086 2.910509586334
-142.355514526367 -72.120582580566 -198.661575317383 1.860873699188
97.432792663574 -82.688598632813 -196.667861938477 6.095016479492
-16.567426681519 -80.591026306152 -197.019821166992 1.440976858139
-21.857940673828 -76.387786865234 -201.407012939453 1.762249350548
6.771694183350 -79.025840759277 -204.133804321289 2.597584962845
-154.417999267578 -71.732765197754 -205.635299682617 3.037966489792
-150.953201293945 -74.030677795410 -208.848937988281 1.977420687675
96.584754943848 -72.455879211426 -200.625717163086 2.434103727341
-89.022964477539 -73.843528747559 -205.803268432617 5.931071758270
-39.943912506104 -76.734329223633 -198.016525268555 2.575457811356
15.598555564880 -80.324081420898 -211.555877685547 0.954416513443
-29.058921813965 -76.227470397949 -208.096832275391 2.066419839859
-79.513442993164 -72.326240539551 -203.931716918945 5.973703384399
86.489074707031 -78.472953796387 -204.266937255859 6.492345809937
-83.569877624512 -71.224693298340 -210.330459594727 2.976178169250
-152.212203979492 -72.382705688477 -218.577804565430 2.158689260483
-84.651039123535 -72.263763427734 -210.734008789063 2.931570291519
-16.114204406738 -69.644683837891 -204.627593994141 1.812254309654
-24.682117462158 -72.468383789063 -217.178482055664 1.828777313232
13.984123229980 -77.116973876953 -211.057128906250 1.589943289757
-9.452222824097 -77.602722167969 -218.799530029297 2.589441537857
-92.801467895508 -79.725532531738 -217.587997436523 2.925297021866
88.618469238281 -77.280654907227 -208.970489501953 4.615326404572
-104.284339904785 -71.997871398926 -213.931716918945 5.189202308655
-157.845703125000 -70.348983764648 -224.709396362305 1.952040195465
-32.931926727295 -74.406265258789 -221.798324584961 5.118436813354
14.506711006165 -77.742546081543 -212.200622558594 1.228095889091
-106.440856933594 -74.337394714355 -218.597198486328 3.266243219376
3.127876043320 -71.323844909668 -214.181777954102 3.730166435242
-31.448368072510 -75.292724609375 -211.942916870117 1.070209503174
78.273483276367 -75.537780761719 -220.137924194336 3.028839349747
-148.776596069336 -70.888793945313 -216.755126953125 2.451100826263
9.800852775574 -75.375877380371 -222.377334594727 0.909525394440
-13.667435646057 -79.494956970215 -224.746582031250 2.841576099396
13.692347526550 -68.424858093262 -219.866546630859 0.820150375366
79.643951416016 -79.355682373047 -218.051361083984 4.624964714050
-18.575139999390 -79.285812377930 -226.252731323242 1.762793302536
-134.585327148438 -74.926269531250 -226.072723388672 1.284743428230
-19.085063934326 -75.316902160645 -221.237899780273 2.236266851425
12.618887901306 -76.008430480957 -225.865325927734 3.409438371658
-131.843032836914 -75.944076538086 -226.126968383789 1.654929280281
-157.228927612305 -68.558929443359 -230.439254760742 1.169515728951
-147.080368041992 -71.246093750000 -228.421096801758 1.158188104630
-132.667358398438 -70.428581237793 -225.502700805664 1.012102365494
-15.669572830200 -72.458061218262 -221.187210083008 1.856702327728
67.765800476074 -77.257019042969 -222.723388671875 9.178627014160
-148.133880615234 -67.576774597168 -238.490051269531 4.022201061249
64.602088928223 -78.464553833008 -223.823425292969 9.618618965149
-25.283374786377 -79.487991333008 -228.313034057617 5.346910476685
-146.663604736328 -75.514076232910 -227.544860839844 2.232540845871
72.301742553711 -85.451087951660 -224.729217529297 10.849547386169
6.007091045380 -81.273193359375 -228.750701904297 3.170078516006
-144.194488525391 -76.336723327637 -235.388442993164 1.318006753922
-153.557189941406 -71.281173706055 -232.599395751953 1.449288845062
13.671507835388 -71.814216613770 -227.123062133789 0.656579315662
-6.466404914856 -79.480804443359 -235.896102905273 3.315864324570
-33.401599884033 -74.012924194336 -234.102081298828 3.254401445389
-5.367815017700 -70.768409729004 -233.104614257813 1.790338873863
-164.513565063477 -75.296981811523 -237.538269042969 3.322149276733
2.172717094421 -73.463302612305 -239.388183593750 1.012881755829
-168.666412353516 -73.115303039551 -240.443176269531 2.166779518127
-15.938339233398 -76.637451171875 -234.456420898438 4.405445575714
55.040897369385 -78.109413146973 -234.889495849609 7.678366184235
-17.430994033813 -73.819557189941 -233.644515991211 3.088587522507
-28.754402160645 -74.622108459473 -244.272827148438 3.608569145203
-28.263362884521 -74.575019836426 -238.920242309570 1.505948543549
-14.955897331238 -79.433166503906 -237.025268554688 3.751396656036
-150.459167480469 -73.193008422852 -227.832443237305 0.810563802719
4.023351192474 -74.573028564453 -238.107025146484 2.086258172989
60.298885345459 -76.769721984863 -240.302398681641 2.454991102219
11.852437019348 -72.874298095703 -241.645004272461 2.629614591599
-172.434371948242 -69.600532531738 -242.482101440430 5.339854717255
-55.379089355469 -73.267700195313 -236.607666015625 5.815716266632
1.101951956749 -82.964012145996 -245.598327636719 3.720414161682
13.435805320740 -76.434249877930 -239.757202148438 2.320402622223
-57.558849334717 -73.885597229004 -245.138519287109 1.725180387497
-5.615086078644 -69.997840881348 -246.728134155273 3.160220861435
16.757390975952 -83.275688171387 -245.179992675781 2.719478130341
-175.290054321289 -68.827270507813 -248.917312622070 8.622277259827
-69.313232421875 -78.356590270996 -247.015548706055 2.640182495117
-56.020900726318 -72.285713195801 -245.377944946289 1.150331974030
-86.167587280273 -71.646888732910 -251.008514404297 2.222598075867
-165.637161254883 -73.376686096191 -246.127014160156 2.517543554306
-154.165817260742 -62.830562591553 -247.430938720703 5.447047233582
-64.305511474609 -76.320159912109 -247.710494995117 2.436505794525
-72.357398986816 -73.411651611328 -246.957687377930 2.367379188538
-157.212951660156 -69.109588623047 -251.706481933594 2.031835079193
-155.755447387695 -73.254150390625 -251.687545776367 2.362643957138
-78.285934448242 -68.689216613770 -253.033142089844 3.026643991470
-97.005943298340 -69.600296020508 -254.978042602539 2.326134681702
-166.782623291016 -64.632720947266 -253.170486450195 4.063310623169
-160.814437866211 -72.074714660645 -260.797393798828 2.394294023514
-138.911529541016 -74.323600769043 -259.343383789063 1.986838579178
-86.978584289551 -72.884338378906 -248.248138427734 2.511916875839
-165.267578125000 -67.324699401855 -253.286590576172 2.867369651794
-145.139266967773 -69.126007080078 -256.575500488281 0.637389600277
-88.553695678711 -72.252471923828 -247.188354492188 4.079872608185
-100.836753845215 -70.842315673828 -260.252105712891 0.962602913380
-146.887802124023 -73.231834411621 -254.693344116211 2.199602603912
-96.118888854980 -72.857025146484 -254.268280029297 1.047660946846
-157.946609497070 -69.327041625977 -255.006851196289 2.864386081696
-107.289993286133 -72.322349548340 -253.405380249023 3.762797117233
-174.368270874023 -69.995674133301 -258.559844970703 6.478961944580
-165.545516967773 -73.584884643555 -265.823120117188 2.649274826050
-131.487274169922 -76.729728698730 -255.325317382813 3.179215192795
-155.953750610352 -72.177207946777 -259.176208496094 2.079442977905
-113.351982116699 -68.540794372559 -261.568878173828 3.173687458038
-17.424480438232 -72.693954467773 -259.114379882813 4.346727371216
-144.321121215820 -71.483810424805 -260.013916015625 3.053071498871
-130.308853149414 -71.170364379883 -259.239105224609 4.457474231720
-156.793731689453 -69.196762084961 -262.915618896484 1.208011746407
21.288711547852 -76.890106201172 -268.561645507813 1.521205663681
-152.752365112305 -74.333259582520 -278.935974121094 3.212983608246
-172.139923095703 -71.396125793457 -281.976043701172 5.933132171631
-12.013190269470 -73.769889831543 -276.735839843750 2.969175338745
-148.180114746094 -70.827133178711 -279.005340576172 3.545602560043
-13.686274528503 -72.775993347168 -280.633056640625 3.989290714264
9.773726463318 -76.527420043945 -283.356781005859 0.924756526947
-140.013885498047 -68.993690490723 -285.208312988281 2.681682109833
-69.360679626465 -76.122711181641 -285.522308349609 1.864979267120
-36.346584320068 -77.592025756836 -286.735931396484 0.337297737598
-115.473083496094 -72.518623352051 -281.707519531250 3.800281524658
-99.968070983887 -77.931777954102 -288.683929443359 4.115139484406
-91.549713134766 -73.481163024902 -290.069915771484 1.537638545036
-53.776706695557 -75.507667541504 -290.408050537109 1.203276872635
-119.092697143555 -78.333755493164 -286.311798095703 2.233636379242
-118.406166076660 -73.932250976563 -289.272888183594 2.436759710312
-36.584529876709 -70.835334777832 -285.461181640625 3.318979501724
-119.390754699707 -73.593887329102 -292.837890625000 1.905349493027
-131.120162963867 -66.320632934570 -288.216094970703 2.263043880463
-147.734558105469 -74.441390991211 -293.973114013672 2.543602705002
4.054706096649 -75.566902160645 -287.638549804688 2.014940023422
15.120508193970 -77.679969787598 -289.482086181641 1.834150552750
-164.340179443359 -70.698654174805 -292.067077636719 0.612916946411
-163.195404052734 -75.530570983887 -300.603759765625 6.408332347870
-150.965286254883 -72.968231201172 -309.565826416016 3.355622768402
-155.470352172852 -70.270484924316 -309.947235107422 2.486761808395
-155.174484252930 -71.713035583496 -314.078308105469 1.445391297340
20.340929031372 -82.278785705566 -10.367779731750 12.428683280945
26.687902450562 -74.931648254395 -15.709515571594 2.645520210266
13.686422348022 -77.685859680176 -21.944501876831 9.814531326294
22.055530548096 -74.353599548340 -35.612403869629 2.427100658417
-65.908096313477 -74.404472351074 -48.252746582031 4.727785587311
-71.899505615234 -74.941902160645 -48.767314910889 2.439341306686
-46.386974334717 -80.276115417480 -46.708869934082 6.466203212738
-93.128906250000 -67.932540893555 -64.082298278809 3.652935981750
73.594985961914 -82.225852966309 -70.961196899414 8.683082580566
-19.802312850952 -72.383529663086 -68.564308166504 1.992801427841
82.395660400391 -79.762580871582 -58.819374084473 10.276129722595
93.861816406250 -79.043540954590 -70.972450256348 5.776324748993
-98.635498046875 -71.415039062500 -73.545249938965 4.663583755493
59.434028625488 -78.349441528320 -76.386482238770 10.893285751343
-46.489803314209 -79.470687866211 -84.400085449219 3.260816574097
94.944152832031 -79.017166137695 -76.140197753906 5.024178504944
-63.623775482178 -72.166671752930 -86.276634216309 5.847874641418
43.513568878174 -78.548248291016 -86.875534057617 9.084726333618
63.477783203125 -85.966178894043 -85.900787353516 12.615365982056
47.779354095459 -76.499290466309 -91.783340454102 2.935992717743
46.374431610107 -79.608161926270 -94.971969604492 4.974571704865
68.910346984863 -82.549263000488 -91.866561889648 8.140069007874
41.036926269531 -76.916404724121 -104.351509094238 2.214719057083
91.897865295410 -79.876380920410 -97.312660217285 4.905388355255
98.959648132324 -84.869804382324 -102.851547241211 10.780432701111
71.672760009766 -76.146522521973 -99.506889343262 3.048238277435
87.436950683594 -80.461578369141 -100.268417358398 6.174233913422
93.768943786621 -79.711265563965 -88.890243530273 2.976635932922
103.716979980469 -80.887390136719 -99.397521972656 6.443986415863
33.639625549316 -76.721290588379 -102.870399475098 6.924816608429
107.559272766113 -76.539566040039 -112.879981994629 2.238701105118
108.435806274414 -81.259582519531 -114.533828735352 6.708404541016
24.374130249023 -74.861801147461 -120.989471435547 5.577576160431
38.558944702148 -79.325584411621 -114.494850158691 2.727885007858
109.568489074707 -80.452781677246 -127.142013549805 3.657265901566
28.396345138550 -76.488883972168 -123.218788146973 1.583840847015
110.653488159180 -85.306419372559 -122.111312866211 8.895655632019
101.952972412109 -81.085670471191 -117.815711975098 8.056659698486
21.347026824951 -79.241218566895 -130.559112548828 6.817189693451
-52.649810791016 -75.685379028320 -131.215591430664 1.895989537239
-57.632736206055 -72.881980895996 -132.592590332031 1.132449388504
105.846687316895 -79.108398437500 -130.559188842773 5.555746078491
-73.415016174316 -79.856071472168 -137.756301879883 4.672162055969
-77.056205749512 -74.967803955078 -138.693572998047 2.707350492477
-65.484710693359 -75.137329101563 -137.495468139648 5.595241546631
25.339429855347 -78.009986877441 -141.407806396484 2.225309610367
113.393028259277 -82.629104614258 -142.004043579102 5.105601310730
-75.403396606445 -70.140052795410 -145.979873657227 0.528417170048
-54.699596405029 -75.447074890137 -139.248870849609 2.023878574371
27.475439071655 -77.641967773438 -149.100036621094 1.192041635513
-73.703430175781 -75.931983947754 -145.953994750977 2.530529499054
108.700119018555 -78.229034423828 -134.858749389648 3.649047136307
106.159774780273 -76.933509826660 -152.909988403320 4.512001514435
111.021667480469 -80.916465759277 -149.274826049805 3.060189247131
-43.917655944824 -78.872085571289 -150.171157836914 1.604524374008
-68.963539123535 -74.140983581543 -163.518310546875 1.486713647842
-72.232612609863 -69.405410766602 -155.864303588867 2.837612628937
23.523841857910 -78.478500366211 -140.806915283203 1.983417749405
-7.226922988892 -78.574378967285 -158.940887451172 7.244848251343
104.843048095703 -77.973625183105 -157.698394775391 4.288256168365
106.906562805176 -77.064659118652 -147.425811767578 4.125163555145
107.333969116211 -83.461463928223 -154.528549194336 7.665710449219
-67.941154479980 -71.722869873047 -156.328781127930 1.159721255302
-49.936050415039 -77.469917297363 -165.234725952148 3.926874399185
-8.518651962280 -75.587928771973 -162.178054809570 4.285977840424
-35.757083892822 -76.230484008789 -172.594848632813 2.991728067398
100.673316955566 -77.760002136230 -163.047576904297 8.163407325745
-37.995033264160 -79.938842773438 -157.445663452148 2.643732547760
103.861450195313 -77.157943725586 -162.599563598633 5.132726192474
-46.626670837402 -75.424484252930 -172.011795043945 3.961520433426
103.127044677734 -76.183464050293 -164.965988159180 4.691529750824
-157.844192504883 -73.335479736328 -178.664642333984 5.495471477509
-30.412614822388 -70.401115417480 -174.857162475586 1.043039560318
-24.181413650513 -76.095550537109 -181.297592163086 2.037050485611
19.800556182861 -81.156219482422 -173.487991333008 2.999955654144
9.725405693054 -75.253967285156 -180.645401000977 4.917045116425
23.926620483398 -77.579376220703 -179.324676513672 2.126276969910
97.881927490234 -85.196670532227 -179.861267089844 9.315022468567
-156.730804443359 -67.774291992188 -183.255310058594 5.103437423706
-23.930070877075 -78.245239257813 -179.746932983398 0.855207920074
96.443862915039 -80.931739807129 -173.834838867188 10.938634872437
98.480384826660 -74.253654479980 -184.294708251953 6.147834777832
104.289588928223 -81.241645812988 -171.694900512695 6.544582843781
95.604103088379 -80.833198547363 -188.430450439453 8.269377708435
-155.177505493164 -70.774391174316 -197.601272583008 1.236968278885
95.359046936035 -79.471809387207 -201.651550292969 3.083803653717
-32.469333648682 -72.854995727539 -196.146560668945 4.876225948334
91.978347778320 -78.573822021484 -189.921798706055 8.961668014526
-123.778701782227 -77.612167358398 -200.634292602539 2.939402580261
-34.783443450928 -80.622894287109 -186.056365966797 2.566791772842
-146.702423095703 -66.285697937012 -197.731719970703 2.134906291962
91.531250000000 -78.678543090820 -193.060165405273 8.941945075989
3.987919092178 -76.498191833496 -196.492324829102 5.865469455719
20.077482223511 -74.404014587402 -188.145492553711 1.812072157860
-153.063461303711 -73.704742431641 -203.839645385742 2.524073839188
-141.917404174805 -71.553405761719 -201.948532104492 0.865690886974
-13.712837219238 -75.217414855957 -205.682983398438 1.074521303177
-128.507293701172 -71.975440979004 -204.558471679688 2.720578670502
-148.802398681641 -73.754470825195 -196.725936889648 2.924242258072
-2.845448017120 -76.636688232422 -195.668746948242 10.153162002563
-30.195693969727 -77.778686523438 -197.658767700195 2.442471504211
16.632106781006 -80.686614990234 -198.008468627930 2.297925472260
1.403934955597 -78.037368774414 -209.886367797852 5.417111396790
78.778312683105 -73.840568542480 -204.536590576172 11.112012863159
-21.926507949829 -72.221809387207 -209.279144287109 2.122354745865
86.492881774902 -75.310592651367 -204.447875976563 6.791653633118
93.724540710449 -81.808853149414 -202.292312622070 5.046465396881
-152.276748657227 -73.657012939453 -213.365188598633 1.839274644852
90.881675720215 -81.344619750977 -206.935348510742 4.752394199371
0.003341000061 -74.055297851563 -202.996246337891 4.625663757324
-1.644008994102 -78.342369079590 -211.386215209961 3.799583673477
-36.257457733154 -74.572608947754 -203.361511230469 2.619468927383
-93.504463195801 -72.759727478027 -211.384811401367 3.154052734375
-29.277282714844 -77.748931884766 -207.365234375000 1.022518396378
81.477325439453 -76.626518249512 -213.347671508789 2.816063165665
86.445823669434 -77.166343688965 -211.021911621094 3.755096912384
-35.506332397461 -73.752944946289 -209.085220336914 2.150276422501
-87.654060363770 -69.264503479004 -217.978149414063 2.233025074005
-4.198979854584 -77.999748229980 -216.393905639648 1.874751329422
74.759536743164 -72.817527770996 -207.316696166992 12.014761924744
-156.614791870117 -77.867530822754 -221.126190185547 3.992052555084
-170.331497192383 -69.228553771973 -214.258865356445 4.207117080688
-167.426437377930 -75.629905700684 -221.717742919922 3.996900558472
-25.573385238647 -77.082565307617 -224.311340332031 2.176106452942
-158.753707885742 -76.596954345703 -222.160232543945 4.797295093536
-8.472619056702 -76.265235900879 -220.923126220703 2.603442907333
1.794513940811 -78.018463134766 -215.350479125977 4.515164375305
-172.979034423828 -71.170219421387 -226.245285034180 5.867908000946
-160.945571899414 -71.757789611816 -228.051864624023 1.520678639412
74.836395263672 -82.261703491211 -227.693374633789 6.645964622498
-5.223598003387 -75.038810729980 -222.876922607422 1.552892565727
-162.935577392578 -64.513084411621 -226.267089843750 3.240568399429
-146.763565063477 -74.768638610840 -222.787658691406 1.788015842438
-22.676893234253 -73.327568054199 -220.971923828125 1.909430861473
-6.106825828552 -80.401840209961 -217.739456176758 1.777882456779
75.957450866699 -74.249641418457 -222.278320312500 3.166094779968
-164.791992187500 -68.946815490723 -227.761138916016 2.093623876572
-145.712005615234 -68.410476684570 -232.221343994141 2.451464414597
-129.510467529297 -69.937866210938 -230.948989868164 3.919578552246
74.025253295898 -80.646972656250 -221.687316894531 6.954319000244
-119.671012878418 -72.808364868164 -228.514678955078 2.362071990967
-147.974334716797 -71.682098388672 -229.097457885742 0.709949731827
-154.878463745117 -69.865493774414 -231.740600585938 1.642845153809
-153.656112670898 -72.662559509277 -231.714660644531 1.535390615463
-159.609985351563 -72.579956054688 -229.026367187500 2.176093339920
-168.735763549805 -72.090316772461 -228.529083251953 2.728626489639
-136.464508056641 -73.137802124023 -236.384552001953 2.864779710770
-136.999664306641 -73.333068847656 -233.007537841797 2.196203708649
-155.958755493164 -77.621780395508 -233.438598632813 2.363465309143
-149.076187133789 -67.231025695801 -237.544769287109 3.212729692459
-154.726516723633 -72.565757751465 -235.489746093750 2.813360691071
71.661361694336 -81.031509399414 -228.994369506836 7.326713562012
63.551273345947 -70.462127685547 -230.510086059570 4.632420539856
-159.059265136719 -69.334808349609 -235.230514526367 1.880574941635
69.109985351563 -71.449584960938 -228.691925048828 2.250043630600
-24.157039642334 -72.521171569824 -233.769165039063 4.916789531708
8.725849151611 -78.040496826172 -234.940475463867 1.453764438629
3.994852066040 -76.655586242676 -232.737854003906 1.561327219009
-159.287200927734 -71.606727600098 -241.275207519531 3.232811450958
12.181980133057 -75.269042968750 -237.998306274414 1.076336979866
55.675071716309 -75.230636596680 -234.412597656250 6.226163387299
9.616800308228 -72.529266357422 -234.978393554688 1.951969742775
1.072339057922 -75.809364318848 -238.232757568359 1.231122016907
-10.209314346313 -71.842742919922 -236.736953735352 1.630876183510
-25.322061538696 -72.893753051758 -240.310623168945 0.463333994150
-6.061071872711 -75.633689880371 -237.817153930664 1.200352430344
1.093006968498 -79.272132873535 -243.065429687500 2.423987865448
53.744102478027 -78.760223388672 -236.865509033203 7.136160850525
-58.429576873779 -79.633209228516 -242.880035400391 3.017368555069
16.872396469116 -74.812377929688 -244.661407470703 2.866668224335
-61.939674377441 -74.837791442871 -238.377960205078 6.066512584686
-14.075739860535 -75.629104614258 -245.342498779297 3.330314397812
-70.190872192383 -69.195388793945 -248.836685180664 2.412043809891
-89.047622680664 -70.012069702148 -252.704971313477 1.775790214539
-85.762489318848 -75.073616027832 -252.349197387695 2.378576040268
-11.592791557312 -74.430450439453 -253.552947998047 2.295396089554
-126.708686828613 -72.283149719238 -260.746124267578 1.884702444077
-17.456575393677 -75.914299011230 -248.896118164063 5.141797542572
-120.259483337402 -72.179573059082 -254.038299560547 2.597330570221
-120.901527404785 -70.353622436523 -258.152038574219 2.389519929886
-107.127311706543 -72.617591857910 -253.856536865234 3.246193170547
-146.444534301758 -70.061698913574 -260.155853271484 1.420633196831
-147.678771972656 -71.169288635254 -268.008819580078 2.641175270081
-172.268081665039 -71.063781738281 -263.455688476563 4.559226036072
18.117160797119 -80.398071289063 -277.242828369141 3.249830484390
-62.913963317871 -70.875251770020 -283.253448486328 3.662850141525
-70.983413696289 -72.185470581055 -280.658874511719 3.944767236710
-45.112625122070 -76.211204528809 -280.438995361328 5.294873237610
-29.703681945801 -75.157981872559 -284.828063964844 1.320991754532
-98.550437927246 -75.725273132324 -289.580322265625 3.192247152328
-34.452896118164 -71.899993896484 -282.337554931641 4.732497215271
-6.468258857727 -74.647346496582 -282.699829101563 3.879880666733
-170.002059936523 -71.098670959473 -289.963256835938 4.067296981812
-21.364000320435 -77.578590393066 -282.736907958984 3.538182020187
2.659116983414 -76.721847534180 -284.775939941406 1.148696184158
10.914603233337 -81.692352294922 -277.285491943359 1.862807035446
-59.954856872559 -77.517860412598 -283.814483642578 3.805861949921
-37.837276458740 -75.555511474609 -289.713989257813 0.930562257767
11.686787605286 -73.137802124023 -290.539062500000 2.113439559937
-74.253784179688 -71.033233642578 -292.367797851563 3.039159059525
-44.945751190186 -70.379234313965 -285.908081054688 3.044521093369
-20.808107376099 -72.195701599121 -286.779357910156 3.822068929672
11.502121925354 -78.490669250488 -288.331329345703 1.200509428978
-14.873300552368 -77.487480163574 -292.889953613281 1.989309787750
1.775002002716 -74.084419250488 -291.774688720703 2.164159774780
11.552325248718 -78.876968383789 -285.602935791016 1.761170029640
-137.554595947266 -70.605628967285 -293.868438720703 0.931616246700
-147.777008056641 -74.088287353516 -297.834442138672 0.919604480267
-155.587051391602 -70.546493530273 -313.397064208984 2.059813737869
36.985515594482 -77.355346679688 -10.257191658020 6.560646057129
22.073209762573 -77.599372863770 -8.060442924500 9.397924423218
32.419277191162 -78.230674743652 -11.202196121216 5.973346710205
15.355526924133 -72.732864379883 -14.563057899475 7.886411190033
38.142761230469 -74.900398254395 -19.272504806519 2.828836917877
18.785255432129 -74.284049987793 -21.413656234741 4.499896526337
16.142024993896 -77.549430847168 -23.109037399292 7.412403583527
19.270563125610 -78.316184997559 -37.161804199219 6.515943527222
30.051507949829 -81.285171508789 -27.188886642456 8.714348793030
18.600606918335 -82.603637695313 -33.913852691650 9.604259490967
36.627189636230 -75.888244628906 -35.633361816406 3.070287942886
24.927537918091 -78.145866394043 -37.331707000732 6.490603446960
33.087055206299 -79.811203002930 -31.616598129272 8.206050872803
23.557802200317 -75.827941894531 -36.430248260498 3.791575670242
37.859024047852 -77.892341613770 -38.128314971924 4.817636013031
25.355474472046 -76.676971435547 -33.965530395508 5.013313770294
-49.263374328613 -74.338882446289 -45.223896026611 4.403927803040
-36.333591461182 -69.855789184570 -47.626441955566 2.788444042206
-97.138671875000 -74.260025024414 -52.271060943604 11.632562637329
-96.758285522461 -74.744483947754 -64.726448059082 7.154363155365
70.262107849121 -81.573539733887 -60.082370758057 13.420027732849
77.812171936035 -77.206436157227 -68.093132019043 5.392806529999
-27.266595840454 -73.416336059570 -72.190032958984 3.525898933411
-94.569282531738 -72.505859375000 -70.661422729492 2.782171964645
-31.507816314697 -74.102516174316 -74.085433959961 4.659352779388
-55.888740539551 -76.349891662598 -82.514244079590 7.250420093536
59.733089447021 -73.987808227539 -82.056053161621 4.311809539795
45.917015075684 -75.698410034180 -89.753906250000 4.590878009796
93.263633728027 -76.102584838867 -86.573898315430 1.758886933327
62.760204315186 -80.390518188477 -92.544174194336 6.764162540436
-76.141738891602 -74.643760681152 -87.477798461914 8.486144065857
-65.938552856445 -70.614730834961 -96.738975524902 1.392467856407
38.474090576172 -76.770103454590 -93.547859191895 7.853000164032
71.323028564453 -75.703422546387 -93.598991394043 2.670597791672
48.902729034424 -86.731605529785 -101.238807678223 8.052592277527
95.564071655273 -78.192344665527 -90.525047302246 2.347983837128
-100.694831848145 -76.339904785156 -106.130508422852 6.390501022339
35.456680297852 -76.378494262695 -105.668205261230 4.719082355499
101.491531372070 -80.012741088867 -104.419540405273 6.828324317932
43.335929870605 -77.191177368164 -107.450950622559 2.918937206268
94.582565307617 -80.033302307129 -105.891876220703 8.242802619934
-90.486450195313 -72.739234924316 -115.535133361816 1.285098195076
29.598588943481 -80.697341918945 -108.977470397949 9.443739891052
101.553062438965 -76.421173095703 -111.581253051758 4.308229446411
98.994239807129 -75.071815490723 -111.085868835449 4.122676849365
98.190353393555 -78.944709777832 -110.066871643066 7.474542617798
105.295036315918 -76.924270629883 -108.752632141113 1.940979838371
35.051506042480 -80.169464111328 -104.387550354004 5.289572715759
26.693340301514 -71.921897888184 -111.954994201660 5.051850795746
33.465190887451 -76.267150878906 -108.661247253418 3.828266859055
99.439048767090 -80.520317077637 -115.871582031250 8.509704589844
35.436454772949 -74.417289733887 -117.638275146484 0.964366197586
104.242851257324 -76.938079833984 -127.382911682129 5.148660659790
104.523635864258 -76.713577270508 -125.876014709473 4.979767322540
27.942947387695 -73.320831298828 -114.823921203613 4.600373268127
-84.087829589844 -74.167221069336 -121.445785522461 4.378549098969
107.138015747070 -74.483207702637 -128.344650268555 3.410563468933
-58.564338684082 -74.238105773926 -135.847534179688 2.966030597687
29.355035781860 -77.370437622070 -130.276504516602 2.558065176010
-79.071815490723 -73.938095092773 -131.862167358398 2.072274446487
19.960611343384 -79.719779968262 -126.306304931641 8.132287025452
