42.533309936523 -77.205131530762 -122.719512939453 2.113360166550
42.070499420166 -78.008407592773 -123.888145446777 2.218541860580
36.217426300049 -78.177108764648 -134.587982177734 0.879171192646
32.468967437744 -75.702148437500 -134.013198852539 2.801924467087
34.143199920654 -84.963905334473 -134.320114135742 2.896408081055
32.104503631592 -74.820793151855 -150.179702758789 1.957633137703
-45.494506835938 -72.243942260742 -146.242797851563 1.834472656250
29.671573638916 -79.819320678711 -139.196228027344 1.501974463463
-66.508499145508 -71.881004333496 -148.436279296875 1.581045269966
-36.120578765869 -79.411209106445 -149.156738281250 4.544680595398
-61.912563323975 -78.538063049316 -158.633239746094 2.657317876816
-39.615512847900 -78.524635314941 -154.759765625000 1.133340835571
31.073450088501 -78.948287963867 -156.733261108398 2.283363342285
-36.429313659668 -83.221000671387 -154.193725585938 4.681787490845
-2.303263902664 -78.734664916992 -172.118453979492 2.050391435623
33.727382659912 -72.356994628906 -164.589782714844 2.727322340012
-11.363607406616 -78.312934875488 -168.650283813477 1.214755654335
-59.201797485352 -76.512466430664 -158.471191406250 4.291689872742
-38.274566650391 -73.642242431641 -166.847854614258 2.961745738983
-33.331893920898 -74.049636840820 -170.829681396484 3.686146736145
22.595127105713 -80.245529174805 -176.340896606445 2.114797830582
-54.626831054688 -78.410545349121 -172.071380615234 1.497911810875
-28.824098587036 -72.738555908203 -171.986923217773 1.328428506851
20.779668807983 -78.081405639648 -184.087982177734 1.673469662666
-53.212451934814 -78.508590698242 -181.458114624023 1.605446457863
-26.208345413208 -71.895851135254 -177.828460693359 1.494240641594
-56.053371429443 -73.978256225586 -180.345123291016 2.243436574936
-43.216220855713 -76.753326416016 -191.505203247070 1.136825084686
-31.003183364868 -76.099441528320 -186.511489868164 0.899642825127
-43.374641418457 -79.566246032715 -192.097427368164 1.004217624664
-24.738853454590 -77.304588317871 -189.429168701172 1.896218419075
-139.890426635742 -77.532859802246 -188.973037719727 3.754037141800
18.518190383911 -78.556457519531 -199.979339599609 1.572253227234
-135.587814331055 -74.595550537109 -191.460098266602 4.621016979218
-22.851238250732 -74.995300292969 -193.457809448242 2.181251287460
-22.673738479614 -75.132934570313 -194.067352294922 1.710909843445
-44.084274291992 -78.311096191406 -190.653778076172 1.601076006889
9.865020751953 -75.756492614746 -196.726715087891 2.190931797028
-18.551309585571 -81.190689086914 -195.728500366211 1.432696700096
-58.053554534912 -79.413574218750 -200.614974975586 2.245869159698
-37.110645294189 -78.166122436523 -200.248138427734 2.142482519150
-63.258796691895 -74.704551696777 -202.415069580078 5.487742900848
-71.197982788086 -76.076988220215 -206.094924926758 2.004619121552
14.138040542603 -76.936042785645 -208.359786987305 1.871077060699
-88.978385925293 -76.140235900879 -206.155334472656 5.655649662018
-31.289560317993 -78.665290832520 -212.149948120117 0.550561368465
-82.989120483398 -78.339897155762 -204.484024047852 6.927869319916
-151.878631591797 -77.810920715332 -205.342376708984 2.307644128799
-10.039570808411 -78.862998962402 -212.540359497070 0.937453210354
-9.568102836609 -77.021881103516 -215.839691162109 2.321722030640
9.633101463318 -79.893554687500 -215.846862792969 0.860688447952
9.237093925476 -73.001449584961 -224.849197387695 2.617440938950
-4.720170021057 -80.866165161133 -226.410583496094 1.894629478455
-145.050857543945 -75.549911499023 -211.866699218750 0.951286852360
-153.286682128906 -81.721786499023 -225.943481445313 1.904268145561
-157.140151977539 -73.983192443848 -224.350662231445 3.215538740158
-2.434933900833 -82.069938659668 -234.451705932617 3.987110614777
-1.357784986496 -77.716423034668 -235.439102172852 2.494024276733
-28.107725143433 -84.019378662109 -239.292617797852 4.474867820740
-154.325149536133 -74.914085388184 -230.181518554688 2.444319725037
5.950924873352 -81.150558471680 -241.823120117188 3.273359060287
-26.967485427856 -73.458076477051 -238.613037109375 0.825298249722
15.221199989319 -79.380523681641 -234.940109252930 2.089616775513
-56.946578979492 -77.454727172852 -239.217193603516 3.538545608521
-54.814445495605 -78.968635559082 -245.412368774414 2.755674123764
-151.001022338867 -83.077903747559 -237.062667846680 2.604203701019
-66.387832641602 -79.761405944824 -243.578079223633 3.537453413010
-6.959615230560 -79.143684387207 -244.162017822266 2.919833183289
-14.904995918274 -76.914901733398 -252.113983154297 2.431035995483
-151.895202636719 -82.327537536621 -250.385177612305 2.789033412933
-136.551742553711 -76.203269958496 -248.454681396484 6.123900890350
-140.032073974609 -75.812271118164 -249.793930053711 4.598124504089
12.420078277588 -79.084091186523 -257.034454345703 4.948852539063
-151.037307739258 -79.738372802734 -263.569030761719 1.266129970551
12.742968559265 -81.372779846191 -265.134307861328 2.514465808868
-149.831588745117 -76.339462280273 -266.445251464844 1.801259875298
-2.825068950653 -82.712226867676 -275.355438232422 3.506564140320
-147.825378417969 -79.251449584961 -273.640197753906 2.089977502823
-6.742678165436 -83.183532714844 -281.157043457031 5.978262901306
-158.817291259766 -76.077171325684 -275.481811523438 1.261220932007
-149.497940063477 -75.434715270996 -274.881011962891 2.236742496490
-142.369323730469 -82.866226196289 -278.028961181641 3.108619451523
-155.718399047852 -81.574943542480 -285.355773925781 2.432211875916
-26.993412017822 -78.123512268066 -287.299743652344 2.886479377747
-157.481155395508 -77.816864013672 -283.227783203125 3.080276966095
-153.495849609375 -82.345779418945 -286.508575439453 1.013116002083
-158.438308715820 -77.976219177246 -298.961669921875 4.328198432922
-51.753311157227 -70.427864074707 -52.739559173584 5.277507781982
-35.473064422607 -78.383972167969 -59.306308746338 2.914781093597
-71.930931091309 -75.898551940918 -62.583087921143 4.966462612152
-26.962631225586 -71.702751159668 -63.796279907227 3.579168081284
-23.386690139771 -74.963081359863 -67.839714050293 2.537662982941
-83.390525817871 -74.036094665527 -73.732360839844 2.517847299576
88.097877502441 -78.042694091797 -86.446159362793 2.755109071732
-32.068271636963 -71.688606262207 -82.039108276367 4.508934497833
84.968658447266 -80.026489257813 -87.710762023926 1.642492651939
81.558570861816 -76.589004516602 -90.419486999512 2.835175037384
87.928359985352 -75.860778808594 -88.189773559570 2.286501646042
88.343139648438 -73.905944824219 -92.984107971191 2.591095209122
92.648551940918 -75.248397827148 -96.479034423828 2.317628383636
-88.265945434570 -70.010482788086 -87.908218383789 4.504916191101
57.847434997559 -76.259689331055 -105.967155456543 2.722924232483
-94.212066650391 -63.268569946289 -106.082550048828 3.389964580536
48.577976226807 -78.583572387695 -107.850212097168 2.150324821472
51.816772460938 -76.973571777344 -113.431198120117 3.766033649445
40.459239959717 -75.014785766602 -114.414398193359 2.454996347427
34.633563995361 -76.841033935547 -136.981018066406 1.924799442291
27.460243225098 -75.640563964844 -140.036926269531 2.087782859802
22.516181945801 -69.333091735840 -142.912353515625 2.809230566025
33.155437469482 -72.541496276855 -142.514190673828 0.919074296951
-46.474700927734 -78.059814453125 -149.692520141602 1.673752069473
-48.843151092529 -76.569969177246 -146.853210449219 1.830355763435
-40.958625793457 -74.663391113281 -154.084655761719 1.777357816696
23.346359252930 -74.275436401367 -153.240081787109 1.667931318283
29.150712966919 -75.722671508789 -167.323776245117 1.760502457619
-33.776432037354 -72.482185363770 -165.440933227539 1.264708280563
-35.469863891602 -70.705215454102 -155.470550537109 2.450130939484
-45.976345062256 -77.829490661621 -154.954956054688 1.272407054901
1.514222979546 -73.506271362305 -161.500152587891 1.476892590523
24.890769958496 -77.160766601563 -150.309875488281 2.239199876785
32.888561248779 -72.895339965820 -159.112533569336 1.907861709595
28.400814056396 -74.844779968262 -169.675354003906 1.217778205872
-7.021443843842 -75.741165161133 -170.164901733398 1.213505268097
-5.244104862213 -77.148895263672 -168.096801757813 1.959163188934
-58.662830352783 -73.556571960449 -162.121398925781 3.959000825882
-61.451061248779 -74.940383911133 -166.226669311523 1.363015532494
-44.404491424561 -77.058700561523 -165.530487060547 1.700345158577
-38.485317230225 -73.883026123047 -163.814865112305 2.826704978943
21.036380767822 -71.856109619141 -170.369735717773 3.737379312515
-24.045911788940 -80.559822082520 -174.973251342773 3.313548803329
-31.515428543091 -73.186111450195 -178.064422607422 1.879029750824
-63.587394714355 -79.125640869141 -174.222961425781 1.895453929901
96.848365783691 -79.453948974609 -184.317825317383 7.302248001099
20.176677703857 -80.277183532715 -173.960449218750 2.123299837112
-26.891672134399 -75.941200256348 -176.579895019531 0.977774441242
-52.518161773682 -75.660049438477 -173.986480712891 1.468332648277
-22.434137344360 -72.821159362793 -177.652206420898 2.316128730774
111.279418945313 -78.335006713867 -184.755844116211 4.357473373413
-56.809253692627 -77.988418579102 -180.276321411133 1.410093784332
10.975119590759 -78.887962341309 -188.542572021484 4.144302845001
16.809820175171 -76.650268554688 -177.411483764648 1.669973254204
-56.981784820557 -81.012809753418 -172.332702636719 1.740500092506
-25.722417831421 -74.765403747559 -179.356536865234 2.282367467880
-56.896842956543 -78.964447021484 -172.474960327148 0.286665827036
-37.380172729492 -77.562347412109 -173.643035888672 2.716782569885
-30.377990722656 -76.197608947754 -183.993484497070 1.872448801994
18.271587371826 -77.431251525879 -187.269470214844 0.743858039379
-49.715835571289 -77.611152648926 -184.097045898438 1.334621191025
101.897384643555 -77.260932922363 -192.817352294922 0.958677828312
-52.306560516357 -72.455978393555 -185.095321655273 1.375568151474
4.855797767639 -76.516723632813 -200.932876586914 4.054317474365
18.927383422852 -76.051940917969 -197.323684692383 2.312522172928
-51.011161804199 -76.074066162109 -187.138305664063 1.364509105682
-18.085405349731 -77.349594116211 -186.344833374023 1.232614636421
97.927665710449 -78.019088745117 -197.322265625000 2.221110105515
94.404884338379 -82.187942504883 -197.410247802734 6.256413936615
-51.191467285156 -74.646446228027 -182.627716064453 1.656383275986
-151.516464233398 -81.270347595215 -190.578018188477 2.060246467590
-47.380943298340 -75.972831726074 -192.055023193359 2.019349098206
-146.762893676758 -76.057739257813 -188.343246459961 1.804020524025
-136.921676635742 -71.038681030273 -189.426406860352 5.871223449707
-48.429939270020 -79.090065002441 -191.823638916016 1.909352660179
7.436305999756 -79.072212219238 -205.397537231445 3.007414340973
-18.229057312012 -74.223373413086 -202.102371215820 3.034965276718
13.922828674316 -74.632705688477 -199.797302246094 2.985060691833
88.819427490234 -82.463699340820 -214.662017822266 5.323164939880
-37.177124023438 -74.775962829590 -198.613739013672 2.181356191635
-16.385051727295 -74.912002563477 -201.175125122070 1.790852308273
-18.763584136963 -74.719818115234 -211.069473266602 1.540159225464
-37.517772674561 -75.477729797363 -200.649826049805 2.735769987106
3.922133922577 -77.359054565430 -204.370941162109 2.940351009369
-81.830696105957 -77.179763793945 -204.849594116211 6.069359779358
13.476185798645 -78.506492614746 -213.224685668945 2.671226263046
-37.454544067383 -75.621849060059 -201.956527709961 2.958371162415
-147.545928955078 -79.141960144043 -198.324996948242 1.642710328102
-144.146697998047 -71.365013122559 -201.704071044922 1.559945106506
-90.855415344238 -76.653114318848 -206.606887817383 6.455410957336
-37.481620788574 -74.431625366211 -205.540344238281 2.256985187531
-17.556417465210 -81.989006042480 -209.366485595703 3.515989065170
-35.680694580078 -77.675170898438 -202.401626586914 0.272096008062
-93.757476806641 -78.567970275879 -210.646179199219 2.899169445038
-89.678665161133 -77.892417907715 -207.444229125977 5.553688526154
3.193538904190 -83.094795227051 -218.598419189453 4.759186267853
-152.127624511719 -69.805831909180 -204.099914550781 1.930369496346
-17.383377075195 -80.890869140625 -209.622680664063 2.546723127365
5.973425865173 -84.156341552734 -216.919891357422 4.777170658112
-147.281158447266 -74.055709838867 -211.220565795898 1.572676301003
-25.966489791870 -78.690460205078 -212.703277587891 1.747424483299
-2.081099987030 -73.302680969238 -217.826538085938 1.680353045464
-11.298908233643 -78.381828308105 -217.070419311523 1.208383083344
-155.596343994141 -71.401115417480 -214.278152465820 3.387700319290
-143.055297851563 -65.914329528809 -217.935012817383 2.964081048965
-7.597958087921 -77.830360412598 -223.231262207031 1.656996488571
-151.674972534180 -80.899398803711 -217.762268066406 2.081232309341
-2.468873023987 -73.054473876953 -227.341552734375 1.916080832481
13.795057296753 -77.238716125488 -234.073516845703 2.445785522461
-5.685236930847 -80.208213806152 -227.429519653320 2.292632579803
-5.454098224640 -72.130355834961 -230.405242919922 2.032625913620
4.889932155609 -76.432998657227 -229.927566528320 2.043642044067
-156.169433593750 -76.413177490234 -230.161926269531 1.387180805206
-23.431991577148 -75.062271118164 -230.625976562500 4.651190757751
-38.547973632813 -79.617752075195 -234.837478637695 5.082114219666
-2.041882038116 -76.283050537109 -232.499298095703 1.147297024727
-1.194604992867 -83.084701538086 -240.404449462891 5.084916114807
-2.046319007874 -76.092216491699 -231.119201660156 1.845692873001
-62.369709014893 -76.393569946289 -237.372589111328 7.421050548553
-153.089813232422 -72.285690307617 -240.045700073242 2.951156139374
-157.410522460938 -75.858879089355 -238.210403442383 1.824734091759
7.351449966431 -80.021514892578 -245.310287475586 0.917436838150
20.834720611572 -80.489318847656 -245.096374511719 1.618623018265
-65.546829223633 -74.060401916504 -242.348220825195 3.612198591232
-146.900436401367 -80.589393615723 -243.357650756836 2.188205718994
-157.973190307617 -79.392745971680 -245.211288452148 5.298676967621
-158.632583618164 -80.246253967285 -247.589141845703 5.381252765656
-147.856765747070 -73.338333129883 -253.382812500000 1.882823348045
-146.252471923828 -76.987747192383 -247.762527465820 1.036181807518
-11.883701324463 -79.845352172852 -253.511444091797 3.224843740463
-150.385269165039 -77.640899658203 -253.224914550781 1.896362304688
-19.578548431396 -79.248504638672 -264.918121337891 6.542224884033
-152.895111083984 -75.052543640137 -262.885803222656 1.939232826233
-153.784255981445 -76.081039428711 -273.262176513672 3.322142839432
-154.152954101563 -74.805816650391 -275.029602050781 2.453820943832
-9.690819740295 -74.115844726563 -282.741424560547 2.955037355423
-154.035064697266 -72.310432434082 -274.168243408203 0.708514928818
-31.965858459473 -79.899139404297 -282.647186279297 4.554197311401
-32.364612579346 -75.546562194824 -281.738891601563 4.447979450226
-20.180303573608 -76.039604187012 -290.621917724609 0.772783756256
-20.490085601807 -75.637916564941 -289.855743408203 1.659882903099
5.614076137543 -81.579025268555 -289.296203613281 3.808050394058
-131.223144531250 -78.835891723633 -282.024047851563 3.775389909744
-67.652778625488 -78.245193481445 -281.987365722656 3.998267173767
-47.980987548828 -75.147232055664 -286.108093261719 1.648736238480
-39.385890960693 -78.962287902832 -283.808166503906 4.406086921692
-15.100617408752 -76.677345275879 -291.044372558594 1.248867630959
-0.688892006874 -79.928627014160 -285.787811279297 3.878668546677
-148.296234130859 -77.627426147461 -288.929626464844 2.404592037201
4.189332008362 -79.579330444336 -293.810943603516 2.892014503479
-160.253723144531 -74.206314086914 -293.384735107422 3.009303569794
-160.655990600586 -81.113853454590 -291.847106933594 5.126221179962
-160.487991333008 -72.978614807129 -303.024108886719 4.340974330902
-150.038421630859 -76.183082580566 -300.737609863281 1.403763890266
-46.285022735596 -71.857040405273 -46.160968780518 3.178014755249
-49.695316314697 -75.984283447266 -51.636875152588 3.277607440948
-62.959968566895 -69.961708068848 -49.640880584717 1.792968988419
-36.334274291992 -70.419761657715 -58.419963836670 4.043664455414
-31.517272949219 -72.720870971680 -55.645420074463 1.711982607841
-15.573908805847 -72.135467529297 -67.282646179199 2.144976615906
-77.679466247559 -69.177581787109 -63.498619079590 5.970406532288
88.385238647461 -75.403617858887 -80.072624206543 1.464979767799
-87.134681701660 -70.189926147461 -67.930473327637 3.032099962234
83.817794799805 -72.707328796387 -78.922019958496 2.915578603745
91.126091003418 -70.506484985352 -86.224952697754 6.607838153839
100.453437805176 -72.350044250488 -92.010513305664 3.378604888916
-58.465499877930 -75.850540161133 -91.355163574219 3.138751506805
84.579307556152 -76.556274414063 -97.921714782715 1.913104653358
79.364021301270 -79.443756103516 -92.165931701660 1.185951232910
89.164894104004 -75.069168090820 -92.136749267578 1.380629658699
-56.656829833984 -73.357040405273 -92.625320434570 3.182530641556
51.322116851807 -72.631622314453 -98.131774902344 2.159095287323
47.798442840576 -74.140571594238 -106.451309204102 2.022093296051
41.848037719727 -75.483024597168 -103.228363037109 3.200039148331
38.348407745361 -74.964950561523 -101.408882141113 4.816111564636
-89.589675903320 -68.357482910156 -97.894905090332 5.188942909241
37.059597015381 -73.108345031738 -116.748138427734 1.814469099045
-82.718032836914 -73.094253540039 -101.285896301270 1.879239439964
41.516883850098 -76.489730834961 -126.744255065918 1.002983808517
34.148506164551 -75.872230529785 -120.043769836426 1.596371650696
35.637901306152 -67.353645324707 -120.961959838867 2.719410181046
46.064910888672 -72.907402038574 -117.333923339844 2.200621843338
42.437030792236 -77.960433959961 -127.782180786133 2.270490646362
-50.362182617188 -67.592987060547 -130.690795898438 0.820311486721
38.350803375244 -79.485504150391 -133.538803100586 2.374259710312
36.105850219727 -75.028861999512 -143.423278808594 2.675409078598
-55.113327026367 -71.711143493652 -138.976913452148 1.674604058266
-44.346073150635 -74.208778381348 -135.874481201172 3.135796546936
35.511501312256 -73.831817626953 -141.882232666016 3.344863891602
111.027618408203 -71.607192993164 -143.502746582031 1.552313923836
112.675369262695 -72.854362487793 -149.146987915039 1.689964771271
27.024360656738 -76.598342895508 -140.464874267578 2.459945678711
-40.030776977539 -76.967880249023 -145.458618164063 3.932744264603
116.518135070801 -83.441696166992 -155.409255981445 6.832252979279
-37.235004425049 -72.265525817871 -148.652282714844 2.502154588699
-68.084709167480 -73.150505065918 -156.849136352539 1.034152626991
110.364479064941 -81.044212341309 -158.549835205078 3.311075687408
22.114892959595 -76.570625305176 -164.832443237305 2.159729957581
0.548843979836 -75.965560913086 -160.465042114258 1.517694830894
111.188972473145 -76.710304260254 -155.477691650391 1.421238064766
-64.628387451172 -73.684448242188 -160.949142456055 0.954649984837
-39.108985900879 -75.666633605957 -161.241241455078 2.245250463486
110.913108825684 -77.699867248535 -167.563110351563 0.997889816761
27.559415817261 -70.343627929688 -157.586517333984 2.280734539032
-62.096073150635 -67.728622436523 -159.543197631836 4.533522605896
112.065467834473 -77.259025573730 -168.641159057617 1.198622345924
-66.006690979004 -75.743499755859 -163.563858032227 1.779200196266
-50.213439941406 -77.619476318359 -177.553146362305 2.525738954544
105.345046997070 -76.207817077637 -173.744873046875 1.723842740059
-60.276870727539 -72.690383911133 -167.193893432617 1.519793987274
111.383705139160 -76.110656738281 -180.511352539063 2.283896207809
-62.134506225586 -73.460792541504 -171.170806884766 2.678790569305
-16.748071670532 -72.554908752441 -174.463165283203 3.964205265045
-11.305760383606 -80.549377441406 -179.390655517578 2.011240720749
107.059547424316 -78.714599609375 -169.302551269531 2.714712619781
20.704353332520 -76.840782165527 -169.952148437500 1.824647068977
30.013856887817 -70.894042968750 -168.371826171875 2.661959409714
-58.846138000488 -73.446952819824 -172.519195556641 0.881510436535
16.324487686157 -73.782341003418 -180.265487670898 1.827392458916
-58.348522186279 -75.023162841797 -169.860290527344 2.068079471588
-53.981739044189 -73.287521362305 -188.950088500977 2.886439561844
9.726074218750 -73.314727783203 -182.947738647461 3.477623224258
-57.020725250244 -69.742355346680 -174.740921020508 3.873601675034
104.720443725586 -74.686004638672 -190.852951049805 1.126191139221
24.546617507935 -78.623901367188 -180.648498535156 1.846625208855
-36.385318756104 -72.540863037109 -184.386093139648 2.488597869873
-44.562614440918 -77.313209533691 -185.569015502930 2.208876848221
9.587425231934 -77.948974609375 -189.762161254883 3.692032814026
-21.172193527222 -76.456138610840 -184.867263793945 1.074435353279
-49.395347595215 -76.414718627930 -190.897460937500 1.228438496590
100.556709289551 -81.053802490234 -184.866744995117 5.320155620575
8.290099143982 -79.227111816406 -188.296997070313 5.963797569275
-134.535430908203 -79.761695861816 -191.549011230469 5.389838218689
-50.170673370361 -77.209960937500 -190.848449707031 1.267355680466
92.634025573730 -76.402366638184 -200.662292480469 3.319746017456
-151.596099853516 -79.606513977051 -193.275848388672 0.821265161037
16.297668457031 -76.580825805664 -198.478973388672 1.288262724876
-45.522010803223 -72.163040161133 -201.718643188477 1.745709538460
-32.576026916504 -78.582229614258 -203.184860229492 1.238726735115
-39.279800415039 -76.395889282227 -197.525787353516 1.830463647842
-47.545719146729 -81.255615234375 -193.388122558594 2.335467815399
98.338882446289 -77.349075317383 -206.647003173828 1.649086236954
-23.150775909424 -79.483299255371 -196.879714965820 1.610240221024
-152.159790039063 -73.684776306152 -192.095870971680 2.467289447784
13.693847656250 -78.654846191406 -200.024353027344 1.814365386963
-79.419860839844 -79.262115478516 -199.823287963867 6.929870605469
-146.577026367188 -71.835235595703 -204.935043334961 1.990809798241
91.221549987793 -79.912582397461 -215.285400390625 2.886731863022
-35.268051147461 -74.055969238281 -203.206542968750 2.873775959015
-31.369701385498 -76.307624816895 -207.448501586914 1.432871580124
7.329549789429 -76.899871826172 -208.030776977539 1.468845963478
-74.084861755371 -79.167335510254 -202.183120727539 3.775049448013
-29.599685668945 -83.352088928223 -202.204513549805 5.386883258820
-10.878541946411 -77.651809692383 -214.089492797852 1.105882525444
-72.974189758301 -76.334640502930 -208.469909667969 1.114394903183
-16.844364166260 -76.615768432617 -214.470932006836 2.165105104446
5.297974109650 -68.263771057129 -209.599319458008 4.469137668610
9.797730445862 -79.508911132813 -219.281387329102 0.831161618233
-154.080581665039 -75.934318542480 -208.564865112305 3.557296752930
-11.648882865906 -76.061309814453 -211.423675537109 2.144497871399
-104.191184997559 -71.154296875000 -213.260345458984 5.967533111572
-24.816516876221 -75.630905151367 -216.092254638672 1.671247482300
86.050842285156 -83.141746520996 -213.546356201172 7.014920711517
5.976840972900 -74.794509887695 -222.726989746094 1.089749813080
18.329622268677 -76.298660278320 -214.908203125000 0.892949819565
77.307579040527 -78.989379882813 -215.412216186523 5.935434341431
-2.079617023468 -80.838066101074 -227.331634521484 2.091659784317
82.493591308594 -78.108505249023 -218.160369873047 2.680271863937
-23.942192077637 -72.099952697754 -221.166336059570 0.651113986969
13.606450080872 -73.495185852051 -216.823989868164 1.426347970963
-151.180114746094 -75.733291625977 -209.961593627930 2.571301937103
-28.878431320190 -77.691467285156 -222.558456420898 1.053663730621
-1.401087045670 -74.219635009766 -228.456130981445 2.763710737228
-159.396682739258 -79.632301330566 -216.020019531250 6.206527709961
-140.593933105469 -77.556304931641 -219.339630126953 3.924375534058
0.268002003431 -76.252250671387 -221.227111816406 1.984009623528
-6.833735942841 -73.072921752930 -222.871704101563 2.795154809952
-140.267745971680 -71.109260559082 -220.845260620117 2.350978612900
-150.894271850586 -75.212089538574 -232.830795288086 2.314881563187
-152.257843017578 -75.255546569824 -226.704269409180 2.414372920990
-35.339813232422 -77.653274536133 -232.957672119141 5.649664878845
-146.152465820313 -78.120910644531 -234.434494018555 2.591264247894
11.737224578857 -78.633499145508 -239.607040405273 2.275330305099
1.714444994926 -76.759460449219 -242.493286132813 1.488961219788
-154.216506958008 -69.254501342773 -229.151428222656 1.991944193840
-153.438476562500 -74.426918029785 -235.751144409180 2.833910226822
-49.618946075439 -78.387184143066 -241.162414550781 2.694218397141
-35.614360809326 -77.397605895996 -243.027557373047 2.322176456451
0.271313011646 -77.097000122070 -240.449676513672 1.904358983040
-40.248111724854 -78.514305114746 -241.279312133789 1.610761642456
17.915412902832 -77.701599121094 -244.984344482422 2.026566743851
-10.262597084045 -79.586364746094 -249.842391967773 3.380119800568
-148.760482788086 -76.203636169434 -244.127899169922 1.860958933830
-14.226152420044 -82.285766601563 -249.921661376953 6.612992286682
-152.265808105469 -72.767768859863 -238.170959472656 2.203417301178
-69.539192199707 -78.289764404297 -244.795181274414 3.251434564590
-151.505645751953 -82.592491149902 -249.975982666016 2.451151132584
-131.861541748047 -75.532264709473 -250.125061035156 4.338259220123
-157.162109375000 -74.750717163086 -248.090438842773 2.693074941635
-15.481506347656 -74.905364990234 -264.395507812500 1.351890921593
-150.784423828125 -81.760467529297 -263.148010253906 1.628509283066
-154.113998413086 -75.942184448242 -260.201385498047 2.747831344604
-16.831899642944 -78.047325134277 -267.791839599609 3.989359855652
-149.272232055664 -75.919448852539 -261.256988525391 1.657026410103
-11.624327659607 -76.480216979980 -273.891693115234 0.832048654556
-51.234905242920 -76.635475158691 -279.495941162109 5.913701057434
-140.510467529297 -73.599227905273 -280.039031982422 4.959758281708
-141.097534179688 -75.466842651367 -277.394042968750 3.393023252487
-128.609756469727 -72.810203552246 -274.037017822266 7.464280605316
-57.501895904541 -76.431663513184 -281.514984130859 2.458168745041
-117.513420104980 -74.850105285645 -276.493438720703 9.552468299866
10.475053787231 -77.763076782227 -290.640411376953 0.767542064190
-62.688526153564 -75.225074768066 -283.580017089844 2.033998489380
-146.675949096680 -75.834968566895 -284.542694091797 1.487343549728
-69.034538269043 -75.860298156738 -285.212341308594 2.047472238541
-150.592330932617 -81.300354003906 -284.558868408203 2.147789478302
-122.207939147949 -73.844367980957 -283.396606445313 2.959508895874
-51.738842010498 -79.968750000000 -285.728698730469 2.856487989426
-39.339427947998 -77.626335144043 -287.556884765625 3.127221584320
-143.662597656250 -71.861366271973 -287.640899658203 2.334375381470
-19.445461273193 -72.353401184082 -279.573608398438 7.798209667206
-0.949782013893 -77.609687805176 -285.091217041016 2.658083200455
0.933404028416 -76.473365783691 -288.236572265625 2.183546781540
9.268345832825 -79.361106872559 -293.602600097656 3.524497509003
-155.774765014648 -80.407051086426 -288.901062011719 1.193086028099
-150.720489501953 -73.694885253906 -284.477294921875 1.504282593727
-62.186923980713 -69.640098571777 -57.064334869385 5.579988479614
92.566558837891 -75.492446899414 -74.093696594238 2.450504064560
82.271888732910 -75.009040832520 -78.497283935547 2.403776645660
-24.279344558716 -74.757247924805 -72.921432495117 2.442471981049
87.297828674316 -72.229949951172 -76.040802001953 2.433572769165
-34.490074157715 -74.725387573242 -75.845733642578 3.037614107132
86.140342712402 -70.260414123535 -83.343872070313 5.173384189606
99.532058715820 -70.345863342285 -81.904342651367 2.521708011627
-61.661758422852 -65.899917602539 -90.920700073242 1.854631781578
75.532028198242 -74.694915771484 -95.095619201660 1.211838722229
82.600494384766 -72.193984985352 -98.867004394531 2.356690645218
99.241897583008 -77.310417175293 -96.985435485840 3.035805702209
57.934307098389 -75.747772216797 -97.066375732422 2.580906629562
-64.567268371582 -69.817039489746 -96.177581787109 2.648994445801
-71.361358642578 -68.164733886719 -95.669754028320 3.714303016663
52.936519622803 -76.081504821777 -103.382644653320 2.103629589081
-85.248016357422 -73.280776977539 -96.159431457520 5.869213581085
48.974964141846 -71.271667480469 -117.790580749512 1.648389935493
112.278785705566 -74.480667114258 -122.295867919922 0.736801147461
114.075630187988 -77.596572875977 -132.853134155273 1.821271777153
21.785902023315 -72.189353942871 -135.633590698242 4.363583087921
111.572479248047 -77.121269226074 -129.159896850586 1.518886685371
29.808908462524 -71.724967956543 -132.321640014648 1.630987167358
114.030754089355 -69.820014953613 -134.848037719727 1.852992296219
38.204193115234 -72.133766174316 -133.912475585938 1.693679809570
-55.346458435059 -72.677085876465 -135.798446655273 2.699511289597
36.730724334717 -78.313476562500 -144.327728271484 1.705441355705
109.816925048828 -73.489425659180 -137.199630737305 1.760040998459
-45.378421783447 -71.578094482422 -139.526245117188 0.355809271336
32.434051513672 -73.328788757324 -149.192214965820 0.999221026897
-55.782020568848 -67.592025756836 -136.511260986328 2.422009229660
-58.319026947021 -72.888236999512 -139.748657226563 1.851041078568
-52.132812500000 -76.416206359863 -145.321395874023 1.670477867126
-64.214881896973 -76.103675842285 -150.538848876953 2.329542636871
112.358734130859 -79.918479919434 -149.557113647461 2.944795131683
-49.702407836914 -79.805488586426 -150.611679077148 3.452564716339
23.092645645142 -79.488693237305 -154.873214721680 2.027855634689
107.586456298828 -76.875602722168 -164.322341918945 1.749317407608
-65.142509460449 -73.148651123047 -149.541488647461 2.649657964706
-43.494472503662 -74.817016601563 -152.939758300781 2.463909149170
9.251267433167 -71.980613708496 -152.475646972656 2.841675758362
-68.050209045410 -73.607902526855 -149.743087768555 1.018674135208
-63.891979217529 -75.972740173340 -153.410751342773 2.079827547073
0.187101006508 -74.569786071777 -159.948654174805 2.009511470795
-44.143848419189 -70.250877380371 -163.619613647461 1.620736479759
28.678077697754 -72.755821228027 -166.224319458008 1.653205752373
-63.452796936035 -69.692153930664 -163.139373779297 2.910812377930
-56.303630828857 -75.680900573730 -161.758056640625 4.003037452698
14.933332443237 -77.747711181641 -158.110092163086 4.613390445709
-30.612758636475 -73.024780273438 -164.786392211914 2.413187742233
-28.990943908691 -76.709381103516 -162.851760864258 2.984957933426
14.413951873779 -76.354446411133 -172.839492797852 3.966329813004
-44.039981842041 -76.901611328125 -168.579315185547 3.533388137817
-11.131304740906 -75.918479919434 -169.426406860352 2.019554138184
-65.888107299805 -70.407409667969 -166.388809204102 2.499811649323
-7.970680236816 -72.088241577148 -171.267410278320 1.836124420166
-22.601198196411 -74.698081970215 -176.412689208984 1.547003507614
21.358484268188 -72.440643310547 -182.502761840820 3.097095489502
-39.398052215576 -75.735366821289 -168.178665161133 2.368708133698
20.211854934692 -71.141921997070 -174.361953735352 0.986688733101
-23.871723175049 -70.883590698242 -182.191833496094 1.444606423378
-32.908641815186 -76.834434509277 -174.117034912109 2.036896705627
-149.434875488281 -70.176155090332 -183.249114990234 2.528220176697
-19.167518615723 -79.005020141602 -180.623672485352 2.509118795395
-141.951370239258 -71.436180114746 -181.020263671875 0.847654104233
-154.722930908203 -73.005134582520 -178.177810668945 2.391503095627
-50.771163940430 -72.514511108398 -184.022613525391 1.624015808105
96.745300292969 -76.051605224609 -196.632949829102 3.016311645508
-146.148162841797 -74.184585571289 -181.931381225586 2.148985862732
-147.890762329102 -71.173782348633 -187.093368530273 1.337078690529
20.943990707397 -73.820739746094 -194.932800292969 2.573682069778
-139.851455688477 -73.490890502930 -187.761001586914 2.400855779648
12.134289741516 -71.725852966309 -197.300384521484 0.777455270290
-139.924301147461 -75.945678710938 -191.027160644531 3.432991266251
11.557785034180 -71.641319274902 -195.810760498047 1.047548413277
-134.529754638672 -69.886657714844 -188.011993408203 6.333501815796
3.442133903503 -72.097900390625 -200.399047851563 5.120210170746
-153.496322631836 -73.076416015625 -193.662185668945 3.321338653564
93.087196350098 -76.836036682129 -207.960464477539 2.773083925247
-18.872245788574 -77.735359191895 -204.739212036133 1.985198259354
-32.567184448242 -73.912300109863 -204.925537109375 1.764247894287
-13.892068862915 -70.455070495605 -202.411560058594 1.762630939484
-147.765396118164 -77.717102050781 -201.869674682617 2.907336950302
-37.354221343994 -74.794998168945 -199.375488281250 2.290502071381
-85.809196472168 -76.205116271973 -197.721160888672 13.291147232056
-28.951717376709 -76.518638610840 -204.756301879883 2.088546752930
12.448298454285 -76.297973632813 -211.569152832031 2.740266561508
-148.718032836914 -71.317649841309 -206.262863159180 1.871090769768
-91.726707458496 -76.538497924805 -212.321746826172 2.281083106995
-31.826503753662 -74.007392883301 -215.406448364258 1.737020611763
-29.842399597168 -75.130104064941 -216.841705322266 2.366924762726
-10.880290985107 -77.008621215820 -206.576721191406 1.655916690826
-29.414436340332 -74.198844909668 -204.566635131836 2.447875022888
-86.525848388672 -74.779327392578 -215.257614135742 2.116242885590
-92.237953186035 -79.570434570313 -213.057861328125 3.363409042358
-25.590328216553 -74.705940246582 -218.063354492188 0.778047502041
-4.868545055389 -83.719917297363 -221.983032226563 4.725791931152
-158.189422607422 -75.424766540527 -207.971801757813 5.526502132416
-5.109226226807 -77.330963134766 -218.696182250977 1.164597988129
84.487098693848 -81.436531066895 -228.457168579102 6.808177947998
-142.179641723633 -76.323982238770 -214.595413208008 2.970393896103
-6.929811954498 -76.352233886719 -218.651992797852 2.313308238983
-142.175460815430 -75.434822082520 -217.188705444336 3.349033594131
-149.922607421875 -81.887817382813 -216.146148681641 1.817773461342
-8.754794120789 -74.709381103516 -225.591644287109 1.223991394043
18.939250946045 -76.921760559082 -213.147384643555 2.674133539200
-141.876022338867 -72.065391540527 -220.852890014648 2.432631969452
-20.688661575317 -77.279281616211 -224.514251708984 1.411100625992
69.464279174805 -77.949958801270 -226.043472290039 6.369718551636
71.693412780762 -77.480995178223 -234.471725463867 3.236719608307
7.362023830414 -78.150970458984 -227.902252197266 2.245388984680
-36.897888183594 -76.921371459961 -231.918426513672 7.109686851501
-27.148393630981 -83.478225708008 -238.456893920898 4.798842430115
-0.698900997639 -74.643974304199 -240.807128906250 1.855481386185
-50.279617309570 -71.210823059082 -239.018051147461 3.386759757996
-24.536954879761 -73.971031188965 -239.494400024414 1.973698854446
6.803132057190 -73.309631347656 -237.027069091797 2.775474071503
-66.792839050293 -75.903022766113 -240.226684570313 6.271085739136
-39.579479217529 -80.477043151855 -239.653778076172 3.090032815933
-42.313488006592 -74.390625000000 -241.218109130859 1.455548524857
-151.509521484375 -71.954330444336 -237.003921508789 1.030066251755
-48.741847991943 -78.739456176758 -243.783691406250 1.742763280869
-56.203464508057 -68.419509887695 -242.655914306641 4.796686649323
-69.497230529785 -75.246620178223 -243.529281616211 3.089724540710
-14.246357917786 -80.426643371582 -243.002136230469 5.522922515869
-83.023155212402 -76.762008666992 -249.010635375977 2.913549900055
-160.425231933594 -80.335670471191 -244.072937011719 5.640797138214
-144.385131835938 -73.285461425781 -245.062957763672 2.471013784409
-125.689788818359 -76.500564575195 -250.763549804688 3.044134378433
-162.316101074219 -70.832054138184 -249.206329345703 1.884865403175
14.503537178040 -83.577796936035 -264.436676025391 2.429878950119
-19.137142181396 -79.020286560059 -265.528747558594 6.469859600067
-159.461761474609 -77.561866760254 -264.713684082031 3.969736099243
-157.626373291016 -81.435485839844 -269.141998291016 3.616674661636
-151.018554687500 -77.717346191406 -276.596862792969 1.653828620911
-63.591259002686 -71.658050537109 -275.038055419922 10.822141647339
-43.940494537354 -71.624725341797 -281.335113525391 5.322083950043
-24.247049331665 -74.619033813477 -285.917327880859 1.867704391479
-14.356895446777 -73.119735717773 -276.266723632813 3.776657342911
-71.395469665527 -79.342483520508 -279.617279052734 7.109823703766
-86.224800109863 -80.186943054199 -279.826965332031 7.100401878357
-7.292480945587 -78.163604736328 -279.972473144531 3.237229585648
-2.313214063644 -78.916976928711 -289.452331542969 2.701788663864
-144.807907104492 -73.772834777832 -277.593353271484 2.361997365952
-85.672660827637 -72.819931030273 -280.091949462891 5.911488056183
-152.267883300781 -74.015289306641 -278.552001953125 2.833427429199
-99.863960266113 -84.222412109375 -278.607238769531 10.004160881042
-83.922966003418 -75.463645935059 -279.777221679688 4.558251380920
-91.476715087891 -73.404113769531 -289.202880859375 2.275252103806
-68.398597717285 -75.962387084961 -286.383239746094 1.609620094299
-35.985740661621 -70.672111511230 -291.273773193359 1.484379768372
-13.737033843994 -76.708145141602 -287.573516845703 3.211119413376
-156.742065429688 -68.559410095215 -290.001861572266 2.512977123260
-154.622756958008 -73.102561950684 -291.715362548828 2.143838882446
-149.899856567383 -74.260757446289 -296.142333984375 1.004550814629
-163.634994506836 -74.863082885742 -295.438293457031 3.925581455231
-51.888446807861 -66.848731994629 -51.394561767578 4.762307643890
-43.500850677490 -69.648147583008 -48.497459411621 2.427615642548
-34.930313110352 -71.967361450195 -49.663513183594 2.189161062241
-72.986663818359 -72.776527404785 -56.539463043213 4.133924484253
-25.095727920532 -69.463478088379 -61.094261169434 4.165019512177
-30.965791702271 -70.455268859863 -75.899665832520 2.459180355072
77.671485900879 -76.832252502441 -83.566139221191 1.669261097908
78.573310852051 -73.209365844727 -80.359275817871 3.050160884857
75.898841857910 -70.530601501465 -84.224899291992 4.604391574860
103.034423828125 -70.036193847656 -92.235771179199 1.610982537270
71.554405212402 -75.334991455078 -89.581604003906 1.728433012962
51.250904083252 -75.526039123535 -88.596702575684 2.855029106140
54.166770935059 -78.607955932617 -100.939064025879 1.501471638680
-63.872478485107 -69.632156372070 -96.825958251953 3.115335464478
-71.385314941406 -66.117057800293 -96.969947814941 2.282068490982
47.329246520996 -74.285247802734 -102.560539245605 2.481351852417
-79.884223937988 -76.621795654297 -103.982101440430 2.625933647156
-90.611763000488 -69.083175659180 -104.198089599609 3.686984062195
53.437522888184 -73.084197998047 -108.138587951660 1.222438454628
109.273452758789 -73.080337524414 -117.676803588867 1.714589476585
34.586929321289 -75.317726135254 -124.258056640625 1.072370052338
44.562038421631 -74.842056274414 -117.967018127441 1.485015034676
41.783718109131 -72.004806518555 -122.387351989746 1.450249671936
31.677648544312 -74.831176757813 -121.075996398926 1.194988965988
110.873138427734 -74.398590087891 -123.226211547852 1.605433821678
40.449310302734 -76.394325256348 -130.542648315430 1.297434687614
35.755569458008 -69.403511047363 -131.466781616211 1.638827681541
-43.636913299561 -71.251457214355 -137.794296264648 2.194255113602
-69.440956115723 -75.234489440918 -137.809097290039 3.217026472092
-52.427928924561 -71.384216308594 -144.068313598633 2.506327152252
-73.845657348633 -76.549995422363 -140.182556152344 1.244118690491
-37.992965698242 -72.295440673828 -143.686477661133 5.296010017395
106.317535400391 -75.640335083008 -158.285751342773 2.180909395218
-71.476806640625 -74.664627075195 -150.752548217773 1.720062494278
24.018121719360 -78.608894348145 -144.889450073242 1.869519829750
29.140253067017 -76.481246948242 -148.455657958984 2.384226560593
111.120079040527 -78.656990051270 -164.664703369141 2.265523910522
9.718803405762 -76.972122192383 -157.129669189453 1.625081419945
33.392131805420 -71.538627624512 -154.427108764648 1.365883350372
-62.946277618408 -75.055397033691 -154.150558471680 2.037236452103
-41.004310607910 -75.495796203613 -169.196395874023 3.094837427139
21.299110412598 -73.932067871094 -161.650650024414 1.293057203293
-64.956863403320 -71.537384033203 -151.720733642578 1.672897458076
-70.207725524902 -72.788681030273 -160.153335571289 2.170346498489
113.475494384766 -77.670753479004 -168.414291381836 1.363035440445
-8.447912216187 -75.153884887695 -162.359802246094 4.194744110107
-65.850616455078 -71.454498291016 -166.818603515625 1.636696577072
-34.845874786377 -75.294685363770 -163.058074951172 2.698239803314
-54.791263580322 -71.887306213379 -167.007980346680 4.517715930939
29.791904449463 -73.734870910645 -173.668655395508 3.020172595978
110.738273620605 -73.029708862305 -175.045379638672 2.237851381302
101.171035766602 -74.276672363281 -185.246429443359 3.974523544312
103.533416748047 -75.532569885254 -191.192535400391 1.133258461952
105.867301940918 -73.075454711914 -178.244720458984 0.995505988598
-52.668018341064 -72.296348571777 -187.243820190430 2.498817205429
-48.798645019531 -70.059371948242 -178.701660156250 6.293251991272
26.282676696777 -74.509643554688 -182.275329589844 2.165291070938
-49.074382781982 -72.169845581055 -181.234252929688 4.014091968536
-21.773727416992 -74.238876342773 -180.407089233398 0.932323813438
-52.408706665039 -76.626884460449 -186.631866455078 1.427565336227
-153.183715820313 -71.196228027344 -183.607025146484 1.596896886826
99.527145385742 -78.176139831543 -194.137741088867 3.747704744339
-45.830959320068 -70.878013610840 -190.330291748047 3.632590532303
-14.386383056641 -76.070564270020 -195.944869995117 2.635284662247
-140.893951416016 -71.920928955078 -184.493942260742 3.309843778610
-43.320026397705 -71.371597290039 -194.387191772461 4.152743339539
99.532875061035 -74.686744689941 -198.282852172852 1.105101585388
106.450561523438 -73.748779296875 -187.038589477539 2.018895387650
-44.752449035645 -73.562049865723 -191.213836669922 0.962286591530
-24.293567657471 -81.577415466309 -195.399414062500 1.783921480179
-148.929016113281 -75.807441711426 -191.245620727539 1.451575279236
-26.638008117676 -73.906364440918 -191.974411010742 2.315883636475
-160.975341796875 -72.765060424805 -187.589080810547 7.212169170380
-154.660705566406 -79.868606567383 -195.800430297852 3.009075403214
-146.283660888672 -74.810111999512 -193.034744262695 2.031153678894
-40.317863464355 -74.861915588379 -196.502777099609 1.873836874962
99.689605712891 -77.345542907715 -204.698745727539 1.632231593132
-43.703002929688 -71.859207153320 -195.515640258789 4.331118583679
-144.408142089844 -76.530891418457 -196.100112915039 1.157245397568
-39.362071990967 -70.056640625000 -201.309585571289 3.458482503891
-24.239635467529 -80.046165466309 -206.206726074219 4.069237709045
95.539909362793 -79.018081665039 -207.129135131836 2.934606313705
87.874870300293 -77.947265625000 -215.720199584961 3.027497291565
-39.207614898682 -72.502990722656 -213.034515380859 6.759893417358
-90.336387634277 -75.109046936035 -203.765686035156 8.254344940186
-77.975860595703 -74.967636108398 -205.804031372070 3.966637611389
-21.456562042236 -74.686630249023 -207.005142211914 2.768326044083
-151.766845703125 -74.761291503906 -193.400833129883 1.976039171219
88.939979553223 -75.693115234375 -215.155578613281 2.271883010864
85.937500000000 -72.971656799316 -219.159484863281 2.293867111206
87.099830627441 -76.908668518066 -221.831604003906 1.658406138420
-105.239494323730 -74.592712402344 -211.746246337891 7.787475585938
-157.036422729492 -75.521675109863 -211.826461791992 3.498970031738
-23.066045761108 -72.925704956055 -220.254089355469 1.679439902306
77.591461181641 -72.818580627441 -228.071990966797 1.534192442894
-152.879776000977 -77.249183654785 -212.930587768555 4.124285697937
-31.601747512817 -76.179374694824 -213.526718139648 1.032408833504
-137.249923706055 -71.655708312988 -224.401000976563 3.033879995346
-14.511772155762 -78.065727233887 -228.204544067383 3.335543155670
14.143176078796 -74.346435546875 -226.722732543945 2.914880514145
16.796232223511 -76.641258239746 -231.494018554688 1.078921437263
-158.677673339844 -76.438690185547 -225.923858642578 3.644069671631
-129.554534912109 -69.596000671387 -224.757446289063 1.339054822922
-11.659365653992 -74.891845703125 -232.575378417969 1.605726122856
-3.323384046555 -74.529190063477 -235.053100585938 2.422471761703
65.843879699707 -76.021545410156 -231.681121826172 3.186796426773
65.863548278809 -72.897056579590 -239.425674438477 0.829578876495
-3.856901884079 -73.142044067383 -237.650161743164 1.183711051941
12.493185043335 -71.321723937988 -238.177246093750 0.854561090469
-34.769557952881 -66.917945861816 -237.575973510742 7.868954181671
-36.375499725342 -84.026008605957 -237.944580078125 5.822329998016
-51.969593048096 -74.650512695313 -231.610885620117 8.242449760437
-43.926853179932 -72.622467041016 -235.698654174805 5.234856128693
-20.277996063232 -76.698425292969 -239.591842651367 0.479657888412
-55.692844390869 -72.826477050781 -239.447967529297 3.473512411118
-2.120256900787 -76.262550354004 -242.701339721680 2.377969980240
-72.109321594238 -76.857452392578 -237.333145141602 9.428077697754
17.451715469360 -77.316574096680 -245.463973999023 2.571156024933
-146.253860473633 -76.344543457031 -235.270111083984 2.256983041763
-77.187271118164 -77.651824951172 -247.569824218750 4.513751029968
12.240283966064 -77.042366027832 -247.963165283203 2.222435235977
-165.018005371094 -72.340461730957 -239.791198730469 1.978761315346
9.017520904541 -80.354431152344 -251.498657226563 0.393714815378
-84.330223083496 -68.559379577637 -244.926132202148 4.802641868591
-79.772163391113 -75.199966430664 -244.573364257813 3.965988397598
14.311455726624 -78.128356933594 -252.394943237305 2.503496408463
-93.517967224121 -73.846343994141 -244.588180541992 6.699340343475
-129.931182861328 -70.368354797363 -246.604110717773 5.801221370697
-136.958847045898 -78.176681518555 -251.951644897461 2.612028360367
-140.215072631836 -77.222549438477 -244.163131713867 4.293090343475
-151.364303588867 -76.038627624512 -252.515228271484 2.508121252060
-149.972778320313 -70.379570007324 -243.766952514648 3.235674858093
-138.711364746094 -72.442474365234 -253.340087890625 3.217299461365
-166.102859497070 -70.090232849121 -250.859954833984 1.335695028305
-132.709396362305 -74.316848754883 -259.015045166016 1.862920761108
-140.795257568359 -68.633140563965 -254.536666870117 2.274873733521
-167.299209594727 -70.655677795410 -260.285369873047 0.809353768826
-160.250869750977 -71.091979980469 -255.238342285156 2.586100101471
-152.804962158203 -72.137023925781 -256.724761962891 2.508139848709
-153.404129028320 -74.875991821289 -256.595550537109 1.497181177139
11.795584678650 -79.171112060547 -277.001892089844 3.273572921753
-171.066909790039 -73.915016174316 -256.036071777344 3.637335538864
-156.503158569336 -75.922264099121 -264.197662353516 2.129302740097
-10.299576759338 -84.445854187012 -269.587158203125 5.166993141174
-160.229171752930 -71.530899047852 -265.625671386719 2.859811067581
6.379744052887 -80.321464538574 -281.045867919922 2.728281497955
-158.025939941406 -73.831924438477 -272.228027343750 2.520741701126
-171.535705566406 -75.739311218262 -278.680847167969 4.588576793671
-160.609573364258 -77.243621826172 -268.683532714844 4.113459587097
-170.197616577148 -71.897933959961 -279.285064697266 3.257548332214
