26.842773437500 -77.207138061523 -184.509811401367 1.445556759834
-48.457805633545 -74.188346862793 -186.950820922852 2.218408346176
-21.244447708130 -76.533760070801 -184.895690917969 0.981784164906
-51.569774627686 -78.474189758301 -192.613342285156 2.660675764084
-152.327575683594 -72.178192138672 -194.187530517578 2.830551862717
100.533378601074 -81.255126953125 -193.008346557617 5.069125175476
-44.778034210205 -72.694389343262 -195.847656250000 3.512767314911
-13.146800041199 -78.035995483398 -200.111541748047 2.135268449783
-140.015945434570 -72.995124816895 -194.514450073242 2.617186307907
-42.082431793213 -73.107406616211 -199.793548583984 2.352916479111
100.763305664063 -77.660896301270 -197.056381225586 2.424496889114
107.149711608887 -77.076187133789 -185.478820800781 2.904262304306
-43.680934906006 -75.364898681641 -196.749114990234 2.051248788834
-23.113292694092 -83.461891174316 -200.175796508789 4.209551334381
-147.754653930664 -76.631904602051 -201.735183715820 2.858861207962
-25.554191589355 -75.859451293945 -196.666244506836 0.850954413414
-159.934997558594 -73.571380615234 -198.570846557617 4.045514106750
-153.297805786133 -80.521133422852 -206.658493041992 3.612381696701
-145.019729614258 -75.613914489746 -203.371429443359 1.931349039078
-39.012290954590 -76.570373535156 -201.855850219727 1.360953450203
101.201141357422 -80.155815124512 -203.524856567383 3.439741611481
-42.415657043457 -73.562339782715 -200.951049804688 1.790001153946
-143.015640258789 -77.273117065430 -206.389038085938 1.487340807915
-37.791404724121 -71.652717590332 -206.485717773438 2.066436052322
-22.536579132080 -81.654861450195 -210.925125122070 4.131233215332
97.157333374023 -81.726570129395 -206.190292358398 5.591000080109
89.915527343750 -80.364204406738 -215.101318359375 3.388690948486
-37.103401184082 -73.799247741699 -218.250152587891 5.791038036346
-88.632400512695 -76.162399291992 -211.465362548828 2.428093194962
-76.188667297363 -76.084709167480 -212.916198730469 0.944191038609
-19.675273895264 -76.302963256836 -211.452087402344 1.280766010284
-150.478927612305 -75.504325866699 -203.993408203125 1.231207132339
90.971145629883 -78.135345458984 -214.428756713867 1.489018321037
88.183387756348 -75.284179687500 -218.497161865234 2.785692453384
89.438446044922 -79.162178039551 -221.213272094727 3.042699813843
-103.137321472168 -75.302093505859 -220.121353149414 2.675768613815
-154.878555297852 -75.743011474609 -222.659896850586 2.279169559479
-20.642894744873 -74.188201904297 -224.711700439453 1.566221237183
80.269058227539 -74.824600219727 -227.785049438477 1.828792572021
-150.688629150391 -77.480567932129 -223.612045288086 1.375552296638
-29.513021469116 -77.532966613770 -218.479888916016 1.017916083336
-134.489440917969 -71.741874694824 -234.185760498047 1.554201602936
-11.764940261841 -79.202850341797 -232.382461547852 3.650245189667
16.817462921143 -75.791564941406 -229.459304809570 1.588026046753
19.674062728882 -77.988189697266 -234.158767700195 2.122207164764
-155.859680175781 -76.283164978027 -236.837936401367 3.532554388046
-126.769248962402 -69.745956420898 -234.126403808594 2.227004528046
-8.683513641357 -75.944931030273 -236.530334472656 2.822666168213
-0.237142995000 -75.597091674805 -238.603286743164 1.646193981171
68.679267883301 -77.823776245117 -232.024429321289 3.155411720276
69.090126037598 -74.502243041992 -239.675552368164 2.359164476395
-0.636093020439 -74.138931274414 -241.185546875000 1.385616898537
15.734956741333 -72.459083557129 -240.896102905273 2.175282001495
-31.465969085693 -67.629219055176 -242.402221679688 7.887025833130
-33.192234039307 -84.706413269043 -243.291107177734 4.650869846344
-48.991020202637 -75.350448608398 -237.455368041992 2.320019960403
-40.747936248779 -73.293846130371 -241.106460571289 2.031272649765
-16.975650787354 -77.490287780762 -243.988723754883 2.258647203445
-52.325027465820 -73.291419982910 -245.408615112305 2.689239501953
1.311627984047 -77.145164489746 -246.229049682617 1.181136012077
-68.855400085449 -77.221153259277 -244.173278808594 2.725647211075
20.982978820801 -78.311523437500 -248.095321655273 2.202145576477
-143.008026123047 -76.066108703613 -245.584381103516 2.744852066040
-73.450592041016 -77.705383300781 -254.654510498047 1.964804172516
15.897789955139 -77.924537658691 -250.828704833984 1.151060700417
-161.504455566406 -71.771774291992 -250.876541137695 3.272219657898
12.818660736084 -81.114585876465 -254.596740722656 3.096817493439
-80.636009216309 -68.617073059082 -252.113647460938 2.320960283279
-76.154014587402 -75.306968688965 -251.720031738281 0.994950652122
18.167001724243 -78.916015625000 -255.185012817383 1.973280549049
-89.872291564941 -73.824584960938 -252.345596313477 1.334764957428
-126.120109558105 -69.954841613770 -255.979354858398 3.006127834320
-132.950881958008 -77.557388305664 -261.852691650391 2.785866737366
-136.563369750977 -76.772598266602 -254.203613281250 1.226549863815
-147.295730590820 -75.270629882813 -263.036804199219 3.159104824066
-146.272750854492 -69.850830078125 -254.088455200195 2.681704759598
-134.589050292969 -71.773315429688 -263.172241210938 1.266292810440
-162.046997070313 -69.228668212891 -261.921722412109 1.641014099121
-128.341278076172 -73.557891845703 -268.605712890625 4.583073616028
-136.582962036133 -67.915214538574 -264.365844726563 0.565532624722
-162.801498413086 -69.541229248047 -271.404479980469 1.012444257736
-156.003158569336 -70.172744750977 -266.044860839844 2.214637041092
-148.504119873047 -71.249130249023 -267.206420898438 2.492565870285
-149.131042480469 -73.984779357910 -267.176818847656 1.993646025658
16.807514190674 -79.304435729980 -279.901794433594 3.165973186493
-166.792129516602 -72.872886657715 -267.423217773438 2.257336378098
-151.876052856445 -74.806861877441 -274.940826416016 2.424479961395
-5.655444145203 -84.560005187988 -273.673461914063 3.870615005493
-155.494537353516 -70.345611572266 -276.427612304688 3.537528514862
11.579475402832 -80.299995422363 -284.224395751953 1.467977285385
-153.000839233398 -72.497306823730 -282.976776123047 1.913077235222
-166.205917358398 -74.112014770508 -290.104827880859 2.857953786850
-155.776718139648 -75.974311828613 -279.647613525391 4.472033977509
-164.809494018555 -70.269134521484 -290.545318603516 1.963574886322
0.191758006811 -80.106834411621 -288.104125976563 4.547830581665
6.836637020111 -81.987533569336 -282.613861083984 3.488487720490
-105.219673156738 -71.862472534180 -293.893005371094 3.689444541931
-156.425186157227 -79.481376647949 -289.264862060547 1.060752868652
-148.298904418945 -70.541511535645 -286.605834960938 1.905753135681
-106.318107604980 -72.762733459473 -293.178070068359 3.245373964310
-153.516616821289 -76.325820922852 -294.457244873047 0.904987931252
-148.708480834961 -77.557151794434 -290.199157714844 1.392129778862
-75.181640625000 -78.345115661621 -294.602020263672 5.242896080017
-168.112823486328 -75.140457153320 -290.466003417969 4.690940856934
-122.785644531250 -69.773559570313 -292.887756347656 1.050062894821
-43.298347473145 -80.183578491211 -287.072357177734 2.466382741928
-151.779586791992 -72.660423278809 -289.205322265625 2.105913877487
-131.706085205078 -68.182075500488 -295.107849121094 3.414745807648
-20.183895111084 -73.353187561035 -295.806121826172 4.843832969666
-129.205368041992 -69.337753295898 -294.487548828125 2.727346181870
5.919844150543 -77.723991394043 -296.015899658203 3.146451950073
14.949854850769 -73.944786071777 -293.396728515625 1.656875967979
-133.511932373047 -68.992134094238 -292.345428466797 1.888267278671
-145.774688720703 -75.119941711426 -299.986907958984 0.992382586002
-156.545486450195 -76.420021057129 -316.750671386719 5.373420238495
-72.542617797852 -69.658271789551 -54.060989379883 3.174580812454
-22.509836196899 -69.363914489746 -66.969627380371 5.043962955475
-20.460910797119 -78.784797668457 -66.232414245605 2.731332778931
70.500129699707 -75.264724731445 -79.376762390137 2.793103218079
89.540344238281 -77.425430297852 -76.671768188477 1.743252635002
-37.119392395020 -75.244972229004 -81.119110107422 1.895573139191
75.233581542969 -76.807655334473 -81.609489440918 2.202351093292
89.201591491699 -82.055686950684 -83.708000183105 4.622757911682
65.559257507324 -77.895195007324 -85.130142211914 5.924025058746
72.458572387695 -76.326385498047 -91.445190429688 2.541198492050
-50.883369445801 -75.669303894043 -86.446334838867 1.597445368767
-92.635635375977 -76.828758239746 -90.913528442383 1.590414404869
58.444263458252 -80.496612548828 -94.917282104492 5.990510463715
49.541114807129 -79.648345947266 -101.055007934570 1.807678461075
92.212326049805 -74.201843261719 -102.115104675293 1.521395325661
-91.522705078125 -68.456207275391 -103.117240905762 4.776638031006
79.588935852051 -72.677078247070 -101.183616638184 1.498262643814
71.048721313477 -78.436355590820 -102.214881896973 6.083778858185
90.454216003418 -80.841384887695 -98.983451843262 6.294328212738
82.884948730469 -78.169746398926 -97.505554199219 2.369581460953
79.952323913574 -80.961509704590 -99.944808959961 6.330584526062
-88.980918884277 -75.934913635254 -104.097633361816 4.281739234924
43.277568817139 -74.210777282715 -106.065002441406 2.868398666382
104.123397827148 -79.836410522461 -111.678161621094 5.617194175720
106.152236938477 -79.327087402344 -111.579360961914 4.508789062500
48.891979217529 -80.681190490723 -121.324752807617 3.997022628784
112.186393737793 -82.189903259277 -120.550827026367 5.848638057709
116.544578552246 -82.522285461426 -135.976516723633 6.101303100586
-51.339271545410 -71.898040771484 -130.828918457031 1.418994188309
27.026493072510 -76.163398742676 -135.993743896484 1.873659372330
40.253841400146 -80.762306213379 -134.846389770508 4.446058273315
23.958209991455 -73.690086364746 -143.193389892578 0.346174418926
111.971549987793 -82.757286071777 -137.986053466797 5.114607810974
110.685440063477 -80.242156982422 -131.205154418945 3.884947538376
-74.247100830078 -73.920578002930 -149.775527954102 2.829262733459
-44.276077270508 -73.754432678223 -142.018478393555 1.811634063721
-71.963821411133 -72.052009582520 -154.010620117188 1.865839123726
18.007511138916 -74.185302734375 -149.345336914063 3.232900857925
111.430633544922 -75.503265380859 -149.064117431641 2.565474987030
-54.811733245850 -76.449325561523 -153.511306762695 4.548258304596
-72.928237915039 -72.962577819824 -153.703186035156 2.023749113083
-40.002864837646 -78.287971496582 -152.837585449219 2.056141376495
31.161920547485 -70.793441772461 -155.015106201172 1.314162254333
108.191032409668 -74.392524719238 -151.368972778320 1.731848835945
116.087348937988 -77.439018249512 -162.732696533203 2.281597137451
-68.871948242188 -70.761749267578 -157.499984741211 2.414401054382
-75.522483825684 -76.612785339355 -161.772415161133 4.799523830414
21.138599395752 -81.111587524414 -164.673904418945 3.388436317444
-60.897663116455 -71.712654113770 -168.554183959961 1.555260777473
-33.091926574707 -72.602554321289 -164.800155639648 1.958295226097
7.830468177795 -77.838012695313 -165.276855468750 2.881212234497
106.780372619629 -75.369422912598 -162.457519531250 2.961057424545
9.136602401733 -80.097732543945 -169.524948120117 7.440112113953
-33.107242584229 -75.290962219238 -167.261199951172 1.947213172913
-3.900901079178 -69.917861938477 -166.067382812500 4.231993198395
106.113197326660 -74.145507812500 -167.837753295898 1.054862856865
-42.353473663330 -72.153259277344 -165.142456054688 2.638934135437
29.702482223511 -73.676376342773 -174.572830200195 3.218739032745
113.640243530273 -83.172203063965 -173.314086914063 5.733892917633
-57.685939788818 -70.784309387207 -177.153121948242 2.327394485474
-28.577148437500 -78.566589355469 -176.969436645508 0.280290693045
101.050666809082 -78.846229553223 -175.400985717773 6.717495918274
28.743778228760 -73.828430175781 -169.102447509766 1.663648486137
104.016624450684 -80.034667968750 -176.799819946289 4.725613594055
-37.377307891846 -70.310585021973 -180.613494873047 1.993637800217
108.943351745605 -82.322731018066 -181.757720947266 5.891897201538
-63.761207580566 -70.619628906250 -179.063476562500 5.566330432892
-26.483940124512 -79.716598510742 -179.192077636719 2.193621397018
-147.832931518555 -65.524696350098 -186.215469360352 1.451898574829
-54.599899291992 -73.275848388672 -180.537353515625 2.098200082779
-147.963378906250 -72.601631164551 -187.658920288086 1.443893671036
-35.493003845215 -72.287567138672 -184.921646118164 1.888860225677
28.268033981323 -81.879478454590 -180.080459594727 2.886435508728
105.166381835938 -79.366905212402 -184.499740600586 3.062333822250
-36.885940551758 -74.050788879395 -183.440093994141 2.610640764236
9.919751167297 -76.417198181152 -192.168869018555 1.837370991707
15.691590309143 -75.475234985352 -206.627868652344 1.526962161064
-149.790069580078 -72.629272460938 -189.844879150391 1.406964778900
105.845283508301 -81.551147460938 -196.870254516602 2.671875476837
-23.788406372070 -72.743965148926 -194.212936401367 2.417987823486
99.991485595703 -79.624511718750 -188.129623413086 4.220436096191
11.473088264465 -72.779319763184 -191.633773803711 2.359765291214
-140.357467651367 -72.012176513672 -207.341430664063 4.542608261108
-138.214523315430 -71.316390991211 -201.109924316406 1.526024103165
101.568267822266 -82.100708007813 -202.528472900391 4.280786514282
-12.423168182373 -79.895942687988 -201.237197875977 1.994302988052
-17.773359298706 -75.719230651855 -205.577087402344 1.517997503281
10.811287879944 -78.404357910156 -208.700988769531 1.383379101753
-150.376876831055 -70.967041015625 -207.910049438477 2.821376562119
-146.961181640625 -73.291297912598 -211.157119750977 1.258293867111
100.671501159668 -71.895866394043 -206.547073364258 2.811202287674
-84.993041992188 -73.141921997070 -209.014053344727 3.167583942413
-35.808368682861 -76.023994445801 -201.921463012695 1.986523151398
19.528085708618 -79.764358520508 -216.241134643555 3.667743444443
-25.070793151855 -75.600013732910 -212.162414550781 0.899050354958
-75.455993652344 -71.620391845703 -207.291992187500 1.519564151764
90.518737792969 -77.929206848145 -209.997665405273 3.217860460281
-79.604171752930 -70.560920715332 -213.638809204102 2.466686725616
-148.360214233398 -71.712020874023 -220.878265380859 2.566623687744
-80.691978454590 -71.601814270020 -214.019119262695 1.776519894600
-12.071312904358 -69.004951477051 -208.929306030273 1.881472945213
-20.823390960693 -71.910453796387 -221.333587646484 2.157312631607
17.923835754395 -76.552200317383 -215.742050170898 0.766365587711
-5.623112201691 -77.070968627930 -223.139022827148 1.365523815155
-88.947692871094 -79.104759216309 -220.699966430664 4.254928112030
92.580482482910 -76.772766113281 -214.740158081055 0.971435248852
-100.369499206543 -71.339988708496 -216.932723999023 2.004958391190
-154.080612182617 -69.716957092285 -226.941726684570 2.241981744766
-29.141216278076 -73.873512268066 -225.818878173828 4.233948707581
18.429189682007 -77.186470031738 -216.888504028320 1.826486110687
-102.595695495605 -73.710876464844 -221.549392700195 0.989436149597
7.028242111206 -70.771202087402 -218.750045776367 3.362691879272
-27.515155792236 -74.690605163574 -215.979980468750 1.091638565063
82.075569152832 -75.100166320801 -225.768188476563 2.354179382324
-144.897171020508 -70.208366394043 -219.116546630859 2.032886981964
13.577763557434 -74.888404846191 -227.012451171875 3.225544691086
-9.926047325134 -79.001792907715 -229.010375976563 0.794728100300
17.511350631714 -67.923286437988 -224.608596801758 2.979860067368
83.472984313965 -78.904296875000 -223.674362182617 2.954800128937
-14.854969978333 -78.798736572266 -230.446441650391 4.681860923767
-130.846481323242 -74.326309204102 -228.610290527344 1.388950705528
-15.288452148438 -74.793434143066 -225.453384399414 1.588639855385
16.344196319580 -75.548706054688 -230.536407470703 1.507041573524
-128.106140136719 -75.347122192383 -228.697097778320 2.379323720932
-153.545745849609 -67.968688964844 -232.692672729492 1.983179688454
-143.371200561523 -70.651062011719 -230.803085327148 2.262131452560
-128.916549682617 -69.826492309570 -228.100601196289 2.587155818939
-11.870132446289 -71.937599182129 -225.472961425781 0.993495345116
71.529907226563 -76.827796936035 -228.188079833984 3.750609159470
-144.567977905273 -67.053131103516 -240.881774902344 1.815622210503
68.349487304688 -78.040161132813 -229.233276367188 4.487964630127
-21.592649459839 -79.009246826172 -232.407440185547 2.403068542480
-142.945388793945 -74.913040161133 -229.902313232422 0.870421826839
76.029144287109 -85.040428161621 -230.200698852539 8.913286209106
9.686593055725 -80.827682495117 -233.287353515625 2.005383253098
-140.591400146484 -75.794364929199 -237.774871826172 4.629250049591
-149.908172607422 -70.709907531738 -234.886352539063 2.757380723953
17.382001876831 -71.364646911621 -231.839462280273 1.603080034256
-2.888025999069 -79.074630737305 -240.263275146484 2.581655263901
-29.789556503296 -73.568084716797 -238.117004394531 2.762696027756
-1.741449952126 -70.343490600586 -237.550811767578 1.545548915863
-160.938705444336 -74.750526428223 -239.636322021484 1.883072257042
5.704524993896 -73.090690612793 -243.923843383789 1.992903947830
-165.131515502930 -72.585762023926 -242.496124267578 3.289119243622
-12.335561752319 -76.211898803711 -238.706451416016 2.860088109970
58.628570556641 -77.755287170410 -240.161361694336 2.850261211395
-13.813823699951 -73.386817932129 -237.893218994141 1.351166009903
-25.291389465332 -74.254753112793 -248.349639892578 5.668246269226
-24.722467422485 -74.169708251953 -243.005233764648 2.295754909515
-11.393008232117 -79.026931762695 -241.269149780273 5.977652072906
-146.742736816406 -72.590438842773 -230.151351928711 1.435423612595
7.572652816772 -74.192970275879 -242.661788940430 1.806327462196
63.808376312256 -76.459556579590 -245.659667968750 4.333451271057
15.350878715515 -72.527221679688 -246.325408935547 1.066491246223
-168.925720214844 -69.082099914551 -244.505279541016 2.985368251801
-51.800537109375 -72.819709777832 -240.307937622070 3.271579027176
4.535342216492 -82.634712219238 -250.049255371094 3.020752906799
16.958496093750 -76.075050354004 -244.435272216797 3.203505039215
-54.104747772217 -73.496749877930 -248.801513671875 1.860231518745
-2.186294078827 -69.670516967773 -251.174468994141 5.567834854126
20.194938659668 -82.958450317383 -249.856460571289 2.241523265839
-171.874099731445 -68.352317810059 -250.903656005859 5.340978145599
-65.889038085938 -77.969772338867 -250.475143432617 1.983422875404
-52.569068908691 -71.900100708008 -249.074783325195 3.559529304504
-82.793945312500 -71.272697448730 -254.270690917969 1.220188260078
-162.185516357422 -72.890876770020 -248.221405029297 1.579779744148
-150.725326538086 -62.365432739258 -249.767898559570 1.438127279282
-60.890213012695 -75.943214416504 -251.257507324219 2.422475814819
-68.927787780762 -73.021621704102 -250.408599853516 2.071848154068
-153.839736938477 -68.672065734863 -253.953384399414 1.667856216431
-152.385681152344 -72.817779541016 -253.925827026367 1.465312004089
-74.940055847168 -68.337234497070 -256.430999755859 4.820850372314
-93.687164306641 -69.244224548340 -258.096771240234 2.068617820740
-163.425857543945 -64.196609497070 -255.310195922852 5.274048328400
-157.575698852539 -71.698921203613 -262.969360351563 2.399653911591
-135.655883789063 -73.958396911621 -261.817993164063 1.589656233788
-83.565750122070 -72.489509582520 -251.489990234375 0.882941126823
-161.914978027344 -66.890808105469 -255.428955078125 3.564539670944
-141.838211059570 -68.735069274902 -258.997253417969 2.034507036209
-85.124725341797 -71.848533630371 -250.411972045898 1.811145305634
-97.595390319824 -70.520393371582 -263.305450439453 4.087697029114
-143.562698364258 -72.825584411621 -257.060394287109 2.170205354691
-92.792671203613 -72.496620178223 -257.376556396484 1.932338118553
-154.621536254883 -68.912498474121 -257.241088867188 0.565091311932
-103.949569702148 -71.945007324219 -256.355133056641 0.995562732220
-171.093734741211 -69.590820312500 -260.549926757813 2.672330379486
-162.380706787109 -73.240577697754 -267.914733886719 3.627627372742
-128.175994873047 -76.342758178711 -257.891143798828 1.796764612198
-152.692016601563 -71.794448852539 -261.418365478516 2.322433710098
-110.126472473145 -68.216339111328 -264.456573486328 3.175054311752
-14.177003860474 -72.444137573242 -263.367919921875 1.258539915085
-141.072219848633 -71.118286132813 -262.430175781250 2.217608928680
-127.049888610840 -70.812774658203 -261.861511230469 1.578304648399
-153.583770751953 -68.840126037598 -265.166534423828 2.602773189545
24.390989303589 -76.745292663574 -273.346893310547 3.916507482529
-149.780380249023 -74.095413208008 -281.206604003906 2.579336166382
-169.207595825195 -71.161514282227 -283.985351562500 2.497103929520
-9.023653030396 -73.651786804199 -281.058013916016 2.487668991089
-145.206619262695 -70.594284057617 -281.367675781250 1.324652075768
-10.752422332764 -72.684288024902 -284.937530517578 2.539601087570
12.662228584290 -76.477767944336 -287.975158691406 2.140039682388
-137.129959106445 -68.813293457031 -287.701812744141 1.064730882645
-66.494941711426 -76.012420654297 -288.992218017578 2.359662532806
-33.503273010254 -77.522193908691 -290.675354003906 2.116736173630
-112.543830871582 -72.336624145508 -284.533081054688 2.048032760620
-97.146644592285 -77.814666748047 -291.695190429688 0.990940809250
-88.745529174805 -73.382225036621 -293.235473632813 2.527506113052
-50.983196258545 -75.447471618652 -294.108428955078 4.165949344635
-116.235061645508 -78.181182861328 -289.042297363281 2.067145586014
-115.587913513184 -73.801719665527 -292.044616699219 1.416002154350
-33.716842651367 -70.756301879883 -289.445892333984 1.909254789352
-116.623985290527 -73.488014221191 -295.597259521484 1.862764835358
-128.278640747070 -66.170471191406 -290.857788085938 2.339122295380
-144.982025146484 -74.316352844238 -296.313964843750 2.554661750793
6.882328033447 -75.542510986328 -292.180114746094 1.551001071930
17.918313980103 -77.679420471191 -294.169158935547 3.082969188690
-161.554931640625 -70.544036865234 -294.193542480469 1.165046930313
-160.538665771484 -75.438224792480 -302.710998535156 4.966834068298
-148.438079833984 -72.952087402344 -311.868225097656 1.825143933296
-152.945892333984 -70.252815246582 -312.203460693359 2.409900665283
-152.711410522461 -71.725273132324 -316.327911376953 3.790534973145
27.196132659912 -80.278915405273 -15.134460449219 7.221382141113
33.471000671387 -72.976440429688 -20.620672225952 2.806755304337
20.377799987793 -75.762825012207 -26.645900726318 3.328260660172
28.549972534180 -72.536865234375 -40.457714080811 1.227664113045
-59.588302612305 -72.593795776367 -51.816486358643 3.462819337845
-65.587028503418 -73.129135131836 -52.239967346191 0.981934010983
-40.051830291748 -78.472999572754 -50.514530181885 5.644056320190
-87.031036376953 -66.209487915039 -67.294548034668 5.776009082794
79.562774658203 -80.712371826172 -76.494926452637 5.432116985321
-13.781275749207 -70.763153076172 -72.810577392578 3.761736869812
88.541320800781 -78.170440673828 -64.500442504883 5.101068019867
99.830017089844 -77.549736022949 -76.823875427246 3.570810556412
-92.677749633789 -69.754539489746 -76.651107788086 3.158147096634
65.327690124512 -76.861381530762 -81.741394042969 5.975679874420
-40.702468872070 -77.938133239746 -88.205085754395 2.170336008072
100.837059020996 -77.561508178711 -82.006881713867 3.625972032547
-57.855659484863 -70.631286621094 -89.884696960449 2.404841899872
49.256111145020 -77.120162963867 -91.996047973633 3.466509342194
69.226020812988 -84.550125122070 -91.258476257324 10.001561164856
53.451778411865 -75.110610961914 -96.980003356934 2.056025028229
51.997932434082 -78.240951538086 -100.125411987305 1.669872403145
74.574119567871 -81.181365966797 -97.327064514160 5.832229137421
46.526805877686 -75.611473083496 -109.445442199707 2.151580333710
97.482238769531 -78.569801330566 -103.126060485840 5.799427032471
104.458374023438 -83.609664916992 -108.731018066406 8.596939086914
77.230552673340 -74.836318969727 -105.052635192871 4.451317310333
92.978279113770 -79.171913146973 -106.012336730957 7.247383117676
99.475830078125 -78.346015930176 -94.733161926270 5.205646514893
109.268890380859 -79.607131958008 -105.375297546387 3.082053184509
39.152011871338 -75.398597717285 -107.858329772949 2.388264417648
112.918304443359 -75.359939575195 -118.943153381348 2.950242996216
113.766616821289 -80.092544555664 -120.575576782227 5.054810047150
29.625413894653 -73.660346984863 -125.853607177734 3.144595623016
43.899406433105 -78.091033935547 -119.534072875977 1.177678942680
114.716384887695 -79.377395629883 -133.204391479492 2.794874429703
33.613361358643 -75.307266235352 -128.129440307617 2.203090190887
115.870315551758 -84.195823669434 -128.155212402344 8.677920341492
107.236862182617 -79.935966491699 -123.763984680176 5.064774513245
26.455606460571 -78.105453491211 -135.346450805664 2.973772525787
-47.539875030518 -74.483161926270 -134.952041625977 2.809298276901
-52.539901733398 -71.684928894043 -136.276550292969 1.446711301804
110.946403503418 -78.054000854492 -136.576629638672 2.403702974319
-68.401634216309 -78.680709838867 -141.159835815430 4.017405986786
-72.051887512207 -73.795799255371 -142.079193115234 0.767866194248
-60.464328765869 -73.967864990234 -141.048339843750 1.428378105164
30.290763854980 -76.956001281738 -146.260650634766 1.816165089607
118.322372436523 -81.664062500000 -148.104431152344 6.911156177521
-70.501144409180 -69.022087097168 -149.423294067383 1.660330176353
-49.706142425537 -74.300575256348 -142.956176757813 2.076460838318
32.314918518066 -76.645278930664 -153.985580444336 1.574713587761
-68.805953979492 -74.815315246582 -149.380477905273 1.064049243927
113.737724304199 -77.208282470703 -140.923477172852 1.465212106705
110.936058044434 -76.039962768555 -158.944702148438 1.756577849388
115.846916198730 -80.001396179199 -155.352081298828 3.951599121094
-39.087238311768 -77.814308166504 -154.009216308594 1.794384717941
-64.320640563965 -73.155052185059 -167.024322509766 1.383167147636
-67.473915100098 -68.361495971680 -159.357833862305 2.507461071014
28.483711242676 -77.418434143066 -145.630050659180 2.520977258682
-2.527769088745 -77.614913940430 -163.313644409180 2.315382480621
109.548889160156 -77.113166809082 -163.705841064453 0.756389856339
111.762466430664 -76.132446289063 -153.471160888672 1.430145502090
112.080970764160 -82.580497741699 -160.533157348633 4.804103851318
-63.191658020020 -70.686363220215 -159.868011474609 1.569523930550
-45.323005676270 -76.514541625977 -168.993347167969 3.600137710571
-3.863908052444 -74.650543212891 -166.553085327148 1.711949586868
-31.251594543457 -75.341651916504 -176.567672729492 3.351230382919
105.301940917969 -76.933952331543 -168.995193481445 3.514031887054
-33.272022247314 -78.938980102539 -161.361251831055 3.013934373856
108.496772766113 -76.331756591797 -168.597946166992 1.283859014511
-42.110847473145 -74.521018981934 -175.832366943359 1.570347905159
107.728851318359 -75.373588562012 -170.960388183594 1.883888721466
-153.411575317383 -72.372741699219 -180.881576538086 2.194990634918
-25.935609817505 -69.533828735352 -178.949356079102 2.095669746399
-19.803686141968 -75.280357360840 -185.438613891602 1.201199412346
24.282920837402 -80.327171325684 -178.233413696289 2.311997413635
14.109745979309 -74.466766357422 -185.285781860352 0.924515604973
28.326677322388 -76.796302795410 -184.155075073242 1.647078514099
102.259780883789 -84.488464355469 -185.712570190430 7.300852298737
-152.360336303711 -66.845741271973 -185.527847290039 2.245566368103
-19.531646728516 -77.419097900391 -183.876358032227 2.242401123047
100.913238525391 -80.178993225098 -179.696701049805 3.916952848434
102.803054809570 -73.578147888184 -190.232849121094 2.022273063660
108.789001464844 -80.481079101563 -177.668930053711 3.203766584396
99.861244201660 -80.184448242188 -194.278884887695 4.764093399048
-151.018554687500 -69.950263977051 -199.872924804688 2.789637327194
99.424980163574 -78.917793273926 -207.504470825195 3.405697345734
-28.304037094116 -72.138534545898 -200.188369750977 2.155261516571
96.216110229492 -77.932350158691 -195.733551025391 3.998284578323
-119.673103332520 -76.839874267578 -203.313095092773 4.416491985321
-30.477727890015 -79.831542968750 -190.009979248047 1.285430312157
-142.542434692383 -65.470787048340 -200.158935546875 1.477874398232
95.723289489746 -78.059173583984 -198.864242553711 2.188035011292
8.141183853149 -75.819229125977 -201.038208007813 2.679479122162
24.352306365967 -73.680664062500 -192.941574096680 2.142103910446
-148.998031616211 -72.927375793457 -206.120147705078 0.983198583126
-137.823791503906 -70.773246765137 -204.406890869141 3.138028383255
-9.690342903137 -74.587432861328 -209.979385375977 1.469817042351
-124.453460693359 -71.226921081543 -207.208511352539 1.853797197342
-144.633941650391 -72.930122375488 -199.069000244141 1.303449511528
1.320409059525 -75.945220947266 -200.114349365234 5.999267101288
-26.056871414185 -77.075141906738 -201.698028564453 2.859116792679
20.758369445801 -80.030593872070 -202.707946777344 3.519277811050
5.361231803894 -77.452049255371 -214.381835937500 2.255236148834
82.808845520020 -73.291450500488 -210.188461303711 4.267609596252
-17.952905654907 -71.609817504883 -213.477157592773 0.937187075615
90.522628784180 -74.768226623535 -210.201385498047 2.061830759048
97.779312133789 -81.257804870605 -208.104553222656 5.085134506226
-148.349990844727 -72.948799133301 -215.656219482422 0.910110831261
94.869575500488 -80.824180603027 -212.708969116211 4.863458633423
4.064476013184 -73.419258117676 -207.500900268555 2.470220327377
2.291522979736 -77.764877319336 -215.834945678711 4.734002590179
-32.198234558105 -73.904266357422 -207.334930419922 0.850028097630
-89.554359436035 -72.093917846680 -214.537475585938 2.206736087799
-25.279788970947 -77.115974426270 -211.416793823242 1.532382130623
85.376960754395 -76.143203735352 -219.017593383789 0.854534447193
90.378311157227 -76.671096801758 -216.760528564453 0.887560486794
-31.529777526855 -73.126449584961 -213.074691772461 1.757632255554
-83.797531127930 -68.651756286621 -221.240203857422 4.636254787445
-0.335758000612 -77.455764770508 -220.807266235352 0.978193342686
78.750915527344 -72.284530639648 -212.917098999023 5.421777248383
-152.804138183594 -77.210762023926 -223.322814941406 2.432573556900
-166.412033081055 -68.509490966797 -216.319015502930 2.371376991272
-163.621322631836 -74.967033386230 -223.773117065430 1.954609036446
-21.822328567505 -76.574874877930 -228.419342041016 3.123619556427
-154.956787109375 -75.945579528809 -224.334747314453 3.101029634476
-4.673367977142 -75.749702453613 -225.286209106445 2.916027545929
5.672266960144 -77.472763061523 -219.851043701172 3.169913053513
-169.235397338867 -70.534629821777 -228.251373291016 1.979182600975
-157.229995727539 -71.146743774414 -230.228530883789 1.518062949181
78.523124694824 -81.874855041504 -233.224273681641 4.652236938477
-1.452072024345 -74.540466308594 -227.295837402344 2.461772918701
-159.187606811523 -63.887496948242 -228.467163085938 3.293862104416
-142.975479125977 -74.133369445801 -225.149642944336 1.359015345573
-18.874322891235 -72.798789978027 -225.149520874023 2.622401237488
-2.265045881271 -79.865615844727 -222.107620239258 1.026797175407
79.729743957520 -73.825195312500 -227.883865356445 1.750376701355
-161.069366455078 -68.330047607422 -229.902114868164 2.889338254929
-142.055847167969 -67.844123840332 -234.643127441406 1.456847786903
-125.838836669922 -69.377944946289 -233.595626831055 2.370036602020
77.800865173340 -80.216255187988 -227.218826293945 3.210745096207
-115.967460632324 -72.240364074707 -231.284103393555 1.296056270599
-144.275299072266 -71.091049194336 -231.463211059570 1.484239697456
-151.215591430664 -69.286827087402 -234.018646240234 2.154232025146
-149.995391845703 -72.084815979004 -233.990371704102 2.738769292831
-155.909439086914 -71.977165222168 -231.216415405273 1.167329907417
-165.026596069336 -71.475189208984 -230.589981079102 1.223570585251
-132.873977661133 -72.610122680664 -238.906295776367 3.256870269775
-133.360107421875 -72.780624389648 -235.520538330078 0.498006045818
-152.327148437500 -77.054061889648 -235.644912719727 1.717829704285
-145.496139526367 -66.699691772461 -239.925415039063 3.042672872543
-151.120544433594 -72.014091491699 -237.750076293945 1.870689511299
75.330551147461 -80.650970458984 -234.487762451172 5.592691898346
67.208335876465 -70.084945678711 -235.961349487305 0.523377299309
-155.446289062500 -68.777183532715 -237.451095581055 1.556854248047
72.792068481445 -71.064674377441 -234.217163085938 1.311500787735
-20.539855957031 -72.082878112793 -237.929351806641 0.897907495499
12.317757606506 -77.642135620117 -239.539123535156 2.561150312424
7.620505809784 -76.236892700195 -237.277938842773 1.676201939583
-155.764114379883 -71.092231750488 -243.475341796875 2.680041313171
15.731399536133 -74.896041870117 -242.666763305664 2.581946134567
59.272087097168 -74.873764038086 -239.714462280273 2.034354448318
13.212793350220 -72.132179260254 -239.629638671875 0.684108197689
4.619063854218 -75.427330017090 -242.735687255859 1.751525163651
-6.636218070984 -71.439208984375 -241.104507446289 1.327147603035
-21.800270080566 -72.501304626465 -244.450317382813 3.257682085037
-2.507390022278 -75.241806030273 -242.217636108398 1.297275066376
4.566428184509 -78.924728393555 -247.543106079102 1.886861443520
57.302597045898 -78.419013977051 -242.113571166992 2.750595808029
-54.947444915771 -79.227142333984 -246.489303588867 2.132541179657
20.324743270874 -74.491744995117 -249.400497436523 2.590982675552
-58.387538909912 -74.396148681641 -241.971282958984 3.328202486038
-10.630718231201 -75.283546447754 -249.625442504883 1.505790233612
-66.785217285156 -68.821052551270 -252.349182128906 4.697264194489
-85.696960449219 -69.647331237793 -255.936798095703 1.706579685211
-82.411338806152 -74.709350585938 -255.592437744141 1.620421171188
-8.266489982605 -74.146263122559 -257.879547119141 3.509445428848
-123.472991943359 -71.939819335938 -263.412719726563 2.010407924652
-14.063153266907 -75.590995788574 -253.127365112305 2.018419981003
-116.926773071289 -71.794288635254 -256.800354003906 1.884805321693
-117.627052307129 -69.997314453125 -260.917327880859 2.116303920746
-103.793724060059 -72.243637084961 -256.806457519531 1.525781154633
-143.196243286133 -69.695190429688 -262.551422119141 1.811589837074
-144.545593261719 -70.857948303223 -270.377410888672 3.795304536819
-169.065933227539 -70.696075439453 -265.467987060547 3.109719038010
21.090429306030 -80.312446594238 -281.955566406250 6.706133842468
-60.011383056641 -70.755012512207 -286.855194091797 2.034465074539
-68.043350219727 -72.038787841797 -284.134155273438 2.060504913330
-42.175559997559 -76.087753295898 -284.261657714844 2.716603755951
-26.831220626831 -75.080917358398 -288.881866455078 1.484042167664
-95.740310668945 -75.616020202637 -292.627960205078 1.806794643402
-31.540889739990 -71.800552368164 -286.346038818359 2.315555334091
-3.566857099533 -74.577384948730 -287.095581054688 1.722731947899
-167.185943603516 -70.923484802246 -292.004760742188 2.661418199539
-18.464071273804 -77.494476318359 -286.894866943359 2.290931463242
5.527554988861 -76.675529479980 -289.289245605469 1.969657182693
13.886905670166 -81.600059509277 -281.884124755859 3.956954717636
-57.066459655762 -77.404319763184 -287.411407470703 1.388859391212
-35.035396575928 -75.505691528320 -293.645965576172 3.565492868423
14.473473548889 -73.141654968262 -295.208740234375 1.522040009499
-71.482772827148 -70.967521667480 -295.802246093750 3.794241428375
-42.083290100098 -70.295372009277 -289.774414062500 2.376174211502
-17.962446212769 -72.141296386719 -290.983612060547 1.491942882538
14.316361427307 -78.478347778320 -292.960083007813 1.494806885719
-12.121739387512 -77.482521057129 -297.141662597656 5.140591621399
4.543945789337 -74.087577819824 -296.293182373047 2.237592220306
14.405934333801 -78.845092773438 -290.230010986328 2.467351436615
-134.798324584961 -70.489738464355 -296.384979248047 2.618620395660
-145.080368041992 -73.990943908691 -300.176727294922 1.463770031929
-153.113021850586 -70.553474426270 -315.649169921875 3.577721357346
43.844787597656 -75.370841979980 -15.301421165466 3.550157546997
28.965824127197 -75.584724426270 -12.886288642883 3.301017284393
39.264530181885 -76.248535156250 -16.173582077026 2.856684207916
22.158399581909 -70.758575439453 -19.325340270996 1.965186476707
44.872817993164 -72.981803894043 -24.350042343140 3.018374443054
25.486736297607 -72.362205505371 -26.213766098022 1.016702771187
22.816310882568 -75.637130737305 -27.846984863281 3.303646087646
25.739353179932 -76.507789611816 -41.937892913818 5.821133613586
36.661739349365 -79.415466308594 -32.101753234863 7.991667747498
25.113054275513 -80.771156311035 -38.649780273438 9.288661956787
43.118461608887 -74.085647583008 -40.679595947266 2.383586406708
31.393400192261 -76.344139099121 -42.191284179688 4.569943904877
39.633792877197 -77.976249694824 -36.583641052246 5.880248069763
30.038919448853 -74.018486022949 -41.286697387695 1.788060426712
44.312137603760 -76.108795166016 -43.177719116211 4.909848213196
31.871540069580 -74.851524353027 -38.842346191406 3.134959697723
-42.901218414307 -72.522491455078 -49.030624389648 3.488655328751
-30.003923416138 -68.069213867188 -51.653182983398 0.955132126808
-90.873916625977 -72.448135375977 -55.381023406982 4.921741485596
-90.675247192383 -73.022384643555 -67.836814880371 2.824043035507
76.389129638672 -79.978744506836 -65.573745727539 8.689566612244
83.825553894043 -75.676544189453 -73.724693298340 1.390485763550
-21.298416137695 -71.814781188965 -76.319816589355 2.107744932175
-88.570930480957 -70.828544616699 -73.818954467773 2.985666275024
-25.567359924316 -72.510467529297 -78.148338317871 2.753118753433
-50.070285797119 -74.794830322266 -86.205223083496 2.028457403183
65.547958374023 -72.540863037109 -87.445945739746 2.482969760895
51.619857788086 -74.293388366699 -94.929504394531 1.391988039017
99.007377624512 -74.720306396484 -92.435729980469 3.060443162918
68.416625976563 -79.021629333496 -97.930664062500 4.050716876984
-70.391906738281 -73.104888916016 -90.885795593262 5.455856800079
-60.321121215820 -69.152290344238 -100.323143005371 5.339980125427
44.121589660645 -75.385124206543 -98.606986999512 1.117726206779
76.967216491699 -74.350471496582 -99.143608093262 1.312401652336
54.428646087646 -85.411636352539 -106.376953125000 6.315475940704
101.248275756836 -76.840599060059 -96.404785156250 3.882015705109
-95.215293884277 -74.911285400391 -109.166687011719 1.554494738579
40.928451538086 -75.077659606934 -110.684661865234 2.212387800217
106.971336364746 -78.766426086426 -110.370582580566 3.778516054153
48.780223846436 -75.910705566406 -112.575942993164 1.659165143967
100.041664123535 -78.790908813477 -111.742073059082 6.847526550293
-85.141769409180 -71.388069152832 -118.744476318359 1.597354412079
35.019115447998 -79.414512634277 -113.877204895020 4.251964569092
106.931732177734 -75.226440429688 -117.558074951172 2.945851802826
104.381538391113 -73.871093750000 -117.035247802734 2.910691738129
103.589248657227 -77.735794067383 -115.976829528809 3.929947614670
110.714035034180 -75.712814331055 -114.780647277832 3.327774763107
40.538703918457 -78.858940124512 -109.371009826660 1.368408560753
32.078380584717 -70.657882690430 -116.875205993652 2.007977008820
38.893711090088 -74.985885620117 -113.649139404297 1.368846058846
104.751983642578 -79.354248046875 -121.787605285645 5.924485683441
40.735713958740 -73.202430725098 -122.666976928711 1.878484129906
109.390823364258 -75.859390258789 -133.393066406250 2.429064273834
109.693702697754 -75.624336242676 -131.892059326172 2.749745845795
33.284900665283 -72.078582763672 -119.751876831055 2.800002336502
-78.831069946289 -72.864616394043 -124.737144470215 3.513630628586
112.273796081543 -73.414268493652 -134.414443969727 1.619426846504
-53.519935607910 -73.063491821289 -139.507751464844 1.086903572083
34.468482971191 -76.240394592285 -135.193832397461 2.157896280289
-73.966979980469 -72.715118408203 -135.226776123047 3.117347240448
25.130819320679 -78.552131652832 -131.070602416992 3.962845087051
-81.203987121582 -73.171607971191 -145.228881835938 3.948446750641
-45.877773284912 -76.589401245117 -143.234008789063 1.612318992615
-75.807273864746 -74.612350463867 -140.022644042969 1.962615370750
108.832160949707 -76.155830383301 -136.880584716797 2.898849248886
119.336753845215 -74.856575012207 -141.921386718750 3.724917411804
118.523956298828 -81.321189880371 -148.258575439453 6.718394756317
-80.674530029297 -72.068771362305 -144.704818725586 3.215968132019
6.490437984467 -69.768379211426 -151.770889282227 3.230478286743
-51.169506072998 -73.566024780273 -149.180343627930 1.751215219498
-52.247871398926 -74.310127258301 -156.142303466797 1.801817536354
105.633064270020 -77.855682373047 -163.893112182617 3.875002622604
-41.279212951660 -76.026283264160 -149.512283325195 1.416870236397
14.183134078979 -71.492492675781 -159.334686279297 1.783514976501
22.019649505615 -77.408790588379 -158.242996215820 1.204650282860
114.118659973145 -75.496170043945 -165.764343261719 3.164444208145
29.941289901733 -73.946266174316 -168.084411621094 2.364936113358
-1.220330953598 -76.097915649414 -164.829528808594 0.551600396633
31.526472091675 -75.938774108887 -161.227127075195 2.151315689087
-67.996017456055 -70.966400146484 -157.532211303711 1.769809484482
-66.888351440430 -72.617073059082 -160.346420288086 2.218447685242
-69.965682983398 -70.057441711426 -167.529312133789 3.882621526718
114.196037292480 -72.717247009277 -162.360961914063 1.519018411636
-45.128044128418 -73.662727355957 -164.209564208984 0.943009853363
15.938240051270 -74.744247436523 -166.015472412109 2.682530641556
-64.204444885254 -70.827888488770 -171.126403808594 3.448124408722
-64.853691101074 -69.772750854492 -172.814437866211 4.437779426575
-43.407737731934 -74.916290283203 -161.946868896484 2.209214687347
-35.135543823242 -76.989257812500 -168.858612060547 1.103177189827
115.280708312988 -80.316291809082 -172.075027465820 3.638938665390
-37.510410308838 -66.347961425781 -182.838424682617 5.717932224274
12.012011528015 -75.772064208984 -173.333023071289 6.199663162231
110.095779418945 -80.586143493652 -186.563949584961 5.169218063354
-147.605209350586 -72.513870239258 -177.538726806641 2.564252138138
-146.673248291016 -69.660255432129 -173.513442993164 2.876259565353
-147.285888671875 -67.848426818848 -182.922195434570 0.527086317539
-142.500549316406 -73.061431884766 -185.554855346680 2.208364248276
-33.022521972656 -71.466934204102 -185.943038940430 0.930347621441
-23.682909011841 -74.253227233887 -186.458877563477 0.769809544086
23.403501510620 -69.387435913086 -193.159484863281 1.127474546432
-141.032333374023 -69.547225952148 -187.988769531250 2.190165281296
-148.191665649414 -70.829360961914 -190.256027221680 2.723856449127
-22.304183959961 -71.189659118652 -186.477401733398 1.913620114326
9.282092094421 -74.221794128418 -183.540863037109 3.441220283508
-150.454376220703 -69.968444824219 -196.877365112305 1.355826973915
-31.948490142822 -73.406280517578 -190.293411254883 2.852230072021
99.432281494141 -77.224815368652 -188.883117675781 3.225253582001
104.993125915527 -74.935844421387 -190.365936279297 1.050481915474
24.712715148926 -68.854774475098 -194.268508911133 1.591056227684
-10.949937820435 -73.828559875488 -189.431213378906 5.494050502777
-28.985744476318 -75.713211059570 -193.835494995117 0.687577486038
-156.588500976563 -72.162292480469 -202.595657348633 2.318196058273
-133.195434570313 -71.799751281738 -198.156280517578 1.154744029045
-125.882179260254 -67.138763427734 -196.023345947266 2.473292350769
-126.322250366211 -69.129241943359 -198.797409057617 3.569433450699
-22.132375717163 -68.539039611816 -196.124084472656 0.767175316811
13.681403160095 -77.558761596680 -192.997375488281 2.356430768967
91.084518432617 -82.542236328125 -201.906097412109 6.077565670013
-151.449264526367 -65.049400329590 -195.773208618164 1.945379853249
-144.512176513672 -66.845870971680 -200.309310913086 2.388350963593
-152.009979248047 -69.990821838379 -202.484710693359 1.341102123260
-155.049209594727 -67.044967651367 -197.891754150391 2.720889091492
-24.289310455322 -72.286537170410 -200.716949462891 2.594141721725
-8.749011993408 -70.178375244141 -195.868194580078 4.716306686401
-145.138504028320 -64.508865356445 -204.294692993164 1.965962409973
-20.335281372070 -72.629867553711 -203.354934692383 0.571998417377
-160.958892822266 -69.091606140137 -203.316436767578 1.761896491051
-134.878997802734 -70.073463439941 -200.559371948242 2.957919359207
14.640584945679 -78.016448974609 -207.822662353516 1.917360544205
-159.832733154297 -65.112197875977 -205.814727783203 3.252454996109
-146.683395385742 -72.474357604980 -208.148574829102 1.523718953133
6.648364067078 -71.634574890137 -205.267318725586 3.252910614014
-154.563201904297 -66.450759887695 -203.782089233398 2.626109123230
-25.665359497070 -72.202613830566 -203.821685791016 2.060186386108
93.875312805176 -77.988647460938 -199.655364990234 3.675077199936
-160.180511474609 -71.421226501465 -212.193450927734 0.998521387577
-164.719818115234 -74.426902770996 -207.896759033203 3.364144325256
-76.009864807129 -69.311485290527 -207.916336059570 2.858227968216
89.772460937500 -75.781715393066 -208.838989257813 3.355025291443
-4.110447883606 -72.975784301758 -220.794891357422 2.325806379318
-156.667877197266 -68.347000122070 -214.278060913086 2.520423889160
-87.483917236328 -72.482315063477 -213.984054565430 2.893649578094
-10.269199371338 -77.685089111328 -211.989212036133 0.621091127396
15.781615257263 -73.962860107422 -219.184951782227 2.141137361526
-144.385894775391 -70.858421325684 -222.390792846680 1.776587843895
-4.392096996307 -79.881835937500 -221.887817382813 1.640235185623
-17.938531875610 -76.039031982422 -217.601928710938 1.426323413849
-14.732392311096 -70.062133789063 -222.458953857422 1.093480348587
91.175331115723 -76.738807678223 -221.812774658203 0.756078898907
-20.227504730225 -71.938896179199 -217.166732788086 1.911417841911
-33.720310211182 -72.427566528320 -219.093673706055 3.234264135361
-107.834884643555 -64.644714355469 -226.983489990234 1.606698274612
-16.712854385376 -71.521369934082 -224.942596435547 2.374507904053
93.688369750977 -74.389022827148 -219.662445068359 3.498590230942
74.919570922852 -77.586265563965 -222.399566650391 4.622383594513
8.121593475342 -75.804344177246 -219.666809082031 1.165246725082
-11.654153823853 -69.986221313477 -226.650085449219 1.411647439003
78.803680419922 -76.475357055664 -222.489578247070 1.380250692368
-121.812004089355 -75.830116271973 -226.815597534180 2.677464485168
-18.157871246338 -71.105300903320 -224.765182495117 2.747969865799
-95.809135437012 -70.948516845703 -224.733367919922 1.757589101791
-101.057235717773 -71.449699401855 -224.303207397461 2.152032852173
-129.854370117188 -73.024040222168 -230.821746826172 1.505043029785
80.826515197754 -77.011177062988 -224.047409057617 1.742987751961
-122.950820922852 -71.781860351563 -228.909851074219 1.866793155670
4.014797210693 -73.078796386719 -230.378952026367 1.599721431732
81.689559936523 -74.622711181641 -225.541717529297 2.558075189590
-16.720325469971 -75.196144104004 -234.665435791016 3.392001152039
-14.636967658997 -74.716438293457 -226.599334716797 1.155109286308
-0.430182009935 -81.410408020020 -231.148910522461 3.428951263428
11.225315093994 -77.383682250977 -228.860076904297 2.259016513824
90.386825561523 -78.404808044434 -228.460708618164 6.362097263336
9.131847381592 -72.437278747559 -232.176239013672 2.157876729965
