15.523262977600 -73.139030456543 -220.682006835938 1.989652872086
77.702987670898 -76.042427062988 -220.879241943359 2.849949598312
4.297588825226 -74.341705322266 -223.986831665039 1.572049260139
-110.693984985352 -68.615089416504 -230.035507202148 2.266860723495
67.609954833984 -77.216133117676 -228.702438354492 4.229230880737
83.577354431152 -77.947082519531 -230.897445678711 4.538553714752
-128.362365722656 -69.060035705566 -235.180252075195 1.650469660759
-120.747344970703 -69.316215515137 -228.357330322266 2.582823991776
-11.012052536011 -68.269218444824 -226.170135498047 1.564957618713
69.978782653809 -76.539306640625 -234.285369873047 1.485841155052
62.540042877197 -76.225105285645 -233.414291381836 5.263634204865
70.182411193848 -75.213256835938 -229.742034912109 2.198061943054
-138.293106079102 -64.373687744141 -232.008178710938 3.091434240341
67.082153320313 -77.326553344727 -231.815322875977 3.433745384216
63.760463714600 -72.433822631836 -236.249526977539 1.133466482162
-167.759475708008 -65.638847351074 -229.247619628906 3.153078317642
-0.318098008633 -82.348716735840 -242.349456787109 5.194962978363
18.567407608032 -76.140899658203 -239.540527343750 1.752195596695
-8.127276420593 -69.793975830078 -241.784561157227 1.682881951332
15.184801101685 -67.027755737305 -239.886047363281 3.646875619888
65.078033447266 -76.941825866699 -238.930679321289 3.348501920700
5.359585762024 -71.141021728516 -245.147460937500 3.498401641846
-13.469809532166 -65.997924804688 -240.385116577148 0.865487098694
-3.704932928085 -69.391860961914 -235.744384765625 0.891293644905
62.668010711670 -76.308456420898 -243.284408569336 1.729472517967
-0.712085008621 -73.657417297363 -242.672592163086 1.703265428543
-8.202941894531 -74.378051757813 -243.259963989258 2.854376316071
12.423873901367 -77.832008361816 -242.262252807617 2.865429401398
-169.691268920898 -71.098434448242 -238.729660034180 1.909113764763
51.956939697266 -76.866371154785 -248.147460937500 3.755233764648
46.605697631836 -67.394508361816 -254.012542724609 1.250834703445
57.521419525146 -76.361351013184 -244.238769531250 1.514711022377
-14.385784149170 -70.487754821777 -248.025772094727 1.700669050217
54.853691101074 -74.703178405762 -246.018096923828 2.223479509354
-76.793678283691 -70.982482910156 -250.051330566406 1.138817191124
47.950340270996 -75.849388122559 -249.058135986328 3.448002099991
-89.750068664551 -70.055885314941 -251.845809936523 2.616873741150
-124.174530029297 -70.841987609863 -256.488525390625 2.676600456238
-134.174407958984 -69.722045898438 -250.454986572266 4.631097316742
45.010768890381 -77.560836791992 -252.320800781250 6.001993179321
-132.976913452148 -72.933654785156 -249.865295410156 3.619961500168
-110.597099304199 -67.073257446289 -252.628723144531 3.497627496719
-119.788940429688 -67.351722717285 -256.372680664063 3.693758964539
-86.724220275879 -71.282981872559 -253.363876342773 1.345327138901
-112.768203735352 -66.718704223633 -256.731567382813 1.907887816429
-126.756484985352 -74.151481628418 -260.959991455078 1.893738865852
-149.718612670898 -66.093757629395 -266.625701904297 0.955043494701
-17.741081237793 -71.370361328125 -267.827484130859 4.293578147888
-176.000839233398 -71.547462463379 -262.410491943359 7.769128799438
-17.547508239746 -72.242958068848 -274.973602294922 4.483973979950
-160.944931030273 -64.368682861328 -265.065216064453 3.406654596329
-155.334655761719 -70.042472839355 -270.240600585938 3.986354351044
-173.588256835938 -68.347053527832 -275.318115234375 6.194398403168
-18.041955947876 -74.388366699219 -281.963256835938 4.819152355194
-130.948760986328 -73.044342041016 -280.997894287109 4.301302909851
-159.799484252930 -68.779136657715 -284.185607910156 2.427411794662
-145.793777465820 -68.083969116211 -278.556762695313 1.955815911293
-137.663192749023 -72.534721374512 -276.101989746094 6.187754631042
-10.824231147766 -65.890167236328 -284.376617431641 5.026000022888
-129.068893432617 -73.765983581543 -281.094024658203 3.245258569717
-143.441162109375 -65.918540954590 -284.014038085938 0.294515520334
-118.288619995117 -74.955642700195 -283.919586181641 2.713235139847
-83.832305908203 -68.382614135742 -288.119018554688 2.181759834290
-62.634864807129 -73.827621459961 -286.179199218750 1.039075493813
-10.957806587219 -75.406654357910 -287.780426025391 1.448865294456
-57.408084869385 -70.718681335449 -283.006347656250 2.716273784637
-59.612335205078 -69.245880126953 -288.052307128906 1.611608624458
-74.211349487305 -69.736183166504 -289.455993652344 1.865285038948
-91.963485717773 -69.527153015137 -294.161773681641 3.082395553589
-96.040939331055 -68.917533874512 -286.696166992188 1.734799146652
-162.202575683594 -68.506477355957 -289.390197753906 2.200183868408
-163.250152587891 -69.866226196289 -292.434661865234 1.912903070450
-127.181465148926 -73.856781005859 -291.652008056641 1.136382699013
-147.343856811523 -69.180046081543 -292.398193359375 2.449249744415
-154.805587768555 -72.194519042969 -303.275848388672 1.893575191498
-155.784301757813 -73.199966430664 -309.373138427734 1.707391381264
50.056735992432 -69.494338989258 -13.954295158386 3.946080446243
16.198249816895 -72.504020690918 -31.985895156860 3.432995080948
43.876018524170 -66.102638244629 -36.209186553955 2.383743524551
-13.931292533875 -73.542373657227 -66.051162719727 2.502103090286
82.405662536621 -70.518951416016 -66.561660766602 2.267818927765
91.358169555664 -68.003807067871 -67.737251281738 2.231390953064
79.274963378906 -78.131210327148 -66.459609985352 6.265120029449
72.663734436035 -74.852722167969 -71.189468383789 3.224016427994
91.453102111816 -75.414787292480 -77.691764831543 1.863924026489
-96.725837707520 -63.280708312988 -69.096000671387 2.933733940125
66.691261291504 -72.865844726563 -76.398262023926 3.594830751419
-35.856147766113 -72.194961547852 -77.402984619141 1.936527729034
98.607589721680 -73.161659240723 -87.180191040039 1.655800104141
62.949142456055 -68.523139953613 -91.813209533691 0.937269628048
107.773849487305 -80.103775024414 -94.080154418945 9.063686370850
99.527481079102 -79.338020324707 -100.581047058105 4.948354721069
73.528678894043 -73.236480712891 -102.882843017578 2.898547172546
-81.615249633789 -65.105155944824 -101.923454284668 1.287463068962
54.528472900391 -71.525070190430 -106.984123229980 1.038618803024
108.338562011719 -70.139686584473 -108.782371520996 1.830766677856
45.876186370850 -72.090309143066 -115.015571594238 2.169180870056
79.658416748047 -71.774024963379 -107.803222656250 4.309568881989
41.390548706055 -71.586120605469 -109.000686645508 1.161679863930
102.682312011719 -73.757362365723 -104.985290527344 2.083725929260
47.385879516602 -71.992965698242 -108.902206420898 2.144775390625
105.695983886719 -81.338478088379 -110.985023498535 6.532457828522
110.528945922852 -78.903144836426 -111.876945495605 4.666709899902
-80.147590637207 -65.531425476074 -113.432434082031 1.905619382858
-83.460487365723 -65.697647094727 -119.583076477051 1.518882393837
43.335422515869 -75.983291625977 -120.548233032227 1.622197508812
113.200172424316 -76.526000976563 -124.995147705078 2.859426021576
112.948432922363 -74.615447998047 -125.515914916992 2.035989761353
-89.312377929688 -67.030868530273 -125.654258728027 2.828055143356
104.547950744629 -77.116294860840 -129.015289306641 5.241049289703
-60.321754455566 -75.104072570801 -131.246932983398 3.609360694885
-86.642333984375 -69.018150329590 -126.916389465332 1.564045786858
-71.213272094727 -69.749053955078 -125.897056579590 4.488216400146
-60.441593170166 -64.901176452637 -126.277854919434 2.546316146851
31.508512496948 -71.972381591797 -131.665664672852 0.868860781193
43.664310455322 -68.999961853027 -136.906967163086 5.584716796875
-72.056030273438 -68.573692321777 -135.441665649414 1.354992508888
28.408237457275 -68.790817260742 -130.665893554688 2.711747169495
112.003387451172 -74.607688903809 -146.841888427734 1.242517590523
-39.074974060059 -70.507431030273 -149.232620239258 1.945925712585
32.363216400146 -74.763580322266 -150.276519775391 2.063289642334
112.334739685059 -72.606216430664 -151.081863403320 1.405381917953
35.329513549805 -73.271568298340 -143.200195312500 3.035683393478
109.151123046875 -73.114540100098 -141.665527343750 2.020260810852
-52.504356384277 -69.308555603027 -149.205398559570 1.431434988976
-74.091377258301 -65.329826354980 -150.802810668945 3.482509374619
-58.266361236572 -70.061912536621 -150.451705932617 4.725300312042
-43.810867309570 -75.365798950195 -164.586761474609 0.437863498926
2.581116914749 -74.143478393555 -156.020889282227 3.389636278152
107.916519165039 -75.424064636230 -154.962051391602 3.207096576691
107.390312194824 -74.522216796875 -162.747314453125 2.099317550659
10.023542404175 -71.548065185547 -157.275711059570 2.016942977905
1.075001001358 -70.653724670410 -160.838439941406 2.879935026169
20.372133255005 -69.934440612793 -154.816390991211 2.823590755463
25.166856765747 -70.409446716309 -156.346710205078 1.557507514954
106.232521057129 -74.517662048340 -167.288925170898 0.860545039177
109.604728698730 -79.005790710449 -169.458602905273 1.846977353096
22.905149459839 -69.037788391113 -176.755264282227 2.007376670837
23.065437316895 -75.688804626465 -165.663192749023 2.019461870193
110.559425354004 -72.140731811523 -164.160720825195 2.500111818314
-31.082603454590 -69.091613769531 -178.714172363281 1.629292368889
109.418464660645 -75.464065551758 -169.353775024414 0.634250104427
16.788129806519 -72.344322204590 -165.608276367188 1.152551531792
20.241065979004 -72.203811645508 -169.715866088867 3.453020811081
106.758163452148 -75.443031311035 -174.439453125000 1.520776629448
26.338483810425 -71.231697082520 -170.703231811523 1.578514814377
112.298347473145 -73.584075927734 -187.036453247070 3.514515399933
-39.857124328613 -69.913703918457 -179.138702392578 4.431951045990
22.916049957275 -72.175300598145 -170.094619750977 2.465115547180
106.422500610352 -74.949920654297 -186.603942871094 2.008582353592
21.322572708130 -73.583580017090 -177.677261352539 1.268800854683
-152.570053100586 -64.997024536133 -184.027694702148 2.755273342133
-29.260837554932 -67.111213684082 -189.873535156250 1.182112216949
22.888275146484 -69.295631408691 -185.892974853516 2.170202732086
-116.892677307129 -70.590377807617 -190.734054565430 3.251859664917
-113.162597656250 -64.864562988281 -191.270004272461 2.240538835526
23.461725234985 -73.325996398926 -188.449584960938 1.733002901077
9.545209884644 -68.639282226563 -185.163024902344 6.040839672089
-28.361154556274 -66.828979492188 -190.422760009766 0.975843071938
-30.568166732788 -76.294868469238 -189.049362182617 1.699351906776
-30.316514968872 -71.424568176270 -188.027969360352 1.871411800385
11.791124343872 -69.037849426270 -180.621017456055 3.875720262527
-152.230529785156 -67.061027526855 -193.872543334961 1.449946165085
-147.680923461914 -66.486976623535 -190.288803100586 2.277769565582
-148.063049316406 -71.708267211914 -197.315368652344 2.310131311417
-25.037002563477 -69.809295654297 -191.386322021484 1.301971077919
12.885239601135 -68.924224853516 -200.272750854492 1.331004977226
96.960586547852 -73.183219909668 -194.397949218750 1.740136265755
-115.015892028809 -66.455467224121 -196.968368530273 0.924534976482
19.481229782104 -77.329750061035 -198.331695556641 2.364219427109
-15.250058174133 -69.780929565430 -194.933334350586 1.271001338959
-18.818510055542 -71.030227661133 -198.529861450195 2.536550760269
99.925598144531 -73.154731750488 -202.021057128906 1.117146015167
5.464069843292 -75.021507263184 -198.582748413086 4.410610198975
-23.653804779053 -69.047050476074 -196.702514648438 1.358941912651
-122.337265014648 -71.974014282227 -202.620513916016 1.445162892342
-136.052505493164 -68.225967407227 -201.379882812500 2.629141330719
-115.728675842285 -61.861953735352 -204.604171752930 3.195383548737
-143.911407470703 -71.547409057617 -201.185607910156 1.528289079666
15.247837066650 -71.903045654297 -198.435150146484 2.986397504807
90.992591857910 -76.809501647949 -201.658447265625 3.811681032181
-166.775390625000 -60.502624511719 -197.938354492188 6.280947208405
98.511940002441 -73.992240905762 -203.348754882813 2.539300441742
-25.095340728760 -76.672447204590 -205.159255981445 3.739434480667
93.029037475586 -71.082160949707 -211.107009887695 2.324146747589
86.389175415039 -77.124328613281 -211.203536987305 3.662363767624
8.945163726807 -74.983596801758 -203.767059326172 2.227231264114
18.960702896118 -71.298149108887 -213.531585693359 1.637400984764
11.765617370605 -68.141059875488 -208.851074218750 0.693149685860
-12.823035240173 -71.932922363281 -223.729171752930 1.971674680710
-95.755043029785 -72.490592956543 -218.470596313477 2.224213123322
-13.956222534180 -74.526603698730 -211.315841674805 3.531619071960
86.050659179688 -75.447166442871 -219.055419921875 1.427406668663
-96.230369567871 -72.431358337402 -215.319885253906 1.925368070602
-101.676620483398 -65.167610168457 -220.797119140625 2.966938495636
-97.914459228516 -68.582771301270 -217.846221923828 0.586090683937
87.096374511719 -77.672889709473 -224.102722167969 2.245831012726
-137.714523315430 -68.881614685059 -223.358795166016 2.344788074493
-133.359756469727 -74.859718322754 -225.835983276367 0.486088812351
-118.384696960449 -68.784873962402 -223.184020996094 2.758275270462
-115.110107421875 -65.368789672852 -220.121490478516 4.742799758911
-134.602783203125 -65.502502441406 -226.155853271484 2.194878339767
-115.421089172363 -77.937370300293 -226.597518920898 3.159913778305
-113.230903625488 -67.914520263672 -226.964096069336 1.096828699112
-9.128016471863 -76.780288696289 -224.033111572266 1.043919563293
-17.221231460571 -75.199630737305 -223.160278320313 1.149451971054
-2.745614051819 -69.103157043457 -230.171432495117 1.727146863937
-11.818748474121 -67.835243225098 -227.050079345703 0.991318881512
13.583450317383 -73.962028503418 -234.566009521484 3.282957077026
-22.186931610107 -69.109870910645 -229.463882446289 5.347759246826
-168.575454711914 -65.089340209961 -218.475616455078 4.607619285583
-7.425763130188 -72.933250427246 -234.015869140625 0.860755622387
79.093101501465 -70.564277648926 -233.819534301758 2.365631580353
9.817770004272 -75.216392517090 -233.707794189453 1.494257807732
-7.461018085480 -71.388595581055 -235.591537475586 1.214206457138
-159.040878295898 -64.731254577637 -233.779693603516 2.499682903290
-145.099822998047 -65.762138366699 -226.684860229492 2.292379617691
58.969539642334 -72.995498657227 -237.825607299805 2.571990728378
-7.663774013519 -73.113113403320 -233.407089233398 0.732678294182
8.919169425964 -75.367668151855 -229.653121948242 1.219031333923
67.437942504883 -77.892868041992 -228.808883666992 4.708368301392
74.763999938965 -74.490989685059 -236.103759765625 2.386612653732
69.358932495117 -76.181053161621 -243.771972656250 3.413669586182
-4.110929965973 -76.445610046387 -234.969116210938 2.585277795792
56.499027252197 -71.557304382324 -237.985748291016 4.134967803955
-21.579813003540 -75.531677246094 -240.101135253906 1.358352065086
-16.421466827393 -68.245574951172 -239.919616699219 1.552348136902
5.687044143677 -72.453712463379 -238.921493530273 2.929103136063
61.742752075195 -78.990158081055 -237.921646118164 4.587198257446
65.244438171387 -72.354728698730 -242.794250488281 1.929813861847
46.427433013916 -74.608940124512 -246.748992919922 4.162394523621
58.604721069336 -78.686813354492 -243.756179809570 3.444412946701
-17.790887832642 -78.819198608398 -248.932067871094 6.327629089355
-86.143272399902 -66.121177673340 -255.560638427734 3.016091108322
-79.172950744629 -67.532188415527 -252.745010375977 3.261492013931
41.638397216797 -77.857429504395 -247.892486572266 6.660305500031
-154.053695678711 -69.914390563965 -247.717376708984 2.132343053818
32.896667480469 -73.359855651855 -257.835632324219 2.514629125595
-94.803260803223 -75.311660766602 -250.624954223633 1.863558530807
-159.312362670898 -62.459709167480 -251.919265747070 3.489671468735
-141.847106933594 -58.870311737061 -250.311691284180 5.345521926880
40.992218017578 -73.267494201660 -255.010772705078 3.856955766678
-127.779563903809 -64.232208251953 -256.843811035156 1.395777344704
-120.033302307129 -70.253952026367 -253.030853271484 3.242282390594
-93.875007629395 -64.538970947266 -255.543319702148 1.080610871315
-15.216524124146 -67.087677001953 -248.136077880859 2.132862567902
29.686971664429 -73.086936950684 -257.092498779297 3.128823518753
22.636833190918 -69.904708862305 -259.643188476563 2.219735145569
-162.294113159180 -61.094043731689 -258.771423339844 6.615896224976
-117.122833251953 -72.341957092285 -261.080871582031 1.970054030418
-15.979771614075 -72.177673339844 -262.177307128906 1.260107755661
-134.445480346680 -68.154190063477 -263.933166503906 0.796935856342
-17.123611450195 -70.875946044922 -270.276367187500 3.042973041534
-166.225631713867 -67.047645568848 -268.931091308594 2.204871177673
-8.896254539490 -73.813224792480 -278.541595458984 2.582855701447
-162.911361694336 -69.034576416016 -285.266906738281 1.923625469208
-167.638565063477 -71.373092651367 -275.675842285156 1.223277211189
-145.154067993164 -69.207168579102 -283.009277343750 0.942583143711
-174.548843383789 -70.547950744629 -281.948394775391 7.872480392456
11.367856979370 -77.049781799316 -289.127380371094 2.259290933609
-106.058944702148 -71.303314208984 -284.942321777344 2.933684110641
-90.339782714844 -63.948837280273 -284.377655029297 7.087653160095
-171.331909179688 -63.936195373535 -281.641082763672 8.250084877014
-95.755096435547 -76.863235473633 -280.441162109375 6.086091041565
-158.668136596680 -69.200897216797 -286.740783691406 2.719819545746
-80.191635131836 -72.730552673340 -295.614532470703 5.845999717712
-75.015434265137 -69.938064575195 -287.833984375000 0.949446558952
-86.387741088867 -72.598693847656 -290.720306396484 2.073797225952
-6.405626773834 -70.779190063477 -288.236511230469 1.190267801285
-93.108932495117 -70.170753479004 -286.033203125000 3.211604356766
-102.272476196289 -72.477050781250 -289.002960205078 2.588430643082
-121.474304199219 -69.684936523438 -291.192382812500 2.458531618118
-119.597785949707 -65.390815734863 -291.372985839844 2.290381669998
-137.165802001953 -69.316276550293 -289.320312500000 1.644879698753
-145.478286743164 -68.439308166504 -298.610504150391 2.269228458405
-147.904907226563 -70.409759521484 -309.901947021484 1.667745471001
25.865371704102 -65.794136047363 -15.043624877930 2.732804775238
34.832244873047 -68.820213317871 -16.550628662109 1.434017419815
31.236236572266 -72.219024658203 -18.503492355347 1.545996189117
46.376991271973 -66.442871093750 -20.528139114380 1.276881933212
25.248790740967 -68.854110717773 -32.251934051514 1.851318717003
-73.529586791992 -65.126892089844 -45.579898834229 2.085273265839
90.528236389160 -66.403770446777 -68.092231750488 3.205107212067
-18.118556976318 -64.992927551270 -66.867980957031 4.824417114258
104.829460144043 -72.130523681641 -75.360923767090 3.901153802872
94.388893127441 -76.947364807129 -77.188926696777 2.968650341034
68.872879028320 -72.556129455566 -80.069175720215 2.039594411850
72.359916687012 -76.237800598145 -83.303787231445 1.620318531990
-43.845272064209 -71.929595947266 -81.309997558594 2.944297552109
61.154727935791 -76.792152404785 -82.267326354980 6.420141220093
-92.979820251465 -66.948532104492 -87.587097167969 3.297799587250
-47.026515960693 -65.140213012695 -83.852172851563 1.309584856033
-55.934593200684 -74.669326782227 -84.384338378906 5.730648040771
102.490760803223 -80.261764526367 -100.111282348633 5.941865921021
60.381237030029 -75.317131042480 -91.635078430176 1.504590034485
67.714096069336 -70.938224792480 -92.021697998047 3.196500778198
-93.981399536133 -59.449321746826 -95.952293395996 6.219273567200
108.422149658203 -75.160179138184 -93.039520263672 5.675714492798
43.024150848389 -69.293701171875 -100.019821166992 1.522781610489
102.555496215820 -72.520156860352 -100.005668640137 1.406613826752
107.521537780762 -70.035591125488 -108.226074218750 1.478028774261
100.500968933105 -73.353988647461 -105.363014221191 3.381448745728
74.444480895996 -75.828468322754 -100.405242919922 3.047953844070
87.110450744629 -75.175071716309 -109.199600219727 7.066926479340
50.598873138428 -70.115837097168 -112.045875549316 2.990125894547
111.016662597656 -69.088890075684 -104.270584106445 0.802785098553
47.633171081543 -75.649604797363 -105.148941040039 2.342436552048
39.110240936279 -69.152961730957 -102.706642150879 2.551591396332
113.534042358398 -74.374954223633 -112.335876464844 1.635683059692
-77.801033020020 -62.984760284424 -107.812049865723 2.128397464752
45.863693237305 -69.958686828613 -113.565673828125 2.125444173813
33.385467529297 -74.200286865234 -116.491210937500 1.541774630547
106.232208251953 -70.389778137207 -112.357666015625 1.811909198761
37.941989898682 -67.923645019531 -112.270957946777 3.222789525986
-86.977432250977 -66.657287597656 -109.950836181641 1.589664459229
-94.797523498535 -62.313724517822 -112.948959350586 2.686981678009
102.155242919922 -78.691345214844 -121.432754516602 7.394093990326
-94.721359252930 -67.542991638184 -117.309829711914 2.228432655334
39.384521484375 -75.038406372070 -121.539878845215 1.914669871330
36.651176452637 -71.340278625488 -123.042213439941 2.030810594559
-84.724403381348 -67.002868652344 -122.536750793457 2.216937780380
33.146869659424 -69.068901062012 -134.654983520508 2.270475625992
111.889587402344 -75.242477416992 -133.130706787109 1.706901073456
-53.306781768799 -68.262359619141 -137.355010986328 1.950071096420
-87.926063537598 -65.341934204102 -131.596466064453 1.320173859596
38.042362213135 -76.177223205566 -131.072204589844 2.013183116913
-86.985794067383 -61.779804229736 -135.178695678711 3.580694198608
-88.452720642090 -70.565544128418 -139.226547241211 2.947525739670
-50.248977661133 -68.841125488281 -135.497848510742 1.601431846619
-71.107597351074 -64.969192504883 -137.842407226563 2.650872945786
-50.720088958740 -67.548461914063 -131.752380371094 0.303288370371
116.904525756836 -70.477127075195 -138.711807250977 2.372971534729
-72.180702209473 -69.910362243652 -133.594696044922 1.385153651237
37.333663940430 -72.424293518066 -131.232223510742 1.596631407738
-78.644973754883 -65.345474243164 -139.750228881836 1.664511561394
-72.503723144531 -67.790397644043 -134.158798217773 0.892089903355
-93.749816894531 -64.501731872559 -140.387878417969 2.407322645187
-55.196235656738 -64.524566650391 -144.921569824219 3.236811637878
31.385509490967 -65.841110229492 -146.583465576172 2.927027702332
27.039878845215 -69.466537475586 -149.514465332031 1.194744348526
20.075416564941 -64.395553588867 -144.909317016602 1.133908152580
112.170883178711 -73.229537963867 -148.025421142578 1.455577135086
-91.691291809082 -65.227729797363 -150.243881225586 3.303721666336
10.787202835083 -72.240791320801 -152.539520263672 2.121747493744
-72.046684265137 -67.132476806641 -153.600448608398 0.605395793915
23.423017501831 -69.288459777832 -149.631362915039 2.162058115005
-49.707897186279 -67.149955749512 -154.637069702148 3.621133089066
9.448710441589 -68.916198730469 -154.032379150391 1.338168263435
15.996346473694 -74.173896789551 -159.275527954102 1.823158621788
16.357362747192 -76.810913085938 -164.053573608398 3.809682846069
-51.266479492188 -71.393394470215 -162.541458129883 3.756741285324
-38.983203887939 -67.234199523926 -154.792251586914 2.901429653168
-47.864471435547 -69.805625915527 -161.337524414063 1.164101481438
-103.979866027832 -67.963020324707 -171.227783203125 1.814097642899
21.017843246460 -73.102111816406 -175.169281005859 2.489010095596
-34.623394012451 -69.515296936035 -177.333908081055 1.776198983192
14.507864952087 -76.424285888672 -178.532333374023 3.066679716110
-143.236633300781 -65.043502807617 -173.886352539063 1.359645724297
-32.191429138184 -65.325332641602 -172.126571655273 1.880134701729
-157.151138305664 -72.436210632324 -175.685516357422 5.015306472778
23.910215377808 -65.081718444824 -182.220382690430 4.627347946167
-34.695201873779 -71.215415954590 -169.976654052734 3.525528192520
-107.565483093262 -64.084014892578 -174.503341674805 0.194514438510
-108.002693176270 -73.231163024902 -182.465393066406 4.108004570007
-31.266876220703 -63.363155364990 -185.419647216797 5.645467758179
-25.214153289795 -75.332221984863 -181.204956054688 1.578498244286
11.680188179016 -69.822677612305 -189.361862182617 2.062956094742
15.071383476257 -67.766868591309 -199.080017089844 2.197414875031
12.319244384766 -71.593307495117 -187.677993774414 1.811782836914
-143.396667480469 -63.651741027832 -184.770278930664 2.727865219116
22.905017852783 -66.560295104980 -190.303894042969 3.620367288589
4.857933998108 -70.126113891602 -196.973800659180 2.865528345108
-136.218704223633 -64.111625671387 -191.515609741211 2.781956434250
-113.939353942871 -66.270988464355 -193.639587402344 1.189035058022
13.787011146545 -68.976898193359 -203.831085205078 1.191130638123
-119.314125061035 -64.806976318359 -195.155960083008 3.749414920807
-108.386047363281 -59.786994934082 -190.984359741211 5.322653293610
-167.733657836914 -66.806205749512 -198.968200683594 3.458127737045
-25.488695144653 -68.076835632324 -199.673812866211 1.278120398521
9.941694259644 -68.911705017090 -200.061218261719 1.643758058548
-145.936035156250 -66.681976318359 -202.008285522461 2.817044734955
-138.813781738281 -69.797271728516 -205.070816040039 3.196213722229
-22.785615921021 -67.698043823242 -207.661102294922 3.120656490326
-13.651570320129 -71.338333129883 -205.193008422852 0.960573375225
-15.228049278259 -71.695831298828 -205.751220703125 2.303345441818
-140.268554687500 -71.164199829102 -200.847366333008 1.613265275955
-18.623670578003 -70.071693420410 -212.750534057617 2.461975097656
-10.865694046021 -76.482086181641 -214.442504882813 1.687954783440
16.742795944214 -67.721504211426 -211.691421508789 1.892968893051
-18.327919006348 -75.750373840332 -211.543731689453 0.709266781807
8.943538665771 -72.361473083496 -209.487915039063 0.998352348804
-12.531545639038 -72.169876098633 -215.166961669922 1.856962561607
-24.336006164551 -66.070137023926 -211.496749877930 6.118482112885
10.053226470947 -78.328704833984 -220.952316284180 2.288041353226
-4.074137210846 -77.527496337891 -219.221649169922 1.319764733315
9.767898559570 -66.540817260742 -220.917892456055 1.471995830536
-8.227740287781 -74.214698791504 -228.170532226563 2.036128044128
-161.832229614258 -67.315895080566 -224.242141723633 1.424119710922
78.898422241211 -76.946914672852 -220.990966796875 2.431786537170
-137.108566284180 -63.918056488037 -222.056503295898 4.475174903870
-136.830017089844 -69.417129516602 -220.015060424805 4.613572597504
-9.680123329163 -71.778297424316 -225.133636474609 0.672782182693
5.102901935577 -70.988197326660 -235.453613281250 1.302604198456
-159.727096557617 -65.851882934570 -228.894805908203 1.755229949951
87.829444885254 -71.981933593750 -221.615814208984 2.027648925781
-3.211462974548 -69.419830322266 -226.532760620117 2.484159231186
-0.850138008595 -71.723846435547 -221.674057006836 2.137383222580
72.107269287109 -77.310150146484 -232.007293701172 4.076971054077
-1.402843952179 -68.024291992188 -236.371292114258 0.718416035175
-15.546147346497 -72.388374328613 -225.106079101563 1.817756891251
-129.001373291016 -63.641616821289 -232.196166992188 2.595204114914
-6.980721950531 -70.707046508789 -237.940261840820 1.735050678253
0.926428020000 -68.445434570313 -230.686355590820 1.321958899498
64.361419677734 -70.267066955566 -239.287796020508 1.593551278114
-159.907424926758 -68.769950866699 -235.204803466797 2.595611810684
-15.125759124756 -69.189430236816 -245.437103271484 2.878163099289
-172.018615722656 -69.200523376465 -236.690704345703 2.762931346893
8.728480339050 -66.716911315918 -241.907058715820 1.462924242020
-165.523239135742 -67.860031127930 -236.579742431641 0.907594740391
-162.122024536133 -68.584465026855 -244.808883666992 1.736359715462
55.940322875977 -73.861312866211 -245.945785522461 1.247903943062
59.134090423584 -75.768638610840 -243.241104125977 2.252184152603
53.553699493408 -74.309005737305 -246.601654052734 1.377718925476
49.372341156006 -73.161827087402 -250.261184692383 1.152086615562
-155.298828125000 -68.185905456543 -241.019927978516 2.398185014725
-158.093383789063 -62.494029998779 -244.918563842773 4.305213451385
-14.864457130432 -75.956298828125 -249.349685668945 2.943313598633
-152.744583129883 -65.928108215332 -245.365631103516 1.627219200134
16.172319412231 -72.693229675293 -251.511230468750 3.682553291321
-173.259063720703 -72.797462463379 -249.025482177734 6.979546070099
-170.697525024414 -64.136810302734 -247.883438110352 5.480661869049
-84.252067565918 -71.217895507813 -246.400619506836 1.987219572067
-172.644042968750 -65.206657409668 -256.024902343750 7.172715663910
-87.344734191895 -68.605216979980 -256.965454101563 1.530805230141
40.763092041016 -71.719764709473 -254.421859741211 2.313823223114
19.464826583862 -75.947731018066 -257.537078857422 2.165002346039
-160.349884033203 -68.124504089355 -261.017486572266 2.587245225906
-103.156135559082 -60.736721038818 -258.872283935547 2.351967573166
37.578292846680 -72.570922851563 -255.641036987305 2.011328697205
-109.250137329102 -77.286422729492 -256.936553955078 3.137722730637
-155.797088623047 -62.962993621826 -263.935852050781 1.892717838287
-106.253562927246 -67.329925537109 -255.736221313477 1.018768310547
-171.461914062500 -69.595542907715 -257.219940185547 3.979284286499
-115.511856079102 -69.123123168945 -262.493103027344 2.777705430984
-155.988281250000 -69.588302612305 -264.235717773438 1.722521662712
-161.495559692383 -63.620613098145 -260.889068603516 4.535979270935
-167.990417480469 -65.511337280273 -261.728607177734 2.968360662460
-167.391983032227 -64.513626098633 -260.211456298828 4.295298099518
-168.089782714844 -66.613616943359 -262.524536132813 1.920332551003
-170.556640625000 -67.330459594727 -258.117340087891 4.167712211609
24.122629165649 -74.047630310059 -266.160491943359 2.970256328583
-150.749359130859 -72.253440856934 -260.831207275391 2.717949867249
-153.966995239258 -67.150894165039 -283.213043212891 1.240738153458
24.998947143555 -72.847778320313 -276.337951660156 3.832147836685
-14.918960571289 -74.563049316406 -274.620269775391 3.504998922348
-127.903091430664 -65.466949462891 -283.285797119141 4.758410453796
-139.112030029297 -68.151916503906 -284.751373291016 3.121373176575
-136.415924072266 -67.189994812012 -287.751770019531 2.757616043091
-130.669921875000 -68.340599060059 -284.286987304688 1.590168595314
-115.864280700684 -67.119926452637 -290.382385253906 1.630678653717
-106.755500793457 -63.988929748535 -283.127868652344 5.964602947235
4.938109874725 -76.507087707520 -294.938507080078 1.993865489960
-87.230270385742 -70.775764465332 -289.708221435547 1.849208235741
-151.485519409180 -68.063476562500 -284.895599365234 2.016192197800
-105.152191162109 -69.851196289063 -289.837310791016 1.792898654938
-134.780364990234 -65.214675903320 -290.861328125000 0.962892532349
7.141629219055 -74.841621398926 -287.925567626953 0.322605609894
-113.591094970703 -61.103553771973 -286.238525390625 6.551682472229
1.315078973770 -72.715744018555 -294.138946533203 1.354333639145
-145.920654296875 -67.205268859863 -285.145782470703 1.912795186043
-155.297531127930 -67.600936889648 -293.353576660156 1.682113289833
-162.403594970703 -66.299087524414 -314.386291503906 6.701277732849
-158.891738891602 -65.450645446777 -309.282684326172 4.807505607605
48.250514984131 -72.577079772949 -25.754388809204 0.788921058178
26.179147720337 -68.364929199219 -37.516525268555 2.391003847122
30.656112670898 -69.961532592773 -37.129352569580 1.941144108772
-41.326740264893 -69.871360778809 -46.762973785400 2.171181678772
-9.944838523865 -65.249374389648 -63.034816741943 2.337868213654
95.743957519531 -72.259193420410 -69.612854003906 2.030308485031
69.473167419434 -64.605720520020 -70.271934509277 1.655670762062
-24.274900436401 -66.637031555176 -74.096961975098 2.390047073364
-99.506576538086 -70.150062561035 -86.726829528809 4.324971675873
-42.024860382080 -66.824264526367 -84.567962646484 3.273540019989
59.436031341553 -70.012313842773 -81.473526000977 2.684333801270
64.990898132324 -74.183113098145 -86.052696228027 2.700832843781
52.508842468262 -67.352081298828 -88.759765625000 1.165031671524
-58.736652374268 -65.658035278320 -90.087280273438 3.141713619232
68.120536804199 -65.583396911621 -90.544525146484 2.256475687027
43.236217498779 -74.544868469238 -99.305191040039 2.140233516693
69.530212402344 -73.696403503418 -96.255752563477 1.863813400269
-60.116779327393 -64.716239929199 -95.862655639648 2.534436225891
51.585430145264 -72.419837951660 -92.849304199219 0.921430051327
46.934936523438 -73.069648742676 -99.021179199219 1.301649570465
103.689933776855 -68.129951477051 -104.182701110840 0.905133903027
-64.800529479980 -66.474678039551 -97.578804016113 1.520697355270
111.865005493164 -71.678688049316 -101.757125854492 2.195878744125
-78.719406127930 -69.820755004883 -100.564056396484 0.826900839806
53.982494354248 -73.741371154785 -107.483482360840 1.479563832283
48.575584411621 -68.485366821289 -102.185295104980 0.599697828293
91.446868896484 -67.669944763184 -105.875923156738 1.550748944283
83.667266845703 -71.582511901855 -107.594726562500 3.265160083771
56.604576110840 -71.580116271973 -106.079681396484 2.774617433548
-76.728775024414 -67.235900878906 -111.206878662109 1.943436503410
-78.002120971680 -65.858085632324 -115.784622192383 1.664500951767
-80.954078674316 -67.464836120605 -116.822875976563 2.917647123337
-93.978736877441 -72.360572814941 -116.295234680176 2.468847036362
103.448143005371 -65.318344116211 -119.353729248047 5.130036830902
-90.229698181152 -69.497756958008 -117.220489501953 0.632672250271
-75.178283691406 -61.539070129395 -120.761436462402 1.396169900894
109.113647460938 -71.424987792969 -118.574645996094 1.304241061211
-59.639354705811 -57.552967071533 -116.727920532227 1.850347638130
113.014083862305 -78.021545410156 -133.454299926758 1.189924955368
109.711776733398 -74.996833801270 -131.575073242188 2.593749046326
105.341369628906 -74.703277587891 -129.400787353516 5.088790893555
-93.965484619141 -66.976890563965 -135.697479248047 2.553617954254
-46.005470275879 -67.857604980469 -141.374343872070 2.970269680023
-81.184455871582 -63.353496551514 -142.608169555664 5.476089477539
-69.715782165527 -66.977287292480 -147.550933837891 1.593654990196
-69.228126525879 -65.915634155273 -148.496856689453 2.695158720016
-55.318138122559 -66.863609313965 -143.125167846680 1.837391376495
-46.535408020020 -73.356689453125 -143.813949584961 1.646358132362
13.498830795288 -70.010490417480 -147.732894897461 2.383459568024
-93.922058105469 -61.519634246826 -140.130813598633 2.263654947281
-46.661422729492 -65.941413879395 -145.922302246094 1.860805511475
-51.283100128174 -58.785118103027 -146.280929565430 8.196212768555
-42.861057281494 -65.484626770020 -153.793991088867 2.090178489685
26.180948257446 -73.491737365723 -161.167419433594 1.674387574196
-51.388629913330 -69.199600219727 -150.965332031250 1.547959566116
-102.340232849121 -59.927589416504 -147.092819213867 5.210816860199
-47.678695678711 -63.861476898193 -154.607513427734 5.195416450500
24.771324157715 -73.664863586426 -146.553695678711 1.011448025703
-97.116966247559 -74.026603698730 -162.221328735352 5.590559005737
22.302480697632 -73.382003784180 -158.476303100586 2.032572507858
-108.741874694824 -61.980018615723 -167.348358154297 1.832383632660
-102.227935791016 -66.858657836914 -162.548492431641 2.961616277695
21.275436401367 -70.702728271484 -166.694686889648 2.101427078247
25.800701141357 -68.468200683594 -168.066360473633 1.307065486908
-111.427108764648 -69.411720275879 -171.526855468750 3.012085437775
-143.108779907227 -61.662212371826 -171.414779663086 3.726291179657
-19.507461547852 -70.054687500000 -190.418960571289 2.668566465378
-28.531040191650 -67.944229125977 -180.223861694336 1.312775969505
-117.956359863281 -68.161705017090 -185.063278198242 4.342699050903
-144.535858154297 -60.420131683350 -184.064270019531 1.356674432755
-102.513717651367 -62.723781585693 -179.849639892578 4.693921566010
-160.535720825195 -65.074821472168 -186.566558837891 7.654423236847
-132.395645141602 -71.565063476563 -193.477249145508 2.578996658325
-134.170410156250 -68.743637084961 -194.347076416016 2.132164716721
-20.369548797607 -67.330978393555 -187.394287109375 3.419471979141
-120.209709167480 -67.149330139160 -197.450927734375 2.634178876877
-119.543197631836 -61.691303253174 -198.597045898438 2.529884099960
-29.728532791138 -72.340499877930 -192.654586791992 1.290854096413
-155.340377807617 -61.943866729736 -193.486968994141 2.797747612000
-133.996597290039 -67.374267578125 -203.035446166992 0.978780329227
-126.093971252441 -63.072303771973 -202.033981323242 1.254980206490
17.146528244019 -74.412811279297 -202.141662597656 1.778447985649
-163.707901000977 -65.284286499023 -199.565429687500 2.109206438065
11.516293525696 -68.779136657715 -217.104324340820 1.515149354935
12.803714752197 -72.710906982422 -215.674148559570 2.680289745331
-16.796133041382 -64.911193847656 -210.257675170898 3.164483785629
-6.462104797363 -70.232971191406 -216.823974609375 2.213205575943
-173.411148071289 -61.133678436279 -208.378707885742 8.616015434265
-160.532348632813 -60.052970886230 -210.096130371094 6.920762538910
-96.361839294434 -66.617111206055 -217.656021118164 0.698267996311
-98.507301330566 -69.832084655762 -220.120193481445 1.762221574783
-162.572692871094 -66.766273498535 -224.310546875000 2.310480117798
-110.135917663574 -63.895801544189 -217.466613769531 4.487901687622
-13.096093177795 -67.832641601563 -211.903976440430 1.331385612488
-129.819580078125 -68.519142150879 -219.449432373047 4.695409297943
-144.610824584961 -66.189277648926 -220.993438720703 1.198893427849
-4.845818996429 -73.058601379395 -221.346115112305 2.201402902603
-135.724548339844 -63.800807952881 -222.264099121094 4.628039836884
-125.357582092285 -71.796096801758 -220.243087768555 4.554674148560
-115.995758056641 -70.342269897461 -222.123077392578 3.630842447281
-2.934809923172 -63.296863555908 -229.395126342773 4.369045257568
-109.231491088867 -64.404663085938 -230.320037841797 2.746682643890
-162.898696899414 -57.873989105225 -220.357528686523 8.062162399292
-147.384475708008 -64.962493896484 -224.157424926758 1.841568231583
-166.524002075195 -64.569999694824 -223.428375244141 3.654225587845
-9.874758720398 -68.255943298340 -225.601593017578 2.736681938171
-9.948220252991 -70.952552795410 -233.595016479492 0.915860414505
76.605995178223 -76.555969238281 -226.386672973633 2.122614145279
-3.132070064545 -73.601295471191 -229.044906616211 1.357596635818
-145.089813232422 -65.894897460938 -235.941360473633 2.520052433014
-16.234037399292 -67.442832946777 -229.435592651367 2.054257869720
72.162879943848 -73.512138366699 -228.904922485352 1.403921008110
72.248680114746 -73.656105041504 -234.506347656250 2.102861166000
-136.077590942383 -64.104759216309 -230.079605102539 1.214626908302
-158.137283325195 -69.914398193359 -226.139434814453 2.882049083710
-115.530487060547 -64.532585144043 -231.321243286133 0.922766685486
-126.961898803711 -60.790985107422 -234.865814208984 4.631113529205
-164.488739013672 -63.745803833008 -232.846282958984 4.488927841187
-162.663589477539 -66.262840270996 -233.128799438477 2.880914926529
-149.469512939453 -59.785064697266 -230.883941650391 1.258314490318
-16.563318252563 -67.529533386230 -234.473693847656 3.878803253174
-7.777830123901 -69.132972717285 -242.053527832031 1.493315219879
-162.210281372070 -64.002929687500 -240.174194335938 2.627708196640
3.721875905991 -71.516418457031 -237.374008178711 2.758540391922
-0.997601985931 -72.243263244629 -238.180267333984 1.984966516495
-161.053573608398 -65.081108093262 -235.227355957031 2.708079576492
16.117284774780 -76.517257690430 -241.112609863281 1.598172545433
48.734275817871 -75.542968750000 -247.029037475586 3.584337949753
47.058704376221 -76.181465148926 -244.563827514648 5.527665615082
-19.214731216431 -71.353919982910 -247.064666748047 4.169342994690
45.308284759521 -71.283172607422 -250.674804687500 0.741902709007
-161.996597290039 -60.776729583740 -246.798736572266 7.072504520416
-159.117843627930 -66.269470214844 -244.486450195313 2.495240449905
-163.377441406250 -71.048767089844 -246.887496948242 1.947607398033
53.627159118652 -71.890487670898 -248.639694213867 1.044013381004
-95.829879760742 -66.170761108398 -251.511886596680 3.143241882324
-126.490531921387 -65.118774414063 -252.943283081055 1.497256040573
-108.652587890625 -73.059188842773 -251.168731689453 6.178751468658
22.468385696411 -77.071723937988 -258.097442626953 2.370465278625
37.701110839844 -69.317878723145 -252.361328125000 2.103309869766
-102.721252441406 -64.271499633789 -253.275268554688 5.231983184814
-95.189537048340 -62.190940856934 -248.291793823242 3.659884929657
43.100784301758 -78.143768310547 -256.239532470703 7.533738613129
38.751571655273 -70.038284301758 -257.959503173828 1.193343639374
-156.840530395508 -72.241943359375 -255.117431640625 3.133361101151
26.395664215088 -72.088890075684 -260.633850097656 2.860339164734
-146.115356445313 -69.404151916504 -262.818908691406 2.795140028000
-115.226768493652 -67.131172180176 -261.121307373047 1.752593517303
-140.452926635742 -63.683444976807 -260.102600097656 2.187865734100
30.239221572876 -71.147300720215 -263.591827392578 1.724725365639
-128.686691284180 -65.473014831543 -261.022430419922 2.335722684860
-13.864753723145 -68.799537658691 -256.664672851563 2.489958047867
17.500926971436 -75.683906555176 -271.573516845703 3.702846765518
-6.955166816711 -77.670837402344 -264.264984130859 3.867912292480
16.138490676880 -74.743156433105 -280.787475585938 2.620407581329
-157.374435424805 -69.431724548340 -280.098449707031 2.635307312012
-14.481277465820 -68.637016296387 -280.833007812500 4.292390823364
-155.588806152344 -70.329002380371 -279.334350585938 2.569938898087
-125.541061401367 -70.722221374512 -283.090515136719 2.230441331863
-166.449844360352 -73.595169067383 -283.546539306641 0.867552220821
-118.036430358887 -67.294158935547 -285.178253173828 4.158161640167
-106.717102050781 -68.877128601074 -288.640655517578 2.103091716766
-9.937925338745 -69.271270751953 -284.539916992188 2.166514158249
-110.841506958008 -70.237159729004 -286.722137451172 3.671660184860
-119.807365417480 -64.946372985840 -281.624084472656 6.845540523529
-125.552421569824 -63.513107299805 -290.097656250000 1.771929383278
-142.576751708984 -67.285255432129 -287.976593017578 1.579133629799
-130.059249877930 -63.113613128662 -289.123260498047 1.931573867798
-161.773483276367 -72.379791259766 -286.917022705078 1.904710769653
-150.193328857422 -63.123008728027 -289.287536621094 2.069997787476
-162.512420654297 -63.007144927979 -300.489776611328 9.592253684998
-157.886276245117 -64.756950378418 -308.461090087891 5.409240722656
-163.490707397461 -63.617477416992 -298.794952392578 9.174798965454
-143.159774780273 -68.468299865723 -307.989959716797 4.067227363586
-152.489669799805 -70.110267639160 -312.359100341797 2.082503080368
37.278392791748 -68.637016296387 -7.692595958710 3.887303352356
50.190368652344 -74.081687927246 -17.779386520386 3.619927406311
25.468944549561 -66.005058288574 -22.364748001099 1.896398782730
52.680641174316 -69.657371520996 -26.759191513062 2.231847524643
29.175830841064 -70.936599731445 -34.363540649414 0.956024765968
33.289234161377 -69.397079467773 -33.632968902588 3.332844734192
-55.946132659912 -60.765663146973 -47.690883636475 3.199690580368
78.663787841797 -65.185729980469 -60.839988708496 3.377957820892
83.568481445313 -72.022567749023 -68.803344726563 1.899572253227
-88.618949890137 -66.939476013184 -61.592182159424 2.484612703323
-11.674553871155 -64.246276855469 -59.659969329834 2.629154205322
-91.524566650391 -66.679290771484 -70.139549255371 4.346076011658
97.594200134277 -74.019363403320 -68.677352905273 3.537017822266
-11.001025199890 -64.203430175781 -67.107788085938 1.799935102463
68.311630249023 -73.842117309570 -82.024543762207 2.340730905533
-43.219882965088 -71.197151184082 -80.110488891602 2.154911279678
-25.432804107666 -70.210762023926 -73.742385864258 1.721992611885
56.651947021484 -64.517913818359 -87.457778930664 0.963390052319
-42.677852630615 -77.200294494629 -82.821594238281 1.536889314651
66.016601562500 -60.137298583984 -88.495971679688 2.221533298492
52.800685882568 -75.491592407227 -91.727249145508 1.153405308723
55.856517791748 -69.117401123047 -95.206054687500 1.979556322098
58.630657196045 -77.289680480957 -91.245933532715 3.479923009872
56.912929534912 -65.029090881348 -96.514358520508 2.061004877090
99.568237304688 -67.362113952637 -99.784378051758 2.199894428253
107.637939453125 -65.943824768066 -101.289184570313 1.525282740593
61.012290954590 -73.324768066406 -101.512741088867 4.361156463623
108.265785217285 -66.853607177734 -102.143623352051 0.476207524538
-77.183784484863 -64.988319396973 -97.528137207031 3.447203397751
-72.877792358398 -66.160957336426 -101.864097595215 1.465165972710
100.865798950195 -67.425018310547 -99.853675842285 1.102650046349
53.694019317627 -71.125953674316 -101.696434020996 0.900089442730
70.735496520996 -72.634681701660 -98.328834533691 1.945699095726
-71.037338256836 -66.323684692383 -107.588737487793 1.625690937042
-85.242111206055 -64.044296264648 -106.652626037598 1.310102462769
87.340454101563 -75.427764892578 -104.400199890137 4.796471595764
39.371677398682 -71.923423767090 -103.309341430664 1.809366226196
106.411254882813 -67.397125244141 -108.899131774902 1.726626038551
48.180103302002 -73.384880065918 -114.211959838867 0.974922835827
111.231803894043 -72.628746032715 -103.786972045898 2.602858543396
-77.540061950684 -66.011489868164 -110.838043212891 1.497999548912
103.587623596191 -66.329933166504 -110.316375732422 3.457281827927
-83.042144775391 -62.811656951904 -120.360572814941 1.876646757126
-58.372272491455 -69.498268127441 -127.027694702148 0.895543932915
-56.799922943115 -66.178550720215 -123.028076171875 1.822546005249
-71.449729919434 -68.720161437988 -129.283447265625 3.905133247375
-50.581829071045 -68.566825866699 -130.307922363281 1.529414534569
-83.990959167480 -67.852279663086 -132.660705566406 1.947562098503
-77.451019287109 -61.732727050781 -130.676116943359 1.628940105438
-79.419921875000 -66.930572509766 -131.303604125977 0.841322064400
-61.537834167480 -72.417037963867 -141.159179687500 3.165884017944
-70.958412170410 -66.910552978516 -140.247726440430 1.992797136307
-60.724662780762 -72.451911926270 -132.146499633789 1.756807684898
-57.472274780273 -66.817565917969 -141.803604125977 2.677889108658
13.033317565918 -64.511787414551 -145.494079589844 2.477619409561
-91.491065979004 -66.910858154297 -139.342391967773 0.350097596645
-48.906627655029 -73.087684631348 -147.773071289063 3.192594289780
-95.162078857422 -64.150451660156 -148.431518554688 1.570855498314
-101.952209472656 -62.344356536865 -146.097488403320 3.792677164078
19.512985229492 -72.388374328613 -154.865447998047 2.680947542191
14.131066322327 -71.001052856445 -158.987609863281 1.717209696770
-95.877326965332 -68.938659667969 -159.019287109375 1.354486823082
-104.525817871094 -66.397430419922 -150.181076049805 4.254219532013
-100.374702453613 -64.485404968262 -166.119674682617 3.292974948883
20.783519744873 -69.319999694824 -170.627349853516 2.885066270828
-112.727470397949 -65.526763916016 -171.608215332031 4.355070114136
23.884847640991 -69.737716674805 -165.250213623047 0.211151033640
-148.803497314453 -65.059753417969 -174.493682861328 0.948116660118
17.174182891846 -69.284988403320 -176.265136718750 1.506166458130
23.754777908325 -71.427261352539 -186.282104492188 1.581379413605
