-44.975090026855 -82.038368225098 -158.973068237305 4.452935218811
-6.996718883514 -83.833549499512 -171.401565551758 1.553909182549
-64.819190979004 -87.867019653320 -167.250961303711 6.834990978241
-62.881748199463 -82.319816589355 -179.888458251953 5.821045398712
-59.970756530762 -82.000213623047 -173.561340332031 2.577776908875
-35.573722839355 -83.100723266602 -171.488067626953 1.444515347481
-60.167037963867 -80.960296630859 -180.071960449219 3.906244993210
-33.883052825928 -80.810867309570 -179.895645141602 2.445365905762
-148.705459594727 -77.164733886719 -183.846389770508 2.273828506470
-54.312198638916 -81.932289123535 -181.370483398438 1.844370841980
-48.821453094482 -80.432006835938 -194.310409545898 1.542216658592
-32.548572540283 -83.682716369629 -181.594161987305 3.932321310043
-35.583820343018 -85.883224487305 -187.337585449219 2.993724107742
-36.214912414551 -79.452789306641 -191.745285034180 2.054864168167
-24.479923248291 -85.264343261719 -187.640548706055 2.451845645905
-50.170921325684 -81.985664367676 -199.832168579102 2.232895612717
-146.782302856445 -72.398910522461 -192.354125976563 1.607476472855
-42.419082641602 -76.349853515625 -193.252868652344 2.513325691223
-41.350032806396 -79.248367309570 -202.239349365234 2.102835655212
-41.996593475342 -84.909164428711 -202.173767089844 1.613656640053
-46.900947570801 -78.890548706055 -200.179428100586 2.176869392395
-135.173309326172 -78.013542175293 -194.398254394531 3.624913692474
-138.147338867188 -76.934577941895 -199.756439208984 1.404355883598
-51.811912536621 -80.590248107910 -203.332534790039 2.315515518188
-62.868404388428 -86.038726806641 -204.828506469727 3.402209997177
-43.808776855469 -82.083885192871 -202.773635864258 2.997522115707
-144.287292480469 -79.799270629883 -205.119537353516 1.448566794395
-71.622192382813 -74.893905639648 -207.376693725586 1.058688879013
-40.039016723633 -85.506881713867 -208.467269897461 7.571680545807
13.476625442505 -85.670112609863 -205.167984008789 5.470131397247
-75.494323730469 -82.139045715332 -212.801605224609 0.561979532242
-31.303779602051 -79.291030883789 -213.460464477539 1.717495679855
9.986146926880 -82.563468933105 -219.048919677734 1.805885791779
-155.675079345703 -77.898200988770 -216.966476440430 5.334723949432
4.460844039917 -82.081710815430 -226.896575927734 3.614089250565
10.123570442200 -84.671478271484 -223.993652343750 3.499820709229
15.563029289246 -80.930122375488 -224.386703491211 2.057915687561
-140.945007324219 -82.617439270020 -225.912292480469 1.561982035637
-147.067260742188 -76.556060791016 -228.696548461914 2.445683002472
9.449819564819 -84.563529968262 -235.602355957031 2.604946851730
14.888294219971 -81.340652465820 -235.976699829102 1.718083381653
12.928833961487 -82.730751037598 -236.185485839844 1.153299570084
-151.233642578125 -80.562355041504 -241.194976806641 0.855306744576
-148.321731567383 -87.721603393555 -238.289733886719 3.336641788483
8.971375465393 -84.473258972168 -233.970520019531 2.643704891205
-44.318668365479 -81.733139038086 -243.832351684570 1.411507964134
15.577881813049 -83.084602355957 -247.176742553711 1.194994449615
-46.406318664551 -83.506629943848 -242.379806518555 3.280237436295
-147.111694335938 -81.890113830566 -257.580932617188 1.510558724403
16.047975540161 -85.065063476563 -251.937438964844 3.361270427704
-146.566864013672 -79.926910400391 -255.593994140625 2.833104372025
-156.713302612305 -78.602188110352 -258.437133789063 3.243747472763
10.852886199951 -82.177299499512 -254.641479492188 2.976214408875
-11.186859130859 -78.045433044434 -251.016357421875 2.694546699524
-11.241313934326 -81.113540649414 -263.110534667969 3.174740076065
-146.820083618164 -83.898651123047 -259.764190673828 1.060243964195
-158.194015502930 -71.638839721680 -261.841766357422 2.455087423325
-146.361724853516 -80.398551940918 -263.664764404297 2.448182821274
-152.557998657227 -74.077117919922 -270.990325927734 2.770778417587
-149.860763549805 -79.256256103516 -267.961090087891 2.729232788086
-10.045762062073 -84.817008972168 -269.047546386719 5.662295818329
-8.565971374512 -82.071746826172 -271.310882568359 1.836655497551
11.362069129944 -82.795898437500 -265.799682617188 2.285410165787
0.680940985680 -85.042404174805 -277.262786865234 3.217146396637
0.450082987547 -79.984077453613 -286.274719238281 3.776691913605
-141.249801635742 -74.507621765137 -289.520050048828 2.470590353012
-148.529388427734 -76.968612670898 -293.101013183594 2.393546819687
-62.583652496338 -80.236686706543 -62.494880676270 2.592291831970
-47.592544555664 -80.489234924316 -64.563346862793 1.635932803154
-47.615074157715 -76.510536193848 -65.909378051758 2.294126749039
-47.260749816895 -78.385910034180 -65.062767028809 1.799114942551
-69.007057189941 -86.169792175293 -66.241119384766 6.201570987701
-78.448410034180 -78.405715942383 -70.118560791016 2.994202136993
-42.382804870605 -81.406646728516 -76.173286437988 1.603483200073
-44.316047668457 -85.266860961914 -85.637397766113 2.971079587936
-51.186721801758 -87.535285949707 -87.376571655273 1.824435710907
-87.377716064453 -77.816947937012 -87.361846923828 4.610053539276
-75.192771911621 -84.118148803711 -107.568832397461 5.619741916656
41.518272399902 -83.132614135742 -107.076240539551 4.077860832214
-87.423713684082 -79.133811950684 -108.706787109375 2.072399377823
41.444953918457 -84.970237731934 -120.348899841309 4.381527423859
38.734668731689 -82.230789184570 -123.472129821777 2.431393623352
31.636289596558 -82.335685729980 -120.985801696777 2.357054233551
26.528055191040 -87.866455078125 -126.481300354004 8.141525268555
28.015762329102 -82.191986083984 -132.663665771484 2.120879411697
21.417337417603 -79.583801269531 -145.078369140625 3.440052747726
-50.887073516846 -84.336082458496 -155.944015502930 5.794255256653
28.193714141846 -83.201393127441 -141.768951416016 3.472287654877
22.128820419312 -86.521125793457 -155.856018066406 6.755234718323
-44.746250152588 -83.646415710449 -150.804321289063 4.276086807251
23.872020721436 -83.552558898926 -154.462173461914 3.153812408447
-50.992481231689 -77.580673217773 -159.178802490234 2.351025104523
23.021560668945 -83.316627502441 -165.562835693359 4.905826091766
-63.893840789795 -81.731147766113 -169.715362548828 2.715389490128
-6.360653877258 -85.641906738281 -172.727188110352 3.629625797272
-35.104976654053 -80.596679687500 -172.847167968750 1.942793607712
-11.215738296509 -83.790901184082 -171.357650756836 1.878042817116
-60.002689361572 -80.364715576172 -175.240310668945 0.736050784588
21.248691558838 -86.159797668457 -171.760681152344 7.305580139160
-15.845716476440 -80.005294799805 -184.113906860352 2.453501462936
-26.371246337891 -76.026237487793 -186.393356323242 3.030429601669
-54.374660491943 -76.919532775879 -182.583023071289 1.054138660431
-32.092662811279 -82.383453369141 -186.600830078125 2.204917430878
14.301785469055 -86.012161254883 -191.191696166992 6.530240535736
-151.204620361328 -80.351554870605 -187.896118164063 1.217674255371
-32.282287597656 -81.888801574707 -188.689590454102 2.470844030380
-51.782310485840 -77.387222290039 -189.124069213867 2.030145883560
-153.220016479492 -81.427368164063 -189.267303466797 2.730408191681
-144.845169067383 -78.614616394043 -196.052719116211 1.623150825500
-26.823638916016 -81.369987487793 -197.154052734375 3.282901287079
-25.760829925537 -82.045791625977 -194.552490234375 2.934741020203
-47.827938079834 -79.368392944336 -194.528625488281 2.191890239716
-21.259435653687 -83.966590881348 -194.575119018555 4.239165782928
-50.610820770264 -80.685836791992 -197.725097656250 2.348576784134
-49.642696380615 -81.284324645996 -196.626068115234 2.391261100769
-56.405433654785 -83.093124389648 -199.649215698242 2.303955793381
-22.133375167847 -77.514602661133 -205.803710937500 1.757615804672
-147.485107421875 -77.606559753418 -215.899551391602 2.034202098846
-61.156253814697 -78.087669372559 -209.321762084961 1.226619601250
-61.925014495850 -76.562652587891 -209.595428466797 2.264160394669
-35.560836791992 -73.999221801758 -207.696166992188 1.524652838707
-14.308949470520 -78.151206970215 -206.390594482422 1.370163440704
-36.956558227539 -78.627510070801 -209.215698242188 0.772425830364
-82.891479492188 -78.821266174316 -209.200302124023 3.535567760468
-146.611862182617 -83.795249938965 -209.407653808594 1.162192583084
-35.877929687500 -82.280975341797 -208.756744384766 4.163606166840
3.229926109314 -85.885231018066 -208.287429809570 8.996731758118
-69.977722167969 -82.336982727051 -211.704315185547 0.795833051205
-66.595123291016 -79.152725219727 -214.329025268555 1.523532271385
-27.685861587524 -76.083328247070 -214.015945434570 1.207670092583
-12.362058639526 -89.202636718750 -212.573776245117 8.256540298462
-29.817203521729 -83.552078247070 -216.370040893555 4.572325229645
16.695901870728 -82.003868103027 -214.856048583984 3.597975492477
-153.286712646484 -72.140853881836 -218.420150756836 1.905967831612
-14.502136230469 -88.056076049805 -218.829910278320 7.184859752655
-160.039428710938 -79.097251892090 -226.178848266602 5.528048992157
4.867991924286 -83.400703430176 -230.322250366211 4.819142818451
10.533102989197 -77.888893127441 -226.054748535156 2.716581821442
-3.736691951752 -81.596412658691 -222.162139892578 2.340509176254
13.364348411560 -83.401397705078 -228.372116088867 2.641119003296
-142.068313598633 -83.157341003418 -234.292648315430 1.909034609795
9.175592422485 -83.459861755371 -226.998596191406 2.836507081985
-156.314086914063 -74.654502868652 -228.326995849609 3.542742967606
-147.708602905273 -77.957183837891 -233.924392700195 1.136811733246
-3.054657936096 -83.406753540039 -221.048110961914 2.996006965637
16.130998611450 -86.365959167480 -233.151626586914 4.835710525513
-33.259449005127 -77.241455078125 -237.877685546875 1.946098804474
-148.156005859375 -77.189613342285 -239.094482421875 2.436178207397
-39.032470703125 -79.149337768555 -244.236587524414 1.108198285103
-48.894847869873 -78.344711303711 -240.520568847656 2.855226516724
-39.144939422607 -77.955154418945 -239.796386718750 1.971895217896
17.257249832153 -83.113693237305 -243.529891967773 2.243367195129
-52.186370849609 -73.981582641602 -246.185714721680 2.111104488373
15.079645156860 -82.816963195801 -245.111923217773 1.745772838593
11.002430915833 -79.488983154297 -239.984451293945 2.251731395721
6.899205207825 -83.739364624023 -249.270767211914 1.638622760773
-42.134544372559 -84.331687927246 -246.632171630859 4.207234859467
21.939588546753 -85.329460144043 -246.402450561523 5.003804683685
-145.306732177734 -77.448196411133 -246.943237304688 1.481703400612
18.241016387939 -79.944084167480 -250.590805053711 2.198220968246
-2.258269071579 -86.588317871094 -249.255401611328 3.102301836014
7.870378971100 -81.938323974609 -241.056869506836 2.967193365097
-152.314010620117 -71.676856994629 -254.147811889648 1.187264323235
-149.095092773438 -81.233505249023 -257.889770507813 1.759265661240
-144.155761718750 -77.868995666504 -257.125244140625 2.642100811005
-154.326461791992 -76.364944458008 -259.753570556641 2.496076583862
13.344931602478 -77.013442993164 -263.107025146484 4.360423564911
-156.879714965820 -71.616943359375 -272.012420654297 3.314101696014
-9.142001152039 -81.777122497559 -273.915527343750 1.960157394409
-154.235687255859 -78.826263427734 -267.436950683594 4.223616123199
-146.387313842773 -74.530738830566 -281.452117919922 1.223341464996
-156.133102416992 -72.366981506348 -275.386199951172 2.863500833511
-156.135650634766 -79.166114807129 -284.183898925781 2.009307861328
-133.160781860352 -80.257232666016 -288.972259521484 2.947220802307
-155.759521484375 -77.016265869141 -289.109680175781 2.287718534470
-148.540115356445 -80.160934448242 -290.820465087891 2.161332607269
-149.280303955078 -77.022560119629 -289.658355712891 1.228112936020
-155.632629394531 -78.667129516602 -296.330047607422 3.020361661911
-147.312255859375 -73.686614990234 -291.967224121094 2.094869136810
-154.823440551758 -76.366203308105 -301.075469970703 0.664667904377
-149.632995605469 -77.854728698730 -303.293243408203 2.011191129684
-149.429794311523 -71.943450927734 -305.660308837891 3.902703523636
-58.607215881348 -72.529167175293 -61.118721008301 3.757909536362
-66.714965820313 -79.609588623047 -64.150253295898 1.760745882988
-49.378513336182 -80.677429199219 -61.246734619141 2.630232810974
-26.906898498535 -83.168891906738 -75.710662841797 2.853807449341
-54.336143493652 -84.208084106445 -88.013778686523 2.367090463638
-90.790664672852 -87.493927001953 -97.722373962402 8.926134109497
39.419685363770 -84.499984741211 -106.798347473145 5.858146667480
-76.933593750000 -82.278114318848 -100.086814880371 2.240757226944
41.863655090332 -86.811607360840 -113.808113098145 4.164897918701
39.189830780029 -83.642890930176 -122.602111816406 3.507232904434
38.766426086426 -84.396667480469 -123.817718505859 4.495029926300
33.397472381592 -84.087821960449 -134.765441894531 3.233499526978
29.669378280640 -81.565383911133 -134.270111083984 2.710191488266
31.198854446411 -90.840362548828 -134.829421997070 8.734523773193
30.045835494995 -80.119949340820 -150.395706176758 2.050311326981
-47.597003936768 -76.248008728027 -149.809051513672 0.536077141762
27.038217544556 -85.448837280273 -139.714019775391 5.476213932037
-68.482223510742 -75.421592712402 -152.916381835938 1.142616510391
-38.224266052246 -83.482307434082 -152.556427001953 3.764754533768
-63.546474456787 -81.806442260742 -163.128585815430 1.495454788208
-41.448707580566 -82.338470458984 -158.273864746094 4.218498706818
29.240322113037 -83.999031066895 -157.130126953125 4.300514698029
-38.370990753174 -87.109611511230 -157.733520507813 4.852629184723
-3.403839111328 -82.638183593750 -173.960510253906 4.407406806946
32.355274200439 -77.190612792969 -164.623855590820 2.486711025238
-12.602286338806 -82.169174194336 -170.884078979492 2.507317066193
-60.811851501465 -79.838058471680 -162.775299072266 1.647119164467
-39.484199523926 -77.067337036133 -170.110839843750 1.414646744728
-34.375392913818 -77.428245544434 -173.881866455078 1.219201445580
21.629867553711 -84.461914062500 -177.127410888672 5.091130733490
-55.663829803467 -81.349716186523 -176.218170166016 2.476448297501
-29.798671722412 -76.161476135254 -174.791442871094 2.928444385529
20.200801849365 -81.998519897461 -184.866027832031 4.437119007111
-53.831428527832 -81.149803161621 -185.530700683594 1.144672393799
-26.909496307373 -75.166084289551 -180.478073120117 2.186479330063
-56.642433166504 -76.608894348145 -184.385314941406 2.430313587189
-43.366081237793 -79.233673095703 -195.057220458984 1.531775832176
-31.380172729492 -78.978187561035 -189.507827758789 1.611746072769
-43.545299530029 -82.021072387695 -195.754821777344 1.863198995590
-25.012475967407 -80.197380065918 -192.186080932617 2.116465091705
-140.055862426758 -78.314819335938 -196.835922241211 2.997349023819
18.647146224976 -81.882919311523 -200.848770141602 4.210081100464
-135.596908569336 -75.373374938965 -199.024826049805 1.290249228477
-22.907169342041 -77.785659790039 -196.043182373047 1.131724357605
-22.704841613770 -77.905433654785 -196.648757934570 1.173211574554
-44.297687530518 -80.803611755371 -194.300582885742 0.854956626892
9.905289649963 -79.037582397461 -197.885528564453 2.538928031921
-18.615026473999 -83.977325439453 -198.338623046875 4.169602394104
-57.822444915771 -81.303459167480 -204.903091430664 1.919643044472
-36.899009704590 -80.456352233887 -203.565765380859 1.723706245422
-62.861282348633 -76.439788818359 -206.764450073242 1.437711596489
-70.649375915527 -77.537544250488 -210.838287353516 1.599139928818
14.675573348999 -79.893592834473 -209.352447509766 2.017776012421
-88.407669067383 -77.270324707031 -211.687866210938 2.412876844406
-30.558877944946 -80.651817321777 -215.208435058594 2.153413772583
-82.537506103516 -79.636589050293 -209.831787109375 3.568593263626
-151.300277709961 -77.806266784668 -213.719482421875 3.695430755615
-9.319161415100 -81.228302001953 -214.664566040039 1.088824152946
-8.669021606445 -79.283416748047 -217.872741699219 1.775888085365
10.461852073669 -82.507209777832 -217.131347656250 2.810981512070
10.586888313293 -75.302345275879 -225.893447875977 3.020034074783
-3.417216062546 -82.849395751953 -228.347808837891 4.202590942383
-144.149291992188 -75.447875976563 -219.851272583008 3.103312015533
-151.848205566406 -80.977035522461 -234.487945556641 3.355687141418
-155.637863159180 -73.228202819824 -232.795028686523 1.449423193932
-0.794054985046 -83.816894531250 -236.317382812500 5.872218608856
0.399782985449 -79.452529907227 -237.101821899414 2.235777616501
-26.252990722656 -85.123672485352 -242.355773925781 5.867115497589
-152.580139160156 -74.009094238281 -238.524795532227 2.378778457642
7.928549766541 -82.798629760742 -243.273315429688 3.599320650101
-24.965988159180 -74.614974975586 -241.253921508789 1.434520125389
16.909156799316 -81.438720703125 -235.928512573242 0.387475103140
-54.951045989990 -78.034111022949 -243.325241088867 1.065891742706
-52.568904876709 -79.372390747070 -249.469543457031 2.588922262192
-149.089019775391 -81.990516662598 -245.536010742188 3.219285726547
-64.224708557129 -80.014152526855 -248.178482055664 2.171361923218
-4.828223228455 -80.474159240723 -246.109100341797 2.972023725510
-12.369868278503 -77.825881958008 -254.321319580078 1.443918108940
-149.371536254883 -80.764366149902 -258.850250244141 1.951988101006
-134.028839111328 -74.994758605957 -256.027435302734 0.608263850212
-137.438446044922 -74.493568420410 -257.504791259766 2.123148918152
15.107928276062 -80.328155517578 -258.100952148438 2.059783220291
-147.879119873047 -77.737953186035 -271.883575439453 1.373893499374
15.755292892456 -82.341468811035 -266.254333496094 2.724388122559
-146.488235473633 -74.264633178711 -274.581817626953 3.501353502274
0.641277015209 -83.039596557617 -277.195465087891 2.582240819931
-144.210647583008 -76.963088989258 -281.779205322266 2.448323965073
-3.019399881363 -83.237945556641 -283.177825927734 3.651124477386
-155.053573608398 -73.524703979492 -283.992370605469 2.844679355621
-145.761047363281 -73.075569152832 -282.957305908203 1.118111729622
-138.625000000000 -80.524360656738 -286.047058105469 2.726812124252
-151.608032226563 -78.734657287598 -293.907409667969 2.153907537460
-22.885568618774 -77.595832824707 -290.028411865234 2.316423892975
-153.400726318359 -75.020362854004 -291.728179931641 2.125963211060
-149.349334716797 -79.506156921387 -294.987213134766 3.053905010223
-153.653289794922 -74.618827819824 -307.484832763672 2.481177091599
-58.014595031738 -77.545227050781 -56.668689727783 1.703721284866
-41.592876434326 -85.569198608398 -62.785167694092 4.827850818634
-77.819694519043 -82.299339294434 -67.582740783691 2.994827747345
-32.777744293213 -78.895278930664 -66.655334472656 0.994813859463
-29.079565048218 -82.079574584961 -70.649108886719 3.778021335602
-88.734199523926 -79.841857910156 -79.155639648438 3.167192935944
83.059745788574 -86.573272705078 -84.399589538574 7.084954261780
-37.058479309082 -78.157165527344 -85.094406127930 2.920214176178
79.957344055176 -88.454109191895 -85.870719909668 9.103156089783
76.730880737305 -84.862792968750 -88.604690551758 7.559230804443
83.005577087402 -84.329711914063 -86.070884704590 4.790472030640
83.668113708496 -82.218551635742 -90.770141601563 1.704982161522
88.102737426758 -83.518836975098 -94.116287231445 5.679933071136
-92.899688720703 -75.239990234375 -93.382438659668 1.055019378662
53.750427246094 -83.559211730957 -105.165359497070 4.301263332367
-97.909248352051 -67.766113281250 -111.552787780762 3.462287187576
44.536857604980 -85.645141601563 -107.537757873535 6.871977329254
48.049640655518 -83.903541564941 -112.909584045410 4.979934215546
36.782424926758 -81.702590942383 -114.324790954590 4.390935420990
31.945430755615 -82.640922546387 -137.177566528320 3.260999679565
24.937822341919 -81.203430175781 -140.503723144531 3.676856040955
20.235158920288 -74.710243225098 -143.370681762695 2.995190620422
30.790048599243 -78.126396179199 -142.615493774414 1.369409084320
-48.519577026367 -81.922248840332 -153.501968383789 2.694705247879
-50.987545013428 -80.487815856934 -150.719451904297 4.251914501190
-42.755287170410 -78.478691101074 -157.522979736328 2.698796272278
21.444349288940 -79.307647705078 -153.819610595703 2.821631669998
27.849670410156 -80.374832153320 -167.674880981445 1.994150757790
-35.034774780273 -76.039794921875 -168.466110229492 2.074463367462
-37.143711090088 -74.577064514160 -158.523925781250 1.578390836716
-47.781703948975 -81.519660949707 -158.725769042969 2.894767045975
0.021080000326 -77.850807189941 -163.005676269531 1.770230531693
22.806680679321 -82.320426940918 -150.927612304688 3.472632408142
31.262479782104 -77.902114868164 -159.211532592773 2.881591796875
27.221023559570 -79.402595520020 -170.024887084961 1.643888831139
-8.153654098511 -79.627281188965 -172.113265991211 2.189455270767
-6.494987010956 -81.138137817383 -170.019500732422 1.668246507645
-60.059692382813 -76.768379211426 -166.291427612305 1.758161544800
-62.683856964111 -77.957939147949 -170.562393188477 0.486101955175
-45.723968505859 -80.413452148438 -169.187545776367 3.978787660599
-39.834907531738 -77.408729553223 -167.100555419922 0.956950068474
19.946765899658 -76.256248474121 -170.938629150391 1.942403554916
-25.024196624756 -83.961898803711 -177.837615966797 4.016219615936
-32.221698760986 -76.349205017090 -180.994125366211 2.554767131805
-64.529602050781 -81.824531555176 -178.788177490234 6.027675151825
96.169075012207 -84.766769409180 -181.776779174805 9.982872962952
19.106824874878 -84.531051635742 -174.858947753906 5.250548362732
-27.716476440430 -79.238807678223 -179.404571533203 1.436315655708
-53.425121307373 -78.574165344238 -177.939758300781 1.039928674698
-23.163187026978 -76.166458129883 -180.167694091797 1.979013442993
110.622093200684 -83.900054931641 -181.535812377930 7.299031734467
-57.468338012695 -80.604400634766 -184.491653442383 1.657295584679
10.593833923340 -82.469642639160 -189.775955200195 6.054052352905
15.960060119629 -80.725631713867 -178.325424194336 4.187983512878
-58.048339843750 -83.897483825684 -176.675186157227 4.255517482758
-26.404062271118 -77.989662170410 -182.083496093750 0.969287693501
-57.922477722168 -81.847343444824 -176.741149902344 2.678472518921
-38.352134704590 -80.766403198242 -176.993942260742 3.378966331482
-30.870374679565 -79.174743652344 -186.969650268555 1.467408418655
17.849395751953 -81.192726135254 -188.130477905273 2.630669116974
-50.205219268799 -80.226531982422 -187.978942871094 2.837065696716
101.630844116211 -82.375289916992 -189.961761474609 5.620968341827
-52.660987854004 -74.993019104004 -188.908279418945 1.200096249580
5.077761173248 -79.559547424316 -202.333526611328 3.494368553162
18.979021072388 -79.479545593262 -198.090835571289 2.244882345200
-51.336566925049 -78.561729431152 -191.018386840820 2.583024978638
-18.505878448486 -80.471679687500 -188.813781738281 2.310266256332
97.855072021484 -82.904060363770 -194.661941528320 7.378757476807
94.269798278809 -87.001625061035 -195.052902221680 11.213185310364
-51.694972991943 -77.287567138672 -186.472610473633 0.855907797813
-151.659683227539 -81.779357910156 -199.084899902344 1.471170902252
-47.488132476807 -78.357894897461 -195.762969970703 1.403902173042
-146.923751831055 -76.735664367676 -196.459259033203 1.567292571068
-136.960372924805 -71.864791870117 -196.927856445313 2.549872636795
-48.599018096924 -81.461357116699 -195.688430786133 1.178768515587
7.812478065491 -82.006622314453 -206.767028808594 4.107175350189
-17.889259338379 -76.801292419434 -204.442031860352 2.069647550583
14.115245819092 -77.883605957031 -200.731903076172 2.227997064590
89.460418701172 -86.578552246094 -212.533981323242 9.120364189148
-36.981445312500 -77.123985290527 -201.817230224609 1.713291883469
-16.100637435913 -77.555458068848 -203.458953857422 1.656878709793
-18.029096603394 -76.977973937988 -213.435928344727 2.508660793304
-37.242179870605 -77.748641967773 -203.889907836914 1.388689041138
4.285239219666 -80.265312194824 -205.837142944336 4.893970489502
-81.344398498535 -78.486122131348 -210.104537963867 2.075656652451
14.206277847290 -81.282691955566 -214.294296264648 1.074899792671
-37.122814178467 -77.848716735840 -205.196807861328 1.320338249207
-147.310028076172 -79.458518981934 -206.568557739258 1.469948649406
-143.631546020508 -71.633666992188 -209.517181396484 3.661607980728
-90.270950317383 -77.732559204102 -212.239898681641 2.631473302841
-36.968887329102 -76.535202026367 -208.734039306641 1.566391706467
-17.022666931152 -84.322662353516 -211.938888549805 5.063874721527
-35.365749359131 -79.917854309082 -205.635162353516 1.277274489403
-93.020751953125 -79.452941894531 -216.468780517578 2.306557893753
-89.078926086426 -78.963745117188 -213.067550659180 1.201902270317
4.099070072174 -85.492111206055 -220.276565551758 5.718672275543
-151.469390869141 -69.845611572266 -212.207397460938 2.090755462646
-16.819757461548 -83.219718933105 -212.148239135742 3.997370958328
6.782472133636 -86.662117004395 -218.515167236328 5.758360862732
-146.380767822266 -73.935928344727 -219.252151489258 1.935541749001
-25.217521667480 -80.756164550781 -215.526138305664 0.917904376984
-1.038571953773 -75.636741638184 -219.393676757813 1.813646316528
-10.365590095520 -80.567886352539 -219.226135253906 2.102416753769
-154.504257202148 -71.024291992188 -222.579177856445 2.419858217239
-141.720733642578 -65.647064208984 -225.481323242188 2.730063676834
-6.383059024811 -79.872528076172 -225.193801879883 2.047283172607
-150.591629028320 -80.467437744141 -226.219467163086 2.278956174850
-0.994639992714 -75.053138732910 -228.901840209961 3.242880821228
15.481974601746 -79.302131652832 -235.050811767578 2.334623575211
-4.324315071106 -82.138961791992 -229.384613037109 4.011949539185
-3.823297023773 -73.968856811523 -232.060134887695 2.329327106476
6.414638042450 -78.475700378418 -231.277252197266 0.978094995022
-154.448532104492 -75.473663330078 -238.639816284180 3.119041681290
-21.820171356201 -76.558921813965 -233.179809570313 3.643543958664
-36.806758880615 -80.686401367188 -238.214508056641 2.913134098053
-0.391236990690 -78.109092712402 -234.146392822266 3.225240945816
0.694864988327 -84.648307800293 -242.241516113281 7.069739818573
-0.454385012388 -77.965957641602 -232.761978149414 3.246635198593
-60.432781219482 -76.937294006348 -241.686172485352 3.684859037399
-150.859054565430 -71.065040588379 -248.225692749023 2.557372570038
-155.317581176758 -74.619056701660 -246.710739135742 2.667292594910
9.503067016602 -81.575950622559 -246.653030395508 1.855311751366
22.953311920166 -82.299758911133 -245.859161376953 3.088271141052
-63.343475341797 -74.375495910645 -246.712097167969 1.581588149071
-144.668548583984 -79.362350463867 -251.551528930664 2.090756416321
-155.625137329102 -77.898178100586 -253.850067138672 3.187534093857
-156.191467285156 -78.656776428223 -256.283416748047 3.420342922211
-145.051208496094 -71.753150939941 -261.346923828125 2.922847986221
-143.762741088867 -75.623397827148 -255.793487548828 1.959988117218
-9.338878631592 -80.761642456055 -255.686264038086 2.216161966324
-147.656661987305 -76.011177062988 -261.453125000000 2.178116083145
-16.502813339233 -79.629432678223 -267.394195556641 5.107104301453
-149.686233520508 -73.044998168945 -271.118225097656 2.719411611557
-150.126022338867 -73.698120117188 -281.553619384766 2.363948106766
-150.393402099609 -72.356056213379 -283.289520263672 2.560953140259
-5.739715099335 -74.068084716797 -284.570007324219 2.109384059906
-150.272109985352 -69.894500732422 -282.336212158203 3.025717496872
-28.091136932373 -79.438865661621 -285.666137695313 4.325211524963
-28.456604003906 -75.113609313965 -284.623260498047 1.379916548729
-15.895956039429 -75.524650573730 -292.970123291016 1.876485347748
-16.232978820801 -75.144004821777 -292.204681396484 1.735390782356
9.715573310852 -81.581916809082 -290.700286865234 1.711455583572
-127.244194030762 -76.565040588379 -289.400054931641 1.463312506676
-63.738639831543 -77.149963378906 -286.528656005859 2.957983732224
-43.852153778076 -74.275398254395 -289.662597656250 2.358263731003
-35.434684753418 -78.325637817383 -287.120605468750 1.314347863197
-10.813938140869 -76.241127014160 -293.189544677734 2.570659637451
3.290297985077 -79.937484741211 -287.418273925781 3.637445926666
-143.967254638672 -74.803863525391 -297.007629394531 3.539626359940
8.528916358948 -79.401603698730 -295.200286865234 4.532369136810
-155.653182983398 -71.010787963867 -301.864105224609 1.662237048149
-156.240783691406 -77.958686828613 -300.590606689453 1.796708226204
-155.433776855469 -69.446983337402 -311.455047607422 2.023163557053
-145.153045654297 -72.920883178711 -308.822784423828 3.647233247757
-52.872032165527 -79.301361083984 -49.909057617188 7.396153926849
-56.102413177490 -83.173446655273 -55.672855377197 5.999161243439
-69.339553833008 -76.979438781738 -54.054584503174 3.946467638016
-42.358211517334 -77.625785827637 -61.657176971436 1.521546602249
-37.710193634033 -80.109855651855 -58.755104064941 2.290726423264
-21.252965927124 -79.417625427246 -69.647270202637 2.668727397919
-83.406883239746 -75.445770263672 -68.513969421387 3.464072465897
83.105339050293 -84.161521911621 -77.930389404297 5.933697700500
-92.669418334961 -76.129768371582 -73.392990112305 3.701515674591
78.537101745605 -81.422668457031 -76.888610839844 5.671085834503
86.201980590820 -79.106391906738 -83.778617858887 2.202551603317
95.747093200684 -80.921081542969 -89.207115173340 4.755521297455
-63.077571868896 -81.506889343262 -95.710937500000 2.167689561844
80.085411071777 -84.626907348633 -95.960014343262 5.838381290436
74.568969726563 -87.614547729492 -90.546264648438 10.032825469971
84.431228637695 -83.425300598145 -89.928840637207 1.656680345535
-61.171810150146 -79.004859924316 -96.810958862305 2.132311820984
46.942287445068 -80.083885192871 -97.503295898438 2.673251867294
43.770557403564 -81.239440917969 -106.018737792969 3.232475280762
37.659645080566 -82.582229614258 -103.111747741699 5.485498905182
34.091140747070 -82.062728881836 -101.431808471680 8.075156211853
-93.745712280273 -73.219108581543 -103.353340148926 2.029649257660
33.523674011230 -79.654281616211 -116.737968444824 2.631642818451
-86.809867858887 -77.962081909180 -106.601959228516 3.228983879089
38.367313385010 -82.770339965820 -126.640129089355 3.551775217056
30.717119216919 -82.248535156250 -120.254753112793 3.381119728088
32.390048980713 -73.732292175293 -120.804786682129 1.356359481812
42.548316955566 -79.599571228027 -116.917091369629 1.551523327827
39.308120727539 -84.221092224121 -127.687591552734 5.434573173523
-53.078456878662 -72.047546386719 -134.333236694336 1.839030146599
35.459182739258 -85.470825195313 -133.669692993164 2.566172838211
33.735813140869 -80.634963989258 -143.480346679688 2.371107578278
-57.521862030029 -75.788803100586 -142.961791992188 3.036018133163
-46.948474884033 -78.590438842773 -139.475891113281 1.791678667068
33.093219757080 -79.481056213379 -141.925811767578 2.492082118988
108.632789611816 -78.596687316895 -140.122482299805 3.046789169312
110.510879516602 -79.678504943848 -145.728775024414 2.442685127258
24.505453109741 -82.137657165527 -140.984085083008 4.572278022766
-42.254634857178 -81.096290588379 -148.951049804688 2.708960771561
114.451278686523 -90.112533569336 -152.184692382813 12.617883682251
-39.239227294922 -76.338935852051 -151.849838256836 2.409825325012
-69.700492858887 -76.370628356934 -161.430343627930 1.805251479149
108.486198425293 -87.494842529297 -155.507980346680 10.477673530579
20.695791244507 -81.178199768066 -165.528915405273 4.167512416840
-1.031229972839 -80.326103210449 -162.101791381836 2.156331777573
109.245132446289 -83.285530090332 -152.251251220703 5.818091869354
-66.073158264160 -76.826461791992 -165.389633178711 1.824319601059
-40.603530883789 -79.268295288086 -164.621627807617 0.960784971714
109.495285034180 -83.852081298828 -164.364440917969 7.155310630798
25.914119720459 -75.306625366211 -157.833755493164 2.545199155807
-63.506156921387 -70.970497131348 -163.663558959961 2.624910116196
110.702156066895 -83.395645141602 -165.374191284180 5.934923648834
-67.367332458496 -78.768226623535 -168.133865356445 1.089264273643
-50.996101379395 -80.451538085938 -181.467864990234 1.532168626785
104.236320495605 -82.044982910156 -170.730072021484 7.212878704071
-61.429557800293 -75.697959899902 -171.396652221680 1.732071280479
110.573364257813 -81.825843811035 -177.214981079102 3.703882217407
-63.119586944580 -76.296203613281 -175.476623535156 2.029440879822
-17.622297286987 -76.115486145020 -176.722671508789 1.406076908112
-12.100262641907 -84.034240722656 -181.683624267578 4.611352443695
105.707069396973 -84.734832763672 -166.307479858398 8.689770698547
19.512094497681 -81.245384216309 -170.712387084961 3.490405082703
28.840505599976 -75.529663085938 -168.512557983398 0.871083915234
-59.774250030518 -76.296562194824 -176.676788330078 1.963867187500
15.651874542236 -77.752418518066 -181.095077514648 2.759145498276
-59.423198699951 -77.972526550293 -174.055770874023 1.720863223076
-54.175289154053 -75.659927368164 -192.860382080078 3.330001592636
9.189349174500 -77.070739746094 -184.048599243164 4.258974552155
-57.788581848145 -72.551826477051 -178.683349609375 2.038221359253
104.406028747559 -79.922271728516 -187.784637451172 2.400515794754
23.799871444702 -82.728874206543 -181.284469604492 2.539702177048
-36.791336059570 -75.396316528320 -187.498428344727 3.541526794434
-44.986824035645 -79.973167419434 -189.209930419922 2.356555938721
9.278352737427 -81.463653564453 -191.021850585938 6.631371498108
-21.640325546265 -79.572906494141 -187.443664550781 2.143511772156
-49.559650421143 -78.802207946777 -194.712020874023 1.013736367226
99.870727539063 -86.414924621582 -182.217163085938 9.194547653198
7.895146846771 -82.767425537109 -189.661590576172 8.362402915955
-134.629104614258 -80.551918029785 -199.249404907227 1.576179027557
-50.349727630615 -79.584205627441 -194.725494384766 0.264715582132
92.744766235352 -81.075538635254 -198.173843383789 6.369946956635
-151.590011596680 -80.022201538086 -201.723190307617 0.723019599915
16.395242691040 -79.919586181641 -199.379348754883 1.609772562981
-45.133190155029 -74.251792907715 -205.194290161133 4.499820232391
-32.244834899902 -80.854515075684 -206.311737060547 2.301861047745
-39.157920837402 -78.741394042969 -200.881286621094 1.425243735313
-47.682212829590 -83.587570190430 -197.287734985352 1.171466469765
98.695663452148 -81.920295715332 -203.929855346680 5.639420032501
-23.128660202026 -82.146575927734 -199.631317138672 3.421634197235
-152.105880737305 -74.135330200195 -200.360992431641 1.094259738922
13.828710556030 -81.890594482422 -201.110748291016 2.306827306747
-79.197135925293 -80.784881591797 -205.053100585938 3.788092613220
-145.922012329102 -71.947128295898 -212.867141723633 1.854836821556
91.930885314941 -84.052230834961 -212.959960937500 6.752092361450
-34.856258392334 -76.281265258789 -206.292739868164 0.593701362610
-30.810073852539 -78.456756591797 -210.434829711914 1.767391800880
7.860763072968 -79.743080139160 -209.324081420898 2.363370895386
-73.760757446289 -80.707237243652 -207.169647216797 2.631057024002
-29.396574020386 -85.709518432617 -205.369628906250 6.944865226746
-10.067157745361 -79.949081420898 -216.205596923828 1.261590600014
-72.321304321289 -77.680229187012 -213.297180175781 1.349972605705
-15.991476058960 -78.790504455566 -216.813934326172 3.165666818619
6.047949790955 -71.021949768066 -210.675125122070 2.343463182449
10.786947250366 -82.007354736328 -220.539489746094 2.387411117554
-153.323318481445 -75.779212951660 -216.968017578125 4.053940773010
-10.929368972778 -78.437583923340 -213.521987915039 0.574978113174
-103.199768066406 -71.762046813965 -219.278854370117 0.934856355190
-23.865032196045 -77.603210449219 -218.750762939453 0.284712821245
86.633483886719 -87.243461608887 -211.566604614258 10.510189056396
7.204817771912 -77.107078552246 -223.982254028320 1.344098687172
19.167020797729 -79.108070373535 -215.682327270508 2.854033231735
78.054237365723 -82.868423461914 -213.669891357422 7.922799110413
-0.737887024879 -82.838287353516 -229.149520874023 4.129053592682
83.372520446777 -81.989128112793 -216.152969360352 5.091493606567
-22.704271316528 -73.915969848633 -223.653335571289 1.658214330673
14.582672119141 -76.153396606445 -217.705123901367 2.713848829269
-150.360107421875 -75.583686828613 -218.227005004883 1.919015765190
-27.666893005371 -79.363990783691 -225.459136962891 3.153624773026
0.102241002023 -76.198646545410 -230.008499145508 2.729468345642
-158.361221313477 -79.118865966797 -224.777084350586 3.691174268723
-139.396026611328 -77.277084350586 -227.185775756836 2.009316921234
1.410580992699 -78.510055541992 -222.788955688477 2.805971384048
-5.555411815643 -75.145256042480 -224.633010864258 2.780002355576
-138.893615722656 -70.789039611816 -228.446929931641 3.015471696854
-149.039352416992 -74.278785705566 -241.028488159180 2.144396305084
-150.677047729492 -74.508491516113 -234.973678588867 1.946408510208
-33.653446197510 -78.847557067871 -236.126342773438 2.444847583771
-144.280197143555 -77.217582702637 -242.522415161133 3.390511035919
13.651286125183 -80.466850280762 -240.715805053711 1.354485034943
3.801270961761 -78.309539794922 -243.974914550781 1.922250032425
-152.422164916992 -68.391410827637 -237.291732788086 1.572358012199
-151.436264038086 -73.346427917480 -244.029052734375 2.460577487946
-47.560302734375 -79.034027099609 -244.975891113281 1.082272887230
-33.471389770508 -78.239433288574 -246.183212280273 3.241349697113
2.262368917465 -78.690711975098 -242.010375976563 0.949810028076
-38.197154998779 -79.330055236816 -244.682312011719 2.062497138977
20.079469680786 -79.464141845703 -245.778106689453 1.003600120544
-7.879938125610 -80.659431457520 -251.942199707031 2.813771247864
-146.417724609375 -74.919029235840 -252.248031616211 1.299834251404
-11.881016731262 -83.280838012695 -252.292083740234 4.022848606110
-150.128295898438 -71.626678466797 -246.334503173828 1.908993244171
-67.292930603027 -78.443435668945 -249.481170654297 1.751977801323
-149.005294799805 -81.050430297852 -258.433807373047 2.235350370407
-129.257720947266 -74.353225708008 -257.463836669922 3.008083343506
-154.607269287109 -73.175300598145 -256.524810791016 1.259116172791
-12.360507011414 -75.383316040039 -266.537719726563 2.899544954300
-147.679611206055 -79.777702331543 -271.523406982422 1.757044792175
-151.039230346680 -74.004104614258 -268.523468017578 0.361444085836
-13.610033988953 -78.380699157715 -270.099304199219 0.968140721321
-146.155273437500 -74.034355163574 -269.362274169922 1.516150712967
-8.108178138733 -76.700408935547 -275.903533935547 0.463676273823
-47.424263000488 -75.930648803711 -283.257629394531 1.664462327957
-136.521377563477 -71.229415893555 -287.644439697266 1.782330870628
-137.258071899414 -73.176048278809 -285.095611572266 1.820698022842
-124.890403747559 -70.867927551270 -281.097381591797 3.947992324829
-53.589977264404 -75.541572570801 -285.543640136719 2.021559476852
-113.731079101563 -73.026374816895 -283.130706787109 2.436864137650
14.695812225342 -77.812248229980 -291.692474365234 1.143796443939
-58.657550811768 -74.168853759766 -287.792358398438 2.562587261200
-142.515426635742 -73.194122314453 -292.492736816406 1.175463914871
-64.933738708496 -74.630058288574 -289.725402832031 1.627391099930
-146.518981933594 -78.582450866699 -292.875183105469 2.228234052658
-118.093360900879 -71.696441650391 -290.195129394531 2.706237077713
-47.704235076904 -79.036926269531 -289.620391845703 3.986530303955
-35.197429656982 -76.862167358398 -290.814086914063 2.425324916840
-139.299301147461 -69.172279357910 -295.312255859375 3.233996391296
-15.595512390137 -72.236206054688 -281.776855468750 4.323740482330
3.037652969360 -77.639549255371 -286.652465820313 2.161718130112
5.079058170319 -76.430313110352 -289.669311523438 1.495409250259
13.596424102783 -79.284530639648 -294.759735107422 1.884203553200
-151.485458374023 -77.444244384766 -297.408264160156 1.877988815308
-146.522064208984 -70.983261108398 -292.530914306641 1.991903781891
-68.228775024414 -76.416114807129 -61.420558929443 1.605986952782
87.011993408203 -84.533866882324 -71.779098510742 9.460455894470
76.934989929199 -83.708732604980 -76.614242553711 7.677382469177
-29.739627838135 -81.682006835938 -75.754920959473 2.042561292648
81.891883850098 -81.109367370605 -73.841110229492 5.417918682098
-39.806816101074 -81.360679626465 -79.125381469727 2.340224742889
81.096817016602 -78.867889404297 -81.114166259766 1.060733437538
94.407066345215 -79.250251770020 -79.087181091309 3.640050888062
-66.121398925781 -71.519866943359 -95.067329406738 0.999006927013
70.953178405762 -82.697456359863 -93.473205566406 7.998157501221
78.225067138672 -80.198791503906 -96.837356567383 3.416669368744
94.676361083984 -85.683555603027 -94.402824401855 8.546059608459
53.446361541748 -83.356521606445 -96.256942749023 6.909995555878
-68.853851318359 -75.198883056641 -100.582695007324 2.994471073151
-75.634986877441 -73.439918518066 -100.318077087402 1.233360648155
48.732173919678 -83.379684448242 -102.796081542969 4.648954391479
-89.570182800293 -78.278701782227 -101.602294921875 3.661882400513
45.503177642822 -78.003059387207 -117.186454772949 2.000597953796
108.882095336914 -82.223068237305 -118.995681762695 5.490491867065
111.098030090332 -85.005355834961 -129.566497802734 8.128533363342
19.130731582642 -77.802070617676 -136.236785888672 4.828164577484
108.440040588379 -84.611679077148 -125.973205566406 7.844369888306
27.003705978394 -77.600517272949 -132.558593750000 2.417999267578
111.274230957031 -77.165077209473 -131.285629272461 2.385459423065
35.453819274902 -78.109123229980 -133.789703369141 1.561059713364
-57.913715362549 -76.859413146973 -139.832824707031 2.534776449203
34.345020294189 -83.897377014160 -144.471649169922 4.823997497559
107.108757019043 -80.672691345215 -133.949508666992 5.634748458862
-47.771255493164 -75.816658020020 -143.074615478516 0.878263533115
30.355909347534 -78.669258117676 -149.342544555664 2.010869979858
-58.230800628662 -71.745597839355 -140.384246826172 1.852053880692
-60.709136962891 -76.879150390625 -143.915756225586 3.842283725739
-54.339572906494 -80.326301574707 -149.330276489258 2.758620977402
-66.168281555176 -79.610809326172 -155.063140869141 1.971918225288
110.093574523926 -86.717208862305 -146.401657104492 8.849541664124
-51.731830596924 -83.575256347656 -154.624160766602 5.794643402100
21.176078796387 -84.455848693848 -155.645416259766 5.456418037415
106.040946960449 -83.078880310059 -161.247024536133 7.438204288483
-67.089637756348 -76.675346374512 -154.004104614258 1.053965091705
-45.342201232910 -78.624893188477 -156.497589111328 2.088565349579
7.369970798492 -76.780693054199 -153.599304199219 3.477033138275
-69.992706298828 -77.073593139648 -154.350296020508 3.072417736053
-65.714637756348 -79.386802673340 -157.911529541016 2.225027084351
-1.392132997513 -78.942543029785 -161.552963256836 3.523450613022
-45.434280395508 -73.681617736816 -167.027847290039 1.926638007164
27.378396987915 -77.439476013184 -166.493362426758 2.640773057938
-64.733116149902 -72.783340454102 -167.383361816406 1.297437548637
-57.755432128906 -78.947189331055 -165.899246215820 2.208813905716
13.200874328613 -82.453804016113 -159.176803588867 6.469123363495
-31.913293838501 -76.662994384766 -167.691726684570 0.996741950512
-30.442480087280 -80.441490173340 -165.818511962891 3.050339698792
13.366746902466 -80.543601989746 -173.856384277344 5.694364070892
-45.220382690430 -80.157981872559 -172.209808349609 2.933901309967
-12.294930458069 -79.754051208496 -171.564132690430 1.251650571823
-67.031867980957 -73.340919494629 -170.760635375977 0.472995609045
-8.990549087524 -75.921569824219 -173.127059936523 2.664719581604
-23.417423248291 -78.081642150879 -179.003845214844 1.593394875526
20.803180694580 -76.427482604980 -183.058563232422 1.218261957169
-40.582054138184 -79.092170715332 -171.563156127930 2.185878515244
19.314447402954 -75.389587402344 -174.935714721680 1.396402835846
-24.362604141235 -74.047126770020 -184.695266723633 1.853625655174
-33.852165222168 -80.105255126953 -177.243545532227 3.122643709183
-149.721847534180 -70.985076904297 -191.283920288086 1.411550879478
-19.871519088745 -82.303337097168 -183.208145141602 2.192027330399
-142.368286132813 -72.459266662598 -188.771881103516 1.169513702393
-155.279266357422 -73.889289855957 -186.554702758789 3.945793390274
-51.176498413086 -75.116882324219 -187.771392822266 1.190925955772
96.676391601563 -80.940048217773 -193.956588745117 6.648573875427
-146.565826416016 -75.096611022949 -189.964340209961 2.270842552185
-148.023834228516 -71.877761840820 -195.088882446289 2.337552547455
20.923725128174 -77.369819641113 -195.535751342773 3.355218410492
-140.003005981445 -74.318504333496 -195.481384277344 1.880666613579
12.265848159790 -75.032135009766 -198.215545654297 2.225008964539
-139.970672607422 -76.657325744629 -198.832199096680 0.966709613800
11.624576568604 -74.988441467285 -196.750823974609 1.492801666260
-134.615219116211 -70.806640625000 -195.369171142578 2.274445533752
3.716480970383 -75.136436462402 -201.707122802734 3.665388345718
-153.360290527344 -73.448684692383 -201.962478637695 2.379410743713
93.517646789551 -81.265335083008 -205.455566406250 3.804302692413
-18.472743988037 -80.207695007324 -207.227096557617 2.468352317810
-32.078914642334 -76.128250122070 -207.884353637695 1.786418318748
-13.479668617249 -73.105300903320 -204.425689697266 2.243693590164
-147.346054077148 -77.908348083496 -210.066970825195 0.912731409073
-37.124469757080 -77.113441467285 -202.586257934570 1.681285977364
-85.621780395508 -77.684806823730 -203.129241943359 7.943692207336
-28.519275665283 -78.805191040039 -207.647369384766 1.306807518005
13.142609596252 -79.114036560059 -212.608932495117 2.301782131195
-147.992202758789 -71.344566345215 -214.269332885742 1.305902838707
-90.882797241211 -77.404685974121 -217.980102539063 2.328767061234
-30.870283126831 -75.875175476074 -218.319030761719 2.857696056366
-28.843025207520 -76.984115600586 -219.703796386719 1.959472179413
-10.395223617554 -79.565673828125 -208.682235717773 1.653787732124
-28.950748443604 -76.485176086426 -207.396591186523 1.484932422638
-85.526412963867 -75.641563415527 -220.618942260742 2.626780986786
-91.411682128906 -80.399444580078 -218.844726562500 4.149586677551
-24.533843994141 -76.596626281738 -220.720291137695 2.417086124420
-3.812393903732 -85.851051330566 -224.034683227539 6.353960037231
-157.445434570313 -75.214645385742 -216.539779663086 4.965326786041
-4.092294216156 -79.576004028320 -220.538192749023 1.912377119064
85.769607543945 -84.996002197266 -226.462509155273 8.567445755005
-141.171997070313 -76.180183410645 -222.475845336914 0.689468920231
-5.896220207214 -78.565933227539 -220.540100097656 1.566346526146
-141.036392211914 -75.202270507813 -225.033401489258 2.252529382706
-148.930526733398 -81.543243408203 -224.563278198242 1.135893702507
-7.379850864410 -76.651100158691 -227.491409301758 1.785307884216
19.686380386353 -79.802726745605 -213.919342041016 4.015212059021
-140.515869140625 -71.714469909668 -228.559494018555 1.758546471596
-19.391794204712 -79.035850524902 -227.034729003906 0.725073993206
70.714691162109 -81.318000793457 -224.594558715820 9.535384178162
73.327476501465 -80.599639892578 -232.894088745117 6.397713661194
8.763934135437 -80.307914733887 -229.206405639648 2.048516035080
-35.243999481201 -78.123313903809 -235.131881713867 3.706348896027
-25.323123931885 -84.629493713379 -241.459823608398 5.923192501068
1.350793004036 -76.209312438965 -242.323593139648 1.803856968880
-48.195117950439 -71.924980163574 -242.610855102539 1.260831952095
