18.248708724976 -78.653518676758 -214.588424682617 2.130479097366
-102.809036254883 -75.134353637695 -218.256469726563 3.052517414093
6.837675094604 -72.260131835938 -216.463378906250 0.948353290558
-27.683715820313 -76.094154357910 -213.324218750000 1.699729681015
81.817054748535 -76.790176391602 -224.056991577148 2.077000141144
-145.084548950195 -71.545471191406 -215.517654418945 3.024275779724
13.311242103577 -76.528953552246 -224.708663940430 2.947878599167
-10.212735176086 -80.652374267578 -226.429244995117 2.492436647415
17.271829605103 -69.526710510254 -222.462173461914 1.277342081070
83.229286193848 -80.558326721191 -221.908737182617 3.801589965820
-15.153806686401 -80.469490051270 -227.825714111328 4.527196407318
-131.120834350586 -75.844520568848 -225.059326171875 1.614738821983
-15.540177345276 -76.376464843750 -222.900390625000 1.743559837341
16.046255111694 -77.254066467285 -228.244400024414 2.809079647064
-128.382263183594 -76.869560241699 -225.151977539063 2.760622978210
-153.849166870117 -69.536087036133 -229.055343627930 1.674680233002
-143.660934448242 -72.195396423340 -227.207412719727 2.357792139053
-129.182540893555 -71.338447570801 -224.645767211914 1.668600201607
-12.119621276855 -73.524978637695 -223.000000000000 1.863520383835
71.249160766602 -78.549148559570 -226.354217529297 6.232119560242
-144.942337036133 -68.774177551270 -237.337112426758 1.602617979050
68.058677673340 -79.776405334473 -227.350189208984 6.991748332977
-21.908510208130 -80.707458496094 -229.723983764648 2.900173425674
-143.231063842773 -76.441299438477 -226.235473632813 2.762358188629
75.723373413086 -86.800613403320 -228.260971069336 10.160366058350
9.360230445862 -82.573699951172 -230.843902587891 3.086603403091
-140.946594238281 -77.463516235352 -234.111465454102 2.796407222748
-150.233306884766 -72.319290161133 -231.231979370117 3.153906822205
17.076379776001 -73.094673156738 -229.629913330078 1.434005737305
-3.273165941238 -80.930610656738 -237.739913940430 2.822000265121
-30.150045394897 -75.359092712402 -235.456954956055 2.388354778290
-2.095221042633 -72.154273986816 -235.191726684570 0.522058665752
-161.308425903320 -76.431388854980 -235.813888549805 2.572252273560
5.292456150055 -75.020988464355 -241.579940795898 1.778955698013
-165.524063110352 -74.312927246094 -238.674774169922 2.460925579071
-12.704216003418 -78.031066894531 -236.151611328125 4.803045272827
58.243106842041 -79.673797607422 -238.196594238281 5.449638366699
-14.172818183899 -75.190567016602 -235.375411987305 2.875291824341
-25.741882324219 -76.230461120605 -245.714645385742 2.641338109970
-25.126308441162 -76.051948547363 -240.377731323242 2.082350969315
-11.786546707153 -80.891754150391 -238.672439575195 6.366407394409
-147.028381347656 -74.119483947754 -226.492324829102 2.885568141937
7.170536041260 -76.102821350098 -240.314971923828 1.030901432037
63.375926971436 -78.480445861816 -243.761718750000 3.252388954163
14.917998313904 -74.509933471680 -244.074905395508 2.078238010406
-169.332534790039 -70.841217041016 -240.712219238281 2.235043525696
-52.178607940674 -74.626457214355 -237.469100952148 4.460504531860
4.061426162720 -84.670120239258 -247.525924682617 3.907176494598
16.538879394531 -78.025619506836 -242.136657714844 1.926605343819
-54.557388305664 -75.450492858887 -245.929061889648 2.503338336945
-2.658235073090 -71.720748901367 -248.820739746094 3.603280544281
19.721809387207 -85.006744384766 -247.463729858398 3.229428291321
-172.335937500000 -70.221099853516 -247.096557617188 5.907715320587
-66.359786987305 -79.940002441406 -247.421051025391 2.044789075851
-53.022735595703 -73.860511779785 -246.243759155273 2.451477050781
-83.291183471680 -73.293151855469 -251.186691284180 1.690033078194
-162.628372192383 -74.721839904785 -244.419204711914 3.400371789932
-151.172744750977 -64.237205505371 -246.250488281250 3.114897727966
-61.366180419922 -77.932739257813 -248.282440185547 1.241761088371
-69.393447875977 -74.988281250000 -247.415206909180 1.463416814804
-154.329147338867 -70.613281250000 -250.296997070313 2.237668991089
-152.878585815430 -74.759384155273 -250.209091186523 3.182073116302
-75.453826904297 -70.404357910156 -253.466598510742 1.673251390457
-94.215538024902 -71.320983886719 -254.952957153320 2.696387052536
-163.922744750977 -66.152412414551 -251.648941040039 2.998069763184
-158.146255493164 -73.794471740723 -259.225402832031 3.197379589081
-136.219253540039 -76.056175231934 -258.225219726563 1.513318777084
-84.039794921875 -74.460029602051 -248.378372192383 2.415880203247
-162.415344238281 -68.849861145020 -251.733383178711 2.245068311691
-142.372116088867 -70.777565002441 -255.443222045898 2.763787031174
-85.588737487793 -73.798553466797 -247.298294067383 2.127757310867
-98.170158386230 -72.684562683105 -260.104156494141 2.025278568268
-144.083282470703 -74.831558227539 -253.419692993164 1.365101575851
-93.317687988281 -74.561134338379 -254.183395385742 0.980635523796
-155.139785766602 -70.910736083984 -253.573028564453 1.756873130798
-104.464767456055 -73.979995727539 -253.074798583984 3.826853752136
-171.640808105469 -71.630020141602 -256.725952148438 3.397953748703
-162.995574951172 -75.417930603027 -264.100891113281 1.066201806068
-128.707550048828 -78.378852844238 -254.322235107422 3.823710203171
-153.249328613281 -73.867774963379 -257.715545654297 2.110969543457
-110.708747863770 -70.388069152832 -261.186584472656 1.627256631851
-14.757261276245 -74.696067810059 -260.858642578125 2.376616239548
-141.638198852539 -73.221641540527 -258.840179443359 1.979055166245
-127.611183166504 -72.920783996582 -258.399047851563 3.618209123611
-154.171096801758 -70.978958129883 -261.507232666016 0.795968830585
23.718408584595 -79.212402343750 -271.095550537109 3.373383998871
-150.512390136719 -76.519729614258 -277.484741210938 1.085517883301
-169.960464477539 -73.614952087402 -280.145599365234 3.287663459778
-9.759423255920 -76.220283508301 -278.568908691406 2.503435134888
-145.937103271484 -73.026748657227 -277.747253417969 2.334711790085
-11.521091461182 -75.319419860840 -282.449645996094 2.647289514542
11.862794876099 -79.190185546875 -285.623657226563 1.813774347305
-137.914382934570 -71.365951538086 -284.181823730469 2.184720754623
-67.299766540527 -78.660293579102 -285.959869384766 1.487412810326
-34.325389862061 -80.233856201172 -287.903198242188 0.205304235220
-113.304725646973 -74.858581542969 -281.165618896484 5.031631946564
-97.975448608398 -80.477890014648 -288.363830566406 5.136966228485
-89.584144592285 -76.082008361816 -290.054992675781 3.138031721115
-51.832725524902 -78.201667785645 -291.220031738281 2.971755504608
-117.040321350098 -80.777755737305 -285.538879394531 3.852227449417
-116.415481567383 -76.452491760254 -288.623413085938 1.484079837799
-34.522216796875 -73.447151184082 -286.791259765625 1.868275761604
-117.482215881348 -76.200286865234 -292.171875000000 3.518338203430
-129.088592529297 -68.788314819336 -287.460754394531 2.812278032303
-145.846145629883 -77.011558532715 -292.627075195313 0.905334651470
6.047286987305 -78.323059082031 -289.793945312500 1.905265212059
17.063602447510 -80.506156921387 -291.841003417969 3.669046401978
-162.396560668945 -73.185234069824 -290.429290771484 1.800546526909
-161.458953857422 -78.229644775391 -298.867736816406 7.134676456451
-149.436462402344 -75.917686462402 -308.172271728516 3.895354270935
-153.944625854492 -73.220039367676 -308.515747070313 1.847090125084
-153.747421264648 -74.765106201172 -312.615509033203 2.404155254364
28.771657943726 -78.203330993652 -12.895225524902 5.568000316620
35.004940032959 -71.005104064941 -18.563579559326 2.479668378830
21.857236862183 -73.883468627930 -24.424636840820 0.808625698090
29.911537170410 -70.909645080566 -38.361705780029 1.248527526855
-58.322414398193 -71.074630737305 -48.950294494629 2.672426223755
-64.325080871582 -71.611083984375 -49.312065124512 2.019813537598
-38.780570983887 -76.950363159180 -47.715065002441 4.366084575653
-85.893356323242 -64.935150146484 -64.298988342285 6.499541282654
80.600883483887 -79.771377563477 -74.691894531250 4.815530300140
-12.698580741882 -69.661560058594 -70.371177673340 2.981428861618
89.685920715332 -77.028076171875 -62.822620391846 6.142439842224
100.867286682129 -76.636154174805 -75.252838134766 3.591207265854
-91.624580383301 -68.638465881348 -73.542167663574 3.741708755493
66.324035644531 -75.998497009277 -79.881286621094 5.429862022400
-39.759334564209 -77.078338623047 -85.402091979980 0.444473803043
101.829086303711 -76.740203857422 -80.443397521973 3.818016767502
-56.920009613037 -69.784309387207 -87.060783386230 3.775989294052
50.163433074951 -76.420997619629 -89.989547729492 3.644838333130
70.132392883301 -83.857627868652 -89.295043945313 9.282085418701
54.317268371582 -74.503852844238 -95.044441223145 1.388714313507
52.833271026611 -77.687553405762 -98.121459960938 1.128704190254
75.430374145508 -80.601791381836 -95.468330383301 4.084146499634
47.283432006836 -75.216835021973 -107.438385009766 0.656484723091
98.289360046387 -78.116584777832 -101.511543273926 4.258087635040
105.211875915527 -83.261596679688 -107.087371826172 7.178939819336
78.024978637695 -74.396492004395 -103.327262878418 3.569836854935
93.759880065918 -78.764717102051 -104.347457885742 6.095023632050
100.356254577637 -77.747177124023 -93.141555786133 5.922292232513
110.055023193359 -79.205635070801 -103.844650268555 2.858143806458
39.922954559326 -74.968368530273 -105.791145324707 1.742662072182
113.589767456055 -75.201728820801 -117.516433715820 3.434038639069
114.419609069824 -79.963218688965 -119.072570800781 5.341598033905
30.241367340088 -73.537216186523 -123.730659484863 2.519018650055
44.565967559814 -77.870857238770 -117.458534240723 2.009335041046
115.259872436523 -79.471458435059 -131.719802856445 3.749356985092
34.207855224609 -75.228096008301 -126.011749267578 1.240405201912
116.453498840332 -84.201461791992 -126.596794128418 9.170450210571
107.862449645996 -79.855972290039 -122.206298828125 4.688959121704
26.984964370728 -78.145416259766 -133.115814208984 2.845901727676
-47.000991821289 -74.439613342285 -132.141357421875 2.758197784424
-52.009883880615 -71.659919738770 -133.471374511719 1.771998882294
111.461807250977 -78.203697204590 -135.081893920898 1.191821098328
-67.919799804688 -78.724037170410 -138.092483520508 5.954123497009
-71.573585510254 -73.852264404297 -139.065917968750 1.128946304321
-59.977642059326 -74.018226623535 -138.133071899414 2.877252340317
30.725833892822 -77.192253112793 -144.081512451172 1.118121147156
118.733764648438 -82.023803710938 -146.608078002930 8.089076995850
-70.082687377930 -69.210182189941 -146.506179809570 0.988305509090
-49.236801147461 -74.395690917969 -140.128295898438 2.422547578812
32.682830810547 -77.019668579102 -151.828033447266 1.391728043556
-68.392341613770 -75.003517150879 -146.376098632813 0.931112587452
114.215866088867 -77.437538146973 -139.467086791992 1.085240840912
111.258224487305 -76.583686828613 -157.481018066406 1.348438024521
116.196701049805 -80.486381530762 -153.862060546875 3.548135519028
-38.717803955078 -78.114494323730 -151.209732055664 2.697207212448
-64.059562683105 -73.658760070801 -164.084793090820 2.013158798218
-67.141609191895 -68.727714538574 -156.476760864258 1.569209456444
28.923936843872 -77.641632080078 -143.427169799805 2.315733671188
-2.240700006485 -78.117019653320 -160.834014892578 3.695019006729
109.828643798828 -77.739082336426 -162.210266113281 2.244573831558
112.132240295410 -76.580673217773 -152.014099121094 2.159589529037
112.383422851563 -83.152359008789 -158.963943481445 5.603574275970
-62.866035461426 -71.065658569336 -156.983169555664 2.423857927322
-45.082820892334 -77.072189331055 -166.159591674805 1.325969576836
-3.602396011353 -75.208732604980 -164.113403320313 1.595142006874
-31.076951980591 -76.047470092773 -173.875549316406 3.206169843674
105.535903930664 -77.648574829102 -167.464797973633 4.008503913879
-32.967918395996 -79.374465942383 -158.591140747070 3.661097288132
108.734611511230 -77.042808532715 -167.106033325195 1.551939010620
-41.928642272949 -75.202697753906 -173.060348510742 1.362951636314
107.946968078613 -76.125572204590 -169.478210449219 1.735174775124
-153.267181396484 -73.027618408203 -177.177871704102 1.336428761482
-25.776777267456 -70.288017272949 -176.405319213867 0.246280878782
-19.706779479980 -76.154266357422 -182.845474243164 1.694488167763
24.436454772949 -81.119422912598 -175.936447143555 3.752265214920
14.207394599915 -75.373458862305 -183.002120971680 2.229051351547
28.431562423706 -77.697555541992 -181.954330444336 1.803572058678
102.341384887695 -85.493003845215 -184.019424438477 7.956149578094
-152.251586914063 -67.584358215332 -181.929718017578 2.637833356857
-19.423032760620 -78.265457153320 -181.248229980469 2.537596225739
101.051170349121 -81.076904296875 -178.068893432617 5.334757328033
102.854919433594 -74.664512634277 -188.735702514648 1.959115743637
108.944046020508 -81.351455688477 -176.104736328125 3.875832796097
99.872070312500 -81.337936401367 -192.639022827148 5.436228752136
-151.037673950195 -70.942298889160 -196.229034423828 1.434239268303
99.321640014648 -80.303825378418 -205.880538940430 3.969094038010
-28.332611083984 -73.263694763184 -197.573760986328 2.016312360764
96.216400146484 -79.107994079590 -194.101333618164 5.795600414276
-119.729560852051 -77.924064636230 -199.819976806641 4.820835113525
-30.424312591553 -80.774078369141 -187.242935180664 2.234889030457
-142.560394287109 -66.477386474609 -196.667633056641 2.227391004562
95.696197509766 -79.289390563965 -197.224899291992 3.581583738327
8.100515365601 -76.996765136719 -198.675750732422 3.734885931015
24.383506774902 -74.732910156250 -190.759414672852 1.885160326958
-149.074356079102 -74.031013488770 -202.440200805664 2.031388044357
-137.883697509766 -71.858711242676 -200.862457275391 1.648722529411
-9.807184219360 -75.903961181641 -207.481719970703 2.253455400467
-124.538703918457 -72.375572204590 -203.771896362305 0.289409697056
-144.648956298828 -73.914199829102 -195.428344726563 1.719719648361
1.287948012352 -77.099365234375 -197.690490722656 8.416077613831
-26.103084564209 -78.228454589844 -199.015731811523 3.707843303680
20.698909759521 -81.250022888184 -200.380798339844 4.791569232941
5.202877044678 -78.861312866211 -211.963851928711 3.431529998779
82.687751770020 -74.708274841309 -208.518508911133 5.637354850769
-18.097274780273 -72.979759216309 -210.959350585938 1.568113803864
90.399810791016 -76.193092346191 -208.572555541992 3.042072057724
97.668724060059 -82.652313232422 -206.424987792969 6.471084117889
-148.509506225586 -74.220970153809 -211.979690551758 2.180986881256
94.719337463379 -82.296775817871 -211.010818481445 5.809807300568
3.969750881195 -74.706672668457 -205.143981933594 0.219403699040
2.120337963104 -79.196464538574 -213.384460449219 5.855341911316
-32.290538787842 -75.150886535645 -204.653945922852 0.848182618618
-89.705635070801 -73.407814025879 -211.387863159180 2.043072223663
-25.410806655884 -78.441154479980 -208.738662719727 2.228414773941
85.176246643066 -77.717674255371 -217.318069458008 1.626335978508
90.196617126465 -78.210968017578 -215.095672607422 1.586984276772
-31.671461105347 -74.474914550781 -210.412109375000 1.084508538246
-84.004409790039 -70.090171813965 -218.199996948242 3.749654293060
-0.549920022488 -78.972183227539 -218.338409423828 2.525062322617
78.607086181641 -73.745315551758 -211.229034423828 7.000821590424
-153.034103393555 -78.612571716309 -219.530990600586 3.996906995773
-166.572677612305 -69.775184631348 -212.563354492188 2.366778850555
-163.852798461914 -76.365837097168 -219.926589965820 3.378137111664
-22.101243972778 -78.203025817871 -225.777542114258 2.229926347733
-155.194366455078 -77.363159179688 -220.546264648438 3.048016071320
-4.924897193909 -77.340713500977 -222.808776855469 1.069976687431
5.466195106506 -78.978607177734 -217.434341430664 3.224582433701
-169.501754760742 -72.007102966309 -224.433181762695 2.024003267288
-157.514617919922 -72.666435241699 -226.503646850586 1.678444147110
78.193717956543 -83.691352844238 -231.361419677734 6.687296390533
-1.720173001289 -76.170394897461 -224.867340087891 1.400759577751
-159.450332641602 -65.375274658203 -224.853424072266 1.432368755341
-143.219009399414 -75.578056335449 -221.497192382813 1.920274019241
-19.121484756470 -74.373046875000 -222.600509643555 1.408840656281
-2.492613077164 -81.402542114258 -219.579284667969 1.915907382965
79.454010009766 -75.550201416016 -226.174301147461 1.280506610870
-161.348480224609 -69.840431213379 -226.193496704102 2.674713611603
-142.376617431641 -69.457855224609 -231.107604980469 2.843213319778
-126.152458190918 -70.989898681641 -230.174407958984 2.786836147308
77.525314331055 -81.926551818848 -225.380050659180 5.056972026825
-116.263854980469 -73.821479797363 -227.898834228516 2.046715736389
-144.571136474609 -72.645988464355 -227.851806640625 1.168006300926
-151.531829833984 -70.879791259766 -230.378128051758 1.762300729752
-150.313934326172 -73.678115844727 -230.311187744141 2.273493528366
-156.203460693359 -73.515495300293 -227.488204956055 2.843311071396
-165.314361572266 -72.993064880371 -226.791397094727 0.988965213299
-133.236511230469 -74.307723999023 -235.365905761719 1.368611931801
-133.693237304688 -74.418090820313 -231.973571777344 1.400650262833
-152.664428710938 -78.673278808594 -231.857604980469 0.577414214611
-145.861801147461 -68.402992248535 -236.379074096680 1.026924729347
-151.471740722656 -73.672409057617 -234.061630249023 2.331046342850
74.991333007813 -82.486579895020 -232.618423461914 6.898905277252
66.865982055664 -71.939666748047 -234.207122802734 2.146263599396
-155.791839599609 -70.426239013672 -233.782073974609 2.572565078735
72.463836669922 -72.894355773926 -232.494613647461 2.535599470139
-20.897745132446 -73.880462646484 -235.375976562500 3.840284347534
11.939617156982 -79.501434326172 -237.173461914063 2.980884313583
7.263512134552 -78.051712036133 -234.896591186523 1.548197746277
-156.164230346680 -72.846633911133 -239.761611938477 2.295449733734
15.328298568726 -76.814376831055 -240.378570556641 2.031748056412
58.893058776855 -76.785530090332 -237.806106567383 3.964388132095
12.838726997375 -73.994865417480 -237.368774414063 1.696985006332
4.215320110321 -77.335220336914 -240.341415405273 1.807640314102
-7.021759033203 -73.307273864746 -238.682846069336 1.554136157036
-22.215339660645 -74.412292480469 -241.877334594727 2.761673212051
-2.906177043915 -77.133171081543 -239.764724731445 2.196618080139
4.117660045624 -80.916633605957 -245.085861206055 1.648950099945
56.899578094482 -80.370399475098 -240.125198364258 5.343103408813
-55.384986877441 -81.138420104980 -243.509048461914 2.564614772797
19.863111495972 -76.533462524414 -247.158081054688 0.970017790794
-58.781261444092 -76.225067138672 -239.047027587891 5.035953521729
-11.093816757202 -77.296836853027 -247.099670410156 3.333717584610
-67.264144897461 -70.824752807617 -249.448043823242 1.511110424995
-86.207168579102 -71.694335937500 -252.855834960938 1.976227283478
-82.923171997070 -76.752929687500 -252.450988769531 1.807928204536
-8.800636291504 -76.307487487793 -255.392791748047 2.694396972656
-124.048957824707 -74.078689575195 -259.961212158203 2.208969593048
-14.556924819946 -77.662292480469 -250.565628051758 3.749405622482
-117.445205688477 -73.823608398438 -253.409637451172 2.620813608170
-118.179756164551 -72.098655700684 -257.551391601563 0.467779695988
-104.313125610352 -74.286689758301 -253.522125244141 3.769141197205
-143.761947631836 -71.798683166504 -258.967956542969 3.419218063354
-145.180511474609 -73.097610473633 -266.760253906250 1.386598467827
-169.656951904297 -72.823783874512 -261.641204833984 3.267493963242
20.339746475220 -82.927093505859 -279.610992431641 6.972925662994
-60.793148040771 -73.372848510742 -283.972259521484 2.864979982376
-68.802215576172 -74.600158691406 -281.159240722656 4.374524116516
-42.940143585205 -78.677703857422 -281.440521240234 4.593724250793
-27.635789871216 -77.768341064453 -286.211090087891 2.785758495331
-96.575347900391 -78.297470092773 -289.347381591797 2.863973140717
-32.320247650146 -74.438941955566 -283.692565917969 2.591034889221
-4.356303215027 -77.257698059082 -284.636474609375 1.603424429893
-168.008605957031 -73.520225524902 -288.185241699219 2.496114730835
-19.253784179688 -80.155265808105 -284.254791259766 3.756153583527
4.716763973236 -79.403610229492 -286.871917724609 2.407335758209
13.135978698730 -84.205741882324 -279.454223632813 3.991319417953
-57.859100341797 -80.033981323242 -284.436889648438 3.611421823502
-35.881565093994 -78.268356323242 -290.895416259766 1.540703296661
13.613865852356 -75.983802795410 -292.930328369141 0.720857620239
-72.342292785645 -73.730850219727 -292.814025878906 2.529229640961
-42.890792846680 -72.983360290527 -287.055023193359 1.375618219376
-18.783067703247 -74.875419616699 -288.441375732422 3.045602560043
13.471622467041 -81.279922485352 -290.586761474609 4.032715320587
-13.001029014587 -80.330299377441 -294.555023193359 3.764114618301
3.674427032471 -76.938316345215 -293.911499023438 2.516349792480
13.584668159485 -81.598648071289 -287.851531982422 2.713398933411
-135.660049438477 -73.197402954102 -292.854064941406 1.504337430000
-145.977859497070 -76.754089355469 -296.493957519531 1.317412853241
-154.142059326172 -73.581123352051 -311.954040527344 1.014661073685
45.422576904297 -73.316322326660 -13.293464660645 3.235520362854
30.565055847168 -73.472152709961 -10.745554924011 2.077574729919
40.834114074707 -74.204452514648 -14.110142707825 2.024436950684
23.706045150757 -68.752990722656 -17.209112167358 3.999152183533
46.373798370361 -71.087997436523 -22.391353607178 2.744630575180
26.972766876221 -70.481094360352 -24.096929550171 1.825169682503
24.285293579102 -73.781478881836 -25.648921966553 1.021500945091
27.084589004517 -74.903068542480 -39.747207641602 3.844580888748
38.089729309082 -77.648544311523 -29.956811904907 6.708316802979
26.483194351196 -79.107246398926 -36.379203796387 7.138761043549
44.476150512695 -72.477279663086 -38.683044433594 1.038362383842
32.736354827881 -74.749809265137 -40.052635192871 3.147874116898
41.023868560791 -76.291542053223 -34.489040374756 4.650082588196
31.391880035400 -72.407173156738 -39.177391052246 1.171453714371
45.646198272705 -74.545326232910 -41.155445098877 4.370049476624
33.245002746582 -73.198966979980 -36.734790802002 2.419469594955
-41.611621856689 -70.971687316895 -46.311439514160 3.300510644913
-28.733734130859 -66.578712463379 -49.124149322510 1.234758019447
-89.637763977051 -70.959121704102 -52.244457244873 6.394674777985
-89.548217773438 -71.752738952637 -64.689460754395 2.820021390915
77.523231506348 -78.842323303223 -63.758125305176 9.148913383484
84.892127990723 -74.692024230957 -72.047966003418 1.571268796921
-20.246963500977 -70.766952514648 -73.795806884766 2.308782577515
-87.494186401367 -69.666725158691 -70.727394104004 3.693875789642
-24.532300949097 -71.490272521973 -75.574577331543 1.439481377602
-49.106559753418 -73.890556335449 -83.376449584961 2.541173934937
66.498397827148 -71.779296875000 -85.662742614746 2.839261293411
52.504028320313 -73.648750305176 -92.992790222168 1.973423361778
99.911071777344 -74.081108093262 -90.904342651367 2.639419794083
69.269767761230 -78.446594238281 -96.056259155273 3.253714799881
-69.466697692871 -72.262077331543 -87.909034729004 6.849535465240
-59.475070953369 -68.486709594727 -97.501808166504 5.753178596497
44.973014831543 -74.797233581543 -96.585083007813 1.413089752197
77.813606262207 -73.806427001953 -97.425643920898 2.316309928894
55.203010559082 -84.969696044922 -104.266662597656 6.286947727203
102.115394592285 -76.273269653320 -94.854789733887 3.538163423538
-94.450126647949 -74.364097595215 -105.938568115234 2.432245016098
41.674968719482 -74.699081420898 -108.638053894043 0.882179439068
107.714752197266 -78.450592041016 -108.833770751953 4.009799003601
49.509204864502 -75.573471069336 -110.582618713379 1.369863867760
100.773368835449 -78.491989135742 -110.144264221191 5.764082431793
-84.457359313965 -71.020523071289 -115.664207458496 2.223079681396
35.734169006348 -79.085296630859 -111.702178955078 3.991698026657
107.615623474121 -75.037628173828 -116.081878662109 2.654106855392
105.071296691895 -73.670631408691 -115.560821533203 1.648509263992
104.284835815430 -77.515274047852 -114.427658081055 2.895367145538
111.421569824219 -75.478981018066 -113.329330444336 2.433031320572
41.293327331543 -78.456245422363 -107.254669189453 2.202492952347
32.775192260742 -70.379737854004 -114.828216552734 2.883859872818
39.614540100098 -74.657386779785 -111.585861206055 2.122997522354
105.395416259766 -79.236968994141 -120.218925476074 5.119608879089
41.379428863525 -73.034858703613 -120.649391174316 2.539248228073
109.935997009277 -75.951766967773 -131.924057006836 2.688118457794
110.252159118652 -75.690650939941 -130.430114746094 1.188624858856
33.955318450928 -71.852104187012 -117.689804077148 2.289833068848
-78.200469970703 -72.608901977539 -121.684631347656 3.214233636856
112.812126159668 -73.528015136719 -133.013381958008 2.464347839355
-53.019283294678 -73.094123840332 -136.669143676758 1.869850158691
35.000518798828 -76.286315917969 -133.065780639648 2.065775632858
-73.427894592285 -72.649139404297 -132.217193603516 1.872283101082
25.697113037109 -78.515380859375 -128.821380615234 2.450681686401
-80.752235412598 -73.274063110352 -142.146362304688 3.780735254288
-45.413036346436 -76.693038940430 -140.399078369141 1.840706348419
-75.311622619629 -74.628570556641 -136.962707519531 1.066474199295
109.346679687500 -76.308967590332 -135.400817871094 2.367473840714
119.808074951172 -75.109596252441 -140.554931640625 4.313890933990
118.934310913086 -81.683906555176 -146.769989013672 8.097556114197
-80.217247009277 -72.162727355957 -141.646423339844 3.286279916763
6.884775161743 -70.077934265137 -149.510162353516 1.192886233330
-50.753723144531 -73.769279479980 -146.351470947266 3.732687950134
-51.893409729004 -74.634696960449 -153.289596557617 3.042107582092
105.910682678223 -78.480705261230 -162.350357055664 4.221518039703
-40.868892669678 -76.245307922363 -146.726089477539 2.692370176315
14.509692192078 -71.942932128906 -157.109069824219 1.014063477516
22.350162506104 -77.847267150879 -155.981582641602 1.364744067192
114.381729125977 -76.163337707520 -164.336608886719 2.746415138245
30.188766479492 -74.566772460938 -165.951019287109 2.262572050095
-0.945181012154 -76.628311157227 -162.387710571289 2.088686227798
31.831905364990 -76.439918518066 -159.073745727539 2.564516782761
-67.650093078613 -71.299530029297 -154.601074218750 1.678079247475
-66.568473815918 -73.000640869141 -157.395309448242 1.213710904121
-69.706039428711 -70.564628601074 -164.595108032227 3.032940626144
114.491249084473 -73.325019836426 -160.983505249023 1.564677834511
-44.843620300293 -74.136817932129 -161.428649902344 1.866246700287
16.203588485718 -75.313606262207 -163.746566772461 3.192782878876
-63.977073669434 -71.404281616211 -168.228088378906 1.495405316353
-64.640075683594 -70.378349304199 -169.928710937500 3.120251893997
-43.104770660400 -75.352142333984 -159.159286499023 2.626407146454
-34.895000457764 -77.555076599121 -166.105178833008 1.807778000832
115.484420776367 -81.094993591309 -170.571319580078 3.121219158173
-37.382205963135 -67.159034729004 -180.249023437500 4.940506935120
12.212798118591 -76.465980529785 -171.010437011719 5.398891925812
110.173126220703 -81.614433288574 -185.007553100586 6.447082996368
-147.432022094727 -73.115936279297 -173.883712768555 1.102116465569
-146.462463378906 -70.192878723145 -169.917556762695 5.096971035004
-147.155487060547 -68.546310424805 -179.351074218750 3.187546730042
-142.397933959961 -73.809837341309 -181.933059692383 1.405901789665
-32.926113128662 -72.336532592773 -183.301925659180 2.383450508118
-23.593835830688 -75.141212463379 -183.849884033203 2.287194728851
23.436655044556 -70.443199157715 -191.044631958008 1.882925987244
-140.947875976563 -70.340545654297 -184.441177368164 1.915274977684
-148.127838134766 -71.654930114746 -186.623123168945 1.644854187965
-22.212600708008 -72.079879760742 -183.934356689453 1.444207191467
9.395359039307 -75.092781066895 -181.219848632813 4.659463405609
-150.447433471680 -70.908340454102 -193.238647460938 1.523240566254
-31.891777038574 -74.353279113770 -187.626663208008 1.788832187653
99.492805480957 -78.283340454102 -187.292678833008 4.276877880096
105.042541503906 -76.026626586914 -188.863906860352 1.459798574448
24.736619949341 -69.931503295898 -192.174209594727 1.059893369675
-10.886895179749 -74.782196044922 -186.939926147461 5.961781978607
-28.962078094482 -76.725280761719 -191.153228759766 2.410346984863
-156.633117675781 -73.196105957031 -198.863815307617 3.011503458023
-133.201934814453 -72.779853820801 -194.635253906250 0.860864162445
-125.866210937500 -68.089675903320 -192.648452758789 2.570414066315
-126.332229614258 -70.128211975098 -195.383102416992 2.230315923691
-22.122552871704 -69.599655151367 -193.627349853516 1.387472033501
13.709081649780 -78.600265502930 -190.654052734375 1.699681639671
91.027091979980 -83.820465087891 -200.146850585938 8.067322731018
-151.428283691406 -65.969581604004 -192.212677001953 2.501739025116
-144.532608032227 -67.852851867676 -196.776626586914 1.110931873322
-152.051879882813 -71.027786254883 -198.830978393555 1.125474572182
-155.048324584961 -67.998382568359 -194.264343261719 0.921680212021
-24.322780609131 -73.425163269043 -198.134552001953 0.904576003551
-8.738933563232 -71.248176574707 -193.459091186523 5.768644809723
-145.191574096680 -65.585708618164 -200.796951293945 1.525331139565
-20.392210006714 -73.818992614746 -200.800384521484 2.814031124115
-161.006881713867 -70.134017944336 -199.600509643555 2.959111928940
-134.904846191406 -71.094383239746 -197.053634643555 1.700632452965
14.538558006287 -79.319839477539 -205.476760864258 2.987823247910
-159.899032592773 -66.200378417969 -202.178192138672 2.530746459961
-146.777084350586 -73.616188049316 -204.496368408203 3.010339736938
6.574600219727 -72.885650634766 -202.964752197266 1.814089894295
-154.613159179688 -67.508453369141 -200.168228149414 1.590730547905
-25.725772857666 -73.394470214844 -201.228195190430 1.210285186768
93.841453552246 -79.230873107910 -198.001037597656 4.543999195099
-160.307998657227 -72.620346069336 -208.441543579102 3.830246448517
-164.812362670898 -75.545188903809 -204.053253173828 4.665135860443
-76.101455688477 -70.523384094238 -204.934860229492 4.143016338348
89.660644531250 -77.181663513184 -207.186050415039 3.983816623688
-4.320372104645 -74.488754272461 -218.372070312500 0.567849516869
-156.810958862305 -69.586952209473 -210.610458374023 3.741410017014
-87.630790710449 -73.788566589355 -210.845733642578 1.495789527893
-10.406294822693 -79.035911560059 -209.431564331055 0.944648861885
15.584078788757 -75.468070983887 -216.918151855469 1.953594446182
-144.602416992188 -72.253585815430 -218.784271240234 1.025828123093
-4.617680072784 -81.412666320801 -219.340728759766 2.773132324219
-18.122804641724 -77.480903625488 -215.005462646484 2.574330568314
-14.953824043274 -71.593772888184 -219.994689941406 2.654095649719
90.949493408203 -78.368431091309 -220.152664184570 2.005568027496
-20.404249191284 -73.371360778809 -214.622619628906 2.603083848953
-33.913764953613 -73.879814147949 -216.423171997070 2.560372114182
-108.087341308594 -66.159790039063 -223.803573608398 1.777391314507
-16.957160949707 -73.094436645508 -222.434921264648 1.237019062042
93.483276367188 -75.983779907227 -218.065994262695 3.053244113922
74.688499450684 -79.209136962891 -220.582977294922 6.173799991608
7.918516159058 -77.309768676758 -217.300842285156 1.114350676537
-11.912179946899 -71.594856262207 -224.213134765625 1.718682527542
78.572662353516 -78.104034423828 -220.726318359375 3.493332624435
-122.072402954102 -77.325920104980 -223.317108154297 4.792521476746
-18.400205612183 -72.673805236816 -222.252304077148 1.405545711517
-96.048042297363 -72.435539245605 -221.547531127930 1.818471789360
-101.292633056641 -72.923599243164 -221.062957763672 0.512736082077
-130.146896362305 -74.582420349121 -227.301910400391 1.701731443405
80.581352233887 -78.669303894043 -222.292007446289 3.020154476166
-123.225837707520 -73.313980102539 -225.472351074219 1.023051857948
3.720901966095 -74.768920898438 -228.023178100586 1.000926136971
81.433456420898 -76.308418273926 -223.835617065430 1.832373619080
-17.052673339844 -76.939773559570 -232.091094970703 3.683351278305
-14.898641586304 -76.320335388184 -224.053146362305 1.500673532486
-0.738025009632 -83.108154296875 -228.607574462891 3.952802896500
10.940556526184 -79.053916931152 -226.491531372070 1.945280671120
90.101577758789 -80.150367736816 -226.763122558594 5.669623851776
8.822654724121 -74.164466857910 -229.875946044922 1.335493326187
6.389576911926 -74.857887268066 -228.550460815430 1.707803964615
-9.594012260437 -76.293075561523 -230.626754760742 1.749187707901
-7.257958889008 -77.236694335938 -226.846282958984 2.091735363007
19.526224136353 -75.037078857422 -232.317214965820 2.730066061020
-12.985111236572 -71.804397583008 -231.622848510742 2.889015197754
70.241966247559 -78.699066162109 -239.953475952148 3.628954172134
-10.283933639526 -74.237564086914 -238.275299072266 1.327460408211
18.750873565674 -77.438598632813 -234.554946899414 1.321620464325
-161.189468383789 -68.916542053223 -237.596420288086 3.051202774048
-6.452599048615 -72.679077148438 -234.681060791016 0.437628209591
-7.922770023346 -77.895561218262 -237.892868041992 3.941816091537
-168.091583251953 -72.695632934570 -248.101715087891 2.890624761581
-11.601021766663 -73.152740478516 -242.725601196289 0.772925078869
14.299948692322 -72.929496765137 -243.863403320313 1.728373169899
-148.927291870117 -73.939254760742 -249.611770629883 2.879944086075
-76.534172058105 -74.032768249512 -250.278198242188 1.398886203766
-62.861553192139 -76.027793884277 -245.672561645508 0.691428005695
50.776535034180 -74.059196472168 -246.007720947266 2.161561727524
-73.697517395020 -73.324806213379 -244.461944580078 2.021349191666
15.332654953003 -77.065444946289 -248.679916381836 2.044550180435
-73.490356445313 -75.506736755371 -249.080352783203 1.392119407654
-16.422456741333 -72.747344970703 -241.701934814453 0.776624143124
-146.055206298828 -75.828666687012 -250.460220336914 1.457838416100
44.744331359863 -72.454544067383 -250.043930053711 0.825852155685
-81.769119262695 -78.029808044434 -255.107635498047 2.132343530655
-103.799697875977 -69.187042236328 -253.528884887695 2.911431074142
-101.096008300781 -75.093360900879 -252.478347778320 3.354269504547
-121.927078247070 -69.057502746582 -249.677566528320 6.412424564362
-106.750228881836 -68.889953613281 -255.520767211914 1.802661538124
-105.831985473633 -72.246971130371 -255.594665527344 1.451336026192
20.390483856201 -72.071105957031 -256.469146728516 2.668355703354
-131.192642211914 -69.407257080078 -263.245086669922 2.499274969101
-16.341402053833 -77.049186706543 -273.729217529297 4.390268802643
-149.727401733398 -68.656753540039 -282.169128417969 2.368613719940
-169.861724853516 -74.312927246094 -284.448760986328 1.759713649750
-126.132614135742 -74.378982543945 -280.968505859375 3.953158140182
-115.175300598145 -69.450180053711 -284.955139160156 1.982887506485
-76.676811218262 -69.358520507813 -281.347625732422 4.524771690369
-59.115665435791 -76.823478698730 -285.139495849609 3.329903125763
-42.371822357178 -73.972557067871 -284.314941406250 3.101180553436
-16.934925079346 -81.234573364258 -289.750732421875 1.784668087959
-14.924626350403 -73.339462280273 -292.165740966797 1.796117305756
-40.176784515381 -79.128112792969 -289.486785888672 3.452726602554
-35.806423187256 -75.867622375488 -287.370056152344 1.839323639870
-20.506950378418 -71.944664001465 -287.364685058594 3.841753482819
-74.609375000000 -73.567138671875 -292.665618896484 3.960841894150
-57.713802337646 -74.315689086914 -289.871520996094 1.160550832748
-20.160980224609 -71.486480712891 -290.675292968750 3.532855272293
-15.288452148438 -78.788337707520 -287.681701660156 3.544109344482
-4.954349040985 -76.060081481934 -292.316772460938 3.077100276947
1.346933960915 -72.057533264160 -291.853790283203 1.559987068176
-95.074676513672 -74.127227783203 -291.871337890625 0.570610702038
-139.721725463867 -76.115554809570 -294.251159667969 3.285508871078
-116.884521484375 -74.630104064941 -290.863220214844 3.055277347565
-154.714294433594 -69.611122131348 -291.580200195313 1.531479477882
-151.965850830078 -73.785423278809 -297.347381591797 1.956464171410
-148.717178344727 -69.577262878418 -298.254852294922 1.329446792603
44.335327148438 -69.042732238770 -21.696123123169 2.185638427734
20.829984664917 -76.288291931152 -22.176912307739 4.079365253448
50.940273284912 -68.415481567383 -23.079643249512 2.118460178375
47.849380493164 -74.101737976074 -34.664787292480 1.969177722931
88.738845825195 -74.261459350586 -70.939201354980 1.193958520889
96.381881713867 -77.121452331543 -73.762825012207 3.876341581345
101.893035888672 -75.330146789551 -75.933677673340 3.316283702850
98.677139282227 -74.940155029297 -83.536201477051 2.112280130386
56.008159637451 -75.146759033203 -89.166748046875 2.901368141174
43.925476074219 -80.683761596680 -88.482505798340 9.308603286743
63.797256469727 -73.108711242676 -89.967926025391 3.451016902924
-65.154991149902 -68.792457580566 -92.455734252930 2.098531484604
72.281715393066 -72.685722351074 -86.467201232910 1.717614293098
100.475173950195 -66.365661621094 -99.082313537598 2.408151865005
74.708480834961 -74.828681945801 -101.119018554688 2.991676807404
93.603118896484 -73.718009948730 -102.735359191895 2.868527889252
-86.535537719727 -71.279235839844 -103.415351867676 3.692791461945
46.219470977783 -71.983428955078 -95.026992797852 1.829349040985
-87.697380065918 -72.015975952148 -98.447410583496 5.246162414551
51.859985351563 -75.350212097168 -109.161941528320 2.607263565063
36.644126892090 -81.606651306152 -101.909011840820 5.955218315125
99.918441772461 -74.129470825195 -102.641029357910 4.174373626709
36.846855163574 -73.875244140625 -103.485099792480 4.360903263092
44.770145416260 -76.528930664063 -119.837310791016 0.588208854198
42.546474456787 -74.536407470703 -112.068748474121 2.468470811844
111.724769592285 -74.250762939453 -110.831390380859 2.165479898453
-80.623573303223 -77.295097351074 -120.251777648926 5.676188468933
112.851608276367 -81.492950439453 -121.937019348145 5.984931468964
41.850395202637 -69.124420166016 -124.431037902832 2.441737174988
40.065593719482 -73.918777465820 -118.923545837402 3.370044231415
34.415561676025 -74.866371154785 -118.843170166016 0.742908179760
-55.119449615479 -77.709388732910 -127.800506591797 5.796984672546
29.794820785522 -72.559555053711 -122.199882507324 2.433580398560
-77.908531188965 -67.543197631836 -136.966506958008 0.634152054787
-55.135608673096 -76.733848571777 -130.855529785156 3.345879316330
-79.463317871094 -68.277122497559 -133.369155883789 2.649083852768
36.841014862061 -71.779052734375 -131.039337158203 1.975428819656
-60.067157745361 -73.866119384766 -131.861938476563 2.678292036057
35.278736114502 -73.483413696289 -131.963424682617 0.874027132988
-71.254547119141 -69.022117614746 -138.144180297852 1.035194277763
-59.275253295898 -67.112289428711 -140.961242675781 1.962368369102
23.537662506104 -75.518569946289 -143.445343017578 1.615350246429
111.692703247070 -79.633483886719 -142.288803100586 3.509445667267
114.935180664063 -71.066070556641 -137.186172485352 3.092710494995
30.226858139038 -74.816009521484 -141.798324584961 2.752895355225
-50.031105041504 -74.794815063477 -138.204544067383 2.273844242096
104.908752441406 -73.522087097168 -152.183959960938 5.091133594513
-76.618034362793 -71.201812744141 -140.832336425781 1.519740700722
-58.659942626953 -71.694801330566 -140.620529174805 2.325224637985
31.708791732788 -67.996192932129 -145.160461425781 2.016637086868
-78.532432556152 -73.335136413574 -144.297607421875 1.429198622704
-70.510498046875 -71.028869628906 -148.236419677734 0.788026630878
113.510635375977 -82.106040954590 -148.709915161133 4.729291439056
-64.700805664063 -70.062202453613 -154.188629150391 2.858541727066
-39.688732147217 -68.297622680664 -150.312011718750 4.269825458527
24.334053039551 -72.464843750000 -143.552246093750 1.234508872032
-72.270561218262 -72.253753662109 -142.444335937500 1.743102908134
12.227867126465 -72.536781311035 -147.744979858398 1.499585270882
31.584453582764 -74.074111938477 -157.454467773438 2.718102455139
31.165649414063 -71.249145507813 -150.927597045898 1.155333638191
16.860141754150 -79.364845275879 -152.478530883789 6.830419540405
-51.084278106689 -74.878250122070 -151.477432250977 1.647510766983
22.682611465454 -77.164871215820 -152.081100463867 1.661321520805
-47.258781433105 -71.221099853516 -149.726211547852 2.599805593491
3.073524951935 -73.836402893066 -153.121093750000 4.707492828369
19.105594635010 -72.973609924316 -148.970977783203 3.322458267212
-67.487640380859 -70.550277709961 -156.988616943359 1.211155772209
-47.566631317139 -68.788444519043 -152.790771484375 1.542454719543
-68.884231567383 -71.637474060059 -150.407180786133 2.276659965515
19.893161773682 -72.674194335938 -157.668807983398 1.084127187729
23.334543228149 -73.146263122559 -149.124877929688 1.401203870773
2.043112993240 -73.971206665039 -165.410293579102 2.462987661362
21.606418609619 -72.935379028320 -151.082092285156 2.151623964310
30.203109741211 -73.550148010254 -167.864395141602 2.848424434662
-47.669124603271 -73.490638732910 -162.700836181641 0.911897361279
-39.214832305908 -81.904190063477 -162.959289550781 2.678951740265
-42.133468627930 -74.075057983398 -159.750213623047 2.085033655167
27.308000564575 -75.148277282715 -156.564483642578 3.567066669464
-45.018115997314 -69.598419189453 -164.928253173828 2.455332756042
-39.743713378906 -70.867439270020 -167.501968383789 1.277079463005
21.372896194458 -72.258590698242 -164.370254516602 1.282017230988
-40.253303527832 -73.531265258789 -175.075866699219 1.244281053543
26.938581466675 -69.189956665039 -169.216613769531 1.620487809181
109.973663330078 -72.067253112793 -163.030776977539 1.747189283371
-34.854274749756 -73.066329956055 -170.883728027344 3.358821153641
99.640098571777 -73.319328308105 -173.026367187500 6.019449710846
-35.195487976074 -72.603858947754 -176.604766845703 1.452661275864
-38.734745025635 -77.020088195801 -180.723999023438 3.764810800552
22.113952636719 -77.968666076660 -177.277526855469 2.241843700409
105.835319519043 -77.751228332520 -181.483459472656 1.000686168671
-33.706893920898 -70.920898437500 -180.562484741211 2.350935935974
-36.689743041992 -72.648162841797 -178.300643920898 2.248229026794
-23.599536895752 -79.123008728027 -186.142868041992 1.980204582214
-149.870849609375 -70.457801818848 -187.551040649414 1.506694078445
10.504171371460 -73.709129333496 -182.361663818359 3.133705377579
103.329223632813 -75.165252685547 -191.846282958984 0.559897482395
-161.604614257813 -69.467918395996 -190.239837646484 5.048270225525
-21.482866287231 -68.743835449219 -186.964096069336 2.709615945816
-116.497222900391 -73.641693115234 -196.110336303711 1.568548202515
-129.686218261719 -72.813644409180 -192.649734497070 3.681287765503
-107.401252746582 -72.702331542969 -198.414062500000 3.580361604691
-115.609870910645 -69.837005615234 -198.421508789063 1.885585665703
-11.952152252197 -75.231369018555 -195.133911132813 3.252828121185
19.101682662964 -72.181480407715 -194.964965820313 1.975089669228
-16.589693069458 -69.033920288086 -200.964569091797 1.244009733200
-129.180541992188 -70.874885559082 -204.351242065430 1.566788673401
-21.064489364624 -68.599243164063 -199.996139526367 1.830202698708
-128.695312500000 -68.411712646484 -201.085296630859 2.750066757202
-17.446527481079 -73.436256408691 -197.460708618164 1.861692309380
-147.907363891602 -68.774299621582 -199.489974975586 2.099047422409
91.062477111816 -71.127761840820 -205.518112182617 3.280135154724
-164.739456176758 -62.419918060303 -199.185241699219 4.711112022400
-2.862963914871 -75.467933654785 -219.261764526367 1.189837813377
11.353741645813 -76.607727050781 -209.267105102539 0.840606987476
9.226758003235 -78.462036132813 -216.168472290039 1.068346619606
81.420204162598 -76.671424865723 -215.387756347656 1.519843578339
8.623865127563 -75.968658447266 -212.323745727539 1.185021162033
10.522061347961 -73.409584045410 -214.055694580078 2.779087305069
-16.749868392944 -77.526695251465 -214.097015380859 2.150435209274
-91.222015380859 -73.138740539551 -211.089233398438 2.460552692413
-99.379386901855 -71.828430175781 -215.046829223633 1.923239588737
1.540943980217 -73.480590820313 -217.011520385742 3.875450134277
-167.500625610352 -72.900352478027 -219.081542968750 0.519780993462
15.501033782959 -71.728668212891 -217.074752807617 1.676854968071
-145.578918457031 -69.832664489746 -218.140441894531 2.037196874619
12.763824462891 -75.483062744141 -223.874954223633 3.011408329010
-136.231674194336 -73.088661193848 -223.062408447266 3.012737035751
-116.286376953125 -72.703979492188 -226.622344970703 1.656037211418
16.488388061523 -74.109085083008 -219.193084716797 2.686592817307
78.684104919434 -76.623565673828 -218.794281005859 4.261131286621
5.302826881409 -75.377639770508 -222.607482910156 1.117296814919
-109.658752441406 -70.362030029297 -229.757705688477 2.339165210724
68.674461364746 -77.850280761719 -226.715881347656 6.056252479553
84.666526794434 -78.478607177734 -228.757705688477 5.057237625122
-127.273612976074 -70.910781860352 -235.073135375977 1.959135174751
-119.723236083984 -71.128128051758 -228.177413940430 2.630530834198
-10.022794723511 -69.398162841797 -224.930877685547 1.924005150795
71.092681884766 -77.151496887207 -232.274871826172 3.656290769577
63.644073486328 -76.884910583496 -231.475173950195 5.507920265198
71.244216918945 -75.830039978027 -227.728164672852 3.318282604218
-137.263610839844 -66.290664672852 -231.991226196289 2.926492452621
68.177375793457 -77.959999084473 -229.833831787109 4.146192073822
64.867988586426 -73.082427978516 -234.293869018555 3.077067613602
-166.746719360352 -67.743499755859 -229.516494750977 1.426853418350
0.914505004883 -83.389762878418 -241.023559570313 5.453555583954
19.732831954956 -77.067649841309 -238.025039672852 0.452973216772
-6.978216171265 -70.884803771973 -240.518615722656 1.199648737907
16.296714782715 -67.975379943848 -238.392013549805 1.824635267258
66.239532470703 -77.578666687012 -236.967712402344 3.323999166489
6.548594951630 -72.143218994141 -243.752944946289 1.627985596657
-12.357649803162 -67.124015808105 -239.166107177734 1.614428997040
-2.616878986359 -70.462814331055 -234.435592651367 1.203990340233
63.867652893066 -76.954780578613 -241.343688964844 1.683990240097
0.469235986471 -74.700683593750 -241.339828491211 1.632495999336
-7.010956764221 -75.467369079590 -242.000289916992 2.431486129761
13.626515388489 -78.793624877930 -240.807952880859 0.897309660912
-168.552825927734 -73.202865600586 -239.023406982422 1.234706878662
53.207633972168 -77.573379516602 -246.310485839844 4.292154788971
47.853946685791 -68.127616882324 -252.215301513672 1.271011471748
58.730926513672 -77.038612365723 -242.347717285156 2.175898790359
-13.171833038330 -71.609664916992 -246.820739746094 0.763245999813
56.070133209229 -75.394866943359 -244.150634765625 1.369765281677
-75.553001403809 -72.491806030273 -249.448593139648 1.780811667442
49.203708648682 -76.580284118652 -247.258499145508 4.328219890594
-88.497047424316 -71.643898010254 -251.366790771484 2.106415748596
-122.869598388672 -72.639160156250 -256.342224121094 1.752922296524
-132.933959960938 -71.589485168457 -250.403991699219 3.362766742706
46.306480407715 -78.305877685547 -250.551467895508 6.042747020721
