# This PCD file was generated using the MATLAB® pcwrite function
# from Computer Vision Toolbox®.
# .PCD v.7 - Point Cloud Data file format
VERSION .7
FIELDS x y z
SIZE 8 8 8
TYPE F F F
COUNT 1 1 1
WIDTH 806
HEIGHT 1
VIEWPOINT 0 0 0 1 0 0 0
POINTS 806
DATA ascii
44.170501708984375 -21.286240840485711 -42.960877162633714
44.796901702880859 -20.838608575165534 -43.408866031526358
45.543899536132813 -20.438051432056497 -43.809742276092720
35.612201690673828 -19.872590478274979 -44.375653700968108
22.702499389648438 -19.307130872655506 -44.941563776607452
31.104999542236328 -19.307130872655506 -44.941563776607452
22.145399093627930 -18.741669918873985 -45.507475201482841
29.003599166870117 -18.176210313254511 -46.073385277122185
28.593799591064453 -17.992012281506224 -46.257730049133073
21.417900085449219 -17.893480510444771 -46.356340314941853
41.246200561523438 -17.893480510444771 -46.356340314941853
27.640600204467773 -17.333321877977660 -46.916945194440203
48.609401702880859 -17.070099979927509 -47.180376786644395
27.518999099731445 -17.045289753853517 -47.205206777636910
26.269500732421875 -15.348909588833045 -48.902938353790979
43.489700317382813 -14.783449983213572 -49.468848429430324
49.562500000000000 -13.929020446546158 -49.746021293271127
49.756198883056641 -13.652529423812577 -50.600669929945049
20.015600204467773 -12.296869314357714 -51.507930775311543
25.620399475097656 -12.238879061601846 -52.015446468279450
43.843799591064453 -10.716475051793179 -52.190636358177969
26.272899627685547 -10.825228699391111 -53.430223006613851
49.401100158691406 -10.825228699391111 -53.430223006613851
43.253101348876953 -10.542498896581375 -53.713178044433519
49.179599761962891 -9.977037942799857 -54.279089469308914
48.609401702880859 -9.294316550858046 -54.962354747172782
27.421400070190430 -9.128848534370643 -55.127954582767913
21.246299743652344 -8.563388928751166 -55.693864658407264
28.377599716186523 -8.280657777779385 -55.976821045462984
41.002700805664063 -7.997926626807605 -56.259777432518703
22.053199768066406 -7.715198172159912 -56.542731121102321
40.397800445556641 -7.715198172159912 -56.542731121102321
47.373699188232422 -7.432467021188131 -56.825687508158040
30.500000000000000 -6.988935190721183 -57.269572675610505
34.887001037597656 -5.736088204329704 -58.523417735076052
35.265598297119141 -2.911896341578979 -61.349859473418022
36.218799591064453 -2.786153267845274 -61.475702719620926
37.256599426269531 -2.908787479908240 -61.352970811744854
-60.046901702880859 -2.252429396713751 -62.009851778688841
-57.187500000000000 -2.211714903020624 -62.050598707340370
-66.718803405761719 -1.956057542192731 -62.306459736078864
-55.281200408935547 -2.057911184527688 -62.204524952647660
-70.531196594238281 -1.675941825584019 -62.586798605201338
-52.421901702880859 -1.705558249340662 -62.557158587697486
-51.468799591064453 -1.538251339826852 -62.724598781262188
-46.971199035644531 -0.646946361106252 -63.616613812774318
-43.843799591064453 0.314336316608900 -64.578662290597237
-81.900703430175781 0.766704001104481 -65.031390351108712
-42.006801605224609 0.766704001104481 -65.031390351108712
-38.125000000000000 0.888278557801792 -65.153061759451006
-34.312500000000000 1.345380987391751 -65.610528336963270
-29.881799697875977 1.897625908667518 -66.163213200859488
-26.687500000000000 2.236405548407445 -66.502262727377413
-23.457500457763672 2.745813968934688 -67.012076965082457
-20.968799591064453 3.089473955269620 -67.356010726094368
-87.492897033691406 3.311276270878249 -67.577989739193896
-20.207899093627930 3.311276270878249 -67.577989739193896
-88.184303283691406 3.594004725525944 -67.860943427777514
-18.109399795532227 3.675077798132894 -67.942081086763878
-89.845497131347656 4.724926633088981 -68.992766277528290
-90.994796752929688 5.573114693356152 -69.841630041751259
-92.016998291015625 6.421305449947408 -70.690496504446315
-10.193099975585938 6.704036600919189 -70.973452891502035
-9.822480201721191 6.986765055566884 -71.256406580085653
-92.887702941894531 7.269496206538665 -71.539362967141372
-9.031999588012695 7.834955812158141 -72.105273042780709
-8.794910430908203 8.400415417777616 -72.671183118420061
-94.359397888183594 9.035201467870692 -73.167827326771459
78.156196594238281 9.096498443725801 -73.367820674756288
81.015602111816406 9.160466036333467 -73.431839226764808
76.250000000000000 9.282817134367441 -73.554287795070778
-95.312500000000000 10.394407284397779 -73.506080109924980
74.623100280761719 9.814065779988347 -74.085959656754454
83.875000000000000 9.885949780111444 -74.157900922837214
86.734397888183594 9.852658266626078 -74.124582887866325
-95.811500549316406 10.662256536579605 -74.934826119449511
73.087402343750000 10.662256536579605 -74.934826119449511
94.479698181152344 10.944987687551384 -75.217782506505230
-96.265602111816406 11.641174773867752 -75.653069161815864
-9.122770309448242 11.510447293170861 -75.783692582144567
-9.531250000000000 11.674289426234624 -75.947665239065742
96.621398925781250 11.793178444142640 -76.066648969200287
69.578102111816406 12.413909997193601 -76.687875024338140
-20.968799591064453 13.303552667494779 -76.253853677076393
-17.156200408935547 13.031492710763226 -76.525697071390368
-10.941100120544434 12.641366504409811 -76.915512733423256
69.083900451660156 12.641366504409811 -76.915512733423256
-19.062500000000000 12.988046047115615 -77.134571632297536
-13.343799591064453 13.019307555169540 -77.293754868665317
-12.390600204467773 13.049943600056585 -77.072723350421171
68.625000000000000 13.140526197087546 -77.415070078690917
-24.781200408935547 13.982468267347960 -77.271865944459691
68.063301086425781 13.489559957325154 -77.764381894590414
99.587097167968750 13.772285715648763 -78.047332884701930
-27.640600204467773 14.799391829909403 -78.151969319538850
67.166099548339844 14.337748017592325 -78.613245658813369
100.538002014160156 14.620479168564104 -78.896202045869089
-29.759300231933594 15.751398379803057 -80.028022197147777
-32.406200408935547 17.455726720636488 -80.586889658172979
-98.603897094726563 17.447779892985569 -81.725755122537890
102.420997619628906 17.447779892985569 -81.725755122537890
102.938003540039063 18.422700577925873 -82.701452472223025
-98.873802185058594 18.861430255196300 -83.140531660872284
-34.312500000000000 19.291523531765460 -82.710780742807032
104.177001953125000 19.992349466435250 -84.272351812150973
104.543998718261719 20.840537526702423 -85.121215576373928
-34.784400939941406 21.123268677674204 -85.404171963429647
-99.125000000000000 21.694968411531875 -85.398389789450789
-35.265598297119141 21.624230664003989 -85.469071229031684
-99.125000000000000 22.267152607466890 -85.957586020264898
104.491996765136719 22.254187888913155 -86.535992114708336
-49.562500000000000 23.185313312086599 -86.171070357818891
-35.608898162841797 22.819650190856716 -87.101904888819774
-52.421901702880859 23.250037441406178 -87.532635004803609
-49.866100311279297 23.102381341828497 -87.384861275875480
-49.015998840332031 23.950569402095667 -88.233725040098449
-39.078098297119141 24.202907587974142 -88.486264249686627
105.322998046875000 23.950569402095667 -88.233725040098449
-57.416698455810547 24.516031704039229 -88.799637814209888
-47.717700958251953 24.516031704039229 -88.799637814209888
-44.796901702880859 24.766460892465069 -89.050266505553992
-99.503196716308594 24.798762855011010 -89.082594201265607
-58.993000030517578 25.364219764306398 -89.648501578432843
61.953098297119141 25.750500545463005 -90.035090087868241
62.906200408935547 25.816587448801979 -90.101229638944318
105.027000427246094 25.929682066249960 -90.214414352544281
-60.102699279785156 26.212413217221741 -90.497370739600001
105.261001586914063 26.495138975545352 -90.780321729711531
-61.073600769042969 27.343332428460691 -91.629190890878689
61.953098297119141 27.413082535201390 -91.559496305913129
63.255500793457031 27.343332428460691 -91.629190890878689
-99.654899597167969 27.626063579432472 -91.912147277934409
-61.345298767089844 27.908789337756083 -92.195098268045925
57.778598785400391 28.191520488727864 -92.478054655101644
60.874198913574219 28.191520488727864 -92.478054655101644
-61.953098297119141 29.183184870477966 -92.618104610479321
105.337997436523438 28.756982790671422 -93.043967429213083
-99.684303283691406 29.039713941643203 -93.326923816268803
56.760501861572266 29.322439699966814 -93.609874806380333
-62.906200408935547 30.241961693126914 -93.256547243059131
63.576000213623047 29.605170850938595 -93.892831193436052
-99.714698791503906 29.887902001910376 -94.175787580491772
60.046901702880859 30.081444516060920 -93.982399128097583
64.341903686523438 30.736090062177546 -95.024651344714727
-64.812500000000000 31.075368521873315 -95.364200088570428
56.234401702880859 31.231250333500665 -95.095347707100885
60.046901702880859 31.131155908039009 -95.195362456409441
-65.182502746582031 31.584283515092888 -95.873520505881885
57.187500000000000 32.867729727521208 -96.287472587739671
63.859401702880859 32.819744603780180 -97.109965817271615
64.812500000000000 32.892545354092391 -97.182824563867044
57.132198333740234 32.997933877303623 -97.288297044216279
59.093799591064453 33.399648758409946 -97.452364413363981
104.332000732421875 33.563390786599008 -97.854204421383528
104.441001892089844 34.128853088542570 -98.420117195494967
-68.128402709960938 34.411584239514355 -98.703073582550687
65.161201477050781 34.694315390486132 -98.986029969606406
-99.754699707031250 35.259772299781524 -99.551937346773641
-68.871696472167969 35.825234601725086 -100.117850120885080
-69.578102111816406 36.218542306679836 -99.724855492755239
-99.768096923828125 36.390691511020478 -100.683757498052330
-69.578102111816406 36.463427549554631 -100.756551481317459
-68.625000000000000 36.628869452113051 -100.445769148957609
-70.531196594238281 36.855149512716054 -101.148585507442831
65.774200439453125 36.673422661992255 -100.966713885108049
-71.022903442382813 37.521616114907602 -101.815583046275194
103.738998413085938 37.521616114907602 -101.815583046275194
66.238899230957031 37.804341873231209 -102.098534036386724
-71.671897888183594 38.087073024202986 -102.381490423442443
67.005302429199219 38.652535326146548 -102.947403197553882
103.231002807617188 38.652535326146548 -102.947403197553882
102.938003540039063 38.793898205308352 -103.088878692609640
-72.364700317382813 38.935266477118333 -103.230359584609602
67.808799743652344 39.217992235441940 -103.513310574721132
59.093799591064453 41.508580002663784 -104.617310240129768
-74.448699951171875 41.762567201539795 -106.059912661278403
56.234401702880859 42.111522819122598 -105.711234815820092
57.187500000000000 42.127934926411243 -105.694835772731253
-66.718803405761719 42.244621414218244 -106.542350899568234
-63.859401702880859 42.273214008518607 -106.115124030144713
54.328098297119141 42.749417513366424 -106.204762069232487
56.234401702880859 42.662124639528798 -106.291985457078766
73.390602111816406 42.949182704170632 -106.005155893496820
-67.630096435546875 42.610755261806965 -106.908776425501358
-62.906200408935547 42.952001344611126 -106.567801977955725
73.725303649902344 42.893486412778742 -107.191732812557078
74.343803405761719 43.405141008453349 -106.680485499003424
79.109397888183594 43.164842068293211 -106.920593158829448
81.015602111816406 43.353430187675258 -106.732155157456504
54.328098297119141 43.412414826324550 -107.238679952396950
76.250000000000000 43.588908393771760 -107.062326875575820
80.062500000000000 43.187525946965685 -107.486006591583958
51.468799591064453 43.899930330495359 -107.317004211325354
52.421901702880859 43.682903013692219 -107.533858772236840
81.968803405761719 43.956239347725244 -107.260740016630351
55.281200408935547 44.238687159126933 -107.543979517715059
-70.531196594238281 44.100037514619828 -108.399245106132128
-64.812500000000000 44.565700237196161 -107.782689226525477
83.875000000000000 44.132549790444443 -108.431783282667240
-98.669197082519531 44.307136774989473 -108.606509350891486
-68.625000000000000 44.881325763019731 -108.032777422977261
-65.765602111816406 44.670734302165862 -108.243201250944509
-61.604400634765625 44.307136774989473 -108.606509350891486
50.515598297119141 44.498131931481268 -108.415666228434134
53.375000000000000 44.511856360562170 -108.401952724134588
-71.443397521972656 44.589867925961258 -108.889465737947191
-69.578102111816406 45.258279464171991 -108.221586261934775
-63.859401702880859 45.129959020584856 -108.349804561179099
54.328098297119141 45.242787535868125 -108.237065858510420
94.359397888183594 44.743245625248662 -109.042965624663310
-64.812500000000000 44.924195934635797 -109.224060087034402
87.687500000000000 45.035165848704295 -109.335118404622619
89.593803405761719 45.054956867492876 -109.354925189808199
92.453102111816406 45.028096086951756 -109.328043010786573
-98.489601135253906 45.155324835256643 -109.455373115114440
-60.793201446533203 45.155324835256643 -109.455373115114440
48.609401702880859 45.395059794748690 -109.215828987022320
49.562500000000000 45.257542958257943 -109.353236358750493
-72.362701416015625 45.438055986228427 -109.738329502170160
51.468799591064453 45.562628252074049 -109.613856397080795
-98.171897888183594 45.980189692183053 -110.280895095705901
-63.459400177001953 45.720787137200205 -110.021285889225879
48.609401702880859 45.822298260512319 -109.919855569772366
52.421901702880859 46.129306129360820 -109.613092082225293
-73.390602111816406 46.658844935188604 -109.649437275760434
46.703098297119141 46.501167813667692 -109.806988884732405
-78.156196594238281 46.779295375539498 -110.094534411085860
-61.953098297119141 46.955505603416611 -109.918464448293733
51.468799591064453 46.569483773121405 -110.304179001392356
-59.490398406982422 46.568975197467381 -110.870149653448848
45.750000000000000 47.086419451360314 -110.918579771535804
-79.109397888183594 47.759133789664411 -110.811863401735181
-61.894901275634766 47.134437499410936 -111.436062427560273
44.796901702880859 47.808650752628346 -110.762385854763735
49.562500000000000 47.216282158086479 -111.354282918042884
50.515598297119141 47.436423511688545 -111.134316799136585
-80.062500000000000 48.313696967107738 -111.388655839236151
-71.690200805664063 47.982625559678112 -112.284926191783242
-69.045700073242188 47.982625559678112 -112.284926191783242
-58.463600158691406 47.982625559678112 -112.284926191783242
49.562500000000000 48.340564390868920 -111.927272283443841
-80.972602844238281 48.265356710649890 -112.567882578838962
43.843799591064453 48.401459547762265 -112.431888080931657
47.593200683593750 48.548087861621674 -112.850838965894681
-68.904701232910156 48.830819012593452 -113.133795352950401
-57.872299194335938 48.830819012593452 -113.133795352950401
48.609401702880859 49.278598075280627 -112.686372726827869
-71.141700744628906 49.113544770917059 -113.416746343061916
-77.578201293945313 49.396275921888844 -113.699702730117636
46.703098297119141 49.713952286505467 -113.947741720264347
-84.828102111816406 50.094870043166942 -114.132589659140066
-85.823799133300781 50.527195133127790 -114.831522881396324
-83.835700988769531 50.527195133127790 -114.831522881396324
-59.238800048828125 50.527195133127790 -114.831522881396324
-86.356903076171875 51.092657435071352 -115.397435655507763
-78.128997802734375 51.092657435071352 -115.397435655507763
-82.921897888183594 51.910104324251243 -115.146101943373978
-81.968803405761719 52.312313025751159 -115.309675885214006
-69.854202270507813 51.658119737014914 -115.963348429619202
38.830699920654297 51.658119737014914 -115.963348429619202
-55.984401702880859 51.940845495338522 -116.246299419730718
-87.687500000000000 52.448316196364175 -116.304695151638199
-81.015602111816406 52.770600115748849 -115.982667773442344
-79.109397888183594 52.464795765455221 -116.288228700447220
-81.968803405761719 52.580159581608896 -116.738419196266435
-58.140598297119141 53.113022905059104 -116.771442518528062
-80.062500000000000 53.227326221679000 -117.222692669712927
-66.532096862792969 53.354495857549260 -117.661075958065126
36.010799407958984 53.637227008521037 -117.944032345120846
-89.694099426269531 53.919958159492815 -118.226988732176551
-90.546897888183594 54.190674490338999 -118.497920727571938
42.093799591064453 54.202689310464599 -118.509945119232270
-91.500000000000000 54.581544415089354 -118.889102036514942
34.759601593017578 54.485420461436377 -118.792901506287990
-92.453102111816406 55.012708206975482 -119.320609312462466
-65.513496398925781 54.768146219759991 -119.075852496399534
-55.281200408935547 55.240894244752631 -118.603480783512595
33.640201568603516 55.333608521703553 -119.641765270510945
-54.668899536132813 55.616339672675331 -119.924721657566664
-67.070999145507813 55.899070823647108 -120.207678044622384
-64.757400512695313 55.899070823647108 -120.207678044622384
32.908199310302734 55.899070823647108 -120.207678044622384
40.309799194335938 55.899070823647108 -120.207678044622384
-57.036800384521484 56.181796581970723 -120.490629034733928
31.453100204467773 57.268895134169888 -121.578593617506328
-63.254600524902344 57.312721185857846 -121.622454582956806
-56.849300384521484 57.312721185857846 -121.622454582956806
38.873901367187500 57.312721185857846 -121.622454582956806
-62.357799530029297 58.160909246125016 -122.471318347179761
-58.140598297119141 59.111976382384860 -122.086459965705075
29.871599197387695 58.443635004448623 -122.754269337291277
37.171901702880859 58.722132926605951 -123.032989123156085
-57.187500000000000 58.876196115789760 -122.887525815408424
29.546899795532227 58.987893413782729 -123.298961326838764
-59.093799591064453 59.654731041639515 -122.675062306997177
-54.135898590087891 59.009097306392185 -123.320182111402715
-61.000000000000000 59.400914187553894 -123.494150386888890
28.947900772094727 59.291833850012139 -123.603143895402638
-63.339500427246094 59.857285366659355 -124.169045875625670
-60.092601776123047 59.857285366659355 -124.169045875625670
-59.093799591064453 60.253983783842955 -124.338136500840932
-58.140598297119141 60.219321909768205 -124.372770783720966
28.077699661254883 60.140021910279309 -124.452007659625593
35.265598297119141 60.786929324356009 -123.805615190251615
-55.281200408935547 60.915445497802224 -124.242653012885086
-61.953098297119141 60.988209970546478 -125.300871423848548
27.285699844360352 60.988209970546478 -125.300871423848548
-60.046901702880859 62.069004885631664 -125.351861794677603
33.987098693847656 61.553672272490040 -125.866784197959987
-56.234401702880859 62.279152538457836 -125.707333117396445
32.874698638916016 62.401860332757209 -126.715647962182942
-57.187500000000000 62.801165482577709 -126.882112359146760
25.913900375366211 62.684586091080817 -126.998598952294486
26.687500000000000 63.201688901917500 -126.481907760411929
25.734399795532227 63.799259056136904 -127.581211506949131
26.687500000000000 64.116523817422788 -127.264199291552558
28.593799591064453 64.473735501015796 -127.472723647928206
30.500000000000000 63.932443586309425 -128.013584688914420
29.546899795532227 64.547712854927198 -127.964256876656492
25.734399795532227 64.790409469584802 -128.287226717439097
28.593799591064453 65.016685890129523 -128.626582111098060
27.640600204467773 65.353327112341717 -128.855682125163298
25.028699874877930 65.229161057178672 -129.545201038851758
25.734399795532227 65.532774248130238 -129.241829527004427
0.000000000000000 136.546208690287017 -199.650003524778583
-0.953125000000000 136.779698126744705 -199.982151644156630
4.524769783020020 136.477141469658818 -200.849940729683169
5.233520030975342 138.173517590193171 -202.547668258129107
16.203100204467773 138.210985709687179 -202.585166226376884
-1.118880033493042 139.021705650460348 -203.396532022352062
4.356510162353516 139.021705650460348 -203.396532022352062
20.968799591064453 139.514367202091677 -203.889586049868058
1.906250000000000 140.036644354039538 -203.513326182491113
3.870270013809204 139.587167952403917 -203.962444796463501
11.437500000000000 139.702387273231381 -204.077755906075197
7.959000110626221 139.869904496023850 -204.245406580463396
8.578120231628418 140.699513403237006 -203.981909746083289
21.681999206542969 140.152630254347457 -204.528357570574940
2.859380006790161 140.653373668733479 -204.593464448835533
0.000000000000000 140.794704877572173 -205.017719007571031
1.906250000000000 141.638175835943144 -204.740371156362983
3.812500000000000 141.325935629700240 -205.052362816312097
6.671879768371582 141.790470936908406 -205.153670550338518
-0.953125000000000 142.296642418547890 -205.778805378074878
-1.800349950790405 142.131742918501772 -206.509046883020773
-0.953125000000000 142.807495740682128 -206.399283662707347
0.000000000000000 143.615997371831554 -207.287802265257795
1.906250000000000 144.476016792372064 -207.559392391153295
0.953125000000000 144.313097970844495 -208.287654794220316
1.248720049858093 144.393581340979665 -208.772687185578121
20.809000015258789 144.393581340979665 -208.772687185578121
2.859380006790161 145.450044133174060 -208.847990310687379
21.605300903320313 145.524505944866775 -209.904512733800999
21.880199432373047 146.089957461513990 -210.470414714024059
3.756439924240112 146.372694005133951 -210.753376498023954
4.960340023040771 147.503607823724735 -211.885191252358453
23.828100204467773 148.129127320639697 -212.391094637619943
5.825729846954346 148.351806669288237 -212.734065810469787
25.409500122070313 150.048182789822590 -214.431793338915725
8.578120231628418 151.138800151929729 -214.472947510888332
25.605699539184570 150.613634306469805 -214.997695319138785
26.275499343872070 151.744558910356943 -216.129520867361663
-16.203100204467773 154.656783068851382 -217.743314717983395
26.525699615478516 154.289133876454798 -218.676122953918934
26.430200576782227 155.137332722018300 -219.524997512030268
-16.203100204467773 155.925700880186326 -219.302708598650952
-15.250000000000000 156.065198395195637 -219.163322125043919
-16.203100204467773 156.704200907163056 -220.221183353200786
-15.250000000000000 156.946484646997931 -220.544587310753201
-14.296899795532227 157.375216635026703 -220.681648293563143
26.319200515747070 157.116434600876261 -221.505676030587722
9.001740455627441 157.681886117523476 -222.071578010810782
-16.203100204467773 159.061689362968252 -222.389271331403364
-14.296899795532227 158.829736797001431 -222.621039260832504
-13.343799591064453 159.068338398213115 -222.382627588856337
25.220399856567383 158.530084963086978 -222.920452568922116
-15.250000000000000 159.491461702622189 -223.090744486652255
9.531250000000000 159.528387594785585 -223.053847987864401
-14.296899795532227 160.309173210443646 -223.970082114283144
-13.343799591064453 160.297075960036722 -223.982169735159061
-12.390600204467773 160.732103483465750 -224.112940193877193
-13.343799591064453 161.487563938501665 -225.054479321839665
-12.390600204467773 162.367502230043897 -225.871596557686274
-11.437500000000000 163.035760119425305 -226.334817141264153
8.578120231628418 165.207464185540402 -228.688498481745256
20.015600204467773 165.674046365873522 -229.353234238511448
19.389799118041992 166.446535619704150 -230.843209818705475
7.625000000000000 168.127222659391464 -231.425667406267848
6.671879768371582 168.902189110606344 -232.913167760951268
17.499099731445313 168.708363256885718 -233.106839327374445
16.690299987792969 169.273836344125613 -233.672762895374262
16.203100204467773 169.485163440661552 -233.884258344380356
15.250000000000000 170.257023958712495 -234.656733760506143
6.195310115814209 170.970212464659966 -235.370490423820200
7.625000000000000 171.903593814801781 -235.003303750402807
13.630299568176270 171.535663981307181 -235.936392404043232
6.671879768371582 172.282442011741693 -236.321155349377250
7.625000000000000 173.087625789408861 -236.647515897832278
7.076230049133301 172.949314343517898 -237.351168942377655
11.550700187683105 172.949314343517898 -237.351168942377655
8.578120231628418 173.656758021995188 -237.209740092002505
8.578120231628418 173.576263619910350 -237.978617674169158
9.531250000000000 173.676631587674109 -238.079065599475399
31.453100204467773 -21.916927674434216 -39.632839424772953
42.833198547363281 -21.177487866968800 -41.721289839579811
34.312500000000000 -19.226156103949851 -43.674176119401224
23.293600082397461 -19.198377225057570 -43.701977128171571
46.221599578857422 -19.198377225057570 -43.701977128171571
31.940799713134766 -18.915647422247833 -43.984932165991246
46.703098297119141 -18.672641214029749 -44.228131963654718
39.267799377441406 -18.350187816628356 -44.550842241630583
21.932899475097656 -17.784726862846838 -45.116753666505971
42.407299041748047 -16.088346697826367 -46.814485242660041
48.876499176025391 -16.088346697826367 -46.814485242660041
26.728399276733398 -15.805616895016630 -47.097440280479717
42.983699798583984 -15.522887092206894 -47.380395318299385
20.246799468994141 -15.240155941235113 -47.663351705355105
43.145099639892578 -14.957426138425376 -47.946306743174773
19.721799850463867 -12.412855216813650 -50.492904782023899
25.734399795532227 -10.271966449876416 -52.311941374415497
20.287399291992188 -9.585554492392184 -53.322457858692701
26.687500000000000 -8.088122143361080 -53.522599531679710
27.640600204467773 -7.907197905722160 -55.002151498120213
48.308998107910156 -7.889175675533757 -55.020188085610727
48.122100830078125 -7.606444524561976 -55.303144472666446
21.921899795532227 -7.220011090936019 -55.482481125111107
22.194799423217773 -6.758253767970722 -56.152010935361503
29.487699508666992 -6.758253767970722 -56.152010935361503
31.453100204467773 -6.061750115465177 -56.849069453344725
36.226898193359375 -5.627334556731769 -57.283831086640177
44.796901702880859 -4.824663143354247 -58.087141943408412
44.308700561523438 -4.496412649168732 -58.415653936390953
33.359401702880859 -4.021061859355280 -58.506138619093605
26.295600891113281 -3.930953043549257 -58.981564012030304
34.514499664306641 -3.648224588901561 -59.264517700613922
27.640600204467773 -3.325698390749857 -59.587300837336386
33.663101196289063 -3.082762286958001 -59.830430474725361
30.500000000000000 -2.447467887520514 -60.466230977654391
33.023300170898438 -2.517302681338524 -60.396340550364698
38.125000000000000 -2.291685067148718 -60.622137901480244
39.089199066162109 -2.517302681338524 -60.396340550364698
-61.953098297119141 -1.623805591136302 -61.290549439690977
-54.328098297119141 -1.193631350189603 -61.721066376379227
-74.343803405761719 -0.658634814089661 -62.256489114276533
-72.413398742675781 -0.820923864480099 -62.094070777282724
-49.562500000000000 -0.441640044325723 -62.473656751628667
-77.203102111816406 -0.210438342954561 -62.705042638455296
-47.656200408935547 0.064939932235687 -62.980640292104866
-45.750000000000000 0.334453702539671 -63.250368768945378
-40.031200408935547 1.667880334230430 -64.584857667003689
-83.473396301269531 1.723648405293671 -64.640670165367894
-31.453100204467773 2.412378555460323 -65.329948988297986
-85.480003356933594 2.571839161884927 -65.489536628062950
-28.593799591064453 2.847500551104166 -65.765417621282623
-86.734397888183594 3.684605576513041 -65.508575556329205
-87.219497680664063 3.420027222152098 -66.338400392285919
-88.620697021484375 4.268217978743354 -67.187266854980976
-12.591300010681152 5.681868340954086 -68.602043393315384
-10.850099563598633 6.530059097545342 -69.450909856010441
-92.453102111816406 7.291465555953007 -69.821029054495284
-93.406196594238281 8.301858771770380 -70.507822172726762
-94.083396911621094 8.791900216347329 -71.714552857039891
-94.330001831054688 9.357359821966806 -72.280462932679228
-94.805702209472656 9.640090972938587 -72.563419319734948
76.250000000000000 9.780394196734736 -72.703834315256941
81.015602111816406 9.664546632395320 -72.587894461646826
81.968803405761719 9.786121189092629 -72.709565869989106
75.296897888183594 10.597029982331597 -72.172699131846116
82.921897888183594 10.120095979311952 -73.043806719231725
-95.312500000000000 10.860804366828086 -72.474597195603437
88.640602111816406 10.317229625861083 -73.241097411123789
90.546897888183594 10.304152454045742 -73.228009821457576
73.984397888183594 10.488279033205757 -73.412283083957917
91.573303222656250 10.488279033205757 -73.412283083957917
-96.265602111816406 12.000140112534858 -73.598007512059027
72.440902709960938 11.619200940768794 -74.544105933708693
95.140602111816406 11.619200940768794 -74.544105933708693
71.094497680664063 12.184660546388269 -75.110016009348030
-96.827598571777344 12.467391697360050 -75.392972396403749
-20.015600204467773 13.393983689560017 -75.032575069182002
-21.921899795532227 13.690722609182789 -75.301534837909173
-18.109399795532227 13.192932763138092 -75.798928438310810
-11.437500000000000 13.207861610406002 -76.134032200386429
-97.218803405761719 13.488465467881911 -76.069088069108091
-22.838300704956055 13.598310908599002 -76.524792547682438
98.171897888183594 13.643690042960282 -76.570207833060252
-97.724098205566406 14.163773210542562 -77.090705321793877
-26.687500000000000 14.572502683526682 -76.682301201514605
-28.593799591064453 15.272432552788384 -77.113842660522280
-29.546899795532227 15.644224076820748 -77.307809567455621
66.718803405761719 15.539108807496387 -78.467136571642300
-98.171897888183594 15.823252832289040 -78.751506958076391
-30.500000000000000 16.227299306135734 -77.856123434260084
66.245399475097656 15.860149331076904 -78.788432850239801
100.858001708984375 15.860149331076904 -78.788432850239801
-31.453100204467773 16.794383394105086 -78.420404928003705
-31.453100204467773 16.749723853586364 -79.595953881553697
-98.618896484375000 17.273799693287636 -80.203209388574194
102.291999816894531 17.273799693287636 -80.203209388574194
65.173698425292969 17.556530844259417 -80.486165775629914
-65.765602111816406 19.338529307435678 -80.967424940498219
-64.812500000000000 19.238575202523030 -81.067299480954318
103.788002014160156 19.818374659385491 -82.749811475131466
64.241600036621094 20.101100417709098 -83.032762465242996
-99.125000000000000 20.656104704708035 -83.043662448381966
-35.265598297119141 20.475509459674711 -83.224113937813257
63.970298767089844 21.797481930891614 -84.730495390633109
-36.218799591064453 23.083901855273837 -85.141486912940891
63.541698455810547 22.928401142130564 -85.862315541911798
-50.515598297119141 23.355536625832748 -86.289791300547705
-48.609401702880859 24.075113070679990 -86.412903851105284
104.844001770019531 23.892180948811429 -86.595690357194741
-53.375000000000000 24.322896818036927 -87.257922134475308
-99.533500671386719 24.342051504341295 -87.277092080246192
-47.656200408935547 24.862476134328315 -86.757081713414223
-48.142501831054688 24.624782655313076 -87.560048467301911
-38.093601226806641 24.624782655313076 -87.560048467301911
-40.984401702880859 25.107192782770831 -88.042842903908436
-56.398899078369141 25.190244957256638 -88.125961241413350
63.020301818847656 25.755701866552030 -88.691868618580600
-58.243301391601563 26.038433017523808 -88.974825005636305
105.282997131347656 26.038433017523808 -88.974825005636305
62.906200408935547 26.541054790327500 -89.477847189075405
61.000000000000000 27.484352971959993 -89.791895157426254
-99.751502990722656 27.452083379734539 -90.389601543970713
-59.510700225830078 27.452083379734539 -90.389601543970713
59.750499725341797 27.734814530706320 -90.672557931026432
62.906200408935547 29.053697078700985 -91.051101884991638
63.266300201416016 28.865733741945274 -91.804378082305107
62.906200408935547 29.789640752261576 -91.446668992344755
61.400501251220703 29.713927194860613 -92.653247243472265
63.347400665283203 30.279384104156005 -93.219154620639515
105.069999694824219 30.562115255127786 -93.502111007695234
61.953098297119141 30.932773420879780 -93.697210370744529
62.906200408935547 31.010162902124616 -93.619882492292533
-64.204803466796875 31.410303315394955 -94.350974771918189
58.140598297119141 32.157646597989554 -94.169688863205181
104.821998596191406 31.693034466366736 -94.633931158973908
-65.765602111816406 32.635442875482426 -95.577090332123944
58.140598297119141 32.845615571725240 -95.178654963281147
60.046901702880859 33.196765047122192 -94.827785006341216
59.093799591064453 33.334322537662572 -95.821251190092084
61.000000000000000 33.412416320124507 -95.743219571053743
64.812500000000000 33.183507630682115 -95.971946046914283
64.935699462890625 33.672147130521026 -96.614620471419741
-99.907302856445313 35.085797492731757 -98.029397009754149
104.194000244140625 35.651254402027149 -98.595304386921384
-69.008796691894531 35.933985552998934 -98.878260773977104
-69.898200988769531 36.782179005914273 -99.727129935144262
-70.471199035644531 37.347635915209665 -100.293037312311512
-70.914802551269531 37.913098217153227 -100.858950086422951
66.201103210449219 38.195829368125004 -101.141906473478656
79.109397888183594 38.717174177096808 -100.620976660133479
-99.797203063964844 38.761286277420396 -101.707813850645906
64.812500000000000 38.914648542059602 -101.554573663886870
81.015602111816406 39.323164835748123 -101.146382553210373
66.645401000976563 39.044017428392181 -101.990770237701625
79.109397888183594 39.494268291519404 -101.540877778716663
63.859401702880859 39.460514539641089 -102.140067143508205
81.015602111816406 39.917630315780862 -101.683315236049367
61.000000000000000 39.926601472600524 -102.239813701593022
66.718803405761719 39.786750457746635 -102.379553393655272
60.046901702880859 40.375493745659469 -102.356730447159165
67.671897888183594 40.172047838916129 -102.560014408947637
78.156196594238281 40.260471372562037 -102.471661261309464
102.572998046875000 39.892205488659343 -102.839634001924594
61.000000000000000 40.308845618929354 -102.988788002554628
66.718803405761719 40.769426233240551 -102.528574014969834
68.547698974609375 40.174936639631127 -103.122590388980299
59.093799591064453 40.623691286317140 -103.239655436667164
78.156196594238281 40.841779102654058 -103.021741220390027
-99.538902282714844 40.740398941574689 -103.688503163091738
62.906200408935547 40.872467562903353 -103.556539669692469
69.783798217773438 40.740398941574689 -103.688503163091738
-73.390602111816406 41.119254046199444 -104.067660080374395
63.859401702880859 41.409505422686266 -103.585391778593618
79.109397888183594 41.341808853210722 -103.653034460930002
101.633003234863281 41.023130092546467 -103.971459550147458
56.234401702880859 41.630616967639000 -103.929907936552510
76.250000000000000 41.978298906392425 -103.582502756062624
78.156196594238281 41.615975058045422 -103.944538191041175
81.015602111816406 41.638326502417641 -103.922204538639832
61.000000000000000 41.683942910302711 -104.442086923100533
62.906200408935547 41.986776242818500 -104.139494648913939
56.234401702880859 41.932719186888917 -104.758971156125824
61.953098297119141 42.292142177732600 -104.399834269539326
71.484397888183594 42.113054392387390 -105.062252131676630
78.156196594238281 42.067051826306241 -104.624745446818707
79.109397888183594 41.965328188383481 -104.914408242473996
81.968803405761719 42.217229893872016 -104.474686922480714
100.817001342773438 41.871318152813643 -104.820323314370427
-73.943496704101563 42.154049303785420 -105.103279701426146
54.328098297119141 42.447756403672109 -104.809806395297173
81.015602111816406 42.215803837705295 -105.041574324726326
100.078002929687500 42.265725654764360 -105.215045018703549
-63.859401702880859 42.460810095008405 -105.410284871802546
59.093799591064453 42.508721720839958 -105.314352088358760
-66.251899719238281 42.719506213080813 -105.669187078593382
-66.718803405761719 42.916003527145733 -105.865840931070764
60.046901702880859 43.089115936087374 -105.299871568583612
72.256500244140625 42.719506213080813 -105.669187078593382
99.551399230957031 42.719506213080813 -105.669187078593382
-65.765602111816406 43.873869572922722 -105.646667565875717
59.093799591064453 43.650546720719319 -105.869812650878984
75.296897888183594 43.786789878380695 -105.733677944119236
76.250000000000000 43.643614345904368 -105.876739507455000
51.468799591064453 43.863600623696996 -106.222390822149961
-67.840103149414063 43.850430816967936 -106.801012626816259
-98.860397338867188 44.133156575291544 -107.083963616927790
-75.408798217773438 44.133156575291544 -107.083963616927790
-67.671897888183594 44.133156575291544 -107.083963616927790
-65.765602111816406 44.309650142738754 -106.907610540106660
56.234401702880859 44.160602734981254 -107.056539304652759
-63.859401702880859 44.886795393286405 -106.896387184122986
-61.230098724365234 44.415887726263321 -107.366920003983509
57.187500000000000 45.047090032740556 -106.736220140787935
82.921897888183594 44.452644016198732 -107.403705575597911
-75.736000061035156 44.698618877235106 -107.649876391039228
49.562500000000000 44.851201283438527 -107.497415441940930
56.234401702880859 45.063700564064362 -107.285085312845155
-69.808197021484375 44.981350028206883 -107.932832778094948
84.731002807617188 44.981350028206883 -107.932832778094948
-70.778396606445313 45.264081179178667 -108.215789165150653
85.781196594238281 45.389891661014509 -108.341699873155960
-60.364601135253906 45.546806937502275 -108.498740155262183
-72.624603271484375 45.829538088474052 -108.781696542317903
-69.873596191406250 45.829538088474052 -108.781696542317903
-62.906200408935547 45.906571371402201 -108.704724578645212
-77.027801513671875 46.112269239445837 -109.064652929373622
-72.437500000000000 46.682280992671295 -108.495094911143980
-73.303001403808594 46.395000390417614 -109.347609316429342
-59.699600219726563 46.395000390417614 -109.347609316429342
-70.531196594238281 46.898223696363964 -109.410249062447605
-70.531196594238281 47.435810785850549 -110.004004074771331
-72.875602722167969 47.808650752628346 -110.762385854763735
-58.884700775146484 47.808650752628346 -110.762385854763735
-61.008098602294922 48.091381903600130 -111.045342241819455
-79.524803161621094 48.656838812895522 -111.611249618986704
-70.531196594238281 49.308201404402929 -110.960405518547333
50.515598297119141 49.287544600507076 -110.981045879422894
-78.579902648925781 48.939569963867299 -111.894206006042424
-72.002296447753906 49.222301114839084 -112.177162393098143
42.440101623535156 49.222301114839084 -112.177162393098143
-57.734798431396484 49.505032265810861 -112.460118780153863
-97.695297241210938 49.787758024134469 -112.743069770265379
41.685699462890625 49.787758024134469 -112.743069770265379
-78.285003662109375 50.070489175106253 -113.026026157321098
-59.816898345947266 50.070489175106253 -113.026026157321098
48.609401702880859 50.713008873554649 -112.384017910910373
-79.109397888183594 50.776378529360144 -112.886161179211655
-97.218803405761719 50.809120195125800 -113.765245603334222
-83.875000000000000 50.830329480383419 -113.786471784842362
-78.637298583984375 50.918682628021593 -113.874895318488257
-56.943698883056641 50.918682628021593 -113.874895318488257
40.111598968505859 50.918682628021593 -113.874895318488257
47.240501403808594 50.918682628021593 -113.874895318488257
-82.921897888183594 51.353637292704029 -114.005738577956706
-68.689598083496094 51.201408386345200 -114.157846308599787
-57.187500000000000 51.783730569273189 -113.575987659891453
-80.062500000000000 51.979875846096533 -113.945460997883032
-85.781196594238281 51.918835513755297 -114.875844970048959
-70.362503051757813 51.766870688288762 -114.723759082711226
-58.992401123046875 51.766870688288762 -114.723759082711226
46.302898406982422 51.766870688288762 -114.723759082711226
-96.984001159667969 52.049601839260546 -115.006715469766945
-81.968803405761719 52.410228348659096 -114.646376022638250
-81.015602111816406 52.513153471349590 -114.543532829363869
-80.062500000000000 52.193790466064094 -115.151018963579446
38.448299407958984 52.049601839260546 -115.006715469766945
-86.120697021484375 52.332332990232324 -115.289671856822665
-67.972602844238281 52.332332990232324 -115.289671856822665
37.378799438476563 52.897789899527716 -115.855579233989900
44.714298248291016 52.897789899527716 -115.855579233989900
43.843799591064453 53.655505501425402 -116.613898465499403
-88.125198364257813 53.745983352443055 -116.704448395157058
-55.795799255371094 53.745983352443055 -116.704448395157058
-56.234401702880859 54.256787929407380 -116.194050423690385
-69.024696350097656 54.028709110766670 -116.987399385268589
-66.742202758789063 54.028709110766670 -116.987399385268589
-89.344299316406250 54.311440261738447 -117.270355772324308
35.563999176025391 54.311440261738447 -117.270355772324308
42.890598297119141 54.493097008036017 -117.452157234384586
-95.839202880859375 54.594171412710224 -117.553312159380013
-68.385597229003906 54.876902563682009 -117.836268546435733
-57.941699981689453 54.876902563682009 -117.836268546435733
-67.671897888183594 55.660066072299941 -118.620055957588505
-65.246200561523438 55.725090623949178 -118.685132310658702
33.852600097656250 55.725090623949178 -118.685132310658702
41.422500610351563 56.007821774920963 -118.968088697714421
-58.140598297119141 56.638798845314263 -118.903076372546366
-67.020599365234375 56.573284076864518 -119.534001471825860
40.031200408935547 57.007273616392396 -119.968336746530127
-63.778400421142578 57.138740986159910 -120.099908848993095
-54.929698944091797 57.138740986159910 -120.099908848993095
32.406200408935547 57.217905061314227 -120.179135989735386
-66.242202758789063 57.421472137131694 -120.382865236048815
-62.906200408935547 57.950386160333132 -119.854372233643431
31.950899124145508 57.421472137131694 -120.382865236048815
-65.358901977539063 58.269660197398863 -121.231729000271770
-61.000000000000000 58.931139360794653 -120.570776380835355
-59.093799591064453 58.688009723405678 -120.813712484627217
-58.140598297119141 58.386379909444756 -121.115102198271614
-61.953098297119141 58.615349400845389 -121.451777450085501
-61.000000000000000 58.903324945999906 -121.164031136314435
38.184101104736328 58.552391348370641 -121.514685387327489
-64.589599609375000 58.835122499342425 -121.797641774383209
-54.872798919677734 58.835122499342425 -121.797641774383209
-61.000000000000000 59.254021255052905 -121.944528162161220
30.307600021362305 59.117848257666033 -122.080592764494753
-56.234401702880859 60.636155980388750 -122.259891858743799
29.603200912475586 59.966047103229549 -122.929467322606087
-63.170101165771484 60.248772861553157 -123.212418312717631
28.974199295043945 60.531498619876764 -123.495369302829147
35.831298828125000 60.531498619876764 -123.495369302829147
-61.953098297119141 61.090539816835481 -123.502246374728372
-56.234401702880859 61.246589759682429 -123.346320649180029
-59.093799591064453 61.976804576982950 -123.747612052566950
-56.234401702880859 61.837076433241535 -124.452680667257312
28.593799591064453 62.012649821703967 -124.277247036949376
33.809600830078125 61.945148982087495 -124.910145841163541
-58.140598297119141 62.360661146725299 -125.060437694853732
32.406200408935547 62.787003547080836 -124.634434667267527
27.605300903320313 62.793347827651012 -125.759020399274903
28.593799591064453 63.551649609724002 -125.566773928857742
31.453100204467773 63.460821737440455 -125.657529501256221
29.546899795532227 63.859133849529577 -125.824986145483535
28.593799591064453 64.285808334625131 -126.529576259967484
29.546899795532227 64.232470335173076 -126.582871801844192
27.640600204467773 64.387943106600716 -127.354886003036199
3.812500000000000 136.649504098761042 -199.674013736467032
-0.953125000000000 137.948422755082220 -199.945282294655215
6.032710075378418 137.999542783143397 -201.025127921109600
-0.953125000000000 139.203846766068352 -200.952707538539016
-0.953125000000000 139.320265689107629 -201.401832982048404
18.109399795532227 139.682089052920873 -201.605770899746432
19.062500000000000 139.190541487658550 -202.217075427634171
1.906250000000000 140.135570723785463 -203.162857515661642
2.859380006790161 140.162426111678428 -203.189734297739079
4.136569976806641 139.978655447297712 -203.005817233555433
20.794700622558594 139.978655447297712 -203.005817233555433
10.484399795532227 141.331139369833352 -203.350786560006270
11.437500000000000 141.159810677978129 -203.521978872527484
13.343799591064453 141.196383070296946 -203.485435592194847
9.531250000000000 142.047629758052949 -203.765791467692765
12.390600204467773 141.938038150681109 -204.440747534994699
7.625000000000000 142.493827688763986 -204.450873677417093
22.100200653076172 141.957768111451998 -204.986506546001266
0.953125000000000 142.664572252042490 -204.845716724434425
4.765620231628418 142.684945716368247 -204.825359477587853
12.390600204467773 142.815740658867554 -204.694668649156995
21.994600296020508 142.523219628099213 -205.552408526224326
0.000000000000000 142.972333167278009 -205.669125752400163
21.533800125122070 143.654144231986351 -206.684234074447204
20.968799591064453 144.851729019391911 -206.618527538849861
2.859380006790161 145.166702950540355 -207.434729292534684
4.765620231628418 146.383352624569312 -208.480876438020317
21.625900268554688 145.915982654464244 -208.947874377004553
5.718750000000000 147.187401776760112 -209.373843975312042
21.921899795532227 146.880802909379753 -209.913463250217603
22.510499954223633 147.612369560294923 -210.645612699338869
8.578120231628418 149.411835237645448 -211.109407768808467
7.824160099029541 149.591471439152883 -212.626291217896323
23.828100204467773 150.412522215561182 -212.936840539097233
8.450469970703125 150.439670284716385 -213.475165776007657
24.998199462890625 151.005121801363600 -214.041067756230717
-16.203100204467773 151.888419509401302 -213.723924857842746
-17.156200408935547 152.709949355238791 -214.599447186892462
10.484399795532227 152.779132782839298 -214.530318829984878
-15.250000000000000 153.237557499209942 -215.203162416092482
-16.203100204467773 153.298536295850198 -215.707726996310726
9.662449836730957 152.984245250814240 -216.021767862564928
26.410499572753906 153.266971009137848 -216.304718852676473
26.523500442504883 154.115148284108670 -217.153571823011049
-16.203100204467773 154.506619752250032 -217.327906807164908
-15.250000000000000 154.642579570341326 -217.192055214434134
-19.062500000000000 155.470684169993007 -217.495513186105768
-17.156200408935547 155.483187631082501 -218.048471373828932
10.131400108337402 155.811545975235703 -218.851320939233744
-17.156200408935547 156.238720944865008 -218.989937701041072
-19.062500000000000 157.324456770950263 -219.035969523284621
-18.109399795532227 156.957532027679349 -219.402602190829185
10.484399795532227 157.719147697566513 -220.337991003552304
-18.109399795532227 158.459678782282566 -220.728952780775103
10.069499969482422 159.204298216304380 -222.246775996125592
-17.156200408935547 159.802518538218834 -222.214483559440708
9.797439575195313 161.748873182402235 -224.793378082682864
-11.454199790954590 162.031598940725843 -225.076329072794380
22.875000000000000 162.229383453011508 -224.878701998937572
-10.484399795532227 162.951539201356866 -224.722572789647558
-13.270400047302246 162.597050457373086 -225.642231053017440
9.710940361022949 162.597050457373086 -225.642231053017440
-10.484399795532227 163.558571638613444 -226.377873481152420
-11.437500000000000 164.081651746407289 -226.986113142168165
-12.390600204467773 164.852919669718091 -226.780953992888982
-10.484399795532227 164.624347030683765 -227.574796381774860
9.340620040893555 164.576173906823698 -227.622931159351651
-9.531250000000000 165.322080347955250 -228.008521858995863
-10.484399795532227 165.728881853258798 -228.167495867649791
-9.531250000000000 166.621786286038855 -228.971700424634378
-7.625000000000000 166.756332104751749 -228.837261705724472
-9.531250000000000 167.439350653683050 -229.285690238184486
-7.625000000000000 167.766505479281363 -230.089742364131467
-6.671879768371582 168.244541250978472 -230.177538809572724
8.578120231628418 168.023342096314735 -230.398561887520600
18.712999343872070 167.968926147892404 -231.018386216243499
18.109399795532227 168.326588145204028 -231.376333142850598
