# This PCD file was generated using the MATLAB® pcwrite function
# from Computer Vision Toolbox®.
# .PCD v.7 - Point Cloud Data file format
VERSION .7
FIELDS x y z
SIZE 8 8 8
TYPE F F F
COUNT 1 1 1
WIDTH 796
HEIGHT 1
VIEWPOINT 0 0 0 1 0 0 0
POINTS 796
DATA ascii
41.937500000000000 137.661162395092049 -218.327048680236629
43.843799591064453 137.333643439840870 -218.654306927158643
-93.406196594238281 137.493864299804045 -219.397547171470308
-91.846603393554688 137.324923417894354 -219.228471703815359
-73.390602111816406 137.971687812949938 -218.582222139617926
-72.437500000000000 137.780198836064557 -218.773558689382924
45.750000000000000 137.521436949822714 -219.032114598602874
46.703098297119141 137.582271304757796 -218.971328668416277
-73.693901062011719 137.607659961514287 -219.511433487815253
22.875000000000000 138.255201516533589 -218.864407382281172
-167.444000244140625 137.890385719837894 -219.794384477926798
-74.343803405761719 137.956833930604347 -219.860885624263744
42.890598297119141 138.215357317430318 -219.469671560941634
45.750000000000000 138.215923996570496 -219.469105332883657
-76.250000000000000 138.279853556063728 -220.184162581379809
40.984401702880859 138.584045594256111 -219.666750030165815
-99.125000000000000 138.663659111709705 -220.568273893430955
-77.994201660156250 138.455848021781463 -220.360297252038237
-13.800499916076660 138.455848021781463 -220.360297252038237
-132.483993530273438 138.882061362646368 -220.786850133217257
-124.859001159667969 139.011409421682572 -220.916301236612696
43.843799591064453 139.267981623700109 -220.114261812436695
-81.015602111816406 139.185289969317154 -221.090320305147742
22.875000000000000 139.388513009621846 -220.559299637224285
40.984401702880859 139.498232885050385 -220.449667099902257
-134.893997192382813 139.304036082048640 -221.209161016261191
-82.921897888183594 139.935662048644957 -220.578037830184172
-141.061996459960938 139.724597927630043 -221.630057899926754
-136.296997070312500 139.788921435016988 -221.694432650251969
-134.841995239257813 139.586772625668573 -221.492122800261086
-122.000000000000000 139.679364394769379 -221.584788332042109
-118.188003540039063 139.656747628339048 -221.562153548099786
-84.964302062988281 139.869498383992180 -221.775073790372630
-115.546997070312500 140.152224142315788 -222.058024780484146
-116.280998229980469 140.814553324421865 -221.396222818960752
-14.585900306701660 140.152224142315788 -222.058024780484146
-110.561996459960938 141.082210814560710 -221.694230082766495
-89.593803405761719 140.655487640251863 -222.561689200282132
23.520999908447266 140.434949900639424 -222.340975770595691
-114.375000000000000 140.825830610686126 -222.732167873427073
-167.501998901367188 141.000422987879318 -222.906899338595508
-112.469001770019531 141.117072539650707 -222.790342641021567
-91.834396362304688 141.000422987879318 -222.906899338595508
-92.453102111816406 141.240740960984027 -223.147408759579122
-95.312500000000000 141.545382441475681 -223.452292930887978
-97.218803405761719 142.076213156863332 -223.983546529396762
23.828100204467773 142.148956397981692 -223.455635260254098
-167.572998046875000 142.696799108413643 -224.604626867041418
-102.938003540039063 142.975297030570999 -224.883346652906226
-113.421997070312500 144.200357163923172 -225.929567279490556
-141.061996459960938 144.670961321546713 -226.580361784718775
-123.905998229980469 144.596046653151376 -226.505387435999978
-142.016006469726563 144.926119862418773 -226.835723596119493
-135.343994140625000 144.943095918861957 -226.852713176436708
-15.250000000000000 144.854030941665172 -226.763577246157439
23.990400314331055 144.675900987271604 -226.585305385598872
-167.705993652343750 144.958648316187890 -226.868277963487174
-139.156005859375000 145.295790022933858 -226.531404624875790
-136.296997070312500 145.225403076778463 -226.601735542325571
-142.968994140625000 145.777144455624040 -227.687426152987570
-134.229995727539063 145.806825591158741 -227.717130933821750
-133.438003540039063 146.048567223380644 -227.959065148072142
-14.958100318908691 145.806825591158741 -227.717130933821750
-128.671997070312500 146.220312282339421 -228.130947026707076
-144.227005004882813 146.655024436722243 -228.566005491933112
-144.875000000000000 146.891804832626576 -228.802974517526621
23.828100204467773 147.650072711072937 -228.702652677722654
-145.139007568359375 147.785949040609353 -229.697831040155961
23.464799880981445 148.068674798932989 -229.980782030267505
-167.858001708984375 148.634126315580204 -230.546684010490537
-167.750000000000000 149.684463185195796 -231.597857624704375
-145.194000244140625 150.330502436114529 -232.244411538936475
-14.229900360107422 150.613249765030815 -232.527384116824777
-13.916399955749512 151.461427040001666 -233.376237087159353
-167.878997802734375 151.744152798325274 -233.659188077270869
-145.242004394531250 152.026900127241561 -233.942160655159171
-13.343799591064453 152.082034562144685 -233.997339012580795
21.921899795532227 152.155217872356616 -233.813945052238921
-168.132995605468750 153.157803160535991 -235.073964615605263
-12.281599998474121 153.440550489452306 -235.356937193493565
21.208599090576172 153.440550489452306 -235.356937193493565
-168.011001586914063 154.288727764423129 -236.205790163828141
20.714300155639648 154.288727764423129 -236.205790163828141
-168.261001586914063 155.702378126633846 -237.620566702162535
19.710500717163086 155.985103884957454 -237.903517692274079
20.015600204467773 156.578740761384523 -237.310353356674682
-168.235992431640625 156.550576972197376 -238.469441260273896
-9.956009864807129 156.833302730520984 -238.752392250385412
-9.531250000000000 157.090596760068848 -239.009891251686270
18.632400512695313 156.833302730520984 -238.752392250385412
-168.235992431640625 157.398754247168199 -239.318294230608473
-145.365005493164063 157.398754247168199 -239.318294230608473
-159.171997070312500 158.300746952703804 -238.982514357324675
-145.317993164062500 158.246953092731701 -240.167168788719806
-160.125000000000000 159.188327317222274 -239.791995603360760
-158.218994140625000 159.160317176864481 -239.819983447369680
16.857599258422852 158.529678851055309 -240.450119778831350
-144.207992553710938 159.095151938295231 -241.016043346831168
-168.279006958007813 159.377877696618839 -241.298994336942684
-159.171997070312500 160.257850887034124 -240.985173309828241
-143.169006347656250 159.660603454942446 -241.581945327054228
-134.391006469726563 159.898807509964001 -241.820339145914488
-133.438003540039063 159.734116034813269 -241.655516470283033
-129.625000000000000 159.679693429468756 -241.601050509494797
-126.765998840332031 159.662717373025572 -241.584060929177582
-142.968994140625000 160.084702877724197 -242.006382606109895
-168.201004028320313 160.226054971589662 -242.147847307277260
-135.192993164062500 160.226054971589662 -242.147847307277260
15.060099601745605 160.226054971589662 -242.147847307277260
-155.358993530273438 161.179264677509735 -241.760891202848057
-142.016006469726563 160.600671454751790 -242.522762226424817
-141.061996459960938 160.736393623926432 -242.658592517855482
-7.088870048522949 160.508802300505948 -242.430819885165562
-137.250000000000000 160.811308292321797 -242.733566866574279
13.862600326538086 160.791528058829556 -242.713770875277106
-160.125000000000000 161.642001552289969 -242.429426063066813
-159.171997070312500 161.587249553459571 -242.484134478764418
-124.902000427246094 161.074253817153163 -242.996721865388622
-123.905998229980469 161.203612661485721 -243.126183762672412
-120.094001770019531 161.298307563373299 -243.220954102688410
-6.671879768371582 161.235606257669019 -242.835497863011994
-116.280998229980469 161.475725688208257 -243.398513566613587
-81.968803405761719 161.595183630498354 -243.518066674360426
-77.203102111816406 161.508254141977403 -243.431067933981268
-73.390602111816406 161.494103833175956 -243.416906352420796
-68.625000000000000 161.425552489622703 -243.348300397848845
-101.984001159667969 161.813585881434989 -243.736642914146728
-99.125000000000000 161.733019717756122 -243.656012567914445
-93.406196594238281 161.694149509737571 -243.617111394176675
-86.162498474121094 161.639705333800379 -243.562623845611682
-73.390602111816406 162.014976451264630 -243.187651447670220
-69.578102111816406 162.142937998062990 -243.059791759529304
-60.046901702880859 162.115920895436545 -243.086787356274698
-54.328098297119141 161.910847810019277 -243.291697201486812
-5.718750000000000 161.909014183473857 -243.832147238572873
-167.600997924804688 161.922452662716694 -243.845596423499956
-159.171997070312500 162.471953329539474 -243.296533164645240
-157.266006469726563 162.474144488881535 -243.294343749487723
-113.421997070312500 161.964860447935592 -243.888037992627858
-107.703002929687500 161.928815987558778 -243.851964817646831
-63.859401702880859 162.568439897808616 -243.200123400639200
-53.375000000000000 162.418259131770725 -243.350184621301281
-49.562500000000000 162.290222027753686 -243.478119806516588
-44.796901702880859 161.995253413028905 -243.918455170095399
-52.421901702880859 162.767906998078303 -243.566266774088973
-46.703098297119141 162.596505447476488 -243.737531887360518
-44.796901702880859 162.443637003230862 -243.890278646811879
-42.890598297119141 162.294243398237086 -244.217683343890769
-167.305999755859375 162.487904179363909 -244.411498403723016
-166.796997070312500 163.150157804251279 -243.749771939274041
-38.125000000000000 162.752963622278429 -244.676769004660713
-13.343799591064453 162.651883824956030 -244.575608682721111
-5.581009864807129 162.487904179363909 -244.411498403723016
-5.718750000000000 162.770629937687517 -244.694449393834532
-55.281200408935547 163.439958956410948 -244.025653167633010
-42.890598297119141 163.096734893560324 -244.368604020733414
-33.359401702880859 162.890087879977585 -244.814002501581371
-27.640600204467773 162.852619760483577 -244.776504533333593
-20.015600204467773 162.864634580609192 -244.788528924993926
-15.250000000000000 163.040358414528015 -244.424935623530558
-8.578120231628418 163.070349233404386 -244.394968677642794
-48.609401702880859 163.606180880456350 -244.425015253817861
-42.890598297119141 163.483869934227272 -244.547228839323452
-39.078098297119141 163.392548241550145 -244.638477839029605
-30.500000000000000 163.287923081439089 -244.743019716477932
-26.687500000000000 163.191155872071960 -244.839709898188914
-12.390600204467773 163.314168421046020 -244.716795268421038
-166.436004638671875 163.336103024927411 -245.260372961834378
-39.078098297119141 163.689797159511016 -244.906960371281684
-33.359401702880859 163.585101839125457 -245.011572353156254
-29.546899795532227 163.611697980104907 -244.984997382968203
-23.828100204467773 163.547679428096387 -245.048964975575871
-17.156200408935547 163.645795873511560 -244.950926631822085
-15.250000000000000 163.799937996586550 -244.796907207402313
-9.531250000000000 163.708967105281914 -244.887805684977309
-7.625000000000000 163.756573550001775 -244.840237135458494
-5.718750000000000 163.729761531254667 -244.867027811573394
9.861660003662109 163.336103024927411 -245.260372961834378
-53.375000000000000 164.291061357949872 -244.871626481028215
-47.656200408935547 164.124538644897882 -245.038016640352907
-42.890598297119141 164.006194452650107 -245.156266629452631
-33.359401702880859 163.806145922275817 -245.356155919217287
-29.546899795532227 163.832882383804247 -245.329440740176778
-23.828100204467773 163.814208956899023 -245.348099302849391
9.272000312805176 163.618828783251018 -245.543323951945894
-54.328098297119141 164.490879259592077 -245.237419332346860
-48.609401702880859 164.308726996159294 -245.419426600775580
-43.843799591064453 164.126364251902999 -245.601644182482971
-41.937500000000000 163.987793771129674 -245.912582873579964
-29.546899795532227 163.931947506667939 -245.856692119524979
-23.741500854492188 163.901554541574626 -245.826274942057410
-20.968799591064453 164.112191379144633 -246.037079582206900
-20.968799591064453 164.115187180480859 -245.612812356845666
-19.062500000000000 164.068498216273639 -245.659464156175375
-16.203100204467773 164.265011748202028 -245.463107050962890
-14.296899795532227 164.404576725013726 -245.323653169253731
-12.390600204467773 164.249587281700570 -245.478519239436395
-7.625000000000000 164.317000511606011 -245.411159671129013
-57.187500000000000 164.695581395728254 -245.598331837070504
-52.421901702880859 164.614157698699728 -245.679690720030550
-48.609401702880859 164.245778059643470 -246.170772683737425
-17.056999206542969 164.184280299898234 -246.109225932168954
7.625000000000000 164.344743938882715 -246.269817403553645
-164.772994995117188 164.467006058221841 -246.392176922280498
-163.938003540039063 164.743390062296044 -246.668781106021925
-68.625000000000000 164.744792150820587 -246.670184311511889
-61.000000000000000 164.970735241350127 -245.888848712566357
-60.046901702880859 164.640196346890519 -246.565505181958940
-54.328098297119141 164.580681893743304 -246.278591573848928
-12.390600204467773 164.481868196581900 -246.407050900474303
-8.578120231628418 164.599190650196135 -246.524466818321002
-6.671879768371582 164.791486533892794 -246.067954736278921
-3.812500000000000 164.673415059625569 -246.598750358183224
6.671879768371582 164.616856965605251 -246.542147207494850
-80.062500000000000 164.959678395149552 -246.885241743684844
-75.296897888183594 164.909483625971319 -246.835006987143345
-75.296897888183594 165.384067031942209 -246.041340775302444
-15.250000000000000 165.175599268627991 -246.249642596214301
-0.953125000000000 164.920096357572390 -246.845628173313685
2.859380006790161 164.948353833989870 -246.873908160881115
-91.500000000000000 165.614231950777480 -246.376810765954019
-87.687500000000000 165.052971208512616 -246.978608878210878
-163.317001342773438 165.315204903785371 -247.241051480391832
-162.031005859375000 165.590877078300963 -247.516943267499869
-114.375000000000000 165.575324680975001 -247.501378480449432
-109.609001159667969 165.597218832550368 -247.523290073869987
-105.796997070312500 165.566825867457055 -247.492872896402446
-97.218803405761719 165.527955659438504 -247.453971722664676
-94.359397888183594 165.491911199061718 -247.417898547683592
-89.593803405761719 165.359036348121492 -247.284917842786456
-141.061996459960938 165.879966161466655 -247.806262651758288
-123.905998229980469 165.834711058013312 -247.760971496096886
-118.188003540039063 165.850263455339274 -247.776536283147323
-142.016006469726563 166.061612122467892 -247.988053319930145
-138.203002929687500 166.154904935830956 -248.081420454456179
-136.296997070312500 166.150677099664676 -248.077189250209472
-116.280998229980469 165.929427530493598 -247.855763423889641
-161.266006469726563 166.163403749348873 -248.089926038503165
-142.942993164062500 166.446129507672481 -248.372877028614710
-135.518005371093750 166.446129507672481 -248.372877028614710
-159.421005249023438 166.728855265996089 -248.655828018726197
-159.300003051757813 167.011581024319696 -248.938779008837741
-143.358001708984375 167.011581024319696 -248.938779008837741
-135.117996215820313 167.011581024319696 -248.938779008837741
-133.438003540039063 167.277352296792827 -249.204762006408828
-125.137001037597656 167.011581024319696 -248.938779008837741
-126.765998840332031 167.435680447101475 -249.363216287893408
-157.356002807617188 167.577054111559619 -249.504702576837587
-144.524993896484375 167.577054111559619 -249.504702576837587
-156.503005981445313 168.142505628206834 -250.070604557060619
-145.378005981445313 168.425231386530442 -250.353555547172164
-154.054992675781250 169.273430232093943 -251.202430105283497
-145.546997070312500 169.838881748741159 -251.768332085506529
-154.005004882812500 170.404354835981081 -252.334255653506375
-145.602005004882813 170.687080594304689 -252.617206643617862
-145.024993896484375 171.252532110951904 -253.183108623840951
-144.304992675781250 171.535257869275512 -253.466059613952496
-155.731994628906250 172.100730956515406 -254.031983181952285
-143.718002319335938 172.100730956515406 -254.031983181952285
-143.889999389648438 172.383456714839014 -254.314934172063829
-155.835998535156250 173.231655560402544 -255.163808730175163
-143.847000122070313 173.797107077049759 -255.729710710398194
-155.912002563476563 174.362558593696974 -256.295612690621283
-144.039993286132813 175.210757439260504 -257.144487248732617
-144.046997070312500 178.320783922005575 -260.256991315512948
-144.375000000000000 179.451708525892684 -261.388816863735826
-149.641006469726563 180.257032624108859 -261.715037203338397
-146.733993530273438 180.299907371456186 -262.237691421847160
34.312500000000000 -31.720612098932840 -48.699699815497247
36.218799591064453 -31.731921156229021 -48.688381748908064
31.453100204467773 -31.472728240443836 -48.947781149182617
38.125000000000000 -31.495912583094189 -48.924578336864066
29.167299270629883 -30.790641832824193 -49.630410936867847
41.302101135253906 -30.790641832824193 -49.630410936867847
27.924900054931641 -30.507912030014460 -49.913365974687515
26.687500000000000 -29.289961197470369 -49.827305561037726
26.032600402832031 -29.659721947504224 -50.762231762764550
24.111200332641602 -28.528802062184248 -51.894052588661253
35.265598297119141 -28.335343505363845 -52.087665263086294
45.722301483154297 -28.528802062184248 -51.894052588661253
33.359401702880859 -28.102869139024257 -52.320324828742294
31.453100204467773 -27.689022488578139 -52.734501167652446
39.078098297119141 -27.773347328032365 -52.650109151318162
23.119400024414063 -27.680611305592990 -52.742919051356317
30.500000000000000 -27.424457821133345 -52.999276598960506
39.078098297119141 -27.022459358291727 -52.085290999517497
30.247200012207031 -27.115151699973516 -53.308829126995654
29.546899795532227 -26.838640968667299 -53.585560138925608
22.250499725341797 -26.832420549001739 -53.591785514051374
41.263500213623047 -26.832420549001739 -53.591785514051374
21.921899795532227 -26.178890909773081 -54.245835783766523
28.757400512695313 -26.266960943382259 -54.157695589690718
21.366300582885742 -25.701501337762785 -54.723605665330055
42.958400726318359 -25.701501337762785 -54.723605665330055
20.968799591064453 -24.669889090759909 -55.756039740072325
20.599300384521484 -24.287850975552054 -56.138382203664449
27.093500137329102 -24.287850975552054 -56.138382203664449
26.687500000000000 -24.011128582805114 -56.415325045653958
49.269699096679688 -24.287850975552054 -56.138382203664449
20.345199584960938 -23.722390021770536 -56.704293628539844
44.518901824951172 -23.439660218960796 -56.987248666359520
26.146099090576172 -22.308739659559805 -58.119070166874238
49.735801696777344 -22.026009856750065 -58.402025204693913
44.947399139404297 -21.743280053940328 -58.684980242513589
49.972000122070313 -21.460550251130588 -58.967935280333251
20.094200134277344 -21.177819100158811 -59.250891667388970
25.962699890136719 -21.177819100158811 -59.250891667388970
49.762699127197266 -20.329629691729597 -60.099756780847983
44.630100250244141 -20.046899888919857 -60.382711818667659
26.349199295043945 -19.481438935138339 -60.948623243543040
20.314800262451172 -19.198709132328602 -61.231578281362715
26.687500000000000 -18.423816597843359 -62.007088129360596
49.319499969482422 -18.633249526709125 -61.797488357002052
20.584800720214844 -18.350518375737344 -62.080444744057772
21.110700607299805 -17.502327619146090 -62.929311206752828
27.640600204467773 -17.281797968505881 -63.150016541022993
48.792999267578125 -17.219599164498394 -63.212264895336446
28.207799911499023 -16.936868013526613 -63.495221282392166
48.609401702880859 -16.723591572937096 -63.282114611959727
21.597299575805664 -16.654139558878917 -63.778174970975797
21.921899795532227 -16.464285987361009 -63.968179788208303
28.593799591064453 -16.451421825148433 -63.981054198578931
48.262298583984375 -16.371408407907136 -64.061131358031517
29.546899795532227 -15.841925854562323 -64.591035720492229
22.239599227905273 -15.805948802287663 -64.627041433670854
41.036800384521484 -15.805948802287663 -64.627041433670854
22.875000000000000 -15.371320233951490 -65.062016246261905
23.133899688720703 -14.957758045696405 -65.475907896365911
31.896999359130859 -14.957758045696405 -65.475907896365911
38.917198181152344 -14.957758045696405 -65.475907896365911
46.849098205566406 -14.957758045696405 -65.475907896365911
23.828100204467773 -14.485386332809480 -65.948655921358551
33.334899902343750 -14.392298440076932 -66.041817972005248
36.330101013183594 -14.392298440076932 -66.041817972005248
24.166700363159180 -14.109567289105151 -66.324774359060967
33.712600708007813 -14.109567289105151 -66.324774359060967
35.406101226806641 -13.826838834457455 -66.607728047644585
25.100700378417969 -13.544107683485674 -66.890684434700304
33.784599304199219 -13.261376532513893 -67.173640821756024
26.078800201416016 -12.978648077866197 -67.456594510339656
44.190299987792969 -12.978648077866197 -67.456594510339656
26.687500000000000 -12.021709070621196 -67.065879717247000
28.593799591064453 -11.936575441573090 -68.499497307578835
35.277801513671875 -12.130457321274942 -68.305460973034712
33.786701202392578 -11.847726170303162 -68.588417360090432
35.137500762939453 -11.564997715655466 -68.871371048674050
31.453100204467773 -11.241058643682887 -69.195568184774885
35.431598663330078 -11.282266564683685 -69.154327435729769
36.218799591064453 -11.032616613918591 -69.404176268638096
38.125000000000000 -11.076793187737678 -69.359964501815156
-59.093799591064453 -5.556404039546418 -73.611309667477343
-65.765602111816406 -5.549065456196898 -74.169434014296613
-61.953098297119141 -5.704475861157063 -74.324720711036647
-58.140598297119141 -5.745719308674273 -74.365931328361540
-54.328098297119141 -5.726759843726880 -74.346986955335851
-48.609401702880859 -5.469552277412410 -74.089984128789212
-68.625000000000000 -5.192196482856113 -74.378311593423533
-64.812500000000000 -5.416747860565847 -75.024518870314836
-48.609401702880859 -5.466879354465108 -74.652775814748750
-67.671897888183594 -5.042178885895961 -74.793870500538802
-48.609401702880859 -5.316096778773083 -75.125250135191166
-44.796901702880859 -5.006100313970737 -74.757820647513824
-71.484397888183594 -4.791985911459285 -75.109339163419136
-42.890598297119141 -4.856074623742309 -75.173376860453033
-39.078098297119141 -4.258638123783722 -75.707335495677569
-73.352096557617188 -4.214014753630027 -76.228210127401766
-36.218799591064453 -3.771119925436844 -75.785667847874251
-37.171901702880859 -3.886966819986707 -76.555518601829434
-74.772102355957031 -3.648555148010550 -76.794120203041103
-77.203102111816406 -3.111590146974232 -76.823045112692569
-33.895500183105469 -3.083095542391074 -77.360030278680455
-78.156196594238281 -2.534813149383595 -77.377646805116740
-30.916299819946289 -2.234904785799818 -78.208896741375511
-29.546899795532227 -1.983925293083209 -77.958117030818528
-81.015602111816406 -1.172645673394921 -78.278402767552635
-27.640600204467773 -1.291632102001561 -78.397294481784741
-81.968803405761719 -0.614486697695424 -79.417070142972022
-82.921897888183594 0.057719067102651 -79.876319030431702
-25.226600646972656 -0.255794817969610 -80.189583355349242
-23.828100204467773 0.260159879326261 -80.239501844331485
-83.875000000000000 0.630534707656174 -80.434878926613607
-21.921899795532227 0.924723571148110 -80.706386721601703
-83.847801208496094 0.875127089593427 -81.321406205100018
-20.015600204467773 1.810406899042961 -81.517790457450914
-86.734397888183594 2.642766982746192 -81.817012510428015
-20.141399383544922 2.006046300832377 -82.453226356378707
-19.062500000000000 2.292397365785025 -82.167103229707195
-86.562797546386719 2.854237057423634 -83.302092819073764
-17.156200408935547 3.303710760587175 -82.852976901425464
-87.687500000000000 3.692533779738352 -83.595382959062462
-17.156200408935547 3.772119702656363 -84.220706690037431
-88.516899108886719 4.550615874282061 -84.999823045991789
-14.296899795532227 5.924521703888892 -85.888849998655147
-90.546897888183594 6.380068404840858 -85.999128398618467
81.968803405761719 6.712386679051077 -86.232537134276512
-90.546897888183594 6.861269652682884 -87.214697635432330
82.921897888183594 7.039349968566362 -87.490539775438265
87.687500000000000 7.049148073903657 -87.026968767293894
89.593803405761719 7.097110716940220 -86.979044302995774
-91.500000000000000 7.495001867382349 -87.146921573780475
77.203102111816406 7.343828063613110 -87.297975041706053
79.109397888183594 7.439046349997056 -87.202832550020247
86.734397888183594 7.269128959048111 -87.372614685044681
76.250000000000000 7.682304251146686 -87.525230765800671
80.062500000000000 7.497534469780657 -87.709853468592442
84.828102111816406 7.619769858791035 -87.587715380161242
-14.451199531555176 7.660647749675306 -88.112332509716310
79.109397888183594 7.675067690885294 -88.126763938486391
85.819602966308594 7.660647749675306 -88.112332509716310
90.990196228027344 7.943378900647086 -88.395288896772016
-14.649200439453125 8.226110051618866 -88.678245283827735
93.406196594238281 8.634836826130885 -88.269843859872566
73.390602111816406 8.958309513106016 -88.512080356290966
-15.405900001525879 8.791566960914256 -89.244152660994985
74.369796752929688 8.791566960914256 -89.244152660994985
94.359397888183594 9.291109550921483 -89.310470193066067
72.437500000000000 9.879492674849551 -89.853480390394097
71.484397888183594 11.049318456770461 -90.946424941006057
96.265602111816406 10.853582084805776 -91.142005504881865
-19.350099563598633 11.336136534363940 -91.790749350608067
-93.286598205566406 12.184329987279282 -92.639618511775225
-22.091199874877930 12.467061138251061 -92.922574898830945
69.578102111816406 12.911936644962800 -92.478053517424570
99.125000000000000 13.296454167696528 -92.659293770377673
-24.781200408935547 13.685084157608726 -92.836435615016626
-24.089799880981445 13.315249198518233 -93.771438663053900
99.125000000000000 13.983304538412279 -93.103915101820789
-38.125000000000000 13.856396049857516 -94.313016615802468
98.546302795410156 13.597980349490014 -94.054395050109619
-37.171901702880859 14.520610982504850 -93.697961321441767
-35.265598297119141 13.901775184218796 -94.358431901180282
69.807403564453125 13.880711500461794 -94.337351437165339
-26.047399520874023 14.163437258785404 -94.620302427276869
-31.453100204467773 15.403107417002186 -94.512544021239933
99.413101196289063 14.728899560728966 -95.186215201388308
-94.118103027343750 15.011630711700747 -95.469171588444013
68.778099060058594 15.011630711700747 -95.469171588444013
99.676597595214844 15.577087620996135 -96.035078965611262
-94.232803344726563 15.859818771967916 -96.318035352666982
100.560997009277344 16.708012224883259 -97.166904513834140
-94.671501159667969 17.838931436122209 -98.298724665112815
-44.796901702880859 18.361630038067560 -98.821839671779671
100.649002075195313 18.121662587093990 -98.581681052168534
-95.312500000000000 19.851880069217664 -99.114679979916147
-94.960098266601563 19.535312949304721 -99.996457590502942
-47.656200408935547 19.848577274222261 -100.309971475575196
-49.562500000000000 20.389662884267310 -100.273701903710005
59.093799591064453 21.003032424233382 -100.226283093200720
60.046901702880859 20.876193441827013 -100.353021110522036
59.093799591064453 21.089741165198276 -100.705105854485325
62.906200408935547 21.157866791737106 -100.637034456619318
101.030998229980469 20.754369656147382 -101.040210404496534
-50.094799041748047 20.948963311515456 -101.411234128837336
61.000000000000000 21.101405397169877 -101.258913388591509
56.234401702880859 21.553336149809056 -101.372794073237216
56.234401702880859 21.675632340777685 -101.816057712480429
63.859401702880859 21.912040084175207 -101.579838151985896
-95.099998474121094 21.797151371782626 -102.260097893060305
59.093799591064453 22.996360639390069 -102.192768170363422
63.859401702880859 22.666790845345851 -102.522075623590496
67.671897888183594 22.935666605003973 -102.253413891697576
57.187500000000000 23.253763935563619 -102.501021465694564
52.547298431396484 22.928070583021576 -103.391918044338979
58.140598297119141 23.284312075263923 -103.035960123849463
-56.234401702880859 23.351570229359936 -103.534217989143329
52.127300262451172 23.210801733993357 -103.674874431394699
60.046901702880859 23.584156936269338 -103.301816423554058
61.000000000000000 23.820284038568865 -103.065877280764425
-57.187500000000000 23.644631131515691 -103.806852847599231
56.313800811767578 23.493532884965138 -103.957830818450418
67.671897888183594 24.161161866267999 -103.290733276422827
59.565498352050781 24.058989794260526 -104.523738195617668
61.000000000000000 24.697054315278216 -103.886181580272321
68.284599304199219 24.058989794260526 -104.523738195617668
53.671100616455078 24.341720945232307 -104.806694582673373
101.030998229980469 24.486591118185000 -104.661939727811841
-63.859401702880859 25.563991355373258 -104.716322074340638
48.609401702880859 25.420126548579383 -105.885959291407886
51.380298614501953 25.472640156471257 -105.938514733952061
-64.900398254394531 25.755371307443042 -106.221471121007781
69.578102111816406 26.020996978415535 -106.487308401085670
59.154300689697266 26.038102458414819 -106.504427508063500
61.699600219726563 26.038102458414819 -106.504427508063500
49.562500000000000 26.812573018180661 -107.279515045178343
69.767196655273438 26.886290518681992 -107.353291272286455
58.256198883056641 27.451752820625551 -107.919204046397894
99.549301147460938 27.734483971597331 -108.202160433453614
106.750000000000000 27.832802733056020 -108.300557519966802
-95.553596496582031 28.017215122569112 -108.485116820509333
70.531196594238281 28.330513129873687 -108.172068201518655
99.125000000000000 28.499282411577841 -108.568884957766642
104.583999633789063 28.299940880892724 -108.768067810620863
57.332199096679688 28.582672031864504 -109.051024197676583
102.938003540039063 28.661059565682159 -109.129474178455197
46.908298492431641 29.148134333808066 -109.616936971788022
104.844001770019531 29.192807031258909 -109.661645257476650
44.150699615478516 29.430865484779847 -109.899893358843727
56.523200988769531 29.430865484779847 -109.899893358843727
71.129203796386719 29.430865484779847 -109.899893358843727
103.890998840332031 29.430865484779847 -109.899893358843727
108.304000854492188 29.430865484779847 -109.899893358843727
-76.250000000000000 29.720520796003544 -110.189779422242310
-67.244300842285156 29.713591243103455 -110.182844348955257
-77.488296508789063 29.996322394075236 -110.465800736010976
-67.847000122070313 29.996322394075236 -110.465800736010976
43.520801544189453 29.996322394075236 -110.465800736010976
45.824501037597656 30.279053545047017 -110.748757123066696
71.484397888183594 30.650428068804441 -110.377678217104915
101.149002075195313 30.279053545047017 -110.748757123066696
108.655998229980469 30.455759840323356 -110.925604190358499
-95.645797729492188 30.561784696018798 -111.031713510122415
42.890598297119141 30.821187251001643 -111.291322716602437
57.297798156738281 30.844515846990578 -111.314669897178135
-74.343803405761719 31.273554935497224 -111.744050777113912
-73.390602111816406 31.399370809981242 -111.869966882063409
-71.484397888183594 31.292639517375363 -111.763150562610306
54.693298339843750 31.127241605314186 -111.597620887289665
103.890998840332031 31.751225498934286 -110.974133691023184
74.343803405761719 31.955366348578451 -111.335617820749007
104.613998413085938 31.409972756285967 -111.880577274345370
109.324996948242188 31.409972756285967 -111.880577274345370
44.518699645996094 31.692703907257748 -112.163533661401090
56.234401702880859 31.899096730716959 -112.370090906471262
101.913002014160156 31.692703907257748 -112.163533661401090
106.750000000000000 32.169813061563140 -112.641022901866634
109.426002502441406 31.975435058229529 -112.446490048456809
43.843799591064453 32.511911876252483 -112.983394247534875
82.612098693847656 32.258166209201306 -112.729446435512529
83.875000000000000 32.492096755214590 -112.495702100528618
79.109397888183594 32.752941678915796 -113.224616065151892
81.015602111816406 32.744459043342381 -113.216126671937474
85.781196594238281 32.703464131944344 -113.175099102187957
102.291000366210938 32.823623118496698 -113.295353812679778
52.421901702880859 33.745055629900847 -112.940117251905946
81.968803405761719 33.710180576530504 -112.974964544388726
85.781196594238281 33.386056299176275 -113.298830815610998
91.500000000000000 33.245597837898970 -113.717664695723698
105.351997375488281 33.106354269468483 -113.578310199735498
110.202003479003906 33.106354269468483 -113.578310199735498
40.611400604248047 33.389085420440260 -113.861266586791217
52.523998260498047 33.389085420440260 -113.861266586791217
80.062500000000000 34.063293276713480 -113.187595406642842
88.640602111816406 33.526916115049879 -113.999207083401046
-95.696800231933594 33.671816571412037 -114.144222973846936
107.345001220703125 33.671816571412037 -114.144222973846936
87.687500000000000 34.447941761679957 -113.934167282844143
88.640602111816406 34.206158661866951 -114.175757920917277
90.546897888183594 34.270884213564656 -114.111083891399176
107.664001464843750 33.954542329735652 -114.427173963958452
-83.396202087402344 34.237273480707429 -114.710130351014172
103.059997558593750 34.237273480707429 -114.710130351014172
39.828601837158203 34.520004631679214 -114.993086738069891
-84.127899169921875 35.085466933622769 -115.558999512181330
50.641899108886719 35.085466933622769 -115.558999512181330
52.780899047851563 35.368192691946383 -115.841950502292860
106.248001098632813 35.368192691946383 -115.841950502292860
39.136001586914063 35.650923842918161 -116.124906889348580
108.286003112792969 35.650923842918161 -116.124906889348580
108.541000366210938 35.933654993889945 -116.407863276404299
48.609401702880859 36.530747350172177 -116.376708692779587
51.914798736572266 36.216386144861730 -116.690819663460019
38.490398406982422 36.499117295833500 -116.973776050515724
-85.781196594238281 37.237748315853054 -117.712995496528848
51.057899475097656 37.064574205128892 -117.539683427682974
106.864997863769531 37.064574205128892 -117.539683427682974
108.655998229980469 37.731852385059256 -116.872936407786526
111.918998718261719 37.064574205128892 -117.539683427682974
50.869098663330078 37.347305356100676 -117.822639814738693
104.126998901367188 37.347305356100676 -117.822639814738693
47.556400299072266 37.630036507072461 -118.105596201794413
50.145301818847656 37.912767658044238 -118.388552588850132
109.307998657226563 38.195493416367846 -118.671503578961648
39.826999664306641 38.478224567339623 -118.954459966017367
104.844001770019531 38.725612302196872 -119.202044780837070
36.841701507568359 38.760955718311408 -119.237416353073087
112.443000793457031 38.760955718311408 -119.237416353073087
107.703002929687500 39.308039875287264 -119.784936341377318
43.843799591064453 39.994899718740207 -119.135379546745895
45.798698425292969 39.326418020254970 -119.803329127184526
48.671699523925781 39.326418020254970 -119.803329127184526
-87.157096862792969 39.609143778578577 -120.086280117296070
-78.156196594238281 40.007330321083124 -119.688410535219390
40.031200408935547 39.922161144785150 -119.773511916010278
-80.062500000000000 40.209134293892049 -120.052229681603364
-79.109397888183594 40.049055532205585 -120.212181019011553
44.796901702880859 39.976121228391449 -120.285057266398184
109.609001159667969 40.244009347262391 -120.017382389120598
39.078098297119141 40.271373289889262 -120.555502709696526
108.172996520996094 40.174606080522139 -120.652192891407481
108.655998229980469 40.739029298036513 -120.088218960359200
40.984401702880859 40.979318879880410 -120.413583132633818
41.937500000000000 40.997565948194421 -120.395350589166753
-81.015602111816406 41.098360713501101 -120.860098538724316
-80.062500000000000 40.828205878069411 -121.130038328233837
-79.109397888183594 40.776497755763423 -121.181705290362828
-78.156196594238281 40.834714592765273 -121.123534794539268
43.843799591064453 40.777345076001602 -121.180858644599937
47.209300994873047 40.740068382465701 -121.218105665518920
105.352996826171875 40.740068382465701 -121.218105665518920
110.170997619628906 40.740068382465701 -121.218105665518920
113.299003601074219 41.022794140789316 -121.501056655630464
-88.631301879882813 41.305525291761086 -121.784013042686183
38.125000000000000 41.534540274298806 -122.013210468642853
39.078098297119141 41.570725732424293 -121.519023704197878
105.777000427246094 41.305525291761086 -121.784013042686183
-79.109397888183594 41.694997204967279 -121.960313634210422
-78.156196594238281 41.903751006323695 -121.751726002945503
35.180500030517578 41.588256442732870 -122.066969429741903
46.414798736572266 41.588256442732870 -122.066969429741903
108.615997314453125 41.870987593704655 -122.349925816797622
109.609001159667969 42.304399990952049 -121.916858420107019
110.561996459960938 41.935783305676864 -122.285181682853278
113.582000732421875 41.870987593704655 -122.349925816797622
-81.968803405761719 42.421606863547375 -122.365207326575756
-78.156196594238281 42.770557084185981 -122.016534873765607
-81.015602111816406 42.487445625616843 -122.864872668746301
38.125000000000000 42.615838927950584 -122.736581568751660
39.078098297119141 42.761912619458144 -122.590624153347932
40.031200408935547 42.808315545623152 -122.544258164371314
40.984401702880859 42.740832155443201 -122.611687837104938
-82.921897888183594 43.230260872034144 -122.688111191849003
41.937500000000000 42.790480080639895 -123.127541913381691
109.102996826171875 42.719175653971824 -123.198789581020577
110.561996459960938 42.892201684775507 -123.025901280649492
-90.546897888183594 43.259896486105575 -123.739941175177933
-94.994796752929688 43.284637955915386 -123.764702355132016
-81.968803405761719 43.334721598019506 -123.714658580102594
44.868099212646484 43.284637955915386 -123.764702355132016
-80.062500000000000 43.663429316565100 -123.951674997387215
-79.109397888183594 43.979916917887302 -123.635439323327290
106.357002258300781 43.567369106887163 -124.047658742187735
33.708499908447266 43.850094865210771 -124.330609732299251
41.048500061035156 43.850094865210771 -124.330609732299251
-93.406196594238281 44.397885459097068 -124.878836720292668
-83.875000000000000 44.494442864840387 -124.252237121286868
-82.921897888183594 44.194086729708836 -124.552354169962825
37.171901702880859 44.223721350268505 -124.522743138854366
40.031200408935547 44.315188760438836 -124.431348537647580
43.843799591064453 44.414649044957898 -124.331967424499169
106.750000000000000 44.371736508114552 -124.852666937904416
-94.359397888183594 44.742649763814306 -124.569690278694225
-92.453102111816406 44.516922572973257 -124.795237788457797
109.609001159667969 44.657999843638521 -125.139158323406065
-81.015602111816406 44.735565011662018 -125.142231872547399
-80.062500000000000 44.945376614080111 -124.932587282240917
110.561996459960938 44.954713327532708 -124.923258000904610
33.010799407958984 44.981019469097895 -125.462435280522129
37.171901702880859 45.100000500760338 -125.343548958938186
39.078098297119141 45.142091268515735 -125.301491695850416
114.504997253417969 45.263745227421509 -125.745386270633645
111.547996520996094 45.546476378393287 -126.028342657689365
114.750000000000000 45.546476378393287 -126.028342657689365
-83.875000000000000 45.913032866559163 -126.227540433348850
-81.968803405761719 45.873559616737012 -126.266982262073554
-81.015602111816406 46.382298599647847 -126.324110721660787
42.772300720214844 46.111938680336849 -126.594255431800804
110.561996459960938 46.259356210948283 -126.446955247002421
32.343898773193359 46.394669831308626 -126.877211818856523
37.171901702880859 46.468802256733433 -126.803138403575900
107.703002929687500 47.043274584333787 -126.229123361632702
114.961997985839844 46.394669831308626 -126.877211818856523
-81.015602111816406 47.337101856860869 -126.500981674455915
41.937500000000000 47.071054095959482 -126.766817658707083
-84.828102111816406 47.090635645061120 -127.312714177945992
-82.921897888183594 46.994505275108679 -127.408768027172755
-81.968803405761719 47.132726412816510 -127.270656914858222
107.369003295898438 46.960126740604018 -127.443119196023758
36.218799591064453 47.285509941527188 -127.683457484581908
-85.781196594238281 48.147156540741683 -127.953421727053779
-84.828102111816406 47.913436475551897 -128.186955748759004
-81.968803405761719 48.325563324905040 -127.775156956455930
37.245201110839844 47.808320193519357 -128.291988357190917
41.831001281738281 47.808320193519357 -128.291988357190917
111.718002319335938 47.808320193519357 -128.291988357190917
-82.921897888183594 48.280554250209804 -128.385581899416309
111.208000183105469 48.091045951842972 -128.574939347302461
31.200000762939453 48.373777102814749 -128.857895734358181
35.203300476074219 48.373777102814749 -128.857895734358181
-85.781196594238281 48.849837588641478 -128.947676678622486
37.006099700927734 48.656508253786534 -129.140852121413900
36.218799591064453 48.741887910908005 -129.055540427344312
115.290000915527344 48.656508253786534 -129.140852121413900
-82.921897888183594 49.467799928115156 -128.895668724519453
-83.875000000000000 49.462906335304922 -129.466020903215110
-57.187500000000000 49.767504468571580 -129.161665233076491
-86.734397888183594 49.998732585412689 -129.496072872038326
-84.828102111816406 49.976158603428622 -130.084091366143070
108.152000427246094 49.787427465025480 -130.272672272692574
-79.109397888183594 50.628143279090281 -129.998088157968340
-78.156196594238281 50.337830857100521 -130.288169488397557
-76.250000000000000 50.467001319397937 -130.159101847066268
40.031200408935547 50.543821423030494 -130.082342892996337
115.795997619628906 50.070158615997265 -130.555628659748294
-86.734397888183594 50.728436132883104 -130.463326834213461
-85.781196594238281 50.600819990513052 -130.590841392871425
30.251399993896484 50.352884374320872 -130.838579649859810
35.265598297119141 50.527184083953927 -130.664418684520314
-75.296897888183594 51.264684775913992 -131.058430012876016
-53.375000000000000 51.291847596033605 -131.031288814629988
40.306598663330078 50.918346676264434 -131.404492423971249
33.359401702880859 51.280731322273681 -131.607869506259476
36.218799591064453 51.313911735167665 -131.574715505302493
-85.781196594238281 51.880155162742987 -131.574374509032424
-79.109397888183594 51.741367345894965 -131.713051849404934
-78.156196594238281 51.501068405734827 -131.953159509230943
-60.046901702880859 51.630589669404742 -131.823741345768525
-86.734397888183594 52.655499227379138 -131.930572588411138
29.499700546264648 52.049271280151558 -132.536317972194126
34.312500000000000 52.338660824684446 -132.247158784602192
-57.187500000000000 52.717802991002678 -132.433770115133882
-54.328098297119141 52.941625060543863 -132.210126210174764
-51.111301422119141 52.614733582095120 -133.102230746305565
29.106000900268555 52.614733582095120 -133.102230746305565
39.373699188232422 52.614733582095120 -133.102230746305565
32.406200408935547 53.007524620275568 -133.275204069612101
-58.140598297119141 53.823048934423056 -133.591253883355677
-52.421901702880859 53.961982468764269 -133.452430941482561
-49.819801330566406 53.462921642362289 -133.951094510528520
108.948997497558594 53.462921642362289 -133.951094510528520
116.181999206542969 53.462921642362289 -133.951094510528520
-60.289100646972656 53.745647400685897 -134.234045500640065
34.312500000000000 54.053640211849483 -133.926297854801732
35.265598297119141 53.919590912002263 -134.060240450079874
109.609001159667969 54.406983545060591 -133.573235786380167
-52.421901702880859 54.070079899966146 -134.558736457134472
38.562099456787109 54.028383944305851 -134.517007284639959
-72.825103759765625 54.311109702629459 -134.799958274751475
31.453100204467773 54.693716707119123 -134.983107525157237
32.406200408935547 54.865539219367932 -134.811421785328349
-72.609901428222656 54.876572004573021 -135.365871048862914
-60.442798614501953 54.876572004573021 -135.365871048862914
-57.962501525878906 54.876572004573021 -135.365871048862914
28.000900268554688 54.876572004573021 -135.365871048862914
-50.515598297119141 55.313387291742643 -135.803034322323924
-78.821296691894531 55.724760064840190 -136.214734813085897
-60.426700592041016 55.724760064840190 -136.214734813085897
-50.234199523925781 55.724760064840190 -136.214734813085897
109.236999511718750 55.724760064840190 -136.214734813085897
-49.450401306152344 56.290222366783752 -136.780647587197336
-47.004398345947266 56.290222366783752 -136.780647587197336
30.500000000000000 56.357986398061698 -136.712937496758798
37.171901702880859 56.673270480829025 -136.397904383241070
-78.712196350097656 56.572948125107359 -137.063598577308852
-58.140598297119141 56.673746851786099 -136.962880087413936
27.074399948120117 56.572948125107359 -137.063598577308852
31.453100204467773 56.862764028231432 -136.774013370511369
34.312500000000000 56.699074710880353 -136.937572389546148
-75.296897888183594 57.167358195830019 -137.035134929417637
-60.312400817871094 56.855684668727314 -137.346560361308775
-46.736999511718750 56.855684668727314 -137.346560361308775
-71.058403015136719 57.138410427050921 -137.629511351420291
116.641998291015625 57.138410427050921 -137.629511351420291
-74.253700256347656 57.421136185374529 -137.912462341531807
-60.178798675537109 57.421136185374529 -137.912462341531807
37.074501037597656 57.421136185374529 -137.912462341531807
36.218799591064453 58.039955203402634 -137.294135909565227
-78.437500000000000 57.703872728994483 -138.195424125531730
29.779800415039063 57.703872728994483 -138.195424125531730
-48.209499359130859 57.986598487318091 -138.478375115643246
26.317199707031250 57.986598487318091 -138.478375115643246
30.500000000000000 58.517130326581224 -138.513738851507242
32.406200408935547 58.529300435734761 -138.501578429881022
33.359401702880859 58.381667027355633 -138.649094320606252
-78.072700500488281 58.552060789261652 -139.044287889754685
-74.770500183105469 58.552060789261652 -139.044287889754685
109.712997436523438 58.552060789261652 -139.044287889754685
36.586399078369141 58.834786547585267 -139.327238879866201
-72.569503784179688 59.117523091205214 -139.610200663866124
-47.436298370361328 59.117523091205214 -139.610200663866124
31.453100204467773 59.435565012454781 -139.292411907132873
-77.880302429199219 59.400248849528822 -139.893151653977640
-69.862998962402344 59.400248849528822 -139.893151653977640
-59.437599182128906 59.400248849528822 -139.893151653977640
33.031101226806641 59.400248849528822 -139.893151653977640
-56.971801757812500 59.682985393148776 -140.176113437977563
116.797996520996094 59.682985393148776 -140.176113437977563
-44.507099151611328 59.965711151472384 -140.459064428089079
28.593799591064453 60.090914859788498 -140.333960383163685
29.546899795532227 60.314521051561997 -140.110532184131415
30.500000000000000 60.386111516272251 -140.038998706139438
-77.203102111816406 60.479576595713191 -140.973339240169025
-74.261199951171875 60.531173453415946 -141.024977202200517
-69.113700866699219 60.531173453415946 -141.024977202200517
35.778400421142578 60.531173453415946 -141.024977202200517
110.561996459960938 61.164780098530834 -140.391874914244653
-74.007698059082031 60.813899211739560 -141.307928192312062
-71.587799072265625 60.813899211739560 -141.307928192312062
-56.234401702880859 61.057754762044617 -141.551978008685808
30.500000000000000 61.287848056814980 -140.834356615207014
32.406200408935547 60.960329101563815 -141.161614862129028
-58.337299346923828 61.096635755359507 -141.590889976311956
35.410999298095703 61.096635755359507 -141.590889976311956
109.830001831054688 61.096635755359507 -141.590889976311956
27.640600204467773 61.435241473849722 -141.818005487258091
28.593799591064453 62.043154707533446 -141.776027854457624
-76.773399353027344 61.944823815626677 -142.439753740534911
