# This PCD file was generated using the MATLAB® pcwrite function
# from Computer Vision Toolbox®.
# .PCD v.7 - Point Cloud Data file format
VERSION .7
FIELDS x y z
SIZE 8 8 8
TYPE F F F
COUNT 1 1 1
WIDTH 786
HEIGHT 1
VIEWPOINT 0 0 0 1 0 0 0
POINTS 786
DATA ascii
-159.892186870597754 -75.923756796397214 -236.473553358061707
8.842186665528878 -72.988546813873072 -242.456777667763532
-163.830013073629345 -74.420728080122188 -237.521629246185285
-11.900754777102769 -75.139549423983155 -236.566608072639696
62.431125314146520 -74.828311681607786 -238.154589014933833
-12.188699408602586 -73.119871655789396 -237.011655749875246
-24.003683493677290 -73.261417568829657 -243.255399438108924
-24.121281922096749 -73.507630919020116 -240.654430957639363
-11.957698056488114 -76.154196623047767 -239.746793783950096
-145.424999722453009 -74.184639207227121 -229.791906815950625
8.975204704980889 -73.353513584654905 -241.241573994446895
65.137928806694191 -73.592228181921641 -242.642741816568901
15.590666663437826 -71.969363569236918 -244.058969667939436
-165.097034238774484 -72.294826737547794 -240.363503796088906
-49.603819554314200 -72.927747250673377 -239.664718143845192
4.838909062272139 -80.623494756553072 -246.995143216294991
17.888148528795753 -74.061132711081171 -243.158332539810999
-53.326620323521311 -73.237182019888195 -246.067563770787558
-1.948462703920576 -70.206860781982016 -247.208991404461926
21.820669558814487 -78.710818790857843 -246.833156069818415
-168.260740467734962 -72.082909605630206 -247.562499575165077
-66.689174931060322 -77.035826294391953 -246.991715353769848
-50.689679861696597 -72.802420687427116 -246.281847067836168
-80.230783166035138 -72.958982290883043 -250.188542930101960
-160.134745900903482 -74.659501500005391 -245.754193365379251
-149.881470357203739 -68.119210306011098 -248.398434485631412
-59.224987767207772 -75.610019450363950 -248.523012379165436
-67.883565004103389 -73.701683117286322 -248.823858342476228
-152.751003316560912 -71.925105769821315 -251.534587148953221
-151.153666085211768 -74.493537818917872 -251.120374521685505
-74.986983666695735 -70.824252702043296 -253.303526932916554
-92.567308519838733 -71.442067013913245 -254.126541874170528
-163.523145982527552 -69.286394608307987 -251.097953846652899
-155.963899588595098 -73.961209067900455 -258.564255474109473
-133.942110886194314 -75.190978791740363 -257.112763595132037
-82.264214847815424 -73.771429658699518 -250.247289907969275
-161.301448809019803 -71.008854721960418 -251.802223838525265
-140.985603871635817 -72.027693415607018 -255.756855508601973
-84.450759685021154 -72.923750908758734 -250.165780542153186
-95.838740060694391 -71.648088409868151 -259.262545745386319
-144.201880774537159 -74.559231415698036 -254.844940176656451
-92.626015990212892 -73.450471692372403 -255.019106799464566
-151.732945398516421 -72.161305215892042 -254.898234422470807
-101.458058828449126 -73.269346416482094 -254.494745075683795
-167.821227685053259 -73.010232041344068 -257.717622599549941
-160.631643966893193 -75.070235085776275 -262.273292340643593
-125.555209798872042 -76.447521392356862 -255.459923966188512
-150.827526256097798 -73.824760448746602 -258.315936242503483
-110.992771480737588 -71.104450616162708 -260.873696452359127
-13.481966247558498 -72.715589456339984 -260.884391788975449
-140.728585038475444 -73.426975403816996 -259.916898605008384
-124.990577804848257 -73.075020642015573 -259.034658260473691
-153.327574720593617 -72.162997139559309 -261.573620347443409
24.424420593835006 -74.828863418802314 -269.807195896768178
-147.811839075219581 -75.966751555199238 -277.536340333338046
-167.562053079306082 -74.066474173403407 -279.009220321497082
-7.330293531629907 -74.156964051336800 -278.435394119694593
-145.008006467500564 -73.730857151915743 -279.421249627562133
-8.677835272155271 -72.663478991915639 -282.190134310383144
13.688046251325893 -74.498806420992295 -285.102244188341558
-135.789520007845454 -72.418737635241385 -284.914228132720154
-67.431518689830853 -75.676610966301652 -285.900827819976826
-32.461795652253372 -76.255017341597537 -287.028802306501007
-112.028306646718192 -73.739678378072739 -283.358708511964494
-94.449137554960686 -77.465955918412874 -289.164382257619081
-88.758403783358531 -74.218026721245693 -290.372204676009460
-48.949038711890125 -75.344691199913370 -290.867682872198998
-115.091191434667394 -77.811833198504658 -287.505991818770156
-112.848061208376635 -75.061690535796075 -289.215043690308335
-32.209334804964740 -71.759149283973116 -288.218874676780047
-114.465460748421805 -74.357824896621921 -291.970146835291757
-126.213972332220251 -69.920615435607772 -289.203040920847684
-143.541058451817747 -75.773677913798920 -292.502956003734994
8.017303090921105 -73.972125568938708 -290.545986736289535
17.497627683413342 -75.918959840758532 -292.329301535873469
-159.043757480496765 -73.789038880065874 -291.767216295995638
-157.456174481114374 -77.372752594072466 -299.574313750747933
-146.126351164399949 -75.295787878382214 -309.418803565536393
-151.119315802520589 -72.830987468798284 -309.790715623128904
-151.711959053711468 -75.507887468949249 -312.480455395603599
30.196789777098445 -74.903287776757750 -13.926848882621206
32.131034805364905 -70.254776275829371 -17.326272724427248
22.766218655938726 -72.298357208009918 -23.307301984823496
30.262074054678092 -70.175103919103265 -38.322293226653223
-56.814045263432455 -71.135908079468379 -48.722099254317833
-63.911569748668370 -71.630182030299054 -49.147058002116118
-37.554893955422735 -74.903599998130531 -49.265980568500460
-83.150069005347021 -68.430269260111487 -61.922926151413570
82.476479896406175 -75.570877528634668 -73.277246432266367
-14.177618131069329 -70.644552122937455 -70.085421366600912
90.386669667198120 -73.602978769211148 -65.488384070768859
100.610547235532039 -72.577556679713823 -76.105448332504935
-91.326320599675924 -70.429029973427134 -75.306117926128280
68.895226568454390 -72.703780532865551 -79.526681349776112
-39.813215799614746 -76.212474678996571 -84.590465788000614
102.164633148737551 -71.947340118343178 -81.228179002947414
-54.384233018607617 -71.218708815783302 -87.634884422293240
52.270359689544804 -73.229578078741326 -89.652240367356811
72.173889591652170 -77.988981883258560 -89.824685856905134
56.721313039075532 -72.121949314851321 -95.407958986999290
54.042747063428472 -74.638400190499624 -97.651486849866771
75.638791450904222 -76.029864745488553 -94.763246459644975
47.700241915623756 -72.775433117775776 -104.315632241700428
101.638558972355654 -73.750864617231386 -99.922128048588377
107.109881135859638 -77.025821733647547 -105.555293528659419
81.208328982156274 -70.429402586556847 -102.584157212793443
93.029394388470422 -74.329181829603854 -102.590896483496849
102.095374124846202 -73.304414628125798 -94.287568849267046
110.726475362984630 -73.728751518385664 -102.863498305432969
40.788162368804088 -73.004999584973902 -105.214263164913646
113.731996390862037 -70.751711095658294 -117.809207233352979
114.979403775219595 -74.601536287878432 -118.014129034023867
32.517755836053396 -71.721018929162483 -122.614873971397074
45.941426052727117 -74.347647307764234 -117.946646061767424
116.461096459790099 -73.852480403743712 -129.335713579627310
37.431772890543108 -72.743413226536617 -125.727897531094825
116.257043957913652 -76.904028341574374 -126.844807852053876
109.963322173803974 -74.319709345002636 -121.566943425815069
27.620306097146948 -74.018697189811490 -134.614389749417199
-46.750084523490258 -73.397059842566605 -133.092644060495758
-50.913950380944357 -71.418062047558209 -134.119319493405158
112.560207437644081 -72.851531064807190 -134.117744685464402
-68.011326358683533 -76.605113780984539 -139.431584083320018
-71.610644847655038 -73.672340902213364 -139.322705048895870
-57.729764961664948 -73.590279274553467 -140.177820573430012
33.144918320175975 -73.334543136919038 -142.674431410228181
117.408280436856316 -75.308608492156026 -145.018291315360131
-68.180186123432506 -70.006880031726070 -146.115258823368578
-46.754294506399724 -72.818335883516667 -141.588147312395279
34.630393151271200 -73.998339914179198 -150.275706524095227
-66.887306076237479 -74.211180614252456 -146.800672833800945
115.245218506936709 -72.578761210501483 -140.440214226223929
113.105745425936789 -71.880690079459541 -156.679598936759845
117.565475461216721 -74.753133067174858 -152.065550595544408
-37.145249319538294 -75.649492426480208 -152.042920770899656
-63.486858046810156 -73.279668935667090 -163.301586550726086
-67.930447978326228 -70.114597761079693 -156.168252215569368
31.414372038589409 -74.390583244248887 -145.413608626982580
-0.835914509290043 -75.288812306933210 -161.081538659915793
110.417436710809667 -73.268023703853970 -160.720060970502203
113.086072844561116 -71.952123024745546 -152.136836453521340
113.523940119874624 -75.855300527258350 -157.467389399090905
-62.467877746673317 -70.540657374677650 -159.062805624809812
-44.075861524643450 -75.177369253337389 -164.191867719370947
-1.048035118013520 -72.617519230062769 -164.064578570531722
-27.976656815494618 -73.581721173036854 -173.886083040736537
107.255244794679598 -72.845370498059367 -166.327364109694400
-33.087212370930530 -76.188735278566000 -159.009782736297211
110.698376805450735 -72.207831628586646 -167.464577200189467
-40.497562894381055 -73.855009155621346 -172.591761544073364
109.934413126770110 -71.582415948075592 -167.737692731637935
-150.207048175077489 -74.019604762390173 -178.900506623492475
-25.643498291228941 -69.702392272510480 -175.779037612419813
-19.025335303822864 -73.506474550855302 -182.323406990532305
26.163921945231589 -76.491149200977603 -176.110026202482004
16.339243274523241 -73.171328571763368 -182.162999037674894
28.919490223926228 -73.927678477619040 -182.053407297236731
105.545804395350629 -77.505389128479038 -182.764842136447385
-150.540313816691935 -70.258674353498790 -183.766209854236536
-18.449918095121049 -75.635505605678887 -183.803034980024137
103.479070415002141 -74.574413787990594 -177.652339851395823
104.461619881338720 -70.705049806839824 -188.774263399056366
109.478634832983033 -74.829275580449462 -176.863805099614837
100.329343017199491 -75.457453256849021 -192.784514485898086
-150.072332105979740 -73.601813260381022 -195.379190913393217
101.272135524016875 -74.646796926154707 -204.548216072815393
-26.979066467049385 -71.340300646424865 -196.132303572119184
98.792887586738075 -73.533282384538822 -194.838380874409637
-120.154912206965861 -76.268665785473800 -198.969639400408965
-28.520958341797588 -77.793317084845270 -189.044177229037842
-140.688997863800978 -69.155125428526901 -197.193643052849524
96.581527308092561 -73.899327493553713 -197.662229103224689
9.877139983048853 -74.285796123126246 -198.045349056420434
25.115331729963859 -72.289857268786221 -191.572352633152292
-146.880300944367292 -73.483948523984367 -201.772503137231723
-137.724867567845592 -72.346970527390638 -200.931298264685182
-8.831269049294669 -73.141479954374901 -205.675663427298929
-123.173213158967727 -72.954598457767872 -202.645086858200415
-142.683031602883545 -75.417010814149393 -198.562264333004123
5.173269927032148 -73.792000329762388 -198.555188233208213
-23.025640215235097 -75.583448921826431 -200.022355875051034
21.890241871020521 -76.351686002814589 -201.269286467914100
7.831679576841122 -74.884440337401273 -210.782462120829592
86.651586361282568 -71.401466848159785 -207.607395369102932
-17.196482968955500 -71.019128850290485 -210.892331280053469
92.538169483258329 -71.674530360823795 -208.010889583359187
98.268782728930063 -75.638522038227876 -206.035430809177569
-147.771042364242277 -74.105833728100876 -213.399289578632334
96.697914231274225 -75.511802909764356 -210.600759653476842
6.203588765102571 -72.666470133827076 -206.272814814329649
4.773749147599302 -75.693287747870670 -213.358151249037405
-31.769362028989562 -73.054927247886283 -205.916582024164740
-88.236272426429309 -72.696221621587213 -212.028246605176236
-25.039557245593510 -74.866214811585962 -209.774131829925523
86.321070085644848 -73.091011878392663 -215.924846480953818
90.480530680815249 -72.933636374379518 -216.039927234502528
-30.652451887595532 -72.685134508912171 -211.170077787573518
-83.213390267457896 -70.386299648198204 -217.322355286248836
0.128393117332473 -75.572444562569899 -217.643628332387891
83.237004418639771 -70.357438275831058 -212.195279182626763
-150.764297883385041 -76.777324693019324 -220.739277714991005
-164.632806741140342 -71.436871380848132 -213.220148585916576
-160.819557258179287 -75.467449984859343 -221.151884701668735
-20.237051987049760 -74.439071063331966 -225.794452939656537
-152.737459284889297 -75.921590427130866 -221.647831761639310
-4.563974798259357 -74.728568852480933 -223.404029047710395
7.740212704466954 -74.617499864487897 -217.330529092620822
-165.996803657616510 -72.893881050443397 -224.469236112303207
-157.648148473651872 -73.414922620012433 -226.312392031783901
80.435352013386392 -76.952821163300882 -230.381451016948319
1.437429294143877 -72.481463642949137 -225.596715293155938
-156.372933969271855 -68.484174038185017 -225.130888301121672
-141.333803569731458 -74.662859249894552 -223.307199803265831
-18.019881746966675 -72.589741808598987 -222.863809813477047
0.775395319536910 -77.726365250637102 -221.366578638545491
81.245419915478081 -71.436285302723078 -224.604972290222378
-160.101504374959944 -71.418716719173062 -226.838265125646672
-142.832174915617202 -70.857732359363183 -229.839804783340696
-123.948149706995139 -71.598824783464863 -229.879330862756547
79.974556969025556 -75.205613617559891 -225.625548912704971
-114.465170384789516 -73.099021822132713 -228.134272143573270
-145.241323608782039 -73.026204538531772 -228.254030857185114
-149.345438815428935 -71.773319437217580 -230.400218032139207
-147.857109653825603 -73.823151476041687 -230.301345297797468
-154.662365108198856 -73.573588296111140 -228.068524607458301
-163.914671638203203 -73.472203634113995 -227.992136082730269
-132.539536246473858 -73.315015525157364 -234.317119936168410
-132.109593526821385 -74.282132698848898 -232.107718385899744
-152.023195581823757 -76.696715956214035 -231.846386362044143
-144.211822178363377 -69.687656582554069 -235.843638225701568
-150.446668049730846 -73.575190884710821 -234.298505813051293
76.130260438225534 -75.789468084695429 -231.369819870075361
68.567496776016796 -69.072492066870794 -234.970405079707689
-155.828091834273835 -71.682925335742681 -234.378822924006926
72.966140640267753 -69.482038791642481 -232.259245512356642
-18.562830533003137 -72.161958902164528 -235.619827104651989
12.634376565075426 -74.848450306705956 -236.034573099365019
8.151275166194440 -74.405257653023455 -234.970156138046008
-153.312030387315929 -73.247992675666055 -241.652563649542770
15.814071400748928 -73.106490785084787 -240.063390847992139
62.190614957177402 -72.588468732812174 -236.948397381846661
14.645609470015987 -71.235143181940970 -236.923338233473970
6.586285396129657 -74.095116080240231 -240.529585655434602
-5.277377633212813 -71.552656014677069 -239.334384049114590
-19.917516090676290 -72.158043576496183 -241.825667865311402
-0.493638603195625 -73.534994994173289 -240.937967389779459
5.050944829757993 -76.275550214527073 -243.943748102966765
58.656487763539822 -74.762856395353211 -240.534950732708211
-54.227333863022643 -76.781776617302000 -243.721142106599359
20.826626304163447 -72.656120538524590 -246.327252845137650
-58.339058939963145 -74.382866367971445 -240.793373455055615
-8.654557393482838 -73.779358773186601 -246.873011945643952
-64.877329863972676 -70.153320513200455 -249.311630415981483
-84.852088069023196 -71.863673215088582 -252.161169352235788
-81.423061014984583 -74.359538027208956 -251.136181197518567
-8.644324853093917 -73.003777943063156 -253.786766593546872
-122.701980014108372 -73.177757877384380 -258.079386491955688
-12.912969866544039 -74.496872472428151 -251.972173269848895
-115.813844602882952 -73.385714849985675 -254.736568153298208
-115.323952909454505 -72.082184582132797 -257.679225970062873
-102.382760213551478 -73.224447541132093 -255.570385898408006
-142.721373097857821 -72.385638432346497 -260.887263196804099
-143.872297787026440 -72.825967846812688 -266.286841877619224
-167.512503874615106 -73.317821345140729 -262.658197273548069
20.521440199166065 -77.242664323579859 -279.247034551312026
-56.908646387909997 -71.788998820395136 -284.427408980712016
-66.100188497667389 -72.619553001298399 -282.737289410864662
-41.015997095392144 -75.375857197388981 -282.887396676972173
-26.923777795196084 -74.662267599562270 -285.487471273264134
-95.214947757861481 -75.438195697833521 -288.253318868510235
-29.714076147553847 -71.812448097272295 -284.752267185783182
-2.988449085119893 -73.810436086996916 -285.191852361296469
-166.283694794095936 -73.438082028962313 -288.370615157981717
-14.758304772554846 -75.811339030772558 -284.888231669094750
7.469582144162334 -74.981640034978412 -286.945890412674714
15.239438485750581 -78.122124314661136 -282.586972093749296
-55.864806648261599 -75.944528502393112 -286.632342850160171
-32.130595777277165 -74.165418731173546 -290.497747799963122
15.299272721316489 -71.995126785944223 -292.097642838060210
-69.831321723234709 -72.289897696977604 -291.966372603595573
-39.163944933738854 -71.211980474424251 -288.191515572597325
-16.770933686256221 -71.784952676564473 -289.023905044944684
16.136607408797797 -76.048516837134940 -290.013258811140361
-10.486410078588124 -75.439675599675411 -293.220763809602659
5.028363398446057 -72.673181435800700 -292.823965807625541
15.341105540484904 -75.782920723742009 -289.587358255271226
-133.827349701751160 -72.527312973066003 -293.391499582340259
-143.907015632756043 -75.820267007415737 -298.170212388418690
-149.968310358426237 -73.982413054831426 -312.245810924956402
44.610788516142385 -71.278847595954872 -12.733914766953040
31.712645697435988 -71.668322174908923 -10.833183361700348
40.860832331280591 -71.979565782372561 -14.428469110116323
23.555810438352680 -68.714641301950621 -17.757840402187519
46.520963656521317 -69.898070608746963 -21.407698057839134
27.108754974112852 -70.086286873981365 -22.999200441317967
25.311773738313789 -72.168133987879699 -26.507836527262633
26.335035848258681 -72.783922557110699 -37.285059544678091
41.090894778960717 -73.986678647597614 -29.796492210621786
27.825140758674138 -75.394392132153996 -35.311007723866034
44.604378553082746 -70.722666877407619 -36.690808508568637
33.389613764358401 -72.503677564855948 -38.424277206198845
40.310214151547186 -73.313318517764799 -34.934760814906795
32.478136544903798 -71.131898146140756 -38.967355143318493
45.125151710797375 -71.983938373335732 -40.187410432953101
35.246318837521244 -71.487041224371779 -38.006561079068312
-39.466687371117651 -70.137319355395704 -47.253316611844944
-28.595165741587540 -67.007584062571368 -49.680529716213172
-87.915700663575734 -70.236380259678555 -53.737989647861447
-87.613411222914834 -72.647297747291361 -64.486155308339264
79.366121203837551 -74.581185751660300 -65.583907981712500
85.766033281290447 -71.952091816085314 -71.420727970069777
-18.215942625411348 -70.034685020966407 -72.523922545186451
-86.808837952897107 -71.909237980995286 -70.651234089528430
-23.752476075223157 -71.287279736707760 -75.689464849081233
-48.263152625746265 -72.980318106716311 -83.868675239718513
67.342023446729058 -68.511596728900329 -85.147930063517038
54.119072740451955 -71.209075462236640 -92.112294791953147
100.917710184390486 -70.492850730390643 -90.296239381222861
70.852337831242068 -73.729823049257647 -95.429822129593418
-66.829233247709837 -73.295127290965198 -89.932648877504590
-60.805891556094984 -70.115033535692334 -96.799122608906032
46.222174558689517 -72.631340758818396 -96.254699244303055
78.819824606501655 -70.833769941667413 -98.710056062997367
55.873013201716176 -79.178915316368958 -103.790513653594346
102.685533650127681 -71.873057462517536 -95.433998778708613
-93.840730554692684 -73.503679458307829 -106.124374801382160
41.237907769917292 -72.481442079537615 -109.493098207704747
108.435002727037542 -73.128007511272514 -107.500681018855232
49.879529285972602 -72.107792089605766 -110.067306887792725
102.874951689659213 -73.230798015458788 -108.497810025679712
-84.095406653498998 -72.001868867716340 -114.177216053315277
37.202383911018792 -75.353105567656698 -110.656295437274864
108.002563564825948 -71.214438038916782 -115.562241021483672
106.095685702952949 -69.742008254060096 -114.567235300846662
106.901767952307509 -72.652816595605543 -113.857080059320012
111.900622601794396 -71.319307070337914 -113.325031635658121
41.291856110505137 -73.879408030379068 -108.960302090525332
33.419225171921184 -69.851545297074026 -116.115926262117398
42.298624102649946 -71.847991684109132 -112.925880354710912
108.158282684855848 -73.608648007400390 -120.507192627751678
41.475402838600345 -70.668111002764405 -122.030834423177581
110.420844711661715 -71.535846617487962 -130.895472016139536
112.295861474543358 -71.113827973771549 -129.786979686050472
34.932884946109837 -70.080529417064426 -119.414538855213223
-76.665263993965567 -71.896646694059996 -124.201201112851876
115.209753356074614 -69.929534802127137 -132.983743091591123
-53.167462781037841 -72.262755657022950 -136.233251387411940
36.805899814294214 -73.068878615464513 -133.499802347374612
-72.044130677411943 -72.457061239126617 -134.178669615050268
28.212652036619396 -74.386434614772853 -130.421719856495599
-78.381663535445483 -72.668774719061872 -141.550295968887553
-44.105782246051987 -75.109218304543134 -140.647399640329581
-72.763847242547868 -72.832726984914316 -136.915750318469463
111.455234688576638 -71.533258788789709 -135.774803486085432
118.433289883969977 -70.614805588684760 -140.328247111106521
119.321813089495564 -75.446364125259478 -145.089135633053587
-76.131733257800860 -71.239403802673465 -142.386286450290925
9.181225880066918 -68.574249824425365 -149.569720798800688
-50.856962300359889 -72.850375883308686 -148.086269467254795
-49.651004144711841 -73.179807887101973 -153.993900501354801
108.073723908430139 -72.826702528906111 -160.380214802190494
-40.274028268853954 -74.021957237586150 -147.945744643626483
15.150320054559970 -70.329687477056524 -156.442290300153786
23.487749494243392 -74.004662494888464 -156.324462846774423
115.881841750888455 -71.868902230932463 -163.351834112769836
30.941787937509961 -71.927845217872516 -164.471510745262407
0.251925955456049 -73.714645807607667 -162.207549435554938
32.989820467558594 -73.220941858103487 -159.528526128373642
-66.640186916059108 -70.653892484598472 -156.385782198288865
-64.642168975514636 -71.925301313980825 -157.818444312879365
-67.745726175330660 -70.970865207113349 -164.338567315496277
115.886058186016484 -69.183386935487320 -160.169582565796532
-43.435441809564452 -72.484886302048878 -161.678133333399899
18.889543108184537 -72.608676977024075 -164.231201386548747
-62.827662524335530 -71.303474077065246 -168.317400176035790
-61.949178945114298 -70.606814114714268 -170.078167450595259
-40.167498752991868 -73.151304468307188 -158.935934177640434
-32.431272672277522 -74.452924727353505 -167.287357087643613
116.130166065744902 -74.605111493706616 -169.983040785402324
-35.923065705669863 -67.906168855913791 -178.488896970812334
14.861954304619740 -73.465832810657005 -171.838878826377680
111.837117446392867 -75.231166036807977 -182.981123057956779
-146.510281501976294 -73.865686910749034 -174.611984365697936
-144.798428232157704 -71.935215261204092 -172.125690960674348
-147.545480083732826 -70.439990426797351 -178.509213478880042
-141.328358621233292 -73.537128960975181 -181.312848151022365
-30.744004406726333 -71.144634576068327 -184.172502164374578
-21.990206004999443 -72.550686020984557 -184.388750734041793
24.383726110095473 -69.056302663971323 -189.795937364640167
-140.329582192819771 -71.392374180742223 -185.279864498738135
-146.173859099244112 -72.495897584790882 -187.099901248422952
-20.184762336400393 -69.947286497656137 -185.142135411951784
12.232974192422139 -72.804750415320456 -181.229903839185027
-148.249616079709625 -72.144166508917536 -192.799685195693286
-30.459076801132227 -73.118493345990260 -186.619400800569167
101.252427551201407 -72.696093557565860 -187.053435520401024
107.400590982064003 -71.712299053867440 -188.530827767008901
25.293778078943081 -68.284143445607583 -192.159428199635983
-12.380598295957254 -72.681503911432060 -187.161473077855192
-26.624240262327461 -74.348144194434227 -192.007792352177688
-154.233931177960585 -73.200743442972936 -197.672435054060600
-131.514238290805196 -73.118171269189887 -195.412541395470271
-124.067627809339626 -69.612168975584424 -193.628691009435926
-123.581857123342374 -70.610732539582912 -196.207342121029825
-21.359257999730708 -68.431122102968899 -194.850632694817818
13.799057181924081 -74.468054145225196 -191.126590238304857
93.770421269968281 -76.180341101556976 -199.896556529468626
-148.942873255338810 -68.568130668181340 -194.008574725112879
-143.952773266158289 -69.752287120079330 -197.312604258623736
-149.786778188550414 -71.554827017525184 -198.704874994245870
-153.818731929966901 -69.887761045067094 -196.028961567463313
-23.647377474632471 -71.981988137369953 -198.308488085128175
-9.594192094166255 -71.026405772102152 -194.096580214901223
-145.257545015624544 -68.346327467063176 -200.725045052946200
-17.340376704542404 -71.707779350841989 -199.878262386741426
-160.304771334382252 -71.363527272091147 -199.204021521287132
-133.237804968643275 -71.913322510473009 -197.977938666517787
16.834916741881401 -74.341292447253466 -205.753707415780184
-160.186881613548024 -68.920490872575172 -202.674983226695332
-145.014905125029884 -73.499704561294195 -205.045855732417834
9.359482769090894 -70.679000030077731 -201.580030551380219
-153.008585366865788 -69.575650729499372 -201.237083000216472
-23.464608461365192 -71.867708230419339 -200.547573003765251
98.507465768630425 -73.338631208652032 -198.134280416405971
-157.364160545566847 -72.986354826468812 -211.040253013416333
-163.396394113632255 -75.014020753259075 -206.217345323226425
-75.759924768712011 -70.313966126966676 -206.995443616924490
90.403631843005272 -72.064426241159893 -207.873415683843490
-2.726937012090521 -71.365283600720531 -217.174745847232231
-153.435499666523896 -70.931221456137692 -211.475422352795164
-86.511346157458846 -72.337221843123274 -212.137211747913767
-8.215394103565062 -75.033062271363477 -210.049083811607034
16.666106027435831 -72.383875988591043 -218.706046582874990
-143.845174174584173 -72.783370055133332 -218.661178168929496
-2.513786685145755 -76.354225395781981 -219.650729749659291
-18.296564681131059 -73.459112933243702 -216.994452407665420
-13.543571370242303 -69.450089660383213 -219.245574437957202
91.342936659542190 -72.787951276732926 -217.994458477402674
-19.655937151072667 -71.224360568197270 -215.599388317032520
-30.654527209409451 -71.891954045016149 -215.899589827503490
-106.510141541683311 -68.060192958539545 -223.471744689682055
-15.057540222726233 -70.936725555307319 -222.027125134400194
93.518283410511984 -70.831445811535460 -217.911053600974924
78.586363282823086 -73.537637704183012 -219.374163415281316
8.281362395102597 -73.743817623754197 -218.148286900323512
-10.108660401386736 -70.452152595179157 -224.230810118851991
79.716439809121738 -73.330264206322155 -220.950971995398305
-121.322965582355309 -75.305347992873010 -223.832492687324333
-18.958280769423336 -70.639521163697495 -222.025550136137497
-96.081685558745107 -71.597627419807807 -222.342820035039580
-101.447341138868481 -72.300699845357272 -222.881495230376174
-130.525582528748430 -74.076730013597384 -227.345672464814839
82.400391754284655 -72.875849219795612 -222.588374466962733
-122.137752018969209 -72.736180381769486 -225.973695200499037
5.795153479740389 -72.008848965307095 -227.639868767567037
82.314460706667248 -71.426668054065985 -223.409934762414650
-14.665750546519194 -73.563005667525118 -229.383262078516907
-12.480290067984596 -73.261095911373360 -226.274122389723544
-0.808272662715463 -77.471751074826187 -228.748951529349910
11.353724660701467 -74.418734197160646 -226.293536230163312
89.965422214975078 -74.043117642547344 -225.461364712060771
11.027239160218381 -71.188793729436100 -230.318586509382811
6.620335937306272 -72.319639610104431 -228.338748432041740
-7.952132879545918 -73.122404595777454 -230.121832571670211
-5.685959704902023 -73.408485416811573 -229.008566655564522
19.810165335261068 -71.477484304623673 -231.671866695489598
-11.394865560458497 -70.185369863237881 -232.129082448660483
72.088951554730940 -73.393437843938429 -238.762523054695862
-8.072900146734870 -71.161797632805218 -237.725914331383279
20.071472342527855 -73.693192832182476 -234.670165856832654
-161.838674590122650 -70.838018381873880 -239.066812253544128
-4.516901711769201 -70.551648090718913 -235.998345891609517
-7.047923595075131 -73.406004472122291 -239.098533728572875
-166.662988004496896 -72.716535994847163 -249.390658513127448
-9.804665216434179 -71.103229676284471 -243.324777777813608
16.607879697517319 -70.215642378293907 -244.465746425325307
-146.647995299615275 -74.106896514407779 -250.440244160955444
-72.275982741296303 -71.860458578510944 -249.197578216752902
-60.622076245615702 -73.314463934276489 -245.823363541898061
53.359329627016955 -70.726975401111375 -245.829548196521785
-73.672773022035130 -72.027725744902824 -245.601863457057675
17.885709101307754 -73.399657268845459 -248.466937492223792
-72.098622616795311 -72.829216815529236 -250.085275017226365
-14.347989354127288 -71.027265682606227 -244.847288363576610
-144.530990728143649 -74.877142319388696 -251.359669432659530
47.615936940178251 -69.645436572711162 -249.015778909271774
-79.081429551578694 -74.581591448626668 -254.471799028805435
-101.792557550889185 -69.550839291610615 -253.755102909776099
-98.392593264809378 -73.947149928488571 -253.300091493875925
-118.931766053219704 -70.447932664574978 -251.707774690524445
-104.889901535099838 -70.014699194521185 -255.863558509025438
-104.899987488409849 -72.090520558066032 -256.832397580519853
22.533852584374625 -70.395661852996156 -257.522010100916930
-128.454884175650562 -70.067226207106543 -263.753474652877628
-12.989256123727491 -73.640600473836031 -274.464421015899802
-146.878097984916678 -70.015676131710023 -281.950575407021063
-167.951608980348283 -73.942160794647094 -284.103678695512485
-124.201947220232583 -73.416895181337495 -282.785120414577364
-113.450564972630914 -69.534976488064899 -285.567520359346702
-74.844096004978127 -68.530516305007524 -283.315455844344626
-56.814215655386441 -73.261590254545467 -285.505099423886975
-41.211704032861377 -71.636452174400418 -284.928412157894286
-14.688689281430046 -75.708954579988855 -288.696604725684836
-13.164844249389485 -70.452167589769587 -290.666536940555034
-37.761837316146249 -74.513519286251366 -289.039359491193125
-33.757999387221389 -72.489201849877503 -287.654259502802006
-18.371157807169929 -69.773885437726733 -287.687568203914452
-71.224358790678053 -71.626656729829676 -291.810588234587669
-54.956489314416523 -71.961862901681698 -289.907405829375648
-17.055870248889700 -69.370259002315578 -290.433817546615558
-13.156680795228933 -74.260011154669670 -288.630292483357664
-3.143401081558257 -71.976623479051099 -291.334805959942059
3.043284140537317 -69.574993522714351 -291.187224116188020
-91.607377732103231 -72.636160144592282 -291.710754851492595
-139.245725622319270 -74.056490860674884 -293.641139549329750
-115.776398688714607 -73.416083218290368 -291.334093699112202
-153.044116071065190 -71.262405620611915 -293.549985130471214
-151.481123672682344 -73.107905232516430 -298.133120059308567
-146.245060160540362 -70.897659368080326 -298.680794336468864
45.989849114554275 -68.570596454368228 -20.065873969325068
21.396202822309895 -73.392035978761726 -22.239350247461793
51.015658579178101 -68.086455394122183 -23.899976796602601
48.558389740789728 -71.661311863249352 -33.890043536902070
88.959036508338343 -70.874838292972854 -69.061015167737580
96.910407515692839 -72.697394311829470 -72.795422082683331
102.544293419598873 -70.702148914768856 -77.023489503768488
99.612779140008868 -71.649704079307540 -82.365998461138417
57.986682377753624 -72.029724105811624 -88.242819322545941
46.832899152807173 -76.114192526042586 -89.983073461004949
64.599633936215966 -70.038172632882265 -89.641915630565364
-63.946230540791078 -68.439718092758710 -91.912510977096147
72.101336547927048 -70.556549015854074 -86.699183776810798
102.112669503133986 -65.162748526412869 -97.868918208269449
75.787012058755820 -71.908329239366793 -99.993886145512249
95.549876422380947 -70.189235555611532 -101.485382044972383
-83.331598997960043 -71.757128340243383 -102.202624336749508
46.398414973597575 -70.117356792714318 -96.999975464131765
-85.259667158680671 -72.168165895356267 -101.015724510518140
52.381274233140317 -72.531356423628452 -109.230099943339354
38.997225866028145 -76.118500024487872 -102.461809593948104
103.391037380821231 -70.323204520121052 -102.224624564378075
38.414635318807726 -70.882531777318292 -104.838539876202489
43.777802414528068 -72.221002454038342 -117.440623676479035
43.942752309608672 -70.944690500762846 -111.947881796435396
111.290912383332369 -70.020326914091839 -111.358279983502413
-80.166533515190920 -74.822137903503204 -120.286728844714403
113.384740989483561 -74.448823149561292 -122.960096932204593
41.174985398039013 -67.814090473860361 -123.677821805951666
41.700079444824247 -70.466973588575357 -119.144863869838460
36.147996078541510 -71.562659687188429 -119.783314863628547
-54.637922010011089 -75.066930695080657 -128.356445841908055
31.316260721137741 -70.302988312043666 -122.374834596924316
-76.330297443571226 -69.405970718615009 -136.622662176724305
-54.271197967112855 -74.238917062973172 -131.412616063461087
-78.439107672715778 -69.009161293498039 -133.690381932840864
36.664143575118743 -69.407116883550813 -129.678623135815002
-58.559761021085329 -72.112193504040775 -132.428897282307588
36.214833620031428 -70.519160483681347 -132.308779314382264
-70.943879535795787 -69.280223675118634 -138.451530172839568
-58.220977165803355 -68.778545539293972 -139.602592440023869
26.712454965894349 -71.971796532402777 -141.561512979785107
111.922135535844291 -73.944243711732184 -142.147795512365605
116.317236674548568 -67.587624976499043 -136.218369247835398
31.740647789158004 -71.277641317732687 -140.450447457149806
-47.184576827379054 -72.397436722946850 -139.064368375668550
107.787602980934807 -69.413898225088005 -151.292604051251914
-74.573240146995190 -70.911210749647353 -141.899988977089578
-57.636505343276916 -71.120169608970301 -141.159403488237245
32.583734145156285 -67.487077700322416 -146.419358805798709
-76.580120097153198 -72.328618127869134 -144.989429050467294
-69.686050091153405 -71.021415410699078 -149.099669895184689
115.874226024697847 -74.951947539358358 -148.633155510062721
-63.724378796579813 -70.498169361625074 -153.967396227982306
-38.407155662921909 -68.574818483275834 -151.137068899026019
26.666652830135394 -69.742183773542507 -144.950588532220365
-72.247986651594772 -71.471466128392862 -144.883628719677745
13.337248629969613 -70.796050717512131 -148.722632406213648
32.767440974569602 -70.730834022942588 -155.921760439208811
31.929628037356760 -69.051900537273440 -149.225116941371937
16.141350948573027 -75.428377760915112 -153.086682006869523
-48.995393593482994 -72.546988368907520 -152.121660874799659
25.681284677055896 -72.539762012812076 -152.133395423033818
-45.281673154079932 -70.260036904483485 -149.069498222512067
5.630208720355419 -71.425733945462042 -153.012896495684430
21.378060200038188 -70.452781882081311 -148.948381139650877
-68.021220333538224 -70.468671784417893 -156.274489642027163
-45.766298316495622 -68.377084731865295 -153.016256116904685
-67.305256085717460 -70.590078530345238 -152.629473888320916
19.003878531554996 -70.113497050281168 -157.465175678254752
25.119010018580997 -70.407639880189507 -149.089421710773564
3.362149776551903 -71.259993807265005 -163.484178730983103
22.205857111378368 -71.038625871646047 -152.567451749954643
31.569630396938997 -70.994914129111876 -166.173764115508334
-46.501700760632311 -72.426828063692682 -162.108787746393517
-35.994666998703401 -77.121866933772608 -162.103518589576225
-40.033193478059772 -71.889325646194152 -159.732079545605330
28.661659087921844 -71.539463684401568 -157.689230027455181
-43.493861887208709 -69.545901664483168 -165.696413949340354
-38.998237432196525 -69.737560009875239 -165.296277046284445
22.145848780184462 -69.970861260194027 -164.762902512678579
-39.120259329183369 -71.713934310181045 -174.101034305207065
28.687930320719630 -67.901742303264129 -169.122913958427603
112.473320313067674 -68.337504774262740 -164.066119488182551
-32.784893460303664 -71.094028959073285 -170.924015178314590
103.507639050544981 -69.109045813018867 -172.387497765070322
-33.859852178987957 -70.819487637858316 -176.320362954756348
-36.717632136060445 -74.043360217465050 -180.296134798305559
21.872196695149849 -73.977588166987246 -175.990752042575764
106.529470184115894 -71.736167101439520 -181.138283610823208
-30.802617391833419 -69.702310356784992 -181.817000857345477
-34.477419377411103 -70.654756609890526 -176.405986239945179
-22.528886171092392 -74.594250757296138 -185.728724073599466
-148.380150496913643 -71.714794224568067 -187.613184880522198
13.627717535995734 -71.010857834864481 -182.342930503879302
105.657245535751628 -70.051415251498042 -190.250736223127944
-158.314736359076988 -70.764744750046148 -191.752833919244665
-22.314075961281990 -68.317021308789862 -188.459389177371605
-114.998830683521248 -72.803101193655749 -196.101738555160068
-130.160479145500716 -72.557102018614060 -194.310989174661302
-107.252385717045840 -71.723115576275035 -198.575050459478604
-113.021551820947252 -70.428494226177975 -199.000495070387558
-11.679143860321261 -72.063613641019344 -195.294754632694634
20.759031243393181 -70.148900114277097 -195.111769471473707
-15.170772001485604 -67.719110410844507 -200.833899746321919
-126.101604535439620 -71.245071966175260 -204.308874560367997
-20.208586104356733 -67.717196161259949 -201.951168977987038
-128.730739098149314 -70.099444287340432 -201.678621019335111
-14.769568715138137 -71.394158468640072 -199.193335559931228
-145.450101200783251 -70.049409811780890 -201.541131446277490
92.465680011190244 -67.711777854827545 -205.600098102166953
-163.892219106482543 -66.503182975114697 -200.199092343382006
-2.130939895875547 -72.952511340218123 -216.804917051689984
12.109797210310147 -72.446143916987893 -208.864284919172036
10.959263615501522 -73.418240371929002 -215.987831433094158
83.298576396443238 -71.337089077020025 -215.805572572570100
9.164212977374103 -72.286983511981987 -212.036677292551587
13.271083866177911 -70.443486332544850 -213.750380970357639
-15.190390126208376 -74.487924151284460 -214.826935919323034
-89.821924640531179 -71.607218539876271 -213.277143108664831
-97.354763445910777 -71.340833260909406 -215.401999315913287
0.655157289198692 -70.289972152322648 -218.111009008300243
-165.833179475039628 -73.021300050817345 -220.665299243790599
15.794352707044029 -69.335858126456330 -218.628740794680652
-143.991187085731355 -70.566121026359681 -219.999882973379982
13.612691292385842 -71.656100894685480 -223.942760987940829
-134.006312119496442 -72.566075713640572 -223.616677388585629
-115.285760056219601 -72.207649980083673 -225.974731051912386
17.424898255858707 -70.573467534726376 -219.889094546298509
79.062798125389776 -71.394988801732396 -220.459313317974591
7.400665471811291 -71.318170656870365 -222.458015308446676
-109.242212622780826 -70.574753895609462 -229.712961522193808
73.020499686085287 -72.295919012110886 -226.885481973893491
84.669542699870632 -72.471342535968631 -228.585994840092440
-124.576025743342029 -71.063568141709695 -233.866233771054254
-116.397233425640579 -71.278404021565748 -229.242368236710547
-9.382926873005209 -68.214901774530460 -226.797327341996152
72.643639796639405 -72.113768073603097 -230.480575295290947
65.304405928303098 -72.006783614229121 -232.278403887544926
73.946485832305584 -70.914366443391884 -228.591998677508883
-134.627667330818440 -68.003771644461168 -232.875787546466427
70.828876393644691 -72.504948509660807 -231.445144481957698
66.824348791160091 -69.283709343595888 -234.429080204458756
-165.500520911876663 -69.833719901156599 -229.263264579492500
2.069322328251206 -77.701677029723569 -239.914027782463478
20.001700058480846 -72.641218722111489 -238.512774106448063
-5.388243952383432 -68.860511787926882 -239.687610059485650
16.401434917363556 -66.578767156455328 -238.344263105097070
66.873753286865096 -72.393817317268159 -237.235063797477352
9.549518464856467 -69.643152402700593 -242.416423569868897
-10.300571931993456 -65.518869105758839 -239.819240988630781
0.101023838200121 -68.283608541273608 -236.488548873075388
65.586170170486227 -72.101572038331526 -241.541007454851183
3.688087222080906 -71.927257770971423 -241.580958941781972
-6.365619732881418 -72.146220381073505 -242.138528475756146
14.907012036483261 -73.772185430446015 -241.920340550417620
-166.864559775359965 -72.844578595781044 -239.847497127998196
56.649348013594192 -71.795419368866035 -246.354257174858333
50.567740207668969 -66.017818407371152 -249.961083897354342
58.829626707311355 -72.175722972309273 -241.910512613083966
-11.549464119672280 -69.731531182045700 -246.918006602364869
57.813769266233820 -71.287796987505885 -244.790772695320442
-73.290740170118582 -70.871546816034325 -248.757712275917356
51.393010824542571 -71.869477032521814 -247.747626095677617
-88.156910307312387 -71.144386359812543 -251.356250502868761
-122.636398273302916 -72.388408210328222 -255.462957340150922
-131.818649013517387 -71.244176078802852 -251.718089680678247
46.723670493956178 -73.017654320267297 -250.943931677146963
-131.986073258733086 -73.768564859238595 -251.952659119625196
-108.621041443513050 -69.555854922921469 -253.920094135473846
-115.506443512476594 -69.088853358652969 -256.274182906201418
-83.171922174439317 -71.737041740988076 -253.541951582261333
-110.431996515662547 -69.624128114030540 -257.966214923526422
-123.524996291780980 -74.504253201049551 -261.201506940856859
-145.967979014976891 -68.817680005028947 -266.374308697947527
-14.751818905655504 -70.097343288113109 -264.618955006812314
-170.793777661967709 -73.219225563324258 -263.163100073133194
-14.060667216421743 -70.881252806163189 -272.775557726807165
-158.466738996901370 -68.083934601253404 -266.024119965729994
-152.184152194250601 -71.506198408702545 -272.168927202226712
-169.432447551758088 -71.212006978391528 -276.233459166921364
-13.732287765950337 -71.494029845979568 -278.333160692772822
-129.716261218553655 -73.609637700247291 -281.926896141927443
-157.576811120568067 -71.016462694240616 -284.949529054538175
-143.486681822558609 -70.344852469104708 -279.718390711304323
-134.408876012696425 -74.067016007277275 -279.258968173870585
-7.725137842040562 -65.803490201728678 -283.493059942460889
-125.405773781287152 -74.722826593377064 -282.192044379025901
-140.578845463575817 -69.288763342074404 -284.369847479558700
-115.280754591723209 -74.160788732805159 -284.515902143288429
-78.548113650287320 -69.485093977315756 -286.920380522496941
-60.260008812589696 -72.003499768912704 -285.959417294894990
-6.560560656518570 -72.370425678784159 -286.837916956856418
-53.477129949287246 -70.190457104863611 -284.633878705094730
-56.773911004644958 -69.080968558068577 -287.543018403287533
-69.975119937584012 -69.628249709708655 -289.209801732283609
-87.639208783665353 -70.417082614571527 -292.634105905817194
-94.611049969686050 -69.087459987608682 -287.830785568534452
-159.920260058159755 -70.372788497971371 -290.183214023023766
-160.685793608234292 -72.173255050010724 -292.421809520221757
-124.221384610421197 -74.033151096642825 -292.654079143239983
-144.258732434390481 -71.461989814703188 -293.725407316378210
-152.691472478268366 -73.531221211122840 -302.446859694495060
-150.138827955314383 -73.630895679269898 -310.861433096111853
49.092420720974680 -68.900380179469423 -13.732529665500666
17.873519724984231 -72.010863549789804 -28.800085689703188
43.060554814743817 -67.059690845994851 -33.750080611750249
-14.461997775392133 -73.533341088807092 -65.314023470089694
82.831818204109112 -68.649302780672741 -64.288063937667161
89.703017134788510 -66.523053458285005 -65.151063393251860
78.936905595612586 -73.456104328101276 -64.606414750754539
73.756132544400216 -71.625424921211859 -68.358188429398083
92.209716152769332 -72.749024619365983 -74.101461899648896
-95.123170266108460 -67.360049503528160 -69.062699438618125
68.822509036066876 -71.025955290770554 -74.521299763370067
-35.558415816543814 -71.471691539318584 -76.278800185299730
99.894436247861933 -70.300102391856669 -85.058315968654853
62.429208359182660 -67.816506261072590 -89.513235945125416
108.065116005120743 -74.720727135071215 -92.833562155810839
102.478159282472845 -73.776704930737765 -97.588652042406949
73.227828846525014 -70.198472925765586 -99.775135100280565
-79.287279928381224 -69.287686652059222 -100.342715939695623
55.246556121951258 -70.271406716084044 -103.327675007271523
107.998583824866571 -67.721917723554284 -105.240891373896389
47.928011360550393 -70.981580335938034 -111.472740423321895
80.784945944794259 -69.203204784627431 -104.563922241888449
42.501059246255849 -69.942352804680723 -106.514094933436212
105.132888184754762 -69.878520378598992 -102.429897078747757
48.417102553167432 -69.729846853893605 -106.865940449040124
108.109589199594168 -74.913746944995921 -109.089842901727280
110.994366682610945 -73.049669078655114 -110.524038120157158
-78.610960726029035 -68.445709684411582 -112.985342252461336
-82.164196322368440 -68.647079029929117 -118.171041304519647
44.735464583808692 -73.191454299759059 -119.102921872923545
114.610037986995309 -71.715134610425892 -120.504967572222128
114.480681392592416 -69.859365050937811 -122.798073067528506
-86.491276896088479 -69.471002832697806 -125.768374925987743
106.764674561183568 -71.939048276947219 -124.960109180021917
-58.601892529887493 -74.467435643086802 -130.629264481229086
-85.421175889576702 -70.654438021918324 -126.082236359534690
-71.792979520191111 -70.491402062817116 -125.963162703527118
-58.449852355690396 -66.589905242508578 -125.623498361314560
32.383839911557402 -69.877838658705784 -129.204329883660250
43.123085113978448 -68.659757074636730 -133.762969020118788
-72.411065957969782 -69.978664838705726 -135.422039382130180
29.487363426595131 -68.319243488922268 -129.972552915015910
112.421091313177556 -70.099634764356850 -142.106820946111213
-39.462873585595908 -70.324727057354139 -147.155253425494408
31.106114208955749 -71.013140032563854 -147.863357323016658
114.622926015674324 -68.504148886701770 -146.900753099613809
36.289850599758104 -70.731416325378390 -141.769788840304699
111.120928887574593 -68.894164561529664 -140.003342170001048
-51.620292994603275 -70.517955509247358 -148.236183088318938
-70.567024774973504 -67.803704450224842 -149.792218338197728
-54.407069049202498 -70.755968918979960 -151.388652688497928
-41.393563110099350 -73.634147075798253 -163.813130902829215
5.412178116642778 -71.479341942724361 -154.814705142742611
110.558208978573830 -70.282929587361195 -152.683517892421008
109.682867077128179 -69.956723986968896 -158.790904718248100
10.750794344935192 -69.593222404135744 -156.408632618098295
4.004269061447801 -70.245486712238915 -160.254863524740045
19.940351159410575 -69.447453123327790 -154.233481416661647
26.365769601246690 -68.867986090062161 -154.655208873818765
109.433607739205655 -69.650131428407732 -164.790929604591042
110.268167204146067 -73.100609662463171 -166.872245089298019
24.608770457796776 -67.591457628588856 -173.380722653822517
25.688321602079430 -72.183593850390309 -162.800869696424598
