66.498634338379 -68.105606079102 -83.452224731445 0.264187753201
58.688438415527 -69.703353881836 -87.891151428223 0.766090631485
56.438308715820 -68.341583251953 -87.514266967773 0.129979878664
-57.923625946045 -68.011932373047 -89.386772155762 1.771504640579
66.025421142578 -68.163940429688 -89.620399475098 0.131954908371
45.046421051025 -70.244247436523 -96.974754333496 0.732099592686
67.520919799805 -68.849060058594 -94.283279418945 1.156488060951
-64.719665527344 -67.716598510742 -94.965080261230 1.045376658440
48.683128356934 -70.530952453613 -95.472793579102 1.750577330589
44.326324462891 -68.734802246094 -98.921546936035 1.100787520409
103.635757446289 -68.691833496094 -97.816284179688 0.617088496685
-68.350402832031 -69.005935668945 -99.504646301270 0.673056423664
109.255744934082 -68.752700805664 -101.498687744141 1.250373959541
-78.834953308105 -68.274780273438 -99.994232177734 0.246949061751
55.815559387207 -70.611198425293 -102.554794311523 0.135072141886
47.909996032715 -67.585250854492 -99.959098815918 0.825820982456
93.322402954102 -71.270851135254 -103.335807800293 0.716398954391
86.456390380859 -65.041076660156 -107.683753967285 0.639475762844
52.402538299561 -67.209175109863 -103.847076416016 1.148662686348
-75.054382324219 -69.086112976074 -108.912185668945 0.915667653084
-74.371704101563 -67.768501281738 -111.565979003906 0.424796432257
-79.075881958008 -70.145240783691 -118.785423278809 0.222373425961
-91.760559082031 -70.372146606445 -119.478279113770 0.559821665287
107.904426574707 -67.546249389648 -115.081970214844 0.385777562857
-85.095764160156 -69.151039123535 -119.570960998535 1.240772008896
-78.627380371094 -67.851562500000 -120.272392272949 0.353720605373
110.582008361816 -67.495101928711 -115.124626159668 0.202860787511
-63.956146240234 -65.324707031250 -118.994132995605 2.021787405014
114.464675903320 -68.931747436523 -131.308975219727 0.752049744129
110.397109985352 -68.622406005859 -129.042037963867 1.191980361938
110.384780883789 -67.877105712891 -122.901969909668 1.211014151573
-92.727241516113 -68.641868591309 -138.724319458008 0.212316572666
-49.032379150391 -68.501846313477 -141.349365234375 1.352929115295
-75.876083374023 -69.039375305176 -145.561141967773 1.274373888969
-69.114250183105 -68.990264892578 -149.539901733398 1.343843817711
-72.388046264648 -67.177825927734 -145.223754882813 2.275169610977
-55.194141387939 -68.089370727539 -143.052062988281 0.373271226883
-48.259883880615 -69.138595581055 -148.312515258789 0.731731474400
20.713029861450 -68.575012207031 -144.674697875977 0.532563984394
-94.492744445801 -68.748336791992 -145.069488525391 0.206021636724
-44.434181213379 -68.205001831055 -148.384109497070 0.137850299478
-53.560710906982 -68.225616455078 -148.867080688477 1.260668992996
-41.321346282959 -68.356567382813 -155.587036132813 0.468566477299
28.738885879517 -69.118003845215 -163.853195190430 3.002467870712
-48.397510528564 -67.132751464844 -149.634719848633 0.208395808935
-97.336204528809 -68.450874328613 -150.816390991211 1.284308314323
-41.861820220947 -68.063827514648 -159.364318847656 0.124719277024
26.644287109375 -67.845458984375 -151.574691772461 0.151826500893
-102.131591796875 -68.617965698242 -161.557205200195 1.063267827034
22.459869384766 -68.703948974609 -156.957275390625 2.607031345367
-106.609550476074 -68.687911987305 -171.190734863281 1.276409149170
-100.015052795410 -68.442031860352 -162.787796020508 2.675182104111
22.702577590942 -67.588653564453 -162.713653564453 2.628152608871
25.885118484497 -67.627143859863 -168.380462646484 0.654100000858
-104.381149291992 -68.700126647949 -174.121246337891 1.915853142738
-141.279312133789 -69.122909545898 -176.163360595703 0.320584297180
-22.022100448608 -68.542198181152 -187.248641967773 0.110042847693
-26.859249114990 -68.187179565430 -183.493820190430 0.887613773346
-112.482482910156 -68.373077392578 -187.030654907227 0.963767290115
-143.665878295898 -65.334877014160 -188.271606445313 1.216491103172
-105.970695495605 -68.074378967285 -182.003204345703 0.566564202309
-155.262802124023 -68.545837402344 -192.894302368164 0.801162123680
-131.232757568359 -69.693420410156 -194.600387573242 0.422652959824
-133.426239013672 -68.571258544922 -195.714355468750 0.821340560913
-20.361160278320 -67.467544555664 -192.461944580078 2.374830484390
-122.296760559082 -68.554473876953 -195.807052612305 0.567244529724
-114.288963317871 -67.720642089844 -196.696640014648 0.161333277822
-24.068923950195 -68.218978881836 -197.056808471680 1.488463997841
-154.081344604492 -67.626251220703 -201.282302856445 0.213361769915
-131.224853515625 -70.836097717285 -204.408554077148 0.282070010900
-124.681068420410 -68.159431457520 -205.539382934570 0.164228260517
17.621351242065 -67.644744873047 -201.905029296875 0.155802473426
-160.917022705078 -66.389709472656 -205.000976562500 1.234531402588
8.489550590515 -69.461944580078 -212.827194213867 0.740587592125
13.402048110962 -68.173461914063 -213.582839965820 1.437925934792
-19.251436233521 -67.668502807617 -206.866958618164 0.117391929030
-4.997346401215 -68.971687316895 -215.715179443359 0.876776158810
-166.196945190430 -67.701400756836 -209.235961914063 1.709988236427
-158.474121093750 -68.224609375000 -213.756118774414 1.293730378151
-94.220741271973 -69.158058166504 -217.535888671875 0.720621109009
-101.328956604004 -68.274383544922 -224.800308227539 1.127729892731
-160.797622680664 -67.197052001953 -222.485671997070 1.766876816750
-102.560737609863 -68.772125244141 -219.812805175781 1.826045513153
-12.459767341614 -67.966476440430 -218.005584716797 1.011790871620
-125.954505920410 -68.941986083984 -223.910476684570 0.142695367336
-140.378189086914 -69.577178955078 -225.640701293945 0.160436376929
-2.868541479111 -67.839645385742 -221.362609863281 0.595340669155
-134.251739501953 -68.232505798340 -225.757186889648 0.150144740939
-123.736900329590 -69.697601318359 -225.023223876953 0.242185026407
-114.225570678711 -67.796371459961 -226.320800781250 1.176700115204
3.459112167358 -68.466064453125 -226.477249145508 1.014623284340
-106.518714904785 -69.136627197266 -228.831558227539 0.653719067574
-158.346054077148 -67.285354614258 -223.449920654297 0.655483484268
-147.919586181641 -67.431671142578 -227.620635986328 0.165728703141
-165.991149902344 -67.865219116211 -223.978317260742 0.198572903872
-7.223649024963 -70.561470031738 -228.643173217773 1.225240707397
-8.714953422546 -68.022308349609 -230.945953369141 0.534920394421
78.655937194824 -68.522735595703 -226.333435058594 0.650192141533
2.023043155670 -68.436065673828 -230.458740234375 0.166261374950
-142.289382934570 -68.155395507813 -233.157730102539 0.524615168571
-13.495131492615 -68.939727783203 -228.749237060547 0.959680140018
74.483596801758 -68.553283691406 -228.928604125977 2.126224040985
75.777648925781 -68.752761840820 -233.065689086914 1.186544299126
-134.648208618164 -68.314071655273 -233.288955688477 0.444696813822
-158.932937622070 -67.391632080078 -228.325637817383 0.676496803761
-114.569915771484 -68.941284179688 -233.049026489258 0.235069692135
-123.489356994629 -67.285064697266 -234.166412353516 0.548370003700
-165.035140991211 -67.684226989746 -234.345748901367 0.628608763218
-158.619323730469 -67.895751953125 -236.094238281250 0.169910341501
-144.546463012695 -69.034484863281 -236.262680053711 0.277392029762
-9.140266418457 -70.389770507813 -236.780532836914 0.458997577429
-3.917491436005 -69.305397033691 -238.038619995117 0.415060788393
-161.120544433594 -66.982734680176 -237.703521728516 0.765008449554
5.376348972321 -69.777137756348 -239.995849609375 0.910644650459
6.190097808838 -67.969177246094 -234.405212402344 0.534059166908
-161.290802001953 -68.214477539063 -241.026733398438 0.821476101875
14.532986640930 -69.840270996094 -244.799133300781 0.192004427314
50.751846313477 -69.669334411621 -244.173751831055 0.824036657810
53.040088653564 -68.316986083984 -245.649658203125 0.877131521702
-13.920602798462 -69.583824157715 -246.573471069336 1.090409278870
49.673187255859 -67.634124755859 -248.267868041992 0.794839620590
-163.688858032227 -68.332984924316 -251.927993774414 0.155497699976
-162.407012939453 -67.931968688965 -248.663040161133 1.229017972946
-159.332855224609 -68.218994140625 -249.964401245117 1.355860233307
53.134262084961 -69.480209350586 -250.682022094727 0.274215698242
-89.666526794434 -68.303604125977 -252.845748901367 0.091998495162
-125.728179931641 -69.215972900391 -253.891799926758 0.656008720398
-105.115646362305 -69.480072021484 -255.193618774414 0.778466224670
29.256561279297 -69.595359802246 -257.193511962891 1.163270592690
43.748634338379 -68.505668640137 -250.645339965820 1.183147430420
-101.138725280762 -67.501785278320 -255.427200317383 0.353786289692
-94.390075683594 -67.364334106445 -255.202255249023 0.530952870846
45.132579803467 -69.041900634766 -252.970932006836 1.630325436592
44.162544250488 -68.508010864258 -256.093719482422 2.525178194046
-155.852401733398 -69.944519042969 -258.728088378906 0.137743070722
33.119243621826 -68.529525756836 -258.005737304688 0.453556418419
-141.820510864258 -70.892349243164 -263.200744628906 0.469356507063
-114.663146972656 -67.613784790039 -261.862121582031 0.661869108677
-135.278823852539 -70.313621520996 -263.281219482422 0.411630094051
28.710607528687 -69.606246948242 -262.568328857422 1.324667453766
-126.133232116699 -67.655578613281 -264.617370605469 0.095940671861
-10.919252395630 -68.505439758301 -260.557159423828 2.147719144821
23.515417098999 -70.510879516602 -270.829650878906 0.537789106369
-8.360580444336 -68.226387023926 -267.044952392578 0.743702292442
20.696237564087 -69.403678894043 -279.063171386719 1.091779828072
-151.498794555664 -68.011367797852 -282.391021728516 0.101474061608
-9.919300079346 -69.400238037109 -280.264465332031 0.210893481970
-154.112533569336 -70.850868225098 -283.852050781250 0.342038184404
-126.099952697754 -67.398696899414 -285.007965087891 0.745519995689
-155.992630004883 -71.041320800781 -286.434478759766 0.106985688210
-114.368209838867 -68.955154418945 -287.305084228516 0.087189733982
-105.964698791504 -68.049240112305 -288.401733398438 0.439858019352
-7.076971530914 -68.114631652832 -286.521667480469 0.889630138874
-109.435806274414 -68.156036376953 -290.516998291016 2.006134748459
-115.883377075195 -67.179573059082 -288.191314697266 0.446962505579
-116.567672729492 -67.500671386719 -291.052642822266 0.342459470034
-135.777938842773 -67.305526733398 -289.235565185547 0.504030108452
-124.919456481934 -69.581291198730 -292.263946533203 0.480153024197
-156.438827514648 -69.930747985840 -290.574890136719 0.767438411713
-146.378646850586 -69.704223632813 -294.844024658203 0.089718170464
-151.928009033203 -68.312255859375 -299.789642333984 0.086555533111
-153.741928100586 -67.643905639648 -311.302490234375 0.371101349592
-155.145416259766 -69.390167236328 -300.687530517578 0.218379527330
-145.358703613281 -69.080421447754 -311.200408935547 0.724480032921
-150.839920043945 -66.692535400391 -312.213653564453 0.730633378029
36.410438537598 -70.309692382813 -11.712712287903 0.747300148010
44.683147430420 -70.345779418945 -15.027470588684 1.117690443993
25.642248153687 -64.355468750000 -25.797687530518 1.954382181168
50.182804107666 -69.772407531738 -29.440788269043 0.173584982753
29.662689208984 -71.025154113770 -34.601970672607 1.278959512711
35.440025329590 -70.803504943848 -36.629894256592 0.363372951746
-57.378643035889 -66.657867431641 -45.107372283936 1.309036850929
84.702186584473 -67.839111328125 -63.633556365967 0.179836422205
79.367782592773 -69.074768066406 -65.438568115234 1.794643282890
-90.716972351074 -67.331512451172 -60.667842864990 1.965364575386
-11.379324913025 -67.165786743164 -63.769115447998 1.489868402481
-91.706649780273 -70.220306396484 -66.972328186035 1.624955892563
96.737075805664 -68.912132263184 -70.892364501953 0.145266354084
-15.628726005554 -66.213607788086 -68.730033874512 1.358263969421
68.336395263672 -69.447601318359 -74.717300415039 0.132865205407
-37.935653686523 -71.597137451172 -76.070617675781 0.724097430706
-28.028205871582 -72.585968017578 -77.918029785156 0.500538051128
57.636749267578 -69.202789306641 -85.318855285645 1.083344340324
-44.910179138184 -77.219764709473 -85.103256225586 0.642506122589
65.281555175781 -66.665763854980 -86.005096435547 1.085860610008
54.470031738281 -69.848205566406 -87.152206420898 0.472945153713
51.672092437744 -70.426498413086 -92.127380371094 1.232656717300
62.481124877930 -68.237213134766 -90.945686340332 0.882733166218
58.538806915283 -69.510009765625 -95.583396911621 0.869020998478
101.668838500977 -68.127830505371 -96.549926757813 0.907575428486
104.893280029297 -67.930763244629 -96.679847717285 0.166772708297
58.977279663086 -70.032386779785 -98.298660278320 1.234815716743
106.261962890625 -66.547927856445 -97.651634216309 1.003569364548
-74.889190673828 -68.309204101563 -99.364372253418 0.241928175092
-70.911895751953 -66.467544555664 -99.602462768555 0.451128065586
101.009834289551 -67.355865478516 -98.473358154297 0.751431882381
53.786323547363 -68.160202026367 -100.223037719727 0.644994974136
71.253051757813 -68.573898315430 -100.520439147949 0.919458389282
-73.658416748047 -67.873542785645 -104.352142333984 0.891186833382
-83.614982604980 -67.173568725586 -105.140853881836 1.384382843971
93.255218505859 -68.566589355469 -105.884361267090 1.018006443977
42.771659851074 -67.439163208008 -106.227539062500 0.124015234411
103.591506958008 -67.036102294922 -103.102828979492 1.222839832306
44.624248504639 -68.315917968750 -112.870536804199 0.993352055550
109.430641174316 -67.510726928711 -105.506233215332 1.130338311195
-79.505683898926 -66.421806335449 -108.589378356934 1.502051353455
107.429199218750 -66.602752685547 -107.972381591797 1.590512633324
-85.389793395996 -66.719886779785 -119.677436828613 0.406274557114
-58.453117370605 -69.188827514648 -128.593002319336 0.117909207940
-53.694046020508 -66.183517456055 -125.644584655762 0.542182028294
-73.827026367188 -67.364608764648 -128.269241333008 1.712668180466
-51.248023986816 -68.748619079590 -129.818191528320 0.167848229408
-83.853942871094 -68.788902282715 -130.221725463867 1.091990828514
-76.963043212891 -67.356704711914 -134.214553833008 1.084425091743
-82.197814941406 -66.617324829102 -127.430885314941 0.363865435123
-58.254890441895 -70.066452026367 -139.565292358398 0.777606010437
-72.651046752930 -66.481369018555 -138.653518676758 0.299021542072
-58.849830627441 -66.578163146973 -137.475265502930 0.164409682155
-60.455776214600 -68.822830200195 -139.609222412109 0.727923989296
23.007814407349 -66.972427368164 -140.802017211914 1.163324594498
-90.174507141113 -67.072067260742 -143.737396240234 1.484033823013
-46.156482696533 -67.800033569336 -142.638229370117 0.829421401024
-98.872245788574 -65.866546630859 -148.645202636719 1.505589365959
-99.179573059082 -67.255546569824 -151.083419799805 0.202634125948
17.809415817261 -68.159492492676 -151.706604003906 0.807232081890
13.123143196106 -68.788642883301 -156.370483398438 0.753205657005
-96.614028930664 -67.168945312500 -157.548919677734 1.253812789917
-102.246696472168 -66.740417480469 -157.370849609375 0.702864408493
-101.251609802246 -67.192184448242 -168.815780639648 0.180621162057
23.036945343018 -67.062240600586 -168.525909423828 1.591261386871
-107.970436096191 -67.257827758789 -170.966949462891 2.079375505447
19.672357559204 -68.476455688477 -168.425170898438 0.507420301437
-146.907409667969 -67.149627685547 -175.375503540039 0.568413436413
17.549112319946 -68.199874877930 -176.497512817383 1.047941923141
23.025022506714 -67.727066040039 -185.188430786133 1.971968889236
-153.049438476563 -67.076316833496 -186.895767211914 0.232666879892
22.113710403442 -66.701446533203 -178.223312377930 1.040121197701
19.217737197876 -66.801345825195 -178.647460937500 0.134837880731
-141.076293945313 -69.111991882324 -187.266830444336 0.215342700481
-151.681274414063 -67.666831970215 -188.274368286133 1.038008928299
20.222225189209 -66.778373718262 -188.940414428711 1.866838574409
18.321662902832 -66.602378845215 -188.758224487305 0.142108961940
-142.923965454102 -68.016799926758 -192.413803100586 0.493435353041
-108.060035705566 -67.882385253906 -197.354965209961 0.328493803740
20.565046310425 -68.409240722656 -196.648513793945 1.054280757904
-123.781120300293 -66.034744262695 -194.498413085938 0.241754636168
12.520255088806 -67.669021606445 -197.752822875977 2.234897375107
-132.231338500977 -66.730514526367 -194.580139160156 0.970113992691
-155.033142089844 -66.225631713867 -193.635360717773 0.660826385021
-163.061569213867 -68.572822570801 -196.920425415039 0.566105008125
-161.830383300781 -66.264770507813 -197.809722900391 0.229569032788
-18.313611984253 -66.517822265625 -199.971298217773 2.335882425308
-165.497680664063 -68.454887390137 -200.040344238281 0.884104132652
-24.175340652466 -67.389923095703 -191.900527954102 1.384744405746
-14.914770126343 -68.255081176758 -199.042877197266 1.987354874611
14.673555374146 -66.895462036133 -194.709350585938 1.329275608063
-159.214660644531 -66.155570983887 -199.481185913086 0.222792983055
-110.335067749023 -67.438369750977 -201.037353515625 0.149925202131
-18.646076202393 -66.670791625977 -204.588363647461 1.674204349518
-158.200134277344 -67.872039794922 -202.402008056641 0.409044623375
15.771741867065 -66.755210876465 -199.850662231445 1.570329666138
-165.134185791016 -66.426490783691 -203.113876342773 0.867915034294
-122.196922302246 -69.089584350586 -203.152770996094 0.416547656059
-114.391548156738 -65.994445800781 -204.363357543945 1.557343840599
-123.263725280762 -65.703994750977 -204.871353149414 0.935977160931
-12.984283447266 -67.691436767578 -204.875549316406 0.309513688087
-14.452437400818 -66.752014160156 -205.679138183594 0.554285943508
-164.542892456055 -66.531707763672 -209.068908691406 1.358124494553
-160.481033325195 -66.974548339844 -213.591262817383 1.029790759087
-164.853622436523 -67.117721557617 -219.512344360352 3.283495426178
-144.263259887695 -67.666221618652 -214.680953979492 0.751059830189
-143.856262207031 -68.998641967773 -222.065063476563 0.797545075417
-5.770102977753 -66.816482543945 -221.236114501953 1.214190602303
-10.584018707275 -66.886672973633 -216.431167602539 2.006697893143
-98.385765075684 -67.868942260742 -221.283157348633 1.156053543091
-5.393192291260 -67.491027832031 -227.157089233398 0.658388137817
-164.096374511719 -67.154006958008 -226.298522949219 0.733529448509
-109.659736633301 -66.222717285156 -229.444229125977 0.112922504544
0.098076850176 -66.928970336914 -226.507369995117 0.156888365746
4.194771766663 -66.102027893066 -230.333267211914 1.041319012642
-111.532150268555 -69.001403808594 -231.617767333984 0.842151463032
-1.245247006416 -67.048042297363 -230.947174072266 0.160117104650
-116.195922851563 -66.925476074219 -234.579803466797 0.663010597229
-7.017099380493 -66.951766967773 -235.296600341797 1.714604377747
-2.888496398926 -67.032325744629 -234.490158081055 1.018632292747
0.033986881375 -68.391250610352 -235.354644775391 0.169860139489
70.444999694824 -67.500228881836 -235.714431762695 2.467041492462
-12.615085601807 -69.274261474609 -237.220718383789 0.606951653957
3.134908437729 -67.784484863281 -238.955429077148 0.503705084324
11.019817352295 -66.842376708984 -240.960342407227 0.563647687435
6.048859596252 -66.775238037109 -238.764099121094 0.742350637913
0.048814103007 -67.725234985352 -239.922958374023 1.056420326233
65.953651428223 -67.227333068848 -236.538772583008 1.899287462234
69.290512084961 -68.403854370117 -239.156768798828 0.949053645134
11.267072677612 -68.379325866699 -243.842803955078 0.375236302614
57.797401428223 -66.866729736328 -241.251373291016 0.266504704952
56.238094329834 -68.629096984863 -240.856674194336 0.576258063316
47.214931488037 -67.498550415039 -246.262832641602 0.565773069859
39.755359649658 -68.575393676758 -250.367172241211 1.725958585739
40.729026794434 -67.306015014648 -252.343582153320 0.253907471895
-134.630661010742 -68.151885986328 -254.477035522461 0.078892692924
-12.694732666016 -68.157562255859 -253.454452514648 1.233450531960
25.081037521362 -68.606582641602 -258.545379638672 0.248001068830
47.344104766846 -68.163406372070 -251.687393188477 0.711299777031
24.214591979980 -68.241035461426 -255.381454467773 0.923909425735
-100.897041320801 -67.052780151367 -257.121826171875 0.088179074228
33.263420104980 -67.463157653809 -256.321777343750 0.247164711356
-150.276992797852 -68.747085571289 -259.160797119141 1.015623927116
-115.927017211914 -66.381240844727 -258.021331787109 0.339697867632
-105.508117675781 -66.992897033691 -256.670013427734 0.818373918533
-6.399980068207 -67.047966003418 -259.077697753906 0.781453788280
-147.839187622070 -68.526924133301 -257.531524658203 0.704702436924
32.496913909912 -66.417617797852 -259.605499267578 0.635060667992
-112.584785461426 -66.856475830078 -258.019622802734 0.595506906509
26.892704010010 -67.402191162109 -259.685821533203 0.241197809577
-135.375808715820 -66.044692993164 -259.488769531250 0.759275734425
-116.170692443848 -66.237792968750 -260.097320556641 0.461151719093
-107.089393615723 -66.595794677734 -259.132019042969 0.174043580890
-116.726921081543 -66.016784667969 -261.910522460938 0.685805439949
-137.309417724609 -67.578552246094 -262.059875488281 1.803358435631
27.845932006836 -67.617546081543 -261.861480712891 0.675664782524
-118.106025695801 -67.662940979004 -263.739746093750 0.216376215219
-143.685974121094 -68.756912231445 -263.278472900391 0.923476636410
-5.305641651154 -67.198516845703 -270.865142822266 0.948041617870
-152.296936035156 -69.140899658203 -282.675842285156 0.103931173682
-7.520200729370 -67.534393310547 -281.484375000000 1.828769087791
-5.196560859680 -66.316749572754 -285.291992187500 0.530543506145
-134.341674804688 -68.013885498047 -284.870391845703 0.867239475250
-124.754455566406 -67.738670349121 -287.468414306641 0.194267272949
-136.024642944336 -68.819656372070 -292.136108398438 0.546993672848
-126.420486450195 -69.391494750977 -294.621765136719 0.341563940048
-153.301254272461 -69.293914794922 -294.647094726563 0.133812412620
-153.482116699219 -67.456100463867 -300.639129638672 0.085127063096
-147.043991088867 -68.760650634766 -299.829620361328 1.414618253708
-150.729370117188 -66.180625915527 -300.940460205078 0.080690875649
-145.434890747070 -68.386306762695 -300.809020996094 0.082855172455
-147.582107543945 -66.630264282227 -301.226654052734 0.175163164735
-147.430450439453 -67.419265747070 -312.034240722656 0.076649166644
20.255994796753 -70.802474975586 -29.795520782471 0.254920482635
47.885749816895 -69.965606689453 -34.686058044434 0.905343294144
27.588630676270 -71.126655578613 -39.546230316162 0.988808035851
33.702930450439 -70.616798400879 -40.346717834473 0.456720083952
-43.473159790039 -66.214492797852 -46.565925598145 0.903101623058
-78.936973571777 -68.531921386719 -50.828330993652 1.898988842964
81.209358215332 -65.512054443359 -61.626270294189 1.082023859024
76.357192993164 -67.087112426758 -63.250988006592 0.945886790752
70.458717346191 -66.859924316406 -68.513366699219 1.928012728691
-96.503570556641 -66.750183105469 -74.206024169922 2.361214399338
100.951194763184 -67.696067810059 -76.249824523926 1.518375873566
-33.902252197266 -65.869552612305 -78.263916015625 1.342692494392
65.849258422852 -67.135559082031 -78.643867492676 0.530978441238
-44.450908660889 -66.055541992188 -80.656173706055 0.221029207110
-50.544780731201 -65.017631530762 -84.339591979980 0.682388186455
49.999118804932 -69.151260375977 -90.363731384277 1.117178559303
102.530670166016 -69.059341430664 -90.120201110840 1.091551780701
66.011390686035 -65.265243530273 -95.507499694824 0.126440018415
58.087776184082 -66.276657104492 -95.232734680176 0.097591452301
50.075672149658 -66.877525329590 -100.374771118164 1.189264774323
57.535991668701 -65.183174133301 -97.644157409668 0.801814615726
104.290733337402 -65.867889404297 -98.171287536621 0.163584455848
71.338851928711 -66.485580444336 -103.843963623047 0.601423025131
47.632572174072 -66.224136352539 -105.297302246094 1.088390469551
78.271095275879 -68.463554382324 -105.949935913086 1.177178859711
90.904678344727 -65.151931762695 -108.482727050781 0.482230544090
-76.831901550293 -67.007324218750 -105.494979858398 0.264472961426
-86.882064819336 -68.334320068359 -110.094787597656 1.702187895775
-82.345138549805 -68.093353271484 -113.618400573730 0.488665163517
-59.267814636230 -64.849151611328 -118.034416198730 0.188566237688
-56.703254699707 -68.927993774414 -125.115242004395 0.947039961815
-94.198074340820 -67.061035156250 -122.006263732910 0.572085082531
-76.656761169434 -65.998916625977 -120.047233581543 1.254149317741
-76.002288818359 -68.735717773438 -131.135025024414 0.127868548036
-61.230899810791 -66.968185424805 -129.079498291016 1.855329036713
-89.159523010254 -64.798538208008 -129.799346923828 0.666141688824
-89.468086242676 -67.419509887695 -128.650039672852 1.556047439575
-47.403530120850 -70.433708190918 -135.500656127930 2.112504959106
-52.377342224121 -65.632934570313 -135.112442016602 0.157846122980
-76.404426574707 -65.282020568848 -138.524490356445 1.752008438110
-52.582122802734 -67.020126342773 -141.591659545898 0.733888924122
-75.350379943848 -66.422637939453 -141.591415405273 0.786739051342
23.923805236816 -65.527099609375 -137.571823120117 1.306509494781
-56.446693420410 -68.391250610352 -145.518432617188 0.590073883533
-53.592945098877 -65.690887451172 -144.434402465820 1.368800163269
9.809307098389 -67.496429443359 -154.749603271484 1.226733088493
15.872104644775 -65.422042846680 -151.428054809570 0.114039316773
-143.404144287109 -66.100021362305 -175.203170776367 1.162768602371
-110.532409667969 -67.577651977539 -178.437332153320 1.604424238205
-107.063514709473 -65.739067077637 -188.564880371094 0.922091007233
-151.552215576172 -67.357460021973 -193.157882690430 0.669186413288
-112.474044799805 -66.174171447754 -184.746765136719 1.616919755936
-152.958770751953 -65.785675048828 -195.202499389648 0.218963012099
-113.813156127930 -65.191848754883 -197.476547241211 0.552046298981
-149.006881713867 -66.426353454590 -198.863327026367 0.478495359421
-151.705749511719 -67.876892089844 -205.349517822266 0.304972738028
-151.436965942383 -67.991157531738 -211.515075683594 3.164119482040
-145.659729003906 -66.463966369629 -222.512161254883 0.456220209599
-151.769287109375 -68.386703491211 -223.306671142578 0.851006209850
-104.483474731445 -66.943275451660 -222.224197387695 1.226339578629
-104.591484069824 -66.382858276367 -224.772445678711 1.009453415871
-123.645301818848 -65.366622924805 -227.515441894531 0.616062879562
-109.351051330566 -65.372909545898 -226.813842773438 0.114038407803
-155.106887817383 -68.896347045898 -230.218338012695 0.174222439528
-2.180001735687 -66.681396484375 -227.921936035156 0.326850861311
-134.805618286133 -65.528961181641 -231.721710205078 0.266571283340
-152.889083862305 -69.033203125000 -234.230682373047 0.807139992714
-133.823211669922 -66.806900024414 -234.204238891602 0.136486992240
-12.248820304871 -67.696899414063 -238.820037841797 0.154199644923
8.868394851685 -67.748420715332 -241.113708496094 0.042795818299
63.090789794922 -66.516220092773 -241.326889038086 1.306499123573
19.026435852051 -67.349182128906 -246.917709350586 0.512517392635
58.899085998535 -66.426239013672 -245.552703857422 0.709054112434
42.500030517578 -66.381774902344 -249.134963989258 1.882670879364
54.574527740479 -67.464721679688 -249.741287231445 0.643074452877
-150.945846557617 -66.777114868164 -252.198104858398 0.503640294075
-152.719863891602 -69.601249694824 -253.508132934570 0.139944896102
41.498703002930 -66.271202087402 -257.160949707031 0.528040826321
32.002227783203 -66.000717163086 -257.647644042969 1.934790492058
46.721668243408 -67.300148010254 -250.811904907227 0.976303696632
-143.905990600586 -68.904891967773 -254.179428100586 0.977722764015
-134.147521972656 -65.600692749023 -256.235839843750 0.107981778681
-126.082069396973 -65.648117065430 -255.547134399414 1.048424720764
-134.958145141602 -67.845046997070 -255.987838745117 1.062270998955
-142.028869628906 -66.685256958008 -257.325195312500 0.117468371987
-124.487815856934 -66.495155334473 -258.457336425781 0.097882844508
-142.016204833984 -66.355941772461 -260.215240478516 0.542958021164
-124.514778137207 -66.632690429688 -261.401733398438 0.095529407263
-125.757614135742 -65.519851684570 -262.983184814453 0.877686798573
-124.973739624023 -67.624649047852 -263.658721923828 0.327877610922
-117.491371154785 -65.801818847656 -263.494079589844 1.062690496445
-5.254098415375 -67.154235839844 -264.877227783203 0.815159559250
25.927894592285 -67.561386108398 -262.978942871094 0.949404001236
-146.929061889648 -67.581924438477 -265.779479980469 0.114462070167
26.260261535645 -65.277969360352 -265.673065185547 0.656449139118
-2.931378602982 -66.377853393555 -271.066558837891 1.646313905716
16.465673446655 -70.226943969727 -283.914703369141 0.753775775433
-142.399688720703 -67.300079345703 -288.348449707031 0.454686105251
-126.601287841797 -65.542350769043 -287.328033447266 0.675380587578
-134.496902465820 -65.837142944336 -289.437194824219 0.813195705414
-156.636840820313 -64.808799743652 -290.154571533203 1.061959266663
-124.961524963379 -65.339035034180 -288.795715332031 0.654239356518
-118.175346374512 -65.102088928223 -289.350158691406 0.737735331059
-127.139686584473 -66.294403076172 -292.390319824219 0.837650060654
-148.553329467773 -67.895492553711 -295.934753417969 1.011949300766
27.301586151123 -70.516647338867 -13.807229042053 0.317318320274
35.262187957764 -70.652633666992 -16.618450164795 0.802110195160
39.282772064209 -70.856475830078 -17.693355560303 0.299154013395
49.423526763916 -62.541084289551 -23.858745574951 1.067688941956
25.778848648071 -70.721244812012 -27.538993835449 0.689456343651
23.056318283081 -70.713211059570 -35.680522918701 0.412757843733
-34.911720275879 -64.749046325684 -47.265762329102 0.442705094814
-84.070816040039 -66.038314819336 -51.959049224854 1.224556326866
-14.924573898315 -65.781532287598 -57.020343780518 0.973670721054
70.984939575195 -65.541839599609 -64.833229064941 0.981642305851
98.820755004883 -65.723182678223 -68.259407043457 0.138700604439
65.267921447754 -66.975173950195 -81.334777832031 0.727950215340
62.040653228760 -63.911529541016 -81.178009033203 0.968379020691
104.218421936035 -64.668609619141 -83.854354858398 0.938898444176
-63.135982513428 -64.543342590332 -89.381561279297 0.573924243450
-63.985717773438 -65.233596801758 -93.280998229980 0.231001317501
47.718997955322 -65.905517578125 -95.297805786133 1.778493165970
-65.869575500488 -64.472671508789 -95.618911743164 0.229652404785
-68.908805847168 -65.900054931641 -98.852325439453 0.231065601110
-98.881340026855 -63.148414611816 -95.778495788574 1.159329414368
-74.831947326660 -65.240219116211 -100.911758422852 1.056247830391
47.023880004883 -65.442932128906 -100.427757263184 0.951515436172
-70.190742492676 -66.315559387207 -102.931793212891 0.865345358849
52.184154510498 -64.861389160156 -100.863449096680 1.313338518143
97.509796142578 -66.760940551758 -104.028511047363 0.162282779813
92.835731506348 -65.031555175781 -107.222793579102 0.156392231584
-74.586151123047 -65.810684204102 -112.233726501465 1.407771348953
-80.924270629883 -65.171447753906 -112.605056762695 0.548740684986
-61.548976898193 -65.988548278809 -119.128562927246 1.377884745598
-96.704460144043 -65.357971191406 -119.765571594238 1.296131849289
-77.177322387695 -66.013191223145 -126.895973205566 1.008635044098
-92.346855163574 -63.423332214355 -122.797355651855 0.167019277811
-61.845668792725 -63.684040069580 -119.202278137207 0.275686413050
-59.964828491211 -62.628620147705 -118.238151550293 0.462578415871
-86.445266723633 -64.088134765625 -127.764335632324 1.266059517860
-62.314914703369 -68.517425537109 -128.420669555664 0.939088225365
-84.320854187012 -64.934219360352 -130.566528320313 0.207374885678
-73.237831115723 -66.683036804199 -131.929595947266 0.600214779377
-63.425849914551 -65.713218688965 -130.710617065430 0.913614153862
-61.514636993408 -62.747192382813 -135.186599731445 1.585256218910
-53.780811309814 -65.217849731445 -137.768249511719 0.634748876095
-91.789825439453 -65.124778747559 -133.870040893555 0.860347092152
-96.132980346680 -66.683944702148 -142.756057739258 0.842934072018
-84.554939270020 -66.200576782227 -132.617279052734 0.155100554228
22.897794723511 -66.701370239258 -144.912857055664 1.478309631348
-49.169281005859 -65.984016418457 -143.691329956055 1.789100408554
15.531111717224 -64.246803283691 -147.865051269531 1.151960372925
-98.206321716309 -65.698226928711 -162.533218383789 0.183211952448
-102.115890502930 -66.347976684570 -171.919540405273 0.863731622696
-102.210113525391 -64.444122314453 -171.082992553711 1.416277885437
-106.731483459473 -65.693229675293 -166.629791259766 0.189849272370
-105.006042480469 -66.433464050293 -180.504379272461 2.192923069000
-110.374702453613 -65.430824279785 -176.922256469727 0.180291831493
-141.292053222656 -66.364707946777 -187.492370605469 0.087998330593
-112.250946044922 -64.781585693359 -187.171508789063 0.830175459385
-132.810974121094 -63.794521331787 -196.051513671875 0.184519261122
-146.753723144531 -66.223220825195 -197.914520263672 0.205614835024
-122.694381713867 -65.716262817383 -197.009353637695 0.170212835073
-154.326156616211 -66.480377197266 -197.835800170898 0.229850754142
-146.986129760742 -66.616516113281 -201.024383544922 0.297019988298
-122.588233947754 -64.408119201660 -201.022796630859 0.860437989235
-133.927108764648 -66.783859252930 -203.507110595703 0.571626782417
-144.179946899414 -66.839691162109 -205.779800415039 0.841088831425
-133.698455810547 -68.090080261230 -224.202270507813 0.775099933147
-112.908546447754 -65.495635986328 -227.579498291016 0.365923374891
-146.612075805664 -67.042381286621 -229.419967651367 0.160864964128
-116.209274291992 -64.673248291016 -228.952056884766 0.454690665007
-113.844429016113 -65.316276550293 -230.940277099609 0.702089488506
-124.413978576660 -65.477981567383 -234.009231567383 0.558728694916
-126.472175598145 -66.882461547852 -234.789810180664 0.126614883542
-116.428504943848 -64.948593139648 -233.161544799805 1.182674527168
3.197551488876 -65.520538330078 -234.159561157227 1.451330661774
-150.807128906250 -66.887908935547 -235.429183959961 0.740678369999
7.622916698456 -67.843467712402 -232.124526977539 0.553537547588
8.080620765686 -65.042976379395 -238.105773925781 0.180188819766
1.425799012184 -66.184448242188 -238.897064208984 0.172191947699
15.770844459534 -63.288314819336 -239.772262573242 0.140350893140
-145.920318603516 -67.004150390625 -235.571929931641 0.084438264370
-3.338942289352 -64.700050354004 -244.603927612305 0.170024022460
19.854784011841 -65.145584106445 -243.581909179688 1.681563973427
47.219974517822 -65.196990966797 -247.820388793945 1.108029961586
50.987895965576 -64.862991333008 -247.664199829102 0.832648873329
-146.599288940430 -66.918518066406 -252.192794799805 0.065723471344
-6.560691833496 -65.272583007813 -251.922409057617 0.469510346651
25.808540344238 -65.783905029297 -257.542022705078 0.388787865639
-134.050582885742 -64.558013916016 -258.982147216797 0.471338927746
-126.966461181641 -64.437812805176 -261.132415771484 0.093635879457
-126.306228637695 -64.345199584961 -257.702697753906 1.009435534477
25.673606872559 -66.069236755371 -260.016632080078 0.297023445368
-134.757034301758 -66.944206237793 -263.712951660156 1.458603382111
26.714582443237 -65.255554199219 -262.082092285156 0.364478766918
30.099903106689 -66.650550842285 -263.549407958984 1.023335814476
-151.364089965820 -67.776031494141 -265.198425292969 0.396830528975
-148.138412475586 -69.901756286621 -287.811126708984 0.569011330605
-151.406860351563 -66.200614929199 -288.873321533203 0.091575175524
-143.825332641602 -63.690544128418 -291.668487548828 0.489261716604
8.204618453979 -68.077224731445 -291.876007080078 1.285926461220
-154.621963500977 -64.683334350586 -293.898742675781 0.086771182716
44.513320922852 -70.490104675293 -26.015705108643 0.799368917942
34.857891082764 -70.733268737793 -40.692897796631 0.295534044504
-64.637634277344 -65.633163452148 -44.676464080811 1.325476050377
-73.364845275879 -64.205322265625 -45.173175811768 1.266793489456
-27.638782501221 -65.448280334473 -49.705036163330 1.541349887848
-20.866252899170 -66.696487426758 -53.991737365723 1.997038483620
-14.279855728149 -62.719318389893 -66.015563964844 0.194338023663
-24.092569351196 -64.319900512695 -68.835021972656 1.203856945038
65.516098022461 -64.506126403809 -72.343742370605 0.124419771135
-98.327590942383 -63.436889648438 -77.410530090332 1.403022408485
-47.424846649170 -64.973327636719 -83.441703796387 1.049698352814
54.713768005371 -65.432403564453 -85.751800537109 0.123469054699
55.404979705811 -64.542190551758 -87.817810058594 1.433833837509
65.057571411133 -65.286117553711 -89.372657775879 0.125020459294
104.537765502930 -64.676803588867 -91.074394226074 0.155695304275
51.864494323730 -62.308246612549 -93.600616455078 1.282045841217
100.037803649902 -66.090682983398 -100.907630920410 0.704137504101
-79.597686767578 -66.111602783203 -101.623825073242 2.009599924088
-97.739364624023 -66.346939086914 -102.924224853516 0.073552429676
76.590347290039 -63.622402191162 -109.202323913574 0.766799986362
-75.757598876953 -63.027149200439 -103.093605041504 0.223370596766
-77.848274230957 -66.952728271484 -117.781059265137 0.333511948586
-83.412322998047 -64.853073120117 -117.888236999512 1.029372334480
-55.437671661377 -65.893730163574 -126.811668395996 1.757471084595
-79.183448791504 -66.810714721680 -127.592475891113 1.131751418114
-61.215969085693 -65.507446289063 -131.481933593750 1.390050172806
-80.192741394043 -66.028587341309 -133.391677856445 1.641239047050
-75.185066223145 -64.454177856445 -132.868667602539 1.277034997940
-80.420333862305 -60.763568878174 -125.393730163574 0.751988291740
-86.879562377930 -63.472221374512 -131.215698242188 0.208718076348
-63.034568786621 -63.784053802490 -132.463760375977 0.327613472939
-90.589355468750 -63.522628784180 -134.488265991211 1.910398840904
-49.372413635254 -65.496665954590 -134.640747070313 0.614118695259
-56.623161315918 -65.772354125977 -138.992630004883 0.449087828398
27.518774032593 -65.085655212402 -136.134811401367 1.007817149162
-58.130077362061 -62.489501953125 -138.038146972656 0.156896010041
14.886791229248 -65.957794189453 -145.983612060547 1.323579788208
19.873495101929 -65.860000610352 -149.128875732422 1.485898017883
18.204725265503 -63.669940948486 -151.996246337891 0.683961570263
-96.619201660156 -64.072921752930 -144.692718505859 1.064758300781
-93.468711853027 -65.514366149902 -151.890899658203 1.311404347420
-95.462722778320 -62.448760986328 -152.601089477539 0.665119290352
-102.620872497559 -64.792900085449 -157.425415039063 1.123587846756
-96.152702331543 -64.806350708008 -157.805114746094 0.266524672508
-151.051406860352 -69.595046997070 -174.883117675781 0.766908645630
-153.247756958008 -65.662368774414 -176.479080200195 0.549665808678
-106.049499511719 -64.276176452637 -181.085601806641 0.166838049889
-142.936477661133 -62.887310028076 -178.471725463867 0.663421809673
-110.140693664551 -63.643013000488 -179.767059326172 1.123804926872
-151.969512939453 -64.113433837891 -186.929321289063 0.228393524885
-111.569274902344 -63.957286834717 -194.436828613281 1.655405640602
-109.280029296875 -63.486637115479 -187.599380493164 0.795840144157
-141.111267089844 -65.341217041016 -196.591278076172 0.857237398624
-133.603363037109 -65.343841552734 -196.581405639648 0.186544880271
-109.242568969727 -64.899360656738 -197.646270751953 0.504593372345
-115.539733886719 -63.902980804443 -199.762771606445 1.314278841019
-111.816230773926 -63.712165832520 -200.401000976563 1.018233656883
-114.836761474609 -64.334976196289 -202.632080078125 0.159058377147
-133.964096069336 -63.686622619629 -198.998291015625 0.346649080515
-133.803634643555 -64.400749206543 -201.787292480469 0.178325042129
-132.547286987305 -64.588134765625 -203.966278076172 0.173519805074
-125.178016662598 -62.719936370850 -202.902191162109 0.162075072527
-127.295745849609 -65.548950195313 -204.962799072266 1.622951626778
-116.663688659668 -63.674594879150 -203.909774780273 0.149597615004
-145.883911132813 -65.228286743164 -215.973922729492 2.749987602234
-150.366241455078 -65.847183227539 -222.952239990234 0.469799816608
-152.545791625977 -62.437854766846 -224.141616821289 0.172350585461
-142.054901123047 -67.864021301270 -225.802413940430 0.160382121801
-132.548156738281 -64.178558349609 -226.350143432617 0.776042401791
-124.772430419922 -65.935562133789 -224.776229858398 0.481270849705
-141.308120727539 -65.409996032715 -227.542694091797 0.469275832176
-149.833984375000 -67.281188964844 -228.836227416992 0.166631460190
-134.855484008789 -65.412719726563 -227.136657714844 0.506577074528
-133.366806030273 -63.513778686523 -229.041717529297 0.517604470253
-148.332992553711 -67.691558837891 -230.868515014648 0.293728590012
-133.265411376953 -64.319152832031 -232.332641601563 0.490788727999
-125.374420166016 -62.998207092285 -228.497238159180 0.457196086645
-7.312021732330 -67.501197814941 -236.748428344727 0.445909678936
4.348056793213 -64.374366760254 -238.750640869141 0.174175322056
12.882149696350 -64.260452270508 -242.100585937500 0.191665008664
9.821959495544 -66.214248657227 -243.946090698242 0.659924387932
-9.690091133118 -65.388801574707 -243.725265502930 0.655480265617
-10.589763641357 -65.002044677734 -247.218765258789 0.822913885117
41.748027801514 -64.099700927734 -252.147018432617 0.496537655592
49.480682373047 -65.399810791016 -251.405258178711 1.250643730164
-144.054763793945 -62.939319610596 -254.604080200195 0.770117402077
41.255508422852 -64.639312744141 -255.892471313477 1.558528065681
35.950061798096 -64.717880249023 -253.215866088867 1.415084123611
-156.247879028320 -64.656951904297 -259.218353271484 0.889885365963
-151.511535644531 -62.947822570801 -258.865966796875 0.692978680134
-147.970474243164 -68.616455078125 -260.527923583984 0.582817971706
2.049215316772 -64.514923095703 -264.343872070313 1.442424416542
-151.254714965820 -64.176239013672 -265.640014648438 0.114778220654
0.128798842430 -64.991958618164 -274.882415771484 2.274151325226
-147.287689208984 -65.019195556641 -274.039703369141 0.513377487659
-147.732162475586 -63.966537475586 -282.694488525391 0.980925321579
-151.481369018555 -64.486190795898 -282.443389892578 0.095336101949
-149.831832885742 -64.519424438477 -284.562469482422 0.091448828578
-144.367950439453 -64.396270751953 -284.793182373047 1.120083212852
-156.040390014648 -64.017013549805 -286.124298095703 0.718193411827
-151.113342285156 -63.193298339844 -286.149536132813 0.088767468929
-149.738998413086 -64.835845947266 -286.732482910156 1.074705123901
-146.701614379883 -64.035705566406 -285.828430175781 0.382967054844
-143.707839965820 -63.444004058838 -287.817199707031 0.897195994854
13.152306556702 -65.291030883789 -289.038970947266 0.366239815950
-147.722717285156 -64.670021057129 -289.728088378906 1.015129208565
-155.472000122070 -64.014183044434 -289.761383056641 1.376818776131
-152.610214233398 -63.792407989502 -289.627075195313 1.325663924217
-152.138458251953 -63.849411010742 -293.972991943359 0.671696662903
-150.613174438477 -63.474689483643 -291.600585937500 1.007466077805
-146.335601806641 -63.890853881836 -291.565093994141 0.712344169617
0.190619096160 -65.214736938477 -292.658752441406 0.828128159046
-144.886550903320 -64.858215332031 -293.800659179688 0.544448137283
-147.555923461914 -63.445308685303 -294.500854492188 0.792033910751
28.724493026733 -60.001293182373 -19.701889038086 0.801547050476
41.428588867188 -68.401542663574 -19.260181427002 1.690445303917
42.858257293701 -62.629863739014 -22.186981201172 0.375898659229
20.815307617188 -70.792686462402 -31.036697387695 0.205821633339
29.949676513672 -60.491825103760 -35.211654663086 1.408182024956
39.444583892822 -70.424682617188 -35.261508941650 0.492727249861
-58.059043884277 -62.311012268066 -42.847728729248 0.293761461973
-51.247848510742 -63.865203857422 -43.941001892090 1.828925490379
88.796279907227 -65.002456665039 -61.408901214600 1.560936927795
-96.443885803223 -62.864902496338 -65.259956359863 1.791888356209
94.837806701660 -67.096878051758 -65.656745910645 0.328888207674
67.291938781738 -63.421382904053 -67.317924499512 1.342950940132
103.087814331055 -65.688636779785 -76.189002990723 0.469574004412
65.017929077148 -64.683639526367 -75.603698730469 0.950524151325
-41.221206665039 -65.954071044922 -77.933166503906 1.062821149826
60.931713104248 -60.913673400879 -81.499481201172 0.114242643118
-58.278038024902 -61.956649780273 -80.692268371582 0.901819229126
63.942314147949 -63.165012359619 -85.538635253906 0.119633123279
61.225666046143 -64.067718505859 -83.467758178711 1.501549601555
-98.099411010742 -64.861030578613 -82.223091125488 1.966671347618
51.653736114502 -64.045196533203 -89.535011291504 1.385941505432
52.308265686035 -65.235122680664 -92.649337768555 1.955261230469
63.826515197754 -65.682159423828 -92.582496643066 1.165536403656
52.670269012451 -62.417594909668 -95.718116760254 1.182647228241
-81.835174560547 -63.190628051758 -106.122306823730 1.737888097763
83.436408996582 -66.121002197266 -105.263671875000 0.360435158014
-77.360366821289 -63.974792480469 -113.452224731445 0.783635616302
-75.954460144043 -62.793754577637 -108.989288330078 1.468164801598
-79.760261535645 -64.964553833008 -120.302238464355 1.011659026146
-87.273857116699 -64.359458923340 -112.386962890625 0.764531195164
-91.138076782227 -66.342453002930 -119.625846862793 1.622990012169
-78.773254394531 -64.452026367188 -125.655708312988 0.686155259609
-55.609241485596 -61.345138549805 -127.485313415527 1.555987238884
-77.767723083496 -63.921558380127 -133.219848632813 1.763360857964
-56.481647491455 -61.092178344727 -133.000396728516 0.159458756447
-87.631660461426 -63.468101501465 -136.025650024414 1.831893801689
29.319839477539 -63.386589050293 -137.469375610352 0.113242812455
19.933485031128 -64.634651184082 -140.037521362305 0.401975154877
-91.135993957520 -62.497249603271 -138.766494750977 0.956153094769
18.835372924805 -63.850482940674 -148.378936767578 0.320597767830
-90.683959960938 -64.123428344727 -144.703750610352 0.864845395088
-93.527862548828 -62.382831573486 -147.115509033203 0.902258217335
19.854511260986 -63.830375671387 -152.374710083008 0.856346845627
-95.636535644531 -62.859413146973 -144.561370849609 1.722003340721
-96.603485107422 -62.331825256348 -148.938232421875 0.884413957596
-101.771430969238 -62.814876556396 -158.303909301758 2.567616939545
-98.524826049805 -62.589828491211 -159.008850097656 0.221230968833
-105.396713256836 -62.807540893555 -174.254867553711 0.252515345812
-106.562934875488 -64.026748657227 -167.547653198242 1.211364269257
-102.526573181152 -62.374660491943 -164.731109619141 2.536489248276
-106.494537353516 -62.671997070313 -171.602554321289 1.420029401779
-141.314819335938 -65.237365722656 -176.540649414063 0.782746255398
-107.601646423340 -62.880275726318 -178.529800415039 0.655216217041
-143.220275878906 -63.301002502441 -187.222030639648 0.213315606117
-148.695602416992 -63.726024627686 -188.323867797852 1.251860618591
-149.905242919922 -64.508972167969 -192.964447021484 0.446047425270
-124.351150512695 -63.301986694336 -195.975296020508 1.128103375435
-132.279998779297 -62.475742340088 -198.461120605469 0.166499376297
-122.653625488281 -64.142013549805 -198.848526000977 0.609872400761
-141.051132202148 -65.328590393066 -202.393432617188 0.841755211353
-124.061729431152 -64.039596557617 -203.976898193359 0.304227501154
-145.222640991211 -65.517517089844 -205.895294189453 0.090819887817
