# This PCD file was generated using the MATLAB® pcwrite function
# from Computer Vision Toolbox®.
# .PCD v.7 - Point Cloud Data file format
VERSION .7
FIELDS x y z
SIZE 8 8 8
TYPE F F F
COUNT 1 1 1
WIDTH 795
HEIGHT 1
VIEWPOINT 0 0 0 1 0 0 0
POINTS 795
DATA ascii
37.500985210283503 -37.425777464170039 -240.184962967031282
38.005678435907406 -37.527852551875824 -240.019868677000858
46.665230899764431 -29.467377700171603 -239.779938667621281
47.340082233746905 -26.863354764799098 -241.673414819325870
48.003509354435963 -29.062146251152111 -240.992503712411462
49.350888707246575 -27.265556749867446 -240.711549369491337
49.920077590507148 -25.216251373230602 -240.571827908790368
53.448232856810421 -23.117303848176359 -240.403996712562417
26.549986052965927 -49.464893176466703 -240.955000175511429
26.894599960899413 -47.663234487931170 -240.734162801772243
28.203237520195735 -48.042430199445377 -240.427397666280058
28.992794534445057 -46.705750633399553 -241.966126207228768
30.561495356801426 -44.242285224258595 -240.504064249924568
32.155947100011261 -43.811207340446167 -242.453455693991543
32.251378118803579 -42.594178475373866 -239.661436343052912
30.885423162596567 -42.330074675150762 -239.983032394969769
35.537929317241890 -40.145668895069534 -239.324201479914450
34.805843002049890 -39.211118361931312 -240.397114049750144
36.608043171750424 -39.610213910981834 -241.060196623545920
36.131433563271294 -38.606015081543113 -239.532104377332445
37.947129872002520 -36.951469902440806 -241.119929085869188
39.272223208066613 -35.510906584600569 -240.740811891892946
45.696715317774228 -29.760036151324378 -240.114952919101796
48.293948743424430 -28.211362295283681 -240.617718718209574
48.969504165801091 -27.057717110463837 -240.695158870432721
51.651627626502034 -22.506281758296478 -242.323157112089206
52.190083969480455 -21.987250521752880 -241.305373785895455
25.785572676958324 -49.061669737505184 -240.305252601502559
25.990815419119887 -48.414095032839391 -241.527908448108377
28.958811940060400 -46.214824258319368 -239.758163573509506
30.487555561162978 -45.492385055873761 -240.095643795758889
30.135605708509573 -43.679771189791722 -241.350340727542232
30.383828743436979 -44.677980734260203 -240.386883607372710
33.011648293705676 -42.716445278113923 -241.642876328224702
33.421072490654332 -41.383743502275117 -239.727495555973036
33.794922771456889 -40.191381843003164 -240.331010599724323
38.612018009972218 -35.709171823118908 -241.216797867274607
38.511440705756463 -36.243689438149481 -240.149438523182852
40.260347516858872 -34.878717673087060 -240.569092813387300
41.028225418251367 -34.341581422235386 -242.801227801217379
41.894379742044229 -34.169293782762772 -241.206159482383526
46.118985978200925 -30.063989904289908 -241.782220368528385
45.285755610096231 -30.470166550197330 -240.567336186366816
47.694409469950926 -27.353930693154748 -241.606772745771963
50.223296883692889 -27.086217554240704 -241.065400024604116
50.570676865660843 -26.249419791137122 -242.155481446009219
51.590943684337837 -23.958174754407818 -241.326394258796427
26.800242546058573 -48.229003920184546 -240.444858013016471
25.388192318531093 -49.434211741136259 -241.438716579404456
30.536213351065740 -46.864690174870717 -240.342922549994370
30.418662008382302 -44.777647065521961 -240.309738582327867
32.293969678881041 -43.811011220622717 -240.955747645764234
39.592459756686551 -37.763569161321094 -243.021709387244812
41.050959651281097 -34.364634928463012 -242.634077271184253
45.261388876634086 -31.363661725466084 -242.859927172048970
45.578842919541138 -30.487659035309587 -241.912328385659151
48.623278159011612 -25.955135689310282 -241.721574825055086
53.177372907955423 -21.904334716219992 -241.868839719016222
25.981812176433973 -50.122936976572412 -241.984234367474301
35.859416651745796 -40.014500590850382 -242.124357885055701
37.442909682498176 -39.998209861012569 -242.385141720342460
36.365087667284108 -39.955181026128493 -241.837061767271138
37.084253901634064 -37.626505464254784 -241.845194902945053
42.727760183015889 -32.231194172526074 -242.367474349008290
43.701633384932741 -31.324740854127672 -242.477849351553772
50.473737933712393 -23.164366638041308 -241.884332262467211
54.411911789662845 -22.411354268751833 -241.641389420935752
27.125894919419963 -48.998484022722401 -243.590139557890950
28.228085413009786 -48.752370347825504 -242.587903816832466
29.252096974943910 -46.557511239162409 -243.547067326757229
30.407496449519343 -44.818030999543389 -242.792666663095588
32.411892317536292 -41.834019521771395 -242.214338686269201
33.479702115472406 -42.209484684206743 -241.672721046210995
34.496928279869358 -41.577834936922521 -241.333334289369930
35.578036891678074 -38.283024406779518 -242.348717580818203
39.023378953112697 -37.043509316749336 -241.058021532950676
36.401237897242410 -37.914230236924524 -242.859212434205972
39.871931144234210 -36.275064976486959 -242.133668517276476
40.494699835698832 -35.932989809569932 -242.444890435878193
42.794222126947048 -33.534012567105215 -241.017702512594695
42.893188379222295 -32.486584024003101 -242.567013409849750
44.606310659798986 -31.332570791733524 -241.380979035293535
50.125954185655836 -26.107271037780343 -242.188376093152812
54.045684183811282 -22.459874626564101 -242.901467194487822
25.511080452895705 -49.768921281441798 -241.870213457102295
28.587561841165449 -46.218626486568851 -242.218946261505948
28.993073371155440 -46.367165849609556 -242.482985232169852
29.816710933177490 -45.738960826625011 -241.343058766983262
31.096156194576043 -43.895942849939118 -242.100297093508232
40.264812279900866 -35.776598063270932 -240.453370599708848
42.662575896857781 -33.800508870207459 -242.481408682850770
45.027387166147520 -30.907979343226511 -242.396643332400259
52.474201506817252 -25.491984934536923 -242.637612117460463
54.279546341149171 -21.411110117858328 -242.092504209918332
26.763794380935174 -47.309585231834845 -243.860386833475957
28.866319356610759 -47.813280062570051 -243.767349064690080
31.857797592980425 -44.170527503613279 -244.121817069521285
39.188164992902657 -36.265917722789119 -243.792624441954473
41.258788142448168 -35.552489860053946 -243.193990070434637
40.661776537071532 -34.987822444554197 -242.147760595925092
41.080066581350742 -33.806180407243438 -243.990338815697470
42.603790292206938 -33.885150669188000 -243.048623017816027
44.289608056397881 -31.994345946171588 -244.378382613541476
49.349035264914129 -26.178265386039566 -242.822853734996329
50.554535830180733 -26.146160297129487 -242.628696394238204
50.798375559193310 -25.476191005938773 -243.113751883149718
52.421718334190565 -22.986947437663211 -242.675494174513432
53.818608738780249 -21.032081477360069 -243.123078188652755
25.603681893317233 -48.325011582424423 -244.109165740068107
28.325449755342010 -46.936086988355981 -243.829664264035188
28.579057183019469 -46.272145712467037 -243.793092393683906
40.555275482203037 -34.619675568773857 -243.987481571230433
40.759422789282205 -34.536333133026538 -242.788163564826334
41.082070800949367 -34.659001561615419 -244.122324623410492
41.838606885860955 -33.547931737132942 -242.061138929505660
48.650856423502908 -28.163113401927866 -242.928208777646034
48.727393151763081 -24.972248006265911 -242.106060714424984
49.166307795533186 -25.964604259289107 -243.338607612638839
51.407381798466893 -24.903235357334026 -243.700224293591532
51.546688916233457 -23.335022985126056 -243.961613409571413
54.368787176282396 -22.172520264738935 -243.082485990320038
26.219254290914492 -49.868765641802987 -242.917531133136123
26.405960060233685 -49.579247832343214 -244.678990496296251
26.915622299122223 -47.786514229698831 -245.623608438948878
30.127814187270385 -46.515328714708417 -242.248592547427592
41.953880137930135 -33.683162560793932 -243.481337384024357
48.193397715831551 -27.790378845287488 -243.169554632007362
48.991013300934199 -26.034942510336126 -244.183790938559582
49.336950711675343 -27.225738054581463 -244.002323826441511
52.606073239042942 -22.313921764739643 -244.531365094155802
25.902266361451726 -51.137644951541461 -244.302482578388748
28.028760491545114 -47.510254287489701 -243.798240469345785
28.980711712809558 -46.716109986611450 -244.124415431950695
48.049419876823187 -27.996424407587984 -243.414082545161591
25.018794462867007 -50.156543306974790 -245.079904439991623
26.332554242986770 -48.931888656158876 -244.992052017608131
28.517015652077163 -46.488525779480860 -244.955753923675758
47.067074484371879 -29.098236279195287 -243.873921111948249
52.935326995445564 -21.654787522442621 -244.112521097300913
54.737148605966752 -21.596043835277865 -244.785931118889351
27.081478585794265 -50.684631859121382 -244.960926972233068
27.817501019351969 -49.414745432872110 -245.469892365350717
46.180182110081056 -28.370862692222257 -244.810753696437388
25.302825469830836 -51.062722219584053 -245.748842560002089
26.458778951671395 -50.177393638037664 -246.833702454276931
28.377226172200988 -48.811925645079477 -246.196765282471347
27.951969981712722 -47.167652714791160 -245.825602483033720
28.171560765852238 -46.794710411513115 -245.375625166734409
46.947389431468665 -27.586691457676569 -244.364719751544982
54.503502318189049 -22.683865710981326 -243.869482106928103
27.431748875148205 -47.823538148085667 -245.389264668337120
27.419239863709389 -46.777989275832525 -248.213370857277283
55.820791268695316 -20.406053915419069 -246.053011538669409
29.785006472544623 -47.116543643060709 -244.549507052193690
48.570278980438495 -28.508075433500800 -244.660916543605623
52.251727598924489 -22.860477752479312 -246.414278191125533
55.678286803650451 -21.324168400752754 -246.020374240641360
25.970226960971104 -52.406051548686357 -248.382314857668376
26.352460051959518 -49.899871996108054 -246.011014850190492
25.842881486292224 -49.403667494030699 -247.269100862256124
28.604235818990091 -45.716134834062771 -246.031696324125960
53.820140199155631 -22.645053395737524 -246.017684593862469
25.357589112246409 -49.292525704826076 -246.379338885538914
26.577465705088766 -49.314183082075573 -245.746186099717647
29.494797015779938 -47.000859319277801 -248.366201094322491
28.039746588229558 -45.638072957086322 -247.779207143272032
46.183329180130386 -29.144803344702634 -247.167174878849266
53.437537354335895 -21.095509260585146 -246.702674765141893
28.665414809255832 -47.717589024128330 -249.057058804957052
29.498568307765993 -46.532960725913114 -247.035334617537416
45.042276096610266 -31.239767922319650 -247.250602088666454
46.001627831609234 -30.059884608145929 -246.529907672289767
46.297142432248641 -27.571802374348103 -248.343958367187128
53.764777696895777 -21.189581335478344 -246.426521048781609
53.956865952986554 -20.222415222852565 -246.816338612787462
56.173286093512644 -20.579458889587475 -245.521038333246082
27.105027131513300 -48.514607039576127 -247.699606207183052
52.918137409614815 -21.787627001790433 -248.233577306170616
55.578474965636623 -19.868528772150615 -248.590106562597043
56.918900495671451 -19.555012567846855 -247.528108034523314
25.853409532479827 -50.216337911479791 -247.622635910317001
29.343711125167221 -47.014946882051667 -248.827664916958497
28.480271856644645 -45.890516075040992 -248.182333340635097
46.556408745093428 -30.766722168438950 -248.820327513295751
44.970727536287491 -29.558683502108643 -247.436638219752979
54.296674837534241 -21.063183691541301 -246.352276628566472
55.644451614696763 -19.511346407410517 -247.335112427530305
58.972495777719011 -19.596130231132381 -246.956005881647030
27.921150226488091 -48.310180124409555 -248.033537259358496
26.692860390667594 -47.351922517848983 -248.534885234159049
45.566327599125515 -31.976352111090094 -248.740979410260394
47.119777765552662 -30.821656509591719 -250.381907151196486
54.045482539041885 -21.017800316730181 -248.667641892364600
54.500895413451168 -20.867224635919627 -248.348898852375612
55.509014077982506 -19.063155588551098 -249.470810393160917
56.936221891466538 -18.215124028578145 -248.020002598851590
26.415805688587348 -49.522274770561985 -249.089837999037684
29.589168728633457 -46.499225104081432 -249.553916136862455
52.420222093536921 -21.725348138337278 -249.464063161399139
55.183545099821913 -19.159875148163692 -247.910025816360303
56.409940994395512 -20.206528983082762 -250.087252267519091
55.940980430507182 -17.459978635519324 -248.360137050369701
58.078670037202478 -18.282367644414617 -248.708732528187426
27.586759722083169 -47.841664822549788 -248.657938846967227
27.632123019793074 -46.007363727716786 -250.632889518906893
29.171012601762349 -46.192751278006284 -249.459534529419869
46.399910947687331 -29.923736287804889 -247.613037676192022
45.722553534784055 -28.758628505213377 -250.085005357739021
54.338226432758439 -22.564313356384172 -249.876164725143155
54.119118903903342 -21.265678429444321 -250.593011618382064
55.845813031178352 -18.775480667033143 -250.245854403235967
55.375576832158096 -18.733329229333997 -248.593703423868362
57.693509569878941 -17.737470832967556 -249.578536515428937
26.850737541143001 -50.037650843949102 -249.377182902880094
26.206430270673252 -49.603058043542184 -250.448694789981374
27.241648829169709 -47.039710988617294 -250.403057418105220
46.141691622643059 -30.338573384663000 -249.774278169193678
55.968218643277218 -20.218928064371781 -249.526302955250117
57.307145772392538 -18.306976900746353 -249.755744087245489
58.376061840529758 -17.165218211092274 -249.972646709224421
59.138755283314381 -16.909091186942224 -250.547833937598938
59.596109863552755 -16.510334226883657 -251.065751191691163
56.964598445277709 -16.974515106608166 -250.056933569982277
29.066327884687521 -47.463269379061224 -247.953938106437562
46.286358246976235 -29.504938490872178 -249.701597840886819
45.994066772667594 -29.466204192532633 -249.933399537007375
56.722920165890599 -19.198343662482397 -250.042067861425409
56.148278365212882 -19.989371094274340 -250.018245458594549
56.550678303425059 -18.935382857716988 -251.346324797477706
27.936685893453149 -48.222977264466778 -251.484449226465927
27.862269651640137 -48.726958235761970 -249.793480196120470
28.957452037992958 -47.694313951367562 -251.284322548718364
46.148404809741947 -30.384746596979099 -250.329543887881385
44.963854501517396 -28.848780350653726 -250.300514362227148
55.591693190426589 -20.128513683338170 -250.043737959710256
55.241594706015022 -18.739765238840636 -251.247539401179097
57.066223426397329 -19.519766934349679 -250.947394602450601
58.973179360615298 -16.507266590256389 -250.290359065710703
26.693147297908087 -49.026446790882289 -250.307410891811401
47.279125578555600 -29.238637302244044 -250.052340567415058
47.177871187232256 -28.024646194668094 -250.702465839225994
47.358849271319031 -27.915834064652099 -249.635475512624822
55.023266979682120 -21.019228104603851 -251.455133269200729
56.048484521060892 -18.757416078942388 -251.783568394832258
27.804947653202948 -47.968656985497148 -251.120633641040513
46.450052764413861 -28.953956449761836 -252.614267041139897
54.771028943875173 -20.189127017975647 -251.542190957992858
54.710380552794696 -19.093318747343798 -250.944079898271156
57.282717303728276 -16.642698652270809 -252.907239781522435
57.370339110045592 -17.313409956482591 -250.333952653778965
60.874831081069431 -17.207442659211743 -250.713944340256262
27.345840087407350 -48.759749581049576 -251.062265062986938
29.273715684697066 -46.752200935007977 -252.534435634077681
46.559981630174157 -28.570385743077502 -251.576669195669808
46.202442295805454 -28.106494631415476 -251.781598293174795
54.843204040946247 -22.036141948383861 -252.437640550352825
57.042999780248699 -20.858733332059362 -252.003960456690237
56.414214501545530 -17.971311886152428 -251.582322724934812
47.675960094752362 -28.917047579476485 -252.709878419113465
48.030835378208110 -27.199969051515588 -251.613656656811912
55.828046736428661 -20.707539950236150 -252.986795226549106
27.019777699632971 -48.434484527810589 -251.849617255045359
27.350709499400157 -46.611357141188542 -252.417007938545481
29.362388128577688 -47.621831592421202 -251.685024192561372
47.789286522375413 -29.518555350462609 -251.746932697041842
46.523315167758682 -27.009563679338385 -253.238457692701331
47.662790764595144 -28.010633560501013 -251.866551076227353
55.943645778458979 -18.327365166905871 -252.188741375284280
58.349768051304785 -18.453221778189334 -253.026564936032258
58.682669321778924 -17.459835116258276 -252.485438768440048
28.390559253494906 -47.702389422963243 -254.140422546069345
29.620276797937354 -47.038040870848086 -253.582586858666303
46.604292317257027 -27.606912287791740 -252.333400665442610
57.154689617793778 -17.488138915693590 -252.816079557401395
27.758150153570732 -47.690092944910461 -252.282323998543717
58.787967191070884 -16.160726811585462 -253.172425740992281
28.520938922067607 -48.475623388911721 -254.264588987272560
28.317958466801681 -47.596282988121686 -253.444564017451540
46.642941384472742 -28.510672775135198 -254.129273186985955
57.400966327592471 -18.358061024831194 -255.186497587671454
27.595194690284263 -48.737146294037444 -253.960871080194153
48.883692374696146 -27.671683907978760 -254.868404683692205
57.444488829626280 -18.162499557506077 -254.286861363632511
59.641892607535290 -17.236555124737272 -253.435205602976140
29.837868288054576 -47.823904652856569 -254.285856755075315
28.386873366979508 -45.227380330308570 -253.776257819382693
48.248064945831473 -28.346565406350383 -253.712672076567202
47.802784523500080 -28.207030941054313 -254.869233792303049
47.837559956733990 -25.917133375355654 -254.020282951456295
58.071430796699687 -18.241776429165405 -254.372428224345555
59.028685138462329 -17.595370016668628 -254.326494036477271
59.101217525890100 -17.682674661593676 -254.508983069305685
28.486547260070310 -47.572849726962232 -255.142567261860762
49.535020753242627 -27.414112620675223 -256.282928592621261
47.536344598837367 -26.606764776711213 -255.645989625782818
57.747629509633846 -17.668111523239187 -254.589507000157596
59.575077893530157 -17.441885222116806 -255.262960845252167
27.450814042279582 -48.451715503840013 -255.456137393456373
56.484647451458372 -19.058024456889356 -254.752094647312617
25.596203766174714 -48.695061508121299 -256.564757269499125
28.301761030005473 -47.126111114880558 -255.682173805319991
54.729033356639547 -17.819164075736172 -255.831817669991011
57.795589756849388 -17.513792372885124 -256.199631541405836
58.054480422207526 -17.857731276477956 -255.748572115433603
48.341972587956946 -27.958914700259967 -255.933222358533953
27.036048032814122 -48.182824422876799 -256.711532019897788
28.850060551852373 -49.039061942432461 -255.611537338479053
56.685879599554667 -19.623186025902903 -256.658977539754062
57.569892119894433 -17.909227495243083 -256.579381235873029
28.147895320430887 -47.538886077069691 -255.684756557200387
47.372601860918465 -27.381686563298633 -257.915230342141172
49.013629191722949 -27.940407469959204 -257.438542445915687
56.383293196567323 -19.798969605605443 -256.762129761088829
58.477248855874997 -18.022771595235113 -256.329632297943078
28.165935139380924 -47.541145009230746 -256.843073740982334
26.816648927354489 -46.804866375851098 -256.260149059457092
55.353993110570208 -22.171655496580659 -258.522313282806124
48.947568264663843 -27.882907162713664 -256.089685718443604
49.626513109803270 -26.868853179635543 -257.179804140677788
53.916973967365671 -21.756586211080680 -257.617457339448094
57.454788268963739 -17.716587846731166 -259.030235082386014
56.941037493872116 -18.708634912418990 -257.104560434736641
28.129331208767766 -49.441625367183804 -258.203307978570990
28.877797288587828 -49.261010946361282 -257.910286265698403
48.011840036347643 -28.522673233608945 -260.003109654558727
48.706729214155303 -27.833838933136715 -257.318789144821835
54.638882279613142 -22.070227699980318 -258.903505383681932
56.098115739466969 -20.102795066360539 -258.718700104162679
55.468671882448326 -20.223625041469731 -258.559661875210338
55.707121379415391 -18.299091828225862 -258.934994795608532
59.088524132564928 -19.100760368376246 -258.393365121443082
26.657844212347459 -48.872579174641317 -258.085921991024406
27.583460893153745 -48.767621708069832 -259.641021672974375
48.691179921997637 -26.442114696335405 -259.259568140985834
55.734719276312994 -20.876282178104255 -258.741947394428735
56.288673230517603 -20.432069517193764 -259.013379633200486
27.054598656577753 -48.020151681057520 -259.329120097895441
27.332051248824438 -48.502675996999706 -258.780169388206616
48.470933424139503 -27.581974008949697 -259.312255369465845
55.385993953429931 -21.633300043356158 -260.045146724629490
55.112357522273776 -22.539541344141359 -259.399571030638697
56.231484861603462 -17.507442753255077 -258.956405513082530
58.797208516390889 -18.738024808156350 -258.393387321055343
28.547163936248442 -48.935469313783393 -259.080724612837514
27.852932180112862 -47.108853372600642 -258.983423064727674
48.767639848150743 -26.891847454353908 -258.762448902706353
54.373445486623993 -21.625337740790371 -259.117643820106480
54.247564187791461 -18.494268314638202 -259.913555516486497
57.493968189785633 -18.203245563053631 -259.606173045570074
59.313482696021609 -18.087634419410399 -259.413830659194275
59.212996263383886 -18.545681279393261 -259.610994719782070
28.490530297120568 -48.671410223633494 -259.690331211087027
27.591902375243620 -46.675967714483726 -259.698425027170629
28.457564096251375 -45.960659372525811 -260.223196421196860
55.440348802997356 -19.438911612785049 -260.778253679948193
26.312202125646341 -50.166644100046923 -261.728928269447465
28.900374926408578 -47.562981549220353 -260.959603405606856
28.906273754645365 -47.084037840640427 -261.344972434540523
48.355273671139592 -26.329284918306602 -260.486738409059114
58.865976719876521 -18.589445431899890 -261.608950084955950
58.221965634271378 -17.614450752192397 -258.774085230473418
26.918861035991654 -48.069193178009400 -260.248751370696198
27.311738563125715 -48.029273631292298 -261.229691553943326
30.049026252603127 -45.776048475702055 -260.651263019982991
50.064234676791777 -27.827166174288593 -261.021202746688516
28.787774141201417 -46.644944716140209 -261.062663331436113
27.943350295440695 -47.581364380085262 -261.936944327071615
29.797300702993539 -46.231471672682986 -261.611163904407704
49.396263869537620 -27.636973286210267 -261.513038909508168
57.932770678221850 -17.698998598793764 -261.080243748317059
28.400152303654650 -49.082825835542764 -262.248228166164836
27.532585003272647 -48.442531341042411 -262.233417412558538
27.696143524013618 -45.670749809363720 -262.206640090366704
27.685254078530591 -47.993884802838359 -263.011750387398308
57.212720145574167 -19.812193823981694 -262.488373104903246
57.829112657338698 -17.759984920439837 -263.690588600709759
56.801192805349714 -17.189256730402239 -262.135998917065308
28.938728981404370 -49.300961346399198 -262.823247982171210
28.553578860885708 -47.182499381341131 -262.245880201531918
28.316811402748481 -47.950811456920775 -262.442492207761120
49.137872016709629 -25.532439409871671 -261.914215553248312
57.993752832637433 -17.448605575732053 -263.350176366052892
27.303617649586567 -47.629066738801050 -262.658184393843385
28.246369294238004 -47.559728896398845 -262.993329759558492
27.845452819205487 -48.004265026760550 -262.674711811766826
28.516862537218685 -46.357415684484252 -262.463814134131610
49.353199755784232 -25.969297170494663 -263.473419969347503
55.892842678263328 -18.649606647930426 -262.236257616042565
27.760425014187248 -47.403286988541396 -262.869362389372554
29.385970730802580 -47.304179175250987 -263.175917344105017
28.985947080198059 -46.266363544815079 -263.382339399998500
29.399895264857122 -46.130722857750136 -262.355458598437281
48.937822881716762 -25.860007998698670 -263.756905821611781
57.039146525569521 -18.549951641118408 -262.837294962832743
56.220016754714337 -18.373895143081430 -265.213127153401558
29.693378294160063 -44.869796018363104 -262.850477604970195
57.693419687543980 -17.702238565654014 -265.403315873619079
58.613441053503081 -18.501674313776377 -262.671743026952072
28.515971991703232 -47.321923763562026 -264.054231017187647
29.018507797232417 -45.962336489056966 -263.316639440079484
49.505413293542979 -25.606614900293174 -264.675579103232110
55.548956589647233 -18.861681545909416 -263.159999735550343
27.297914778444405 -49.085161872565330 -265.066410514754295
29.019647406147111 -47.870190202174200 -263.488186877906912
29.721087918723281 -47.076392332617871 -263.499963335800828
49.694671720939105 -27.991777841268274 -264.457695628489546
57.951172694548752 -19.705223642975351 -264.843402639784813
57.540675891175511 -17.799536222981068 -265.457601189169111
27.954254926508213 -49.051695166497062 -264.081176934006351
30.281161693956353 -45.704294066272276 -265.242936813238600
49.473904283826428 -27.336501884490136 -266.032136565715120
57.847055273044354 -17.784729332204051 -263.907125096826007
58.383351977912390 -17.520328926578763 -265.321090731520371
28.978481138348670 -47.472845886897410 -264.612868732685286
29.797466902833740 -46.347788222926688 -265.258696655307403
56.862680150809879 -19.264307934832175 -266.619070082740848
57.564486326951005 -17.947530424524906 -265.422332228742732
27.561171475524571 -47.079875708157012 -265.855593804813736
30.243938023540419 -46.154867761139322 -265.563116801375827
30.063262310109565 -45.980793162690077 -265.383594265865213
50.699837434159114 -25.946261699123244 -266.041047791641233
56.925512481449545 -16.572135528733387 -265.035856596402027
57.722575803071891 -17.749967317693915 -264.345663553153145
27.816720901916501 -48.101415320245749 -265.804200563557686
29.376885654830399 -45.300170210569433 -266.832528199616888
56.078681843470129 -18.512700734590926 -264.946979895318862
57.771115300608244 -18.224973575991491 -266.120060774744843
27.039517475575391 -48.391909543956054 -267.284431117170413
29.102288589815846 -46.532393494793077 -267.256430874959676
29.201218507587871 -46.427784810251886 -265.958633199164808
29.986968541355282 -46.659941660453974 -266.242673191337360
48.727078424870562 -28.049858388387467 -265.079921023459974
54.807654629766489 -18.050705521900042 -266.830090276689873
28.664055665169990 -48.431470641219448 -266.734632075090929
30.162095576233387 -47.488039467961741 -266.562040428845251
29.716911912714316 -44.292099356743741 -266.241239361807459
57.418773784858487 -17.452485408559813 -267.804157068912787
30.359376445798901 -46.646506755203852 -266.604374445689245
30.574551723421138 -45.472735917986157 -268.242858359185391
31.720923617978354 -43.234696161569005 -267.892054142328448
48.752172866383113 -25.860093917790440 -266.811231377571517
27.990203370371706 -47.879688268716514 -268.349438195689004
26.380106610817634 -48.297730256240506 -267.702839568191621
27.695557494916475 -44.938392510542130 -269.196916413785630
30.090741139482606 -45.950404622524793 -268.325516692686449
31.931773505484944 -42.991906160532423 -267.615994398458156
54.486816835706570 -22.432881439423443 -267.894796687684334
58.605136591176276 -18.166598209014143 -266.790867518841878
28.285343260366979 -47.834580196563977 -269.017297477431725
30.258179800153037 -46.825095470063474 -267.514950749369746
56.729131264140847 -19.116297143716377 -268.145307612730392
57.030447490173579 -17.299689969896896 -268.966184151495725
28.889168411488992 -48.313020791694996 -268.118942840439900
30.272710037243051 -44.969106436924761 -269.137623360019290
31.073941340823406 -45.115880774676533 -267.701694040456573
55.271531451412635 -21.063698113656638 -267.465622031209818
57.904034230391154 -17.579205510816948 -269.365799950306950
29.598046141992498 -47.698081957932622 -270.087001292238881
29.377245197515183 -46.902477716143196 -268.439372751861640
30.209627184088980 -46.399311481096944 -269.046866293099129
30.668318798097303 -45.566596540926170 -269.075225545334945
30.267228936784630 -44.661492402540368 -268.852952017445887
54.994274700624331 -21.657921254397756 -269.626548757255932
59.137541181167023 -17.735102100271668 -269.648702509242412
29.529479226556806 -47.930036354565345 -269.762713834633757
31.266171803827412 -44.093077900806051 -268.889745818434506
31.023547863170538 -42.597807030838602 -269.995322520463674
54.259845798535629 -21.053120718384033 -269.531042368232249
55.315710064403184 -20.586117180144626 -269.202458864232085
55.716939387009667 -19.546550070506040 -269.853822234711743
57.367989874939020 -19.233423216232740 -270.263981222393227
27.978894454551810 -47.175974672399015 -269.819327770115308
29.824642730563994 -44.700729579071215 -269.271717501492105
31.193480021552173 -45.603798463540841 -269.943048110802806
55.944783725924147 -21.938701420599156 -271.128195547071982
54.527288912993804 -22.182230073284611 -269.491685972035270
54.722574988133445 -19.666912041552713 -269.911199948104070
55.929618358786762 -19.060800530775545 -268.818793962097629
30.646806645746711 -46.449914658769025 -267.996766624583756
30.992934649082986 -44.909114065460898 -270.398594503493598
32.470654608298240 -43.938529567947050 -269.103586804529243
49.435173029600648 -27.975095739287852 -269.606394160469392
55.347823209182323 -20.086808148979753 -270.288119977132112
54.304790628127392 -19.764079489461480 -271.272660847706163
57.046474743283930 -17.303562858147902 -270.397970885969585
28.967231802092162 -46.912726754768364 -270.408483891090384
30.125192743825263 -47.388676766956173 -269.706532434335827
31.085755443428333 -45.001314407047481 -269.661949889116443
30.332848179994169 -45.057357355161656 -270.666911084923015
55.857317006525996 -22.463797093082444 -269.604488363654127
54.931075788923444 -21.376979650000791 -270.720252996810530
56.576159560634004 -19.101055484073328 -271.201767404141549
57.861815032314858 -17.533250881710600 -270.395018327121420
28.959944095101168 -46.944738872928895 -269.569859054960148
28.868756174919422 -45.711213495745646 -271.629599012278220
32.710816116360895 -44.365654651743711 -269.358750297388781
33.513226307533543 -41.498320847471284 -270.267633013892748
47.682143929520038 -28.280568195920530 -270.243612090865668
54.478525834809020 -23.112882459414248 -272.397383003373477
29.630339374742547 -47.916473138098006 -271.542033334474638
28.632763049727810 -45.891848041003165 -271.238976139060981
31.849530676912185 -44.335672983520922 -270.755067072438237
33.200184504710208 -41.795900126762845 -271.603857231633583
53.437262697555894 -22.398204896724980 -271.767164786282763
55.988395033140165 -19.374382834338874 -271.198781207106947
28.515957530344245 -46.180168846591094 -270.967304615680803
30.894391623959027 -44.238137289893871 -272.197039779767806
31.205246603847204 -43.072848933853464 -271.973495734510493
31.443390764683119 -41.674208534840965 -271.712714734429085
55.172297066406287 -21.545454163843079 -273.174466464017655
53.449388512913750 -20.237741184094538 -273.086082740807399
55.048663269928298 -18.930961689791769 -272.025784367339327
28.976286440851961 -46.573043259248905 -271.838516817018046
30.139722229721936 -45.741908547606393 -273.139821174338465
30.742105268767752 -45.131411123570686 -272.144977197477203
32.238999411873912 -43.392380392955680 -271.872007793141393
49.027326785770235 -27.094229209684119 -271.974562876566779
51.903032238296802 -22.485782970928931 -271.226021316917979
56.869896182355824 -20.402656670084589 -272.509793583410953
57.550162557464482 -19.594932363432186 -271.333237924695425
29.827893614897878 -46.508528249462145 -272.470715013928043
30.597081741281940 -45.411086236383113 -272.747955230733282
31.709479053007971 -43.627915276696406 -272.088071249473671
48.284593078274284 -27.987241819332791 -272.577602886223701
56.068451623048006 -21.304417447851485 -274.102904392225298
56.943045300992210 -19.125467535498398 -273.304262469622302
30.738521579002995 -46.055756993115963 -272.075619095427840
30.224680239645661 -44.789994057778344 -272.477541010923460
31.183943089329226 -44.626771138169062 -271.979939722514303
32.762781250592973 -43.648665406303323 -272.049430999364631
34.566047334974733 -41.879170186643634 -272.944789442749482
54.418471395266984 -23.363627543959595 -274.108984857227824
55.126974196065639 -18.206329578591042 -271.732158503896471
30.734162021464559 -45.873773642780350 -274.668088524698589
30.889461382028308 -44.616224569180147 -274.344680764595807
31.796084615889505 -43.951683994207954 -273.591104750491979
47.888525794773358 -27.249737719633199 -273.835225921393260
52.261080067093665 -22.634357213275887 -275.062020186557390
52.259964487337172 -21.927618073268025 -272.815239282063089
53.989191614006366 -21.508852466495377 -272.589313062656174
57.795173698663014 -19.505918143629192 -272.538092699569461
57.318070487621853 -18.741642200588803 -273.285143371130857
31.694687135161111 -46.150230464755239 -272.249139309973941
29.962051562084966 -45.339069160380738 -273.833879783512430
32.291857011373196 -42.626498057775500 -273.648114981063031
33.170224842812878 -41.779907639315610 -273.964941727096232
52.299501746726129 -22.856361911114572 -272.565507405548544
29.940831294762123 -45.067360345567522 -275.021769532385463
29.446998986983751 -46.701211032973035 -274.006961571394413
30.548192175305790 -44.621944795156722 -275.457014843379341
32.323188002583706 -43.399221624635722 -272.756194444023549
47.919513793603940 -28.096247057338577 -273.564427609969471
53.260939905783211 -24.313374031054913 -273.577056348989629
55.312115144036227 -20.884098723651316 -274.417735571776632
30.149305445774178 -45.295127923932590 -274.238257762214630
31.341574251970467 -43.759761034748919 -274.943992090871006
35.366939306718734 -40.419250820735527 -275.309377628711161
53.240730014026575 -23.817752846306153 -274.924925695410593
53.617619257598363 -21.917673610492077 -275.008667932212632
57.579280358977485 -19.667575167196969 -274.897906220588652
30.410572850922314 -44.850642880587216 -275.784650365871471
34.921773246579320 -40.334888368688816 -275.609854512557320
52.570669417930567 -23.468704781082838 -276.707829530623201
55.574018637174646 -20.515686944478187 -274.587919470785209
31.882290682401916 -45.048197738070833 -274.804590970082415
31.977143224910922 -42.675117507020062 -274.876310595115967
31.694043942767347 -42.802847987533134 -275.803955141607389
33.082680477717034 -42.431908156674140 -273.886291094580372
33.952197703420936 -40.482019117326693 -275.297369054736919
48.025295216419018 -27.081112520165920 -274.775628547801659
52.296657698311314 -24.600373314404937 -274.860638952550687
51.120259212589389 -23.308769312686106 -275.305233546975103
54.904377383447802 -21.474267060823042 -276.172752321124960
54.319056621546757 -21.604177682888356 -273.340315285389806
54.970580922387626 -19.772009943259082 -275.130777414427257
57.335593669878030 -19.345548357439782 -275.663245852827913
57.509877261273864 -18.138086667950308 -275.130342020716114
30.867366312855246 -46.160312911807537 -275.199776482309971
30.690438220826049 -45.052755228585262 -276.724585362041580
31.925825948744471 -43.876440612807720 -276.364703254194410
32.786680095657786 -41.236875086419104 -275.642573849778842
31.453352064555276 -45.054680266943862 -275.821866038780456
33.261378872084663 -44.953143745288052 -276.017443689379490
32.504870779944802 -42.843073988470387 -276.522309305511612
56.776567225796271 -19.786060662920601 -275.542337010621736
57.223565638267267 -19.101000225780105 -274.768582489333710
31.214010231027007 -46.011356486812900 -276.904076762334057
32.162758363302267 -43.331758649002424 -277.540364868080530
33.416881034445289 -42.310433357851501 -277.075890922171538
34.444076111154132 -41.968969957513330 -276.770347453777617
48.064018368016278 -29.329045411506183 -274.677132994287319
47.746508945220612 -26.918152355793957 -275.884122185109277
53.031274037532967 -21.972355894294537 -277.413893402113786
53.454941998028872 -21.016705337751127 -275.868973183081550
30.733079429905064 -43.443233978680382 -276.784788876033076
32.317306295955674 -42.451258855924763 -277.100693698986618
52.964817939680330 -25.041190317354726 -276.457824247974656
54.857303206036242 -19.201021050268164 -278.493710461052331
31.115057955416987 -43.911075066598897 -277.690966136055977
33.499225865558572 -42.357806942088835 -277.680640004471286
34.346877140513200 -40.992334895525659 -277.337302831725822
50.804306400355117 -25.107751536266985 -277.680870366451131
53.707432340511190 -22.372600785620843 -276.443218703716866
56.320779990725676 -18.288560093553819 -278.137810886081695
33.229491698349882 -43.583445607555078 -278.323840507858392
32.239833468530961 -44.017237544386909 -278.349926791014582
30.855357853851377 -43.351704552203984 -277.609105353237624
34.059873602570995 -40.882139034203071 -278.244903137505048
47.284732929322850 -26.513442324291681 -276.552019525546314
49.994483350881183 -24.848485940380094 -277.394486944678363
50.450144638075109 -25.609458947507918 -277.015613490661167
53.022496783014994 -22.452016261405788 -277.295853794109291
53.942356363001572 -20.346336842567812 -277.383234800892637
33.504321152619362 -45.169233814803839 -276.627307169035362
34.111531218288548 -42.389897701529350 -278.647260352136470
35.542813527798508 -42.434650987245938 -276.562405849150480
33.399127540378771 -40.728847238632781 -277.675091586357098
50.200595638678038 -25.445173785510359 -278.037867487755705
53.788704026495886 -23.691363764619034 -277.165597806042513
54.242387589819188 -21.176070475734523 -278.249721361872673
55.990885193505683 -19.194629149484495 -277.527056124596129
55.405666695829581 -19.802973274745241 -278.471145856208182
31.211879107826913 -45.399074805427219 -278.432810826030959
32.670233216451685 -44.147068351444503 -278.751894709534668
33.498979433785500 -40.924088752082405 -277.583179251987758
34.974101331802608 -42.815593928575822 -279.429061835324887
36.747293968408883 -40.056608602676540 -278.898059439954807
50.114005371594516 -27.571900897860161 -278.683251633130681
49.254335592713602 -25.794181423284446 -278.724210118500423
50.449475080997658 -24.950729073454891 -279.080708778534415
55.835724893138249 -19.149238431792558 -279.148322944983590
33.032594754052255 -45.253720894934794 -277.752249718127587
32.869352643216835 -43.642690998360500 -278.849230627760619
48.456956250009384 -26.382820168052699 -279.259042383375402
48.619632536017335 -26.805921704641328 -279.045739435458472
49.757871427946235 -25.671828537707583 -278.468005809149531
53.655122567115768 -22.796834268651420 -279.820627437569215
53.720889415268751 -21.649635999782170 -279.858046057756326
31.981674004526852 -43.861852526579710 -279.221380202553235
31.289048184291659 -43.215198918965285 -279.763292131295884
33.952366525729623 -42.778285516690147 -280.587633312823982
33.418272348151284 -41.145813611339008 -279.524842779317851
34.448867619583730 -41.905379283411335 -279.588270264776895
35.298608270706275 -41.207363061592197 -279.208478312602892
50.791088751287766 -26.375037183584087 -278.381036401414804
53.064903338411064 -22.672645122204116 -279.026987399219536
53.610689323508133 -20.656587047055822 -280.851994969723080
31.288237433731876 -43.014810698553411 -280.623081299674141
33.118297067899356 -43.602626733359500 -279.436069535010745
33.152836857152352 -42.312449560077589 -279.779468445577265
35.118073669226071 -37.758432598055919 -280.120872767161700
49.312456943265666 -25.732907226216753 -279.127498354487045
51.079636735636385 -25.798192122565837 -278.662950893480343
52.617685265759228 -23.233886222827991 -278.879968990830776
50.707878834270140 -23.487950595422198 -278.408619533493038
54.502748824406432 -20.011253691987736 -278.855548525158724
33.343950196685952 -40.758157953965444 -280.124448229786083
33.810687754704617 -43.348577101170648 -280.749413072434720
34.700282119811334 -41.339088250819522 -279.350095540045004
34.566029613243025 -41.451568943297765 -279.543909686901372
47.928177261326560 -26.470321138309501 -278.890672249670672
48.754834203612681 -26.773399022408984 -280.587407053365837
49.407396470540263 -25.317329628184424 -279.037241137384626
53.931141636108670 -21.210171941399476 -280.126009185154146
32.425311748790136 -43.699495175796983 -280.940088513473313
33.704170286182674 -40.964584287798274 -280.487258746407917
35.740637302805290 -39.814945301579250 -281.852518684646213
49.805246175210918 -26.331056055887036 -281.426689508648735
49.319399237030886 -26.829651874056395 -281.331177562307857
49.295760694276879 -25.889280485144980 -280.787877530266428
52.233497545980377 -23.592994757519246 -279.203139840376821
54.274236462802570 -21.302814861131985 -279.919497356493025
56.181756644180155 -21.514604347555085 -280.472489098518224
32.708797726255455 -43.354584313596888 -280.957308913883651
34.025454465946240 -42.086525299430050 -280.758535151855654
34.564449713956499 -41.942674502142800 -282.331629112600183
51.714359902163132 -21.761197456136838 -281.319738031016129
54.623753098573850 -21.659873447921985 -280.709536438541193
34.288247164686503 -43.675248322983791 -282.567330147348002
33.340642166763089 -39.619818658278156 -280.990167794578269
36.694013146498747 -38.058576236406111 -281.177371774288702
52.619038796822004 -24.200433508809432 -281.436455257632986
54.524873022882325 -22.260529579283276 -281.348619449781950
32.415027302886720 -42.864401831462679 -281.494245299098054
33.877879894247002 -42.098283937663467 -281.318397447759992
34.879832758666190 -40.683295966956329 -281.024828722911082
35.279193049556319 -39.193820562624737 -281.827219189142795
53.139225481410563 -24.820975233903081 -282.620589234097281
52.310441145513472 -23.239734966058570 -280.887279123282667
56.295871661753978 -21.022860075995371 -280.519665766637786
33.101191939431359 -41.857706853489930 -282.152570445285448
35.061525032699748 -41.455729460431201 -282.415177713292110
34.235517947886230 -41.062158054659143 -283.164379968829678
35.576166345869694 -40.378962825621279 -282.371656207292801
52.693807018643902 -26.223977173186334 -283.583971285202836
53.088473762005968 -22.780478178409428 -281.935888061607727
34.457254815534547 -42.686426992415846 -282.700689736049128
35.327883853945792 -39.879034869045974 -282.972713515355110
35.668599484459797 -37.696829096229351 -282.325206462840981
51.627756358135663 -24.169605324547422 -281.029076886811424
52.338289934671906 -23.281414942247327 -282.188099372688725
55.007871403507274 -20.370871708016828 -281.146510344512478
33.616493025003443 -42.178427280618344 -281.891439051975908
35.217006616591540 -42.660615186405963 -283.086821437260312
34.390442243929982 -41.778549792994085 -282.718901255609865
35.780556677398685 -38.559768959908645 -283.111482418443472
51.133795345501220 -24.804955596732711 -284.634272515186069
53.342916408293696 -22.380206500823139 -282.669731566915004
33.065932361163675 -40.570617651513672 -283.893831875172395
34.730228526958612 -39.261326398662604 -282.774053534361826
51.965287376396802 -25.504861059040319 -284.632837494848275
52.042390328977113 -23.108802000198370 -284.893491698698426
54.376900592999526 -21.995245911623510 -283.850528663843420
34.095604881412406 -40.181572311754230 -284.169201124734798
32.348183887076921 -39.894716832603748 -283.903149932752001
35.681748173013439 -41.658582067447753 -283.868181248040116
37.349768726694435 -38.089516639442969 -283.991057995839014
53.265967446920101 -22.391464020363955 -283.953108442343307
35.898111639600927 -41.195549353507438 -283.581281586619923
35.759164026917418 -40.157174500009262 -283.685150689253362
36.791889499175277 -38.916626726369984 -284.482173248245942
50.556566831273258 -25.790451116345292 -283.826772127594779
51.430422398589457 -24.213738679068630 -284.698003335017347
54.495150055736282 -22.022922576438891 -283.168316943041702
33.955605686116364 -41.452457217394873 -285.605843997859040
36.506029745011425 -39.665470391021273 -283.266636079502291
35.000548512095612 -40.734510190050969 -285.087419181612859
38.025017526087332 -36.579851482077792 -284.720780194809549
50.284443961619729 -23.225663539237310 -284.952092645453433
53.417987617648684 -22.477785201135752 -283.689186513763161
35.045245256927281 -41.475838535198392 -285.777413331091054
36.504105732617276 -39.158751440685876 -284.686404161642201
37.190356985413693 -39.359001407078580 -284.313684199722900
51.490548713226914 -26.502639310640337 -286.160365794313520
51.230942831099689 -23.065101968488161 -284.856444835537502
53.774854953106740 -22.505488244062015 -286.183168190477772
34.895576069348628 -40.822458334946454 -286.658069007844233
35.569618075722225 -40.907052198952599 -286.096245274535647
37.866795985105163 -35.120699147194898 -285.700818375040001
50.686151752347364 -23.857258670970236 -284.963099622297477
35.397036438426298 -40.148899322632346 -285.453279041403846
36.445757791926304 -39.770833741385090 -284.654872520609388
35.860032592076962 -39.239681362741948 -286.354977416539498
38.627595270784944 -37.882827512965001 -285.470573139048440
51.125523351284627 -25.261472451886476 -285.859171265991904
51.367771899955798 -24.328241666376588 -285.425218429603945
37.712525369649953 -37.536216391722846 -285.425713426468292
51.574152323782172 -23.113238633961707 -286.598406420636650
53.127983318649427 -23.191370739436920 -285.289815780266736
36.395551635963344 -40.525915575005435 -286.477832179629104
36.430984478233214 -38.964260870627413 -286.129982306322404
36.391979796014596 -36.895866252567998 -286.541746590702815
38.332150659243410 -34.513301961839296 -287.571015580309165
50.093523478159554 -25.388817254275853 -285.055112104621060
35.246228247675838 -40.519816707187822 -286.541129391733762
35.838080076092837 -39.503703514989780 -287.494487171826449
36.797329130501090 -38.380892488819420 -288.698598321007466
36.803068219081617 -38.936835925135185 -285.784409605604480
36.862013512029300 -37.441967391078933 -286.703665960086539
49.752340483981321 -25.403771283181666 -287.504118825619230
50.423969369089953 -24.789239827437353 -285.538121512075350
51.634243929542691 -22.743859770702283 -287.938208458624104
53.015301338168833 -23.331575089457747 -287.938927203633511
36.554907144867734 -39.725438398190143 -287.918972720041211
37.871823842757834 -38.314567285777379 -287.328662931929898
38.177276641411765 -36.673130091617871 -287.511104597592123
39.527355849588538 -36.266372924419620 -285.936005946778664
50.857051649097329 -24.814859278650491 -286.664037399556719
53.193547878260404 -24.450275203315034 -287.723117123356076
38.757864320604831 -38.966101914570089 -289.105935817974967
37.657426782417147 -37.280039174244315 -287.413953526953264
39.096337056731606 -36.752040282802625 -288.084227998901497
39.528755791062871 -34.811048410676371 -287.225267012817085
49.026752122953326 -27.407463425686661 -287.523363283551873
49.701949922131107 -24.793301778820720 -287.375790597913124
36.516166398179863 -38.892450257420087 -287.634176945838362
36.455223075104762 -38.857206974341118 -288.889236716855521
38.095347285637416 -38.143718661186156 -288.455083909084351
38.182463422758083 -38.285344832506617 -288.433864421090846
38.230602064977852 -37.135891728101406 -287.767200921388508
39.079635099346561 -35.112969870118256 -288.408848049421351
48.689015817936998 -27.916801972265418 -288.238278203019320
49.309420563422080 -24.396230797187478 -287.966848999634180
51.084421058566150 -25.417603904569788 -288.571114859361899
53.758403224643011 -22.787604344914907 -288.566860649821024
35.892383268718213 -40.656392674681548 -287.296797945076491
38.169803418846222 -37.944945266814507 -288.497431416332859
39.513604339621750 -37.688390989389191 -288.343859578535614
38.522297130066200 -37.174071620414161 -287.921647895074955
50.645381747440425 -24.850587119437012 -289.352956751223417
35.027615602349407 -41.503105945801721 -288.447421558348537
36.162469536771958 -38.748134890603168 -290.140437866782861
37.080267618727255 -38.185619555896082 -288.251502787240440
37.812557287604029 -38.950228512063418 -288.612396394309258
38.380657738705516 -36.401122961089868 -288.411274911801740
