# This PCD file was generated using the MATLAB® pcwrite function
# from Computer Vision Toolbox®.
# .PCD v.7 - Point Cloud Data file format
VERSION .7
FIELDS x y z
SIZE 8 8 8
TYPE F F F
COUNT 1 1 1
WIDTH 796
HEIGHT 1
VIEWPOINT 0 0 0 1 0 0 0
POINTS 796
DATA ascii
66.065295430320361 -13.544331104803472 -120.868694278434191
70.465410061994973 -9.068352224053170 -120.558356250431402
-26.782426429559781 -107.286211184518990 -121.477130668092926
-26.480802772043269 -107.120455568243599 -123.175763637987458
-26.925447925228280 -106.219570842489517 -120.596179412813342
-23.604747114086372 -103.986403005077563 -122.069242602285371
-23.514348271661433 -104.819987481593500 -121.837949909096253
-8.779039543465601 -88.660632308124576 -122.239426916980804
-6.168546865120679 -86.207652174454978 -122.119675405126287
-3.733377978053626 -83.521481669006207 -121.089291557855304
0.513285037524655 -80.345068869025368 -122.232228332172994
70.464256025308444 -10.361427181945096 -120.802422719689901
-27.160755589344497 -104.826273039130925 -122.893164326849899
-24.083141975677037 -104.818288002440696 -122.855921424363018
-8.030602567338605 -88.368071337189406 -122.497506563499996
-8.566363476664728 -87.487464320387588 -122.419607925177388
-5.950850726527827 -85.711763858912292 -122.059414104674275
-5.398324819382267 -83.843160980159425 -121.687220583533332
-4.811921052492584 -83.277265727060310 -122.394229920907861
-2.796081619060836 -82.516825457020957 -121.257363137624779
-0.921813760145707 -81.096544520369818 -123.340987541267253
65.587334410747488 -14.574581230492145 -120.537769623819599
64.444922420575921 -13.178571426448375 -121.894914358531238
70.356990934763303 -9.955710856728244 -123.377270838910036
69.440633359144016 -10.030431958112237 -121.672144394481236
69.208934696289191 -9.969093123383251 -121.739945772423141
-26.382137813891507 -105.956749892264227 -122.051206295988905
-8.573227566368985 -88.436720464311662 -121.886185432997152
-5.145023516850285 -84.928904191213121 -122.536399448059527
-4.475109600484497 -84.005546504866459 -122.612326940606465
-4.332114580148228 -84.249004718214053 -122.410913403036986
-3.403343332826270 -83.715228493087352 -122.019828006609018
64.602241110222707 -14.937319581786655 -123.263119893992950
65.681789765383670 -13.543096018080405 -122.592023198441510
67.859771808475003 -10.071971978821328 -122.663056412952997
-7.909736306282370 -87.556811821399563 -122.822477884468626
-2.998715556612508 -82.222084759303257 -123.615321821294003
65.308617033304998 -13.839788252928358 -123.212138149234036
69.156596455895922 -9.928334262628278 -122.793011073612533
68.264721620156251 -10.284896464915970 -123.493709798503772
-7.316595893091205 -87.121938957563401 -123.600805749511721
-7.267108867683056 -87.448908096350692 -124.020935228245889
-7.750373426265352 -87.157454668936737 -123.227470442094187
-5.002989737619889 -84.922824026893451 -123.103602310762824
-4.374150188389088 -83.786341103789226 -123.331521670844779
-2.710295334274813 -83.213662851129072 -122.866728547827663
-3.140365893793581 -82.678194375056293 -123.375857469622730
-0.653802572972176 -81.120384270396130 -123.597524325613321
64.555242907259071 -15.059026471261804 -123.314533713769279
67.165688121225898 -11.275719818202784 -122.994223647902515
68.895549164445924 -10.857456042592482 -124.798202576468100
68.993160966922048 -11.086599952750040 -122.785159743206847
-0.002773683368920 -80.144233572258130 -124.130442205753184
65.301285372227341 -15.255721849349319 -122.893464298135569
64.698211921620228 -13.966987625267372 -123.839938454235437
64.692862386526471 -14.185245853616955 -123.000328626560261
68.969542245414445 -11.348437472525413 -123.391729306790694
67.547518532953603 -10.360293269870171 -123.909931926650870
-7.088774368540101 -86.908371092334278 -122.914819486347810
-4.060652950889697 -83.683676989349465 -123.736753773484040
-3.012345613662628 -82.868061034614826 -123.805701168728191
-0.328129892563614 -80.307419176122039 -123.486121658636137
64.969505294396058 -15.893312834751979 -124.596415172425992
64.534990161929045 -14.307761490025488 -124.425886990423678
66.859397208456386 -12.848012420778312 -123.364885197361545
67.887247627786380 -11.583573204547140 -124.785879684495370
-7.307946626577978 -86.571199987438106 -124.106226693836078
-6.606104909903856 -85.635687935126185 -124.491270589025277
-4.483840631101663 -84.567710237423782 -124.189692061821319
-3.956860998631555 -83.305308274461424 -124.790068773201568
64.779592471530876 -13.722477280905213 -124.385420201499031
64.582859225082572 -13.524439157400973 -124.646346529984925
67.087286139814850 -11.517796931537893 -124.147718109249794
-6.186242603236703 -87.392017695652697 -124.963450634367391
0.588060145522963 -81.420599930753781 -125.548702264244852
-0.622726521569244 -79.911174257262246 -124.630835233192158
64.528991958780566 -16.468123112573647 -125.329041264082576
63.998068875009601 -15.532729859853466 -124.093025030438810
65.476990150599036 -14.375615937764611 -125.385721693457214
67.870556147980693 -12.392052055721479 -124.895605646517780
67.148950971992534 -12.752353099328275 -125.170707911504962
-6.068538360620172 -85.242634530989392 -125.245456279252892
-1.765482334223126 -80.774792207885568 -124.726511249450709
63.188786450660615 -14.913656302390368 -125.432248368993427
65.858334425452256 -12.434866889836927 -125.893834465161262
65.776243219909247 -12.688037539384121 -125.629527429862620
-5.586506583143310 -85.142175349287754 -125.804165630683315
-0.857154345199864 -80.253871806953967 -125.080336085951771
63.497487656191169 -17.266232654510421 -124.982568109646309
63.669292677181787 -15.884400868223370 -125.402728154849001
65.101630147394502 -14.468045255430214 -126.832988629626442
65.830503039471282 -12.623692679677074 -126.805963895687213
67.138133617284097 -12.913023346520555 -125.895696784346455
66.852982713751473 -12.552953420118206 -125.308026647102196
-5.251627381670132 -85.829403001138701 -126.906301246872118
-6.036409739737390 -84.239249595337981 -126.033138094779176
64.036566025317413 -17.020696521782170 -125.697587230414129
64.325465595995979 -14.968684418794449 -125.347411366670315
65.324149915397641 -13.842410949777976 -125.872705602944009
65.974925945093531 -13.658723662668448 -125.834351616671441
67.030124324309881 -12.950432340905477 -125.956325213866052
-5.801597543418027 -85.418023577506077 -127.175464456574090
-4.386803972246495 -84.480147826442362 -126.497777855745070
-1.223376482701397 -80.838266499187498 -126.774289410692404
63.967024391238020 -16.248939594436397 -126.941798719236999
64.244536624368664 -15.125672495917572 -126.660099772277775
67.530638601457127 -12.586234592243386 -127.115051161572666
65.965327228396532 -13.388122276000802 -125.778196710895429
-4.732763186110399 -84.391036572202140 -127.454383751908225
-0.706691277807080 -80.348416865820340 -126.799718957837925
64.185702918784727 -14.847188237566533 -126.797086836339986
65.375126092470055 -13.789560250743104 -126.019184437400497
67.085846885783681 -14.060709175193070 -126.507964629051912
-4.917398351200918 -85.091089437733061 -127.377948878455555
-5.418795136123434 -83.074842955034569 -128.270711024393222
-2.080843394489347 -81.504076308926088 -127.213121797527492
63.079562786887713 -16.870297173010531 -126.942535464722837
64.065164569822812 -16.071396322490170 -127.468542405215615
63.477900111067591 -15.786221701520059 -127.654466235407696
64.941569384727359 -14.569477892152726 -127.030311965119864
67.553090091542614 -14.174322025790412 -127.475194723879767
65.162993390957823 -14.110141596438849 -127.513232728779343
-4.703714597675877 -83.840080245509313 -127.700294827056041
-3.479238814417900 -83.784527333313946 -127.540625976462010
-3.780056853355914 -82.732613420804427 -127.779078808654376
-1.905468581663501 -81.261439561221536 -127.695809195444753
-0.605399134346083 -80.489967567856084 -128.550481283220932
-2.206257114641111 -80.434306682408518 -128.495073011941741
63.466625081209429 -16.485493048723669 -126.903324725831922
64.380152354064165 -15.311389993435057 -128.061115274682749
64.171427913835871 -14.469972725649496 -127.544347551324933
-3.881237287217083 -83.915012904516573 -127.355088936599557
-3.569270936815209 -83.758475693619857 -128.282516104053769
-3.914976001824538 -82.430182078337907 -127.759670473740456
-2.646964127767712 -81.551405572275712 -128.012157600047004
-1.966247226842430 -81.759588098750640 -128.322720560833375
63.306539416010722 -15.277900006806140 -127.839861007294289
66.731977809162416 -14.221196899630392 -128.026313653374132
64.681814243041558 -15.451509863961482 -127.940032731132888
-3.369014001169703 -82.549550058800051 -129.027733060789899
62.969759617018205 -17.277831494438576 -127.060111261517591
63.507570810836782 -16.042135023216456 -128.738391425663821
64.384496763083803 -15.080670008096913 -128.244546708239483
65.107793638740006 -15.622575015737878 -128.331664392336592
-3.040866162118733 -83.034522657438686 -129.276239211654598
-1.777128391774567 -82.594877881888124 -128.382157619712615
-2.346875878606719 -81.298256094800990 -129.533172408942363
-1.020275784874261 -81.606628974037918 -129.136495313991247
63.251498628014410 -16.329803794095852 -128.722406849667124
63.683472656225064 -16.834399668692651 -129.560337194259915
64.231335889170950 -15.884709140194079 -129.097700806695343
-1.986460691089032 -82.709837309615352 -129.973487102153257
-2.997789174300925 -83.229434040694542 -129.256859637338351
-1.080737361687034 -80.960093789548239 -129.211111795138976
-1.691561842006243 -82.059310561639236 -129.697322747026561
-1.329694977751334 -80.690865976300330 -128.968515501203484
42.710923150557008 -38.315864107993569 -237.494277692769458
41.617194512551457 -39.268385654772381 -238.278650211716638
42.291393223253436 -37.665148628819331 -236.840731807604328
42.800706044210976 -36.708517966134089 -237.519333108005839
40.873143034070679 -39.917251476512355 -238.462856517743489
43.177987431976305 -36.468525134740503 -237.058270073543270
40.566794432745063 -40.527877158741212 -239.174429699270632
44.468558695143919 -35.020101125959648 -237.858236835192429
44.738347172429869 -35.593254435706172 -240.085687703290375
40.208100823108431 -40.534172842925997 -239.509947678108915
45.018561771374607 -35.493029110137272 -239.805460843997480
41.278599850366327 -39.633949786608348 -239.879282702492958
41.636199863249274 -37.356025873977309 -239.379810507960912
45.148022172948195 -35.788000643700592 -240.361395837072706
39.267013413875894 -39.438331435489260 -241.217908472865417
43.560127684292823 -36.798911207486995 -241.150453978867347
45.625855641543758 -35.339626645307334 -240.053389685562792
39.441825686549684 -40.450668588925595 -240.813484338993788
42.958848805080727 -37.361844518953227 -240.459504879479027
42.209231451698734 -36.732346227888804 -241.444936516744747
42.473067977985849 -37.871130569958666 -240.569855247626464
42.057504799834099 -37.040599224411459 -241.192174457434589
43.130849384859907 -37.067363996613153 -240.398989452554758
43.718493139883464 -34.869833930608863 -241.494952005181659
40.605981672893250 -39.191606599632053 -239.533309453888506
42.745250989783422 -36.953661232075206 -241.197730537117053
43.846912015396718 -34.282694772409592 -241.208809349742523
44.504780362074982 -35.484505881209081 -241.199141166929280
51.828371584149501 -27.442838609095187 -241.098754463978651
52.470300422445149 -26.220965240548882 -241.517389560969008
53.446227765310823 -26.273731568368827 -241.236612562113891
40.065894003644253 -40.003048198649559 -241.481009201084873
41.205227124614879 -38.580600951624511 -240.938612305345629
44.211198071661791 -35.813251492756550 -242.013160900468819
52.759393362095665 -27.820057400038657 -242.242207880041178
50.843159209915576 -27.756445888281739 -242.167091775679125
40.676829263703127 -39.548184775055596 -242.081985950140648
44.742133188610310 -35.069720449903230 -241.876448245484312
43.658415504481681 -36.870592051142886 -241.983469020283877
54.371861858357498 -26.439282177299681 -242.864639876911212
41.904653264413682 -38.867668851401746 -243.037556254031330
42.387947341116266 -38.513715617646930 -242.889910074559168
42.631999362232953 -37.733548553458576 -242.514855785775779
44.095931980128974 -36.774072227307641 -243.617531232807067
50.875223009291666 -29.660142982780478 -242.572648031252157
50.532260783064714 -30.115456556481050 -242.275953673916945
52.174862290110177 -30.548567708714980 -242.401828810350480
54.907979402145116 -25.499627969240468 -243.473599529398825
50.655546248848822 -29.657654894834739 -243.255872713953039
55.495870022881654 -24.186457139558179 -243.703792371707522
55.660624332130553 -25.181135351776959 -243.636414811330127
50.389379636504579 -30.895284267099520 -245.275929305687498
55.543033537705924 -24.667701251560814 -244.782834470274111
49.779666857781606 -31.790457338750276 -245.260378159448408
55.957462261073552 -24.639153096579143 -245.416206599954478
55.097597388319578 -25.070140031047192 -246.089430024628655
55.730250170704828 -24.015965296783587 -246.351133195151704
44.080916709547765 -35.728992894955283 -246.390824004832098
45.898859828752407 -34.032358619175049 -245.536791105617226
47.292662227640704 -32.954567082892936 -246.641847597520240
47.343265715115265 -32.517814951102459 -247.192258361800839
49.273076307605223 -32.225217620569104 -247.120915925965903
54.915902710315962 -24.207863690467697 -245.444179731535343
54.582579571429335 -24.710746242158400 -246.247877344616512
44.362826700627458 -37.074970107823347 -247.102713632667303
43.473466999124298 -36.145818543239614 -246.734879365341413
45.071569052969558 -33.905177355715153 -247.874467856833860
45.107545326836110 -33.764826535036804 -246.157450211260084
47.535439714927250 -31.283199850233391 -246.108337113374716
26.843874681115015 -52.377300444137859 -247.144562126668404
43.491024211929556 -36.652248704302515 -246.764901299855808
43.930407073913436 -35.160480431397900 -247.021694516281627
26.861282294111245 -53.192724877079073 -247.951774569625343
27.548473424081990 -52.173617153418903 -247.887474039268426
56.465866857359948 -25.195670806782257 -247.069873423412105
43.579170817749798 -36.735892581554751 -247.724667511189296
44.019168973832613 -35.312728131705491 -247.671924641995929
55.171268737885192 -24.525192815374840 -247.326223045996414
43.090405367190755 -37.597479622229287 -247.594409440557740
26.689960525319059 -52.465413358656669 -248.871436149474562
42.998586965126549 -35.842811624593310 -248.262961611855559
44.314232577528564 -35.274374897198001 -248.041767949270138
55.487780889402124 -25.636911239293546 -248.363863808206276
27.347970699133914 -51.976182125940511 -248.853900919292045
55.389591215564643 -25.479693606409864 -249.421988322979331
43.562323098370513 -36.092893816392866 -249.054776772823942
43.624386804424809 -35.946951303948993 -248.829796858686962
56.241230153418940 -24.951043675927096 -248.969842031597722
44.250129826574835 -35.246129083920735 -249.617077580914923
45.669588291995012 -33.704524331107017 -249.747060899707321
55.787800290547629 -23.982028882021790 -249.638355942448300
27.523635878141455 -52.706181074630344 -249.438802008247251
44.198472891208226 -35.463111324397147 -249.629470844648893
44.810614418650765 -34.138896858724138 -250.444239602523680
55.987780280533450 -24.508685688363403 -249.722990438320238
26.661609843332091 -52.621031663522665 -249.968865366734292
45.488673171957267 -36.276679644050120 -251.784941030653584
44.988940155088251 -33.908640073646566 -250.488611934389610
25.943531736866291 -52.680644896553950 -250.974614663163550
45.584206363205240 -34.750798933307891 -250.988306191708858
56.004739279066499 -23.980113733787245 -250.756606004799437
26.589414692286674 -53.012302118726844 -251.495348484038459
27.268610151267048 -52.730625127493333 -251.637232560763977
45.008675597188400 -34.967238360597946 -250.788050329330105
45.356962282831532 -33.402716083759096 -251.229853773822214
56.506271990556719 -23.783036328160101 -251.271148696809945
27.306176374511139 -53.986136535314024 -252.611494958760801
26.428625183014045 -52.661532753358280 -251.479949364974232
45.436636344136957 -33.188992702225065 -251.706730405177439
55.575706832945819 -24.910848710203084 -251.277102357930715
55.837402296378492 -23.719310015603494 -251.922339993156186
26.439628461959703 -53.606255265410738 -252.594982984207320
45.920459060277445 -34.540206276148680 -251.981834915243184
46.146940385166481 -33.687737830064222 -253.005840750545246
25.862887792184619 -53.325031623124687 -252.292021386587095
25.783663970278884 -52.847048194698381 -252.315017314065472
27.674492602585822 -51.682646899314875 -252.815389649093049
46.276695735540763 -34.562139864758919 -253.416328752696955
45.695987167071642 -32.354350281879050 -252.858039970038760
56.185440529399926 -24.504305084225461 -252.155486299079655
27.373441723350965 -52.068506244121842 -252.872842902187813
27.191294345605815 -52.287169367660731 -253.777463102314641
29.133208715442731 -51.145129423029495 -253.516448350592867
45.752807036577714 -32.576020774118859 -252.781461506245080
56.589598636665038 -24.014842240062517 -252.889644474986540
29.684981082269232 -50.474775522338504 -253.478940173937218
56.003877862250391 -24.402782227917623 -252.589121030095214
26.505074543341308 -53.172580658046201 -253.809820159200456
26.815130218559375 -53.238534092605732 -253.669135473766573
27.487928108934959 -51.528539689640567 -253.683306293293640
28.767065479887883 -51.002438005380483 -253.316462137981773
46.529223340244826 -32.727375033348117 -253.989265714848329
46.623540915563936 -31.472394214136681 -254.624977873840805
56.548352072898766 -23.686243802153758 -253.325185476397735
56.777730329041802 -24.407736891832855 -254.021000464901761
26.449994687927759 -52.923635678283446 -254.076593903291666
26.499704745058956 -52.639238084394648 -254.479424567857194
28.243325144138190 -51.572549110468444 -254.150518218618345
29.190853206145466 -51.728675427021045 -254.113569441570576
27.140695955916321 -53.408944980128503 -255.245219692569663
27.662172120376056 -53.028343749562566 -255.014450771878813
27.665109578328529 -52.011677375962080 -254.659581080288916
28.181373040986994 -51.747084659771687 -254.921421281981395
29.766460410630398 -50.906149941957736 -253.865504772348430
30.414114843143309 -49.498558654283791 -254.896037490229105
46.889620870884642 -32.352041367139847 -254.581536728646427
56.091265201216764 -23.569950823878980 -254.758437505463860
29.301015069530798 -50.161609909424378 -254.781247222505698
29.929764502942671 -49.546396731859254 -255.084660222165581
46.195380855798831 -32.903664038013837 -254.425548914578172
47.479012518927817 -31.708071837685491 -255.748560138269283
55.939705782607675 -24.114080495590816 -255.462940075585465
26.224258345370302 -53.827336869777355 -254.996796938713715
26.683229215426351 -52.881122108361417 -255.261969985313840
29.201422210319354 -51.216170233987171 -255.078606347509435
26.918765759407659 -51.580316575858745 -255.987554701029410
29.888153063678839 -50.210259300309396 -254.287208484423559
56.084439187573651 -24.443896291531914 -255.237609980309571
55.407689269465685 -24.002089842035428 -255.181297061931815
26.620329266513178 -52.376286351183445 -256.440968216570468
27.901000689181984 -53.246831417084685 -255.373766079362809
47.141346637026963 -33.562539271425855 -255.556651666786479
48.613246124141362 -31.470101875214592 -255.777007819106586
46.790787153371248 -31.278719396477754 -255.092465092577072
29.846960541677021 -49.792217866615950 -255.088588930865228
47.927287264701874 -32.233277819531956 -256.198986562879327
56.512344855192090 -23.947062724049704 -255.641596529437720
26.753997949271412 -53.756511062005309 -256.644952351203756
27.920749238554695 -52.994287883947351 -256.202392941939991
26.996953582487823 -52.646334759253072 -257.236062940206750
28.845491529914586 -50.540096953718937 -256.193594509729962
48.328306883967052 -32.340836052695927 -256.289468493521952
56.976933541902469 -22.990901283893383 -256.760135894867744
25.365072172073855 -54.269135362147367 -257.142096628893739
29.787471654343051 -50.383267656590618 -256.624797155264275
47.421785040419671 -31.839390074467207 -256.540989954465431
55.130006692968323 -24.584207871780372 -256.201310500170337
26.073998995349775 -53.256316651085569 -256.749866497935272
26.791804639815290 -51.874214147933685 -257.484543483306879
28.447883239710357 -51.634174846504898 -257.044690121200858
30.606161088773749 -50.036222357553243 -258.695774871671745
57.102103583373818 -23.558424189227605 -258.240592736902272
25.712681902391449 -54.388679379788933 -258.016017636733977
27.542944316730118 -52.695329136735850 -258.476945577978825
47.420142751690108 -32.615737978499602 -257.600826138259436
48.173041975685351 -32.022653582449777 -257.705518682143975
56.554679713626086 -21.921648303710697 -257.937769808815801
26.089379447341805 -53.635500587481744 -257.970468683913680
26.535543309405000 -51.499992293889910 -257.631597735567482
27.103742143965601 -51.667880738294627 -258.599728449405006
30.536298725936415 -50.336265589347597 -258.924811793003812
47.965382891004069 -32.018751071510586 -258.175121235008135
48.195746340422431 -32.449682832598718 -259.124071444973595
48.579178695513022 -30.326847165529415 -258.656604931510515
57.755128910467654 -22.181051211148436 -258.057668861987565
25.467588051547974 -54.126993233386209 -258.901086649768786
28.330271002412928 -51.881715695186891 -257.901099582278391
30.363442751281703 -50.400027257339566 -258.296865769744898
47.939749900169154 -30.423864405139568 -258.953205056480954
26.226410471408339 -55.030255343210563 -259.412227782987202
26.328241399314372 -53.488075198970165 -258.658204908061691
26.890795124741615 -52.811722482582105 -258.982288516218489
28.181357171253147 -52.172175800956296 -259.417350518354056
29.667945143462120 -49.776436361850870 -259.426520916665822
58.802206652606507 -22.200603546999140 -259.274019017385228
26.799105225823755 -54.535131199225106 -259.129738289647094
28.673973479119422 -51.106788824369126 -258.952561698078512
48.590904453834312 -30.945695304449192 -258.498045861640151
57.565594759087951 -22.040689492335670 -259.032929314127557
26.401420983721316 -52.435853796201577 -259.557756474941300
27.565393530338458 -51.647166009084692 -259.492791314164037
28.877304429418555 -52.125760786004577 -259.276675673422233
25.621361794926706 -53.899840152492622 -260.036809296459467
25.966687397804943 -53.137469791504884 -259.467827031304125
27.014787576082103 -51.887327913880334 -260.183646039609243
27.971668621411265 -52.066063315759301 -259.803517716324279
48.147969676927751 -32.315865081132564 -260.156082218283984
48.339352369313737 -30.781241299544092 -260.009055636599953
58.490055615361186 -21.930914369606860 -260.683910519203948
25.940000007174685 -54.051106616982004 -260.217614557351510
28.527913465412730 -52.346466370785002 -260.288243262818071
30.147527170395076 -50.488166918947790 -260.358859698431218
47.500947560784688 -30.551020043325078 -259.738939990953327
26.587326831389152 -54.068145890358608 -261.746524039108749
26.431755875323098 -53.506602920471472 -261.277400699305360
27.300096076204682 -53.063783769285216 -260.532892028787444
28.020956794799957 -51.988707580528704 -262.032224579663932
26.255695648398959 -52.603489501452017 -260.954319121339211
28.481641606493149 -52.651723229838474 -261.247980784348670
29.359297782614572 -51.277900189171881 -261.359944149953208
48.504335638428628 -31.063205174680302 -261.159931157207325
26.068399925207064 -53.579873896415734 -262.101485635177880
26.503766344666310 -53.295240743814617 -261.848812053101028
27.342695878188273 -52.653332726148044 -262.031169948012632
28.031364475583867 -52.858225078872863 -261.607461482058625
29.533591730400516 -49.430477569552188 -261.665767902420214
47.624043246065199 -31.381214588760280 -262.520585710764010
59.064251951594294 -21.674414489757510 -261.662867800085451
26.268462563157929 -53.723839348928870 -262.349929308695209
25.074751830223839 -53.132377485545852 -262.393404532732632
26.582912980756841 -54.251530037085708 -263.155947918459049
26.632441252315001 -52.136606244022289 -261.903055747026031
28.595912076893260 -51.344933125204619 -263.048141884144741
29.846906223861289 -50.919309546365803 -262.152466552681062
48.247970309906492 -31.292081434318671 -261.847886955606441
59.081936454577374 -21.447841345762814 -262.452053461268463
26.658844604082514 -53.573388413605933 -263.746558560325752
26.246410560709990 -54.306293373069380 -262.498065615040503
26.953570868828724 -53.005307984997138 -262.645244450988287
29.311044909275921 -51.774989011416473 -262.748856947272884
48.745934525759452 -31.092735675022048 -262.532865473894901
25.569159098823238 -53.007206320661858 -262.045335938944163
27.148853258735773 -52.848780828055702 -263.452766490962574
27.918901142716127 -50.969458778764782 -262.939868560379125
29.078680855825606 -50.209108626809844 -262.944800512301185
48.345227604519557 -31.036530148731998 -263.678566295816665
29.684412085289356 -51.143261985940185 -263.720729134043268
29.162869059064175 -49.829893755516721 -263.345397565765040
58.782163797922458 -22.873179399475543 -263.637983481609581
26.822357939734246 -53.341560827036339 -264.341104035420585
26.843243017903760 -52.158029985504292 -263.769182541778946
29.179275360899062 -51.098264748746537 -264.560313628803272
29.911621101455278 -49.873049699156269 -264.332314005778642
48.782349549453059 -31.134007343733298 -263.845213470498379
49.373129820876507 -29.697986377378442 -265.703258618025359
59.288260899390835 -21.776472659448920 -264.385536758546721
26.237560573229132 -52.116741601959077 -265.470036978694679
29.445058213130572 -50.057715943397184 -265.441596909119312
30.059430501494706 -49.854566959314518 -264.899076118761286
58.607084646871201 -20.986687739187012 -265.433168930894055
28.507828172954849 -51.382253965725127 -266.223376506011334
29.799575694140881 -50.595997294036259 -265.157000914878097
30.165395826044215 -50.420721334336811 -266.009679166809349
58.634494278379456 -22.040087608515218 -265.879762977063876
58.464259632638083 -20.711302523866149 -266.487471542234573
29.509894799832264 -49.781476418316686 -267.450286784762511
30.582584917490585 -49.270712291413723 -265.953377832737488
58.599472777940655 -21.858060594187162 -267.155348256408104
30.506660690658570 -50.597483088735778 -267.033939148379261
57.662150474633052 -21.421622619658180 -267.201461709722594
31.016531889166597 -49.557255858231386 -267.766204113292702
57.997350757141270 -22.117443732859865 -266.965116074476043
29.739672439270773 -50.279355834093423 -267.382773433218006
57.853176232296100 -22.728699021356409 -268.034008051451053
29.771192366874430 -49.236603783748983 -268.224058023065709
30.510103987072799 -48.841359666886717 -268.280736758864975
29.437015694233612 -49.657640672696424 -268.613227383592289
30.803330164145002 -49.429663418833243 -269.504448283898228
49.251225842732353 -29.854289325260108 -268.688325080502750
57.911010652971932 -21.647280677322684 -268.032227268437623
30.364279223149701 -50.807315188620883 -268.666697827708560
49.124619954089816 -32.103706710833769 -269.253562564428250
57.739192953181146 -22.238312040981310 -269.288310345735681
31.540266298588289 -48.574444734833577 -269.404547828372415
49.011946677560189 -31.738309598353663 -268.950869976999172
49.359019043857373 -30.379385906965769 -268.975845333986342
29.943425014567723 -49.902627793422916 -269.481142309669622
31.715806290994578 -49.569810016192243 -269.907156605674174
49.083811925406138 -31.090428593796513 -269.472519828808970
49.412667009957715 -31.056306094540531 -269.629795263481469
30.382687975296218 -48.748674299801785 -270.524742839322641
57.400391582506977 -22.183294836607590 -269.932220737861940
29.550101162213636 -50.901799436237305 -270.335893232321041
49.000254676525479 -31.677274906506355 -269.706695251809265
48.514854417100501 -30.237333557402490 -269.395197050708475
57.198285689282130 -22.469421196230666 -270.266623041538651
31.239181585658411 -49.522574938716225 -271.073303833271382
31.351175244356529 -49.316452024723965 -269.994201653531377
49.074445825643309 -31.632036831295380 -271.037281533891246
31.733971390468465 -48.532277177120690 -272.321685507484688
27.893831590304202 -52.072779314412195 -271.687655809072908
30.757666862814151 -49.633915791869399 -271.387015678338798
32.187426389568721 -48.229851528504305 -271.775828821944856
48.148510316063081 -31.871495850500981 -270.992422943552924
56.796416943307221 -23.604535054818168 -271.685057921965324
29.021561953197349 -50.256431751964072 -271.699888382406243
27.730256532476655 -51.553482785194738 -272.101225901955615
28.689289496567969 -52.217482768857963 -272.549918441478894
31.322606636045915 -48.182106696081007 -272.313943070375558
31.370497307149765 -47.902148995500866 -272.944677860037075
47.828457401161316 -32.393418421251212 -272.741572782349465
56.284501231302499 -23.953646989255255 -272.549765336581629
56.621166124598346 -23.536579150067819 -271.659153573801518
28.353387322353740 -50.670408013891532 -273.406671533752444
28.551669229914111 -51.574986748515997 -273.051032650771617
32.364225268897606 -49.846364327556032 -273.486511130384599
32.810064967071902 -48.414863389378311 -273.372718812422306
47.757208447767873 -32.014291723635772 -272.780237466148094
28.398018023969065 -52.083724533217463 -272.763998139520197
30.188949077911300 -50.691241893628970 -273.247420328368321
28.100106779690812 -50.836012329516656 -273.448794880585524
29.561530760696641 -50.144032169483019 -273.520528068303008
28.401533768929561 -51.763495663060112 -273.068270312837569
27.352938483261010 -49.485158994138821 -273.958380624180620
33.042422774515060 -47.346781818543981 -274.188770494870028
56.241999157307902 -24.115484320299558 -272.973163125211897
28.243281454207683 -50.675082883815392 -274.568952980747213
29.984985923080263 -50.466692944162737 -273.774654310073743
32.010999753627551 -48.412171196298644 -274.044079044014495
32.815585648966653 -47.147260360102045 -274.757430234361436
48.811770455344337 -29.671720208575081 -274.608411020700373
55.508510830737301 -24.282451540112373 -274.070692228099404
29.176675792789275 -50.776760004273910 -274.415515797904959
29.066820030515029 -51.441544489677383 -274.159387916402466
29.685502307406768 -50.487024094386491 -274.635312179766004
29.873397438454816 -48.861409455849689 -275.486476276467499
31.641607551888367 -48.386416660089886 -274.095254843485236
32.070653575749034 -47.310433988709725 -274.106903657817270
29.169113521653760 -50.776051966040150 -274.569992336514872
29.527009230401351 -49.333098361362154 -275.011078351181482
30.407964890557697 -48.816766003819673 -274.549317051611581
32.923864808010720 -48.388581169557483 -274.647246087420740
33.858190972943270 -46.279432245382559 -275.337986241942986
29.609659320691481 -51.462615084309959 -274.756276031983077
29.509693069970961 -50.384045270302025 -275.228810842396570
29.850981679921965 -49.780731879965693 -274.526357068815514
31.625765998420249 -50.184636074001773 -274.983835896365690
32.862474803341520 -46.813191084272511 -275.658841938286969
29.707700360108600 -50.107415434308592 -276.177441036438438
29.158274812849694 -50.672850154086234 -275.771374235756127
32.112559221310860 -49.237953185372938 -275.744186226419401
32.221125157744964 -47.763640226463117 -276.491616621458832
32.760122257238251 -47.118080277603596 -276.619428098448395
55.299966543720188 -24.528371774444434 -274.912613595300911
29.733709288201371 -50.843718679530269 -276.165539122979794
28.963912288887869 -50.371844379924681 -275.652918963823765
29.935825382274007 -49.899858996428861 -275.800832903931109
31.511011039651269 -48.389385747424782 -276.792409243942757
33.684800067781964 -47.113539794854447 -276.523134705137068
55.421373677059030 -24.635839948269329 -275.642095514531036
55.198409910173616 -25.006469829773017 -276.366676014171276
29.188657150051426 -49.919295714215323 -276.644573760077662
29.352487146340355 -50.290343492925679 -276.936516457304720
29.999102086350760 -48.012241069110708 -276.804983543992364
31.645424256889680 -47.234016898134129 -275.965110816263859
31.061054185819781 -48.801569058577982 -276.761001558968530
29.929778102132826 -48.812633799411053 -276.908838118958499
29.922521843954442 -49.719555629045686 -277.464509292579976
31.019616533620738 -48.427414449832455 -277.496816483707960
30.966020921668235 -48.510594753777653 -277.938720620037657
32.460050819982428 -46.994285188787309 -276.593864167488277
33.759365620425164 -45.775072485105198 -277.548471922800900
54.801907636720202 -25.445715792444446 -276.823475511910601
31.327555385861476 -47.825198172325422 -277.575338020940933
32.067849980826644 -47.186004545660083 -277.122751315024061
32.425414549999509 -48.060945325321292 -277.367969334991130
54.618296645439919 -24.748678212296188 -276.914122023123468
32.914818037413902 -46.937085556129723 -277.160541117155503
31.324238171237326 -48.075254133315781 -278.298247654324314
31.941401715396548 -46.038002065486197 -277.974173379343313
34.644520078068084 -45.642367079761279 -276.468932560942221
54.802676118748884 -26.229610296525106 -278.262868291624443
53.172509906965423 -25.443812136346697 -277.624192965739155
31.482057531174455 -48.490512599648575 -277.044750120599360
32.974856516731442 -46.917931857331183 -277.664561865835083
32.811827880861017 -46.448518033776359 -278.286388068422752
35.564141230718207 -45.291833904335483 -278.347244264170456
53.912166298676055 -25.963801042264112 -278.301465378319449
31.086141211544358 -50.043924050415129 -278.793293696217461
31.581313995815488 -47.959137455364669 -278.240347145865030
32.515179147720779 -47.389407002483729 -278.673480270143955
33.806442480014709 -46.604311718133800 -277.766448893039239
34.602460746842567 -46.105386555070886 -277.867858877286324
53.710350912670968 -26.479685077890206 -279.086216419634695
30.488593025038291 -48.500045256700822 -280.019886380654953
32.473414820842464 -47.803625411081377 -278.645546882421854
32.813492992214762 -46.175150250894937 -278.919104965170959
48.083659211685863 -31.642996009131188 -278.508811219093445
30.810659782074790 -48.342618622812040 -280.186374186952946
32.372966170619371 -48.147921896693028 -279.911254099376265
33.403521861259868 -46.567445155969359 -278.787656998557225
34.971471709373745 -45.730403866039893 -279.100694754007918
47.995401459747058 -32.373054634682816 -279.988155602747497
53.519494920329088 -26.082059139046308 -279.189020174698101
53.260376334425246 -27.165330750187035 -279.127650388235281
30.877396904667584 -47.101975933411005 -279.445444002263116
32.718000497180292 -48.199050564719876 -278.984781113804274
33.158488425803576 -46.366186793188561 -279.402894725493411
34.004410394200043 -45.486651911143767 -279.238017785162299
35.454143496414297 -44.605459108791713 -279.234794397649637
32.334639055656076 -47.792396352135626 -279.216687919218998
33.240715789696686 -46.942779723098340 -280.733726418981746
33.888346100671853 -45.283853484989464 -280.663448706389715
35.372611008655241 -44.986078991997445 -279.951447086843928
48.317063548359698 -31.922799568166102 -279.363837322577410
29.624382818820237 -48.013299560543778 -280.286672953896471
33.611199105446950 -48.519468886091815 -280.063375947813995
31.738796901495981 -47.851472676322985 -281.204015114184244
33.105333760515883 -47.216523576922199 -281.409767964939135
33.427549894808728 -45.701266791337723 -280.604550326370656
33.995150988005300 -46.485573882504887 -280.316169943964496
35.045206329642426 -44.337327613639879 -280.869268875445755
48.904373956911002 -32.021948437314762 -279.903152496499445
52.757668665378667 -26.967732878964451 -281.138112451160737
32.466706002099386 -47.151456501962336 -280.717414638932780
32.937281159047849 -47.284646853531072 -281.210719463229850
33.256983849270924 -46.599640121549548 -281.718469324239891
33.513109982538190 -45.537466097331219 -281.025472978174491
34.058749652184481 -44.135249392921409 -280.457574661077558
52.465100381454761 -27.282716696758602 -281.017068951861802
31.556465736596454 -47.792878014721410 -281.150794997703542
33.195090708738768 -47.737672721082809 -281.777607727789871
32.969835862898215 -47.343047094548218 -280.313971182890498
33.401204176998995 -46.116737696957451 -281.951204351217939
34.346062523558651 -45.610231456130030 -281.135446417062383
37.020435536474260 -44.219151149110360 -280.932685538907890
53.161386838054263 -27.490349175807239 -281.086266922952120
52.437986749004445 -27.682296017032208 -281.089162883911399
31.389339716296067 -47.590152303323777 -282.015958107783376
32.102181355825252 -47.117397972198482 -282.170384806836012
33.051073725135176 -47.780624245478428 -281.863801673734429
34.706352108279873 -45.378647525621794 -281.815392259904058
36.387053089851456 -43.320484249252381 -281.721722439429925
47.667851862700772 -32.373088074619631 -281.369339149996335
48.069599006354160 -30.845094361455725 -281.808136744444710
52.314540485950502 -26.879940901234949 -281.794969168439820
32.671571115748094 -46.486833164361954 -281.519391536459409
34.672487041797865 -44.775411389587198 -282.404633644791545
36.858650075144020 -44.024914113027755 -281.750672569044639
47.455602627003294 -32.381998561881481 -282.487460877504020
49.416853398731156 -30.244255923441006 -281.889334864756222
52.406254478523472 -27.781918533045005 -282.224767874310771
32.467428628640150 -47.244875751870694 -282.550294261220074
32.424824727912650 -47.191727407633522 -282.534344486161501
34.457412395879508 -44.871688112787282 -283.116333957694337
34.549972217373515 -44.300428491208706 -282.925324241832925
36.145263775655089 -44.526970540274625 -281.275756421376798
52.653358698986445 -27.844132932954334 -282.458996810283963
34.387961265944689 -45.646237930386484 -283.013436613410988
32.695619036981498 -46.073068947762259 -283.234544111124308
35.463980976000897 -45.600517737447475 -283.180355984965217
36.794979278522042 -43.520916402852826 -282.824424081424240
47.045295210079153 -31.996121816985791 -283.385162113798970
51.087603192326789 -27.352342963177588 -283.000220872791431
32.966360800443944 -46.363332499231703 -283.530651280209099
33.806954581895702 -43.446584199429871 -283.237958568766601
36.832996688206123 -43.292391000912147 -283.111963186581022
47.681642773843748 -31.303561507175491 -283.176536364427420
34.792232224657020 -45.655691409892540 -284.563936730827606
34.047289013384621 -45.661650971876050 -284.438871766192790
35.151450571578621 -44.497809696140678 -282.905591879613439
34.978162095394673 -43.070644254534301 -284.410647669663035
36.494369484775319 -44.288320275269989 -284.222679019811778
47.347583211035165 -32.575430456400966 -284.068847370716526
51.912885931650109 -28.035976482129715 -283.940060672956747
32.776643819141086 -46.792178982466289 -283.074653720240292
35.394664833931309 -45.912004638885151 -284.000295991386736
32.668786826938444 -45.590940851960312 -284.272284628654916
35.757255738236708 -44.006041075697311 -284.265592622303700
37.296845262619129 -42.601438376038388 -285.062690146299019
48.282948229923008 -32.745473372544623 -284.069285947959031
47.556934234462176 -30.989420280566360 -284.583161449059901
51.959929638980057 -29.273794068367899 -284.187068851593210
33.497886957255865 -46.221390280680382 -284.088694396134940
35.516454351422368 -43.926146398952881 -285.007379635314578
47.225808792357682 -32.264717923999740 -284.248565269557218
48.275495385827739 -31.036763720015973 -284.727968922224534
50.979329195312623 -29.013660944328471 -285.329947755067167
51.303080679959926 -29.327833027854030 -283.835031366478916
33.205176584462095 -45.095427312360080 -284.749749411033406
33.738363407380504 -45.294466692236583 -285.237817490877035
35.655699986737851 -43.171455654860850 -284.499408303167172
38.180313864655901 -41.977890012697216 -285.268721180929617
50.748739389748977 -28.978681576119577 -285.356769145609462
35.588035455531156 -45.297129030523465 -285.631561419611842
34.768827586547218 -45.471765908091427 -285.628876378516395
35.633507625631296 -43.066274794289690 -285.539333228346322
35.494680232161961 -43.680932795901917 -285.701660219702433
47.485712907727979 -32.182634522865392 -284.692267359412938
49.642420020977802 -29.935765264916405 -286.522083073939427
33.920733969512121 -45.211397406141877 -285.722176742428417
38.254234045561191 -41.948480966040229 -285.118598715145822
47.628466156873280 -32.319169724868729 -286.578822231686274
50.037843218108002 -29.414345844724238 -285.918954484773622
34.711556362969397 -43.807408484231665 -285.790604949730380
38.106078534469070 -41.845413826104057 -286.180586199303150
38.151591565236245 -42.975918975408000 -286.309704857108898
47.476989676037398 -32.990902717786490 -285.933608017274764
48.413725646640060 -31.405393910962097 -286.134260483222761
50.706446670735268 -30.046621388173431 -285.338271933463034
48.639645969467459 -30.261969516795450 -286.411779792603397
34.803712935274540 -44.837952584666347 -286.927281073612448
35.687638996995439 -42.995764897177224 -287.334894010069945
47.693165364298039 -30.463482805259162 -286.734705659754752
49.985284004643546 -30.911041276881861 -286.557851977664598
49.746009969604941 -31.054908858069869 -286.329028643638082
36.326030410681625 -43.708924011478778 -287.509830239367886
37.244131430419223 -41.280650440854124 -287.530085220730712
47.745547535004015 -30.961722594645234 -287.045443051051507
49.503420205818877 -30.984507590681883 -286.465576032427407
47.976993149530131 -29.958920116822487 -286.387117432863192
38.809382662228778 -42.022314537644178 -287.979945882541074
48.923210553196775 -32.898483433166525 -286.985316624330608
48.363440545161211 -31.280757574291513 -287.113053867049132
36.112872389505334 -43.717420977472436 -287.278933694847694
36.062382932538014 -43.788925795328694 -287.351103575843069
38.998172606753599 -41.934532228250589 -287.360779669084593
47.807084184147705 -31.473656337028260 -287.077172701049506
36.376895487307792 -43.712459380579226 -288.485263221812147
34.829131780776095 -43.664931286909720 -288.516368397214194
36.906659546090147 -43.676809687705713 -288.424505525360928
35.274921476648800 -43.490354414081118 -289.371089338747595
38.345183970195187 -43.122925843641042 -289.331066849015656
38.920147672373503 -41.395758545435875 -288.669309784409450
36.103378873102415 -42.354990301677773 -288.747877464256248
39.274716949382224 -41.728773204627061 -289.137676753007554
38.525457306897401 -40.526059626073099 -289.450847483699420
36.070258731134736 -42.244031363668761 -289.550078760549582
37.075261176846880 -43.024640303441124 -289.812956458670044
38.468717341914235 -40.992108806951755 -289.665406375088423
37.153979475949356 -43.295076841452619 -290.127835444313803
38.661007977280441 -42.885741043597015 -290.042556387138632
38.984631543247481 -41.210827679343836 -290.632205418103752
38.404691600935209 -41.455550072571235 -290.533127117517950
39.815171239728166 -41.030975897226405 -290.573805605049415
39.420711648811412 -40.583769682158582 -290.898586019217362
36.612760656679256 -41.784013619011986 -291.341075328723832
38.425299386372224 -41.923327997555695 -290.285163981828987
39.506695884812224 -39.838780961776045 -291.575757340201903
37.685401812173488 -41.743056721322603 -291.574450402766843
39.966595100065135 -40.518320310865981 -291.848033196482959
40.772480568984712 -38.693823667522700 -291.357651226716541
38.472418714053155 -41.017654106657432 -292.251629570495595
39.614367883645684 -41.043529073695417 -292.118908080421761
39.060344670899362 -40.375978927435774 -292.066803469895376
40.452107051261244 -39.143252328399996 -293.009657173342248
37.851777465916086 -41.735088263180756 -292.137990346222352
39.528441326089258 -40.645311239777797 -292.350192128646711
39.848592540910509 -40.262082714428800 -292.174608065806297
40.871463771219325 -38.903132996285713 -291.851607344740898
38.563267799247754 -40.492382270228205 -293.289141241881111
41.661096546521641 -40.148628710267651 -291.386931908687302
40.775099584269782 -38.803299790555663 -292.296247270537606
39.608125797994376 -39.252543295823934 -292.534502799018753
40.514963279024187 -38.980987497560569 -292.368845812826123
40.960945661193172 -38.843605060318026 -292.928813302134984
41.870206428232990 -37.569998641906878 -292.777217517536485
40.630416682932811 -39.565613554037057 -293.546823977973304
41.876915061208464 -36.157661160761073 -293.680617881141984
39.621358218665456 -39.960379071053765 -293.708342338675266
41.760691767975601 -38.131860896539457 -293.516721752735009
41.597778670000544 -38.697608653174179 -293.669313838364360
41.791953796480321 -36.481860462325606 -292.950982846682564
41.269478437001155 -38.329824737580097 -293.915789687795382
41.758874805094969 -37.812113785306032 -294.469285694328164
42.318992228948602 -36.571196427732858 -294.146972925479815
43.430452955630827 -35.707609175267955 -294.043719065855100
41.384814186985423 -37.494308791017197 -293.305161123351127
43.012508345635531 -37.051597100102597 -294.881128885433725
43.514915404431193 -36.370226141532839 -294.791713002606571
64.028067864153485 -17.436775733622493 -12.275598666532927
64.172430885694439 -15.882563196360950 -12.115015326063743
63.828583659514436 -13.909089569745934 -12.022491506042510
66.029093729601414 -13.626526435181237 -11.529293196202786
65.036528027587508 -13.008956975650845 -13.489112759880859
65.686320615638962 -13.357343061911797 -12.213169138924068
60.519132445417405 -18.334368084899580 -12.380930689883865
60.339950778922855 -18.082566146754758 -12.206121659574848
68.934641530021707 -10.426812830927320 -14.191297938325254
59.331468657409914 -20.186130849223176 -13.598198149946997
68.832919284828478 -10.592783732690219 -14.181252705900006
69.244276930842403 -9.137553052073866 -14.405633901368343
57.735181837991107 -20.508617618110584 -15.131691024095399
57.110198850822300 -21.229477895778317 -14.230451099992870
70.085187319744534 -7.849073611955079 -15.356628444011157
56.498541463629429 -22.352781141040087 -15.093213256463395
55.932193363218367 -21.636108976577738 -15.813522885024669
72.207333594681415 -9.303015821251686 -16.430364869308157
55.719136791274472 -21.923611133654735 -15.973728242227958
56.300489422126056 -22.619738781118897 -16.566568957722527
63.962166596429910 -16.547382481838518 -17.282227594755646
71.755214454602452 -7.363377776930630 -16.753602437262717
61.908319675542145 -15.799039448366525 -17.074786851075988
65.609572697956835 -12.216637331877456 -18.333875616755286
61.159922279335781 -17.628862668560135 -18.305465131765384
61.836216025703621 -17.464455950915543 -17.741733824874885
72.317785361997380 -6.281303511740405 -18.532827754462588
55.117764831904147 -23.980326014829942 -18.035827248577863
59.871886767487283 -17.554754277812020 -18.371852519001415
54.782643645439059 -24.559873476076390 -19.446468256686110
73.502194365152391 -5.522521593011114 -18.465306880372346
58.986335095929832 -18.838272007924083 -19.757179237072972
54.864526140039821 -23.911913342064896 -18.839744382626741
73.618176218091733 -6.311218748410244 -18.660531642422701
59.844063055732413 -20.198024212977415 -20.228602640444109
73.173713268975888 -5.862579716926766 -20.799710388555994
59.039658227728744 -19.729065254970575 -20.753542199160741
68.614970427501078 -9.793619571129140 -20.374817611974056
73.679430257534889 -5.467129128481840 -20.090407878613956
54.602033214003008 -24.523653009940798 -21.137673457520769
58.471423182589746 -20.743182701784505 -21.006981207635530
69.711290045167701 -11.032152352366174 -20.998195894353088
60.451845671132034 -20.813296503112522 -21.870999331835570
68.670422453362761 -10.055292929010923 -21.555278818514665
75.410578948389315 -6.455242184455157 -20.742443383730045
55.076987122357757 -25.193267212976128 -21.751480011198684
74.211687523350108 -4.640847259582520 -21.397368000691174
74.615211485639861 -5.820602321829012 -21.953743313626354
69.507296236490561 -8.263989015782757 -22.517291243808533
74.087239098549730 -4.040204714941948 -22.990365015661851
