# This PCD file was generated using the MATLAB® pcwrite function
# from Computer Vision Toolbox®.
# .PCD v.7 - Point Cloud Data file format
VERSION .7
FIELDS x y z
SIZE 8 8 8
TYPE F F F
COUNT 1 1 1
WIDTH 813
HEIGHT 1
VIEWPOINT 0 0 0 1 0 0 0
POINTS 813
DATA ascii
98.204031919172508 37.945014121356287 -63.035808823099337
100.291339382544308 38.605331667323391 -63.166923468464937
98.990974352702210 38.129461967972148 -63.017246252902829
103.035094819289000 40.958406721249474 -63.085684528246816
103.445312018034230 41.811170343739406 -63.149755420743055
103.629604693677095 42.481621022732050 -62.776364924236056
-38.737475275621925 -99.587143293116981 -63.000500094241211
5.823581999905660 -55.256063372062556 -63.395195466398540
93.263181554553540 31.800464148192219 -63.284603925298470
94.004132437499408 32.960118833638099 -63.474759434180534
95.215216032640456 33.790002517723941 -63.479707370132459
97.274805147086525 36.068285024238250 -63.478500826915685
97.531816238633255 36.959770472170398 -63.537098641182077
98.788330684733225 37.697383921290161 -63.544883646864761
99.167208515188079 38.391475208745319 -63.166841618631906
104.305184485503517 42.759094904303822 -62.990457379241477
103.442906589324323 42.131285105257170 -63.181726521269418
-38.984331712310095 -100.410958860777555 -63.912297101575895
5.168062594221406 -55.612021825826275 -63.406792741327017
92.341661958610800 30.707654286425022 -63.952655533246556
94.963861736901464 34.157583110198310 -63.293189140141514
96.472353040723860 35.651804060434465 -62.976842657657144
97.569147492700040 37.540153935374335 -64.015274960739418
98.108430295963700 37.839139136787153 -63.820892340645173
99.931757016762688 38.329473968620590 -63.857735391030268
99.787972384921289 38.924494671508157 -64.005532008368490
101.108831888150860 39.166177242495280 -63.931224767913982
102.850573180665393 42.158722237107938 -63.659266713124062
104.075964483282377 42.932341832238123 -63.890782514373328
4.989910604801979 -56.172119240582653 -64.210948019143075
90.894414468466337 29.862659519268163 -64.759323323510415
93.432937246879987 32.541288956027564 -64.039731147796303
93.932253862974065 33.345319555166078 -64.267091983333827
97.094381062704002 36.526933535085142 -64.263300559506419
97.776102685321234 37.315387335942141 -64.431971176825073
98.395180453085914 37.997542798237923 -64.143403009054595
99.160063713324973 38.413964425797104 -64.470258990016177
99.923319507001182 38.945621532348362 -64.315865523849780
103.771236424402034 42.984299127872539 -64.159619470522429
103.208560355018761 42.504977599871353 -64.465422475556267
-39.292641605308560 -100.476674084989611 -64.247388212190941
5.002346008589660 -56.194959854115830 -64.151581739456617
91.975789805262778 31.105317048042451 -64.510040051660141
93.463790527311872 32.222617636697677 -64.799558915648831
93.438652691483625 32.711216685460407 -64.669812154299962
94.579948115306749 34.178836006113904 -64.328006928053483
95.376361091214164 34.183550696651849 -64.036334454989799
95.850956377634020 35.534111881382380 -64.273292157321521
97.244684919752189 36.350165282608451 -64.400546136654725
97.413356639029303 37.368722695268765 -64.532827850712309
98.404583388243893 37.772268266085995 -64.664812667119804
98.861308016698047 38.192821941060700 -64.687320043691116
99.455713420795050 39.166409133104125 -65.102678339665900
100.818895853103442 39.549795016447234 -64.734075793036098
103.635537188445383 41.810355270912979 -64.145374186009008
104.090894608259134 42.731989606394166 -64.542840788385206
103.081902633559835 41.942799627738289 -64.342652764704013
104.509518152253762 42.764731700993536 -65.240985076345524
4.916669273033944 -56.403958674336650 -64.847234785807757
91.395232406057374 29.898980242051266 -65.573067112922544
91.769458833567938 29.899220018663645 -65.028556698297436
93.862777783974465 33.215949464198253 -65.227257579544016
95.340847452138760 34.829163157483990 -64.567527569926355
97.008564644719954 35.957168371287160 -64.776757959839529
97.526607001348040 37.235743080611030 -64.126281400755005
98.291534124938622 38.164447173654054 -64.924958186599667
98.801092529339968 38.290480559555668 -64.803325347630363
99.842193737032318 39.198936677329549 -64.904483621920008
101.047124967718915 39.399022793673922 -65.004826017093151
103.201892456406512 41.994136669921730 -64.756752260078969
103.874456624906614 42.637272703827144 -64.892770681471063
-39.083269294498855 -100.658442355620835 -65.528854832406878
4.723405674684151 -56.433531384865447 -65.240933520990950
4.036297464900434 -56.600416560057866 -65.520379207782923
92.686854888348478 31.956665261684339 -65.246485127126775
93.402119056981377 32.690702123154573 -65.389459574047692
94.507648922976159 33.765400853193356 -65.527780516774797
96.299589178781332 35.581492342717567 -64.919541016578577
96.856188819372377 36.436015094080958 -65.726921078468408
99.693895528532892 39.159332358582780 -65.278219077727613
101.245299016296741 39.592859301890279 -65.713913642073393
91.077988158801787 29.274770699979481 -65.701905936208732
93.577822441681974 33.093843501948754 -65.687618319517952
94.620433629549808 33.302307335692454 -65.566955699999752
95.780152578459095 34.838671247194569 -65.901020659951371
96.701484866176017 36.715410579336947 -65.466826048347130
97.258795704354498 37.093644063715722 -65.615213711152720
99.467235819659237 39.364154349842806 -66.003638196536627
100.265007420250299 39.638037592215625 -65.116557254399197
103.679444289180140 42.190712400359963 -65.678819904106433
104.575463933577723 42.911731426355253 -66.036984381771489
103.769130875509063 42.631223677395255 -65.633234238521894
91.734635126776524 30.305946636608518 -66.239819067054498
92.430501494915447 31.347951722768787 -66.129836679977700
93.376420117616163 32.057097020810083 -66.330851026317845
94.767851602628213 33.731063634093552 -66.073002760662007
96.118249232055831 35.028724045515446 -66.124641194465326
96.851436738718988 36.694158525805044 -66.227972386667886
97.463771494295642 37.224614383340253 -66.100418104280934
99.641864931937860 39.218414093044693 -65.785621931885814
100.300698963777549 39.748365514558806 -66.165471596661135
101.422326129587518 40.137336577844096 -66.191760602462892
104.104871647659749 41.895538319817469 -66.067891992019938
104.537017539108291 43.149045372459661 -66.339234405606021
-39.149833610365746 -100.484622698510890 -66.800583057923717
4.074410510467979 -57.088344553691535 -66.653961080119942
91.573237159569075 30.241352998291791 -67.202145540247216
93.479102663868517 32.412259794840082 -67.005362195964196
96.061070593408857 35.945545348435786 -66.533492935570123
99.307655917884489 39.689456416525175 -66.751425558293334
100.301498036448820 39.547348172700026 -66.146250214617794
101.592626219016594 39.847882744925251 -66.418858933471952
101.157426756945739 40.368532939962648 -66.238788933056597
103.822730809362241 42.497137609191263 -66.863557013304145
104.031429781267960 42.627881687459649 -66.376634861740939
-39.797863421616825 -100.722097027411039 -66.772466203914803
-40.080602119954172 -100.096378652950605 -67.126019429206650
3.797094886091706 -57.723702084794496 -67.266029642956227
91.884501950722509 30.654322195466371 -67.071939289426069
92.117330634137247 31.435128378279590 -66.905956212701469
94.344607278281956 33.649338177592092 -66.901716873424903
95.288820265768607 34.239820319121286 -66.128251654554504
95.575727631218399 35.515858935331075 -66.941562074450005
96.288616622174558 35.327351565904635 -67.158774861804261
99.824215835530268 39.970463130758510 -66.127866686761948
101.000012926821398 40.324505295347777 -66.763181339319132
104.119611414148935 42.707321367367356 -66.711294448617906
103.590691481331049 42.883181650995589 -66.773381448286941
-39.805978271293391 -99.857580736853706 -67.551465992872991
93.387988126864244 32.022012680962170 -67.182926220857027
95.879053184644889 35.888782295910673 -67.560247168961340
97.422485952397480 36.765624583168830 -67.330817731002867
97.231434016930933 37.050102896354502 -67.162944083790705
100.381266404476122 39.757847019739664 -67.900407331076892
101.855446801154500 40.894513610455178 -66.886818869115046
101.969397075032148 39.989983112431119 -67.203618492920810
104.708552885592113 43.338987548543955 -67.499187956018659
103.913007204431381 42.757166090555003 -67.480742003776868
-39.435583243327741 -100.830745975562152 -67.726626702602815
4.598095746972660 -58.338486721077317 -67.412529070098557
93.629553799626777 32.256479837489991 -67.646048712860548
94.563339002057148 34.194491515059923 -67.211032964695164
95.698606200072433 35.084040334598782 -67.699986180818982
96.540963015243008 36.515975732047792 -67.984535328540943
100.964146264955431 40.259156074712685 -67.548245673399549
102.014262698925208 40.759659830269150 -67.816385638240064
103.992100154005698 43.083756146111092 -67.736238408392822
104.683563266396433 43.441287782201343 -67.369342726730636
-39.912928600312441 -101.154985415020775 -68.239894275773651
3.673549020050550 -57.762000767305793 -68.662928398860842
91.688010360576641 30.291195907445982 -68.139922405822304
92.480443067674699 31.664058438517753 -67.447176240882868
93.152121104702275 32.610650905394614 -67.796901701839190
94.441043325972004 33.472048196583820 -68.537656505840729
94.651647726495852 33.788377475018834 -68.111958194649830
95.542876084903639 35.454599424407043 -68.025782671195685
97.126780202208636 36.473241510776255 -68.168740820532193
100.882202528362626 40.530161625407437 -68.165849940118576
101.631235324562127 41.080691834717918 -68.434537350665835
103.682535389072683 42.814539186316381 -68.205924393769351
105.469307207994305 43.569241445183664 -67.727558242313307
2.439748977476135 -57.639344787907966 -68.544523740977453
92.681749684873779 31.132049385809694 -68.162848739137388
93.859199116046909 33.418919671694589 -68.432242923377473
94.230091574439896 33.551921983762604 -68.377523083227885
95.418631643776607 34.746167681338385 -68.534708008696498
96.228998412063675 35.704882908728884 -68.935127293464205
96.757127876793945 36.532775685390156 -68.312861695260239
100.795713129412533 40.509604062080115 -68.851611519184374
102.091378983259560 41.107992806058824 -68.569042348863633
104.705657359429381 43.451902714884611 -68.695233294299328
105.187402708386855 43.970927255656235 -68.826275241255274
104.867571360585032 43.076066366797761 -68.275654062565181
-39.801230200500378 -101.326763461778057 -68.767754874360008
3.576709337992697 -58.119725332586427 -68.736335323421329
92.231516820444867 30.377310131601039 -68.890049068923247
92.651667303260027 31.308703581150798 -69.077764856092330
92.621691429745979 32.002750710267293 -68.597789918033669
94.563917097220227 33.118639846061519 -68.773647036778343
94.957587655390753 34.155873858050612 -69.276007968601832
97.614910750230109 37.448027218795325 -68.532331714169473
102.297839284334771 41.229169222350428 -69.134472653147000
101.888319667008659 40.865335148236213 -69.230123308779483
-40.078353271951435 -101.669327657126473 -69.343695688863562
2.571821874168583 -58.553237554382932 -69.187471031173715
91.782053867162915 30.305276284360964 -69.345087459400261
92.724994198387918 31.579344845229652 -68.958772335741259
93.677386652480550 32.579264875366817 -69.272790798146531
95.087016860572788 34.023164086093090 -69.398122692568435
96.204308471739679 36.063591610680170 -68.991914409070105
96.599613482742953 36.538950195655005 -69.693616252934461
102.681180606696088 41.236228244490988 -69.277572640124291
101.675443161865815 40.904616074205514 -69.459845078290911
104.182537445260053 43.046857175044913 -69.028740216638454
104.628948969937753 43.752872962443270 -69.518050904422310
104.314958633279645 43.437317488111120 -68.894705286886534
2.958796581092894 -58.421572114362363 -70.601502991573625
92.687875818195977 31.489756933743021 -69.923103454466641
93.196041827404287 32.212040658291656 -70.123062023561673
93.667622053262491 33.327134250460041 -69.935103060269014
95.362632770320559 34.741529449379186 -69.696605531797402
97.554218654143853 37.287372167383900 -69.377158213155028
98.080028301521622 37.995011414366957 -69.742658586017853
102.719918552338370 41.270212695553802 -69.748835191762936
102.437298711800295 40.866944095486787 -69.770665101959878
105.086116681314749 43.375215915292387 -70.278450085083776
104.607986995991624 43.692628507180459 -69.613519126072049
-40.040843444037272 -100.975559375499373 -69.490456116602516
95.833614873872449 35.341964540306904 -70.224815014595535
96.286246091724252 35.829319019595147 -69.323878637548816
96.915894898417662 36.433551514968151 -70.045246178841438
97.350715114898350 37.511508575420415 -70.526378018545572
101.659976584218924 41.372971660987325 -70.315336933106522
103.013076256852031 41.401841011990946 -70.163259080824503
105.183587744100379 43.791367003772059 -69.972518024288561
92.136609353878598 31.130201473033171 -70.549154003477568
92.725893739642757 30.941799353518309 -70.643950312394168
93.948280713842664 33.329624258379411 -70.152757566363363
95.330501014238692 34.909633581725942 -71.078489148729318
95.643868905835518 35.284811787884308 -70.651889591499938
97.374205305230333 37.260259259606876 -70.570264651854188
102.841756793675259 41.133280662638633 -70.434548749285170
104.736177556669588 43.245937047949177 -70.217962805770568
105.086116451974689 43.792902996581311 -70.724035476884978
104.935271764841389 43.590913427981633 -70.043995211770763
-40.243787696506914 -101.321782571984301 -70.232409038377924
2.473241546369559 -58.495876850011847 -70.468816646210172
92.020555100874233 30.699457426558268 -70.871414526186683
92.559690719067817 31.480264794176353 -71.183114438426216
92.717392701311041 32.379128714390319 -70.370650486560891
93.720127802448786 32.707398756599318 -70.712661986538748
95.328626117796148 34.811799986393105 -70.745071711716676
96.268869816140338 35.898992886944470 -70.847148558460660
96.985645904399448 36.123340107396778 -71.086767304402755
101.648260745917824 41.326079800221052 -71.006895748973974
105.180533020831660 43.361328293475758 -71.023827169656101
104.692441858031714 43.519115677422938 -71.098746245101708
-40.036987686873061 -101.406032964544536 -71.205763153582552
2.408628763233550 -58.909179624942908 -71.597780622748289
92.749709087428272 31.083048269985024 -71.530866700263104
93.709753273218354 32.637962842885635 -71.457347151590483
95.740056945620893 35.220703302220429 -71.600910064039240
96.786741632710303 35.209928486808572 -71.078168464442228
96.446380578576324 36.713331942352845 -71.256707455383037
101.220595703930513 40.897209251987256 -71.093148337797160
103.009615082039431 41.159185977261131 -71.262191093744633
102.509467744884205 41.729358568490177 -71.248347169720589
105.146893007899834 44.440019775921023 -70.917094809630726
-39.421397993939081 -101.701123704171792 -71.972333158520499
92.369901622382073 30.571906010001744 -71.525432328098560
94.580535747915988 33.731596836505197 -71.584453526015807
102.488724050650319 41.724162942973393 -71.935369408559154
104.351454398353013 43.269629559228378 -71.524262333618950
105.605131572128585 44.283460583123627 -71.913929349248633
105.175548565440167 44.193748561358184 -71.855028634070578
92.678110264408815 31.082294919399949 -72.242152662216071
93.354636025246094 31.940365571812890 -72.345001195642411
94.406616223015192 33.572241201981036 -72.299369128842372
96.484261281062629 36.085304098743897 -72.398857409156250
96.763858290435721 36.680208198297080 -72.732169090905572
97.794424417245608 38.040332519470695 -72.350928526217089
101.486464150801481 41.450736509353490 -72.128242912222376
103.274740423853245 41.699527249819326 -71.963222195406857
105.019818933739757 43.470639664423267 -72.567646610201137
105.301664202447768 44.261623316562350 -72.455681420088652
105.083703231616724 44.735707635830771 -72.260639694576113
95.287387966192895 35.316518421510168 -72.453396776747368
101.641186801243109 41.237471795419012 -72.310710765763531
102.281037370109260 41.775861017317325 -73.046165777921857
105.252112443439003 43.854897984631982 -72.618399251877307
105.165023778586814 44.203375253627271 -72.528987999704654
2.388075240726503 -58.974614211007733 -72.617909894179874
97.397416272450229 37.305416293023306 -73.012403519440028
102.161106185634225 42.077322977681398 -72.754400655818600
105.768832390111214 44.281498279686772 -72.452982760761031
1.866954096057836 -59.062635819099633 -73.242905937065217
93.332577300710696 32.102906832960414 -72.853659870700284
94.075652029810428 33.395151057191946 -73.522525620253319
95.298623917626642 34.838666876705815 -73.223568085999474
96.628236370708123 36.448119242643124 -73.178590576151080
97.183679891302333 37.349845395973666 -73.284390202309780
102.032565319192344 42.071717716029795 -73.153872446809658
103.285307673591035 41.860850125378704 -73.183822187659530
105.133016984747115 43.691943755539562 -73.011048502755798
105.827407461378641 44.087462739688327 -73.244650737132432
-40.620951869379397 -100.634582441019845 -73.414341263151371
2.433979642269894 -59.488804782120461 -73.453662321464321
92.595725624559449 31.160869967992578 -73.609596337581877
94.892068791559169 33.496232643670346 -73.961174287302100
96.924935628835939 36.442030905909455 -73.967756311629415
101.640942676378046 41.121279480736071 -73.805703245167891
102.431810396453102 41.797326611710659 -73.475997521342023
103.302629710404602 42.453205325729186 -73.910471567675799
106.079686063491650 44.641634111900089 -73.738627999563207
-40.214253206526713 -101.473654729918024 -74.243312863955239
1.808462946499805 -59.781522229350692 -74.061537437238371
92.804071991628433 31.187797881198687 -73.851327357008060
93.309030523188866 32.515773142916501 -74.046949753690924
94.154090078165169 32.874586412105423 -74.114385941798275
95.724776353764824 34.956526861436700 -73.707518874213491
96.825569365207897 35.399560658015396 -73.931719565595941
97.195393698527127 35.986273510594351 -74.377235851746889
97.660560119184922 37.134180186384881 -74.264999487734983
102.296560288569808 41.730067017268070 -74.556409906640155
103.000284454572153 42.122681475996174 -74.091084727310843
105.625072830029097 43.919627656315548 -73.773277270583193
105.252953897288549 44.458409391526764 -73.430581569911496
1.535462399633297 -60.065113674293663 -74.529124315411295
92.370683013682779 31.276416972317225 -74.553597071471188
94.727611227949666 33.770815540426469 -74.312820159991020
95.560885744966896 34.585300070031195 -74.441184173574285
96.195564444860835 35.804502971420064 -74.518856805113430
102.548631779704820 42.129395210035241 -74.681750450689037
103.315060366514402 42.816071607255608 -74.546786071601858
105.230489397036763 43.119611476357512 -74.672337494804609
105.879927227150915 44.686364535758770 -74.804204422832996
-40.408481611922035 -101.593420862552492 -74.845953152071104
1.630042581891574 -60.123578945572191 -74.277258814073775
93.957191058120031 32.743014043271351 -74.505966608786125
94.332150528288878 33.260585333128283 -75.049062463016810
96.788590632504253 36.335962140026460 -74.918261570581052
97.208180234063164 36.797888086209994 -74.217368115534711
97.948388895404292 38.290519002984425 -75.173581159580365
102.452776421955178 41.657957723612064 -74.844396566489763
103.336112353459086 42.323610778727840 -75.083695550137534
105.833923546681405 44.824694496794898 -74.787348119197588
105.155495916115768 44.782179674057190 -74.588892765901818
-7.690642112958330 -67.618995471393646 -74.898592310759241
-0.045838877635779 -60.795404935602079 -75.906899694660268
1.707679469618882 -60.379883936633540 -75.245789057167684
1.398854156699341 -60.316816394059053 -75.734214024980730
95.802654892685368 34.659183043178885 -75.502646154351723
96.310865008510845 35.327231546643709 -74.871666616127101
97.140319168611214 36.571577654697045 -75.381374121008989
97.628238719671870 37.069109610885263 -75.490764387690760
101.960799214698284 41.796982992886747 -75.220237670042849
103.691194753791024 42.417679271979367 -75.724814696170185
102.993991319556741 42.204678172831855 -75.360336935167368
105.292741825278853 43.938490123721046 -75.107906339280063
105.846898879473656 44.545869786410229 -75.102735466574046
-40.822977836826375 -100.688834833339115 -75.877684416433070
-7.722375472584981 -68.527060634429191 -75.802983386040310
1.076938200345984 -60.316467799995401 -75.760891863118559
94.343468704849712 33.208956838090337 -75.190800208591796
94.789677317114155 33.362094752871158 -75.115359677470479
95.630089314125485 34.674934915864725 -75.698996473323618
96.588002192363788 36.855783625494517 -75.942392978648570
97.926644051172374 36.960594468067164 -75.956846959270379
105.528398423625518 43.704475529659945 -75.758784121100604
105.510152075796711 44.492041964784043 -76.133894493306443
106.187789935762396 44.970391728667323 -76.128118362901645
-40.736432612488521 -101.344911596683801 -76.707891959035138
-9.133394683378446 -69.107231318626248 -75.645432604943039
-1.581999652579176 -61.896880292140267 -76.194990438257534
-0.856652047442491 -61.325062146794401 -75.972967486300149
0.451126304264584 -61.023231881135708 -75.777226578890037
96.587885078780047 35.608017326272126 -76.157122337498066
98.149036280995034 37.820438222051742 -75.570341867928249
98.802377049841027 38.788029853410571 -75.991048006053234
102.205912332670437 41.827462766557154 -76.553118388319419
103.167555123816129 42.233576280456568 -75.962142111898913
105.556127167553612 43.899038368009315 -76.248378948609641
106.152098697980165 44.715177284291201 -76.038369265105814
-0.508683764075951 -61.932232659605276 -77.269792190761905
-1.060018712527577 -61.425714307458897 -76.760980927101841
93.686552709424234 31.977942512918787 -75.912580952705355
94.046943737193459 33.184705073903110 -77.231144996276242
95.429570934728062 34.168661006911989 -76.580084324641774
95.580660987725693 35.263392053914636 -76.389941685180915
96.535169386487709 35.815452110324209 -76.549930218839080
97.163334304386893 36.429304066317989 -76.710918010680231
98.358081626425061 37.721655377091686 -77.290129781956594
101.931726429253942 41.958440388525254 -75.999411522111131
103.683597817732519 42.265103233792267 -76.630225289905695
102.689399200002029 42.314597378110349 -76.681736387696731
104.877874752905399 44.400346665003028 -76.084707165127597
106.338645169787668 45.055861536730738 -76.488722577451696
-10.104751748698597 -69.248015935508562 -76.978245553216993
-9.076232758724677 -68.995351597498768 -77.117643352992545
-8.099334234402031 -69.038469333139588 -77.653692105254180
-7.739170475462741 -67.674307095621060 -76.602634720561753
-7.057880929737011 -67.409473226908489 -76.822394284148672
-6.030191875757270 -66.055171970131681 -77.091206435697359
-1.308812661506902 -61.690472247967300 -76.859679772272983
95.915777191797829 35.116013001154087 -76.853568755464678
96.941289816307616 36.588272585512854 -76.613418849260157
102.967471863726644 42.372658541588237 -77.393454100886629
105.075328487277801 43.893278549151816 -76.782515791706828
105.859645635694747 44.727221281348754 -77.088664517958364
-39.781026726800896 -101.785166414593533 -77.014665417941757
-8.602356917490196 -69.571909450458278 -77.382052067684143
-7.776815096275786 -69.000240106967468 -77.733924094085879
-3.064413763620377 -62.846320593780838 -77.782742905204827
-2.013746619245481 -62.611384328739483 -76.811349946132353
94.097701871348022 32.763639583318039 -76.768450767138404
94.289572831681170 33.454471691150388 -77.227399383326343
96.297730437784494 34.473264231317096 -77.749460326275269
96.703177591399211 35.404952792532910 -76.820138790337680
98.008837847551987 36.962270242785586 -76.927638083584014
98.932561131325130 38.479819291388658 -77.257617764781941
102.354426755325377 41.875349042015642 -77.747680550424974
103.808254626733870 42.449930510933925 -77.373070912988126
103.093686832727585 42.463909995435849 -77.249104188027474
106.227502786624925 44.533553993923981 -77.348594411165720
-40.409846084663442 -101.723278301036871 -77.127139081293095
-8.501269555282294 -69.634733651107524 -78.165056294848213
-7.101478993744068 -68.758792967536607 -77.605421425387519
-6.872997094513539 -67.295466658793003 -77.358535759396730
-6.406311301694742 -66.475175419862367 -77.503517070074082
-5.712409259968264 -65.959641984139580 -76.895648017263554
-3.724549055266370 -63.762411078502900 -77.709456199319845
-1.639625523843967 -62.663946230628468 -78.577603261213696
-1.909179624447408 -62.857389408884245 -77.887705225442801
95.317064147976481 35.158457481032471 -78.072026052694767
97.454267224238208 36.158437101773174 -77.947494732674414
99.727625011909424 39.094499006411894 -77.378862769440119
102.302757715707827 41.931798156180278 -77.995120803038532
104.225990603163169 42.899476182320193 -77.799794046301329
106.279257429602652 45.088730980943062 -77.785701142980940
-9.535529929103735 -70.576028397826192 -78.584298686974378
-6.733389755438739 -68.053583966545560 -78.076126253840798
-6.507306268796169 -66.752642517254344 -77.824400962438745
-4.947685873806904 -65.060755049983769 -78.403471460657030
-2.883900419399582 -62.971117501277575 -77.843933564556565
93.961220212607344 32.392230839420101 -77.969908824229961
94.755374426567315 33.140724421245508 -77.687951890809074
97.416298086601927 36.578865956966077 -78.148225299608143
98.330545221494631 37.962405530684713 -77.531674796758395
98.530349455571596 39.023261956209218 -77.983468695617390
102.263326002079410 41.985176501027112 -78.250492913655222
103.221101706072616 42.626034878472559 -77.459605763710371
105.573401915207995 45.028136895273903 -78.072617776213860
-40.446772023195948 -101.265852336149521 -78.244294162392492
-5.341268881840143 -66.556688048754552 -78.873959627411068
-5.256756827681223 -65.646841156786550 -78.363539609646011
-4.247150882198826 -64.298205209039509 -78.390962580911037
-4.250114983632653 -63.156227582644810 -78.033416545512466
-2.343889362407254 -63.113590501820774 -78.987570496496630
95.242829528626416 34.074388378283928 -78.125643488030647
96.592750328225833 36.217749254867130 -78.313497073841802
97.771414652714185 37.166462063928606 -78.893316325520928
99.515666212711906 38.758596982303573 -78.401532711566531
101.425208205721177 41.075281538960340 -78.340892626163310
102.041765465997514 42.010960131432341 -78.694879064585223
104.035721018736041 42.533078313270956 -78.359280077841731
103.441929356705160 42.461812650492881 -78.962843869789737
106.256372017595950 44.934251246342527 -78.477795954469741
-40.304881354150815 -101.696733937206986 -78.835248721912279
-40.762062262699388 -101.063535469386494 -78.873200303848733
-8.892182601044613 -70.050536234459557 -79.339152395137361
-4.790852869317665 -65.327217291784763 -78.533644605433352
-4.197383253462957 -64.678793212395448 -79.029961325798013
-2.811466076701946 -64.285987016182432 -79.315179195614576
-2.726991156048595 -64.085354341862413 -79.043742700393580
94.547518666094049 33.437624007731131 -79.339267018611267
95.958248138114186 34.997881412784793 -79.309134746012504
97.176733860629980 36.357158382744416 -79.638539939313574
102.445314223079592 41.731008389029299 -79.113243437305727
103.237537725934430 42.409559323488047 -79.077734731146236
-9.007343819166469 -70.403045691212014 -79.515590163808824
-10.096044076213191 -70.151085011241875 -79.188991786877097
95.139243009601074 34.560312919387755 -79.688804233532792
96.615987134318516 36.018240662373884 -79.197641668295844
97.362182181451303 37.320524404339288 -79.311688614575900
98.883883025161239 37.847361630552243 -79.501715988558729
102.205019883828101 42.090472056508268 -79.062869632724329
103.644204784903167 42.591841541682442 -79.253836113995192
105.472507642289273 44.146611525320999 -79.230879130529217
106.155858205499683 45.177507120572884 -79.154389399153473
105.952795568782108 45.182168075680707 -79.406345711585644
-9.337436580795217 -70.871490828700985 -79.293518140020154
95.465079844915124 34.712532750947133 -79.872208667382708
97.531517544221003 37.033253938163426 -79.595505551224363
98.430823915934724 38.135198500486091 -79.623937962900968
99.730814809786480 39.334370738505804 -79.533262215043692
100.468295565951067 39.713400281662068 -79.921554056825684
101.655454099474042 41.130623191472452 -79.646829176852791
102.299274512398924 41.814505188143514 -79.802910883528895
103.878920023371720 42.507283075060975 -80.006123677571622
103.339207886736986 42.545636665484530 -79.459339477329507
106.522457908673502 44.660941893245166 -79.480282670277688
105.566835010437572 45.022324501298989 -79.527835669651964
-9.076795148000667 -70.882974417425473 -80.269014760077170
94.591744197052634 33.084495078131525 -80.320338387037722
96.213253374390760 35.456421582952970 -79.968687031354207
97.219403395144653 36.156851881359643 -80.224365056766004
98.059998776995329 37.399875884407194 -80.203702536815030
99.522857812957241 38.494538483677339 -80.588384542776296
100.008603560207320 40.351111250507927 -80.287769544890992
103.677830541481867 43.014266145857150 -80.071186166211945
103.053598365540637 42.476293667997510 -80.282317173996404
105.522683158208466 44.831369673451171 -80.427866534325190
-10.179237533897833 -70.205139744794934 -80.585413582797159
95.259425128932023 33.856527386704883 -80.203623344160775
96.887964033200063 35.517582489504981 -80.292316904570086
97.233675422178081 36.756183861185406 -80.399068154014174
99.099507231153680 38.529288270509859 -80.638930621515172
99.483539141598584 39.274123996019050 -80.038562582080147
103.017958810273370 42.589683217230707 -80.584658021929044
106.177283932520993 44.526289280712170 -80.534024236160533
105.948184101541187 44.899844442672006 -80.757025878493167
-40.812779492983978 -101.911203283333847 -80.214998361200344
96.147648092194146 35.239172932245481 -80.204260286162523
96.939120779246139 36.387793650468090 -81.302606722666255
98.590960870266528 38.069569213920019 -81.178232964684909
98.973843576957208 38.822855588708521 -81.015501869494798
99.307678975703553 39.135102338292626 -80.705401901717693
99.654409853053778 40.060304722754957 -81.317669725235916
102.142930377700367 42.302024110133551 -80.983874749026583
104.190910325608513 42.277957535530369 -81.115741552085908
103.307148405856623 42.575159044648480 -80.925644477989451
104.097685531299305 42.927270893437253 -81.272504172838850
106.136528237889792 44.580136173923712 -81.222241748248962
-40.355884127575628 -101.208356602880798 -81.386972331917150
94.964906564209102 34.031123076787694 -80.672261387215229
97.119893097789031 35.993869196791444 -81.184129252355305
99.565463301887078 39.455434461729020 -81.812840588929774
101.922518791836168 41.545745629806149 -81.227764889765950
102.974745531580282 42.415642633393524 -80.842015138469520
104.563731654779744 42.521535087049422 -81.673810571832917
103.873167353232603 42.748417206726351 -81.962753451723600
106.471394746427890 45.064457933628205 -81.147301086171311
106.281706197152374 45.096285801070515 -80.946453627159968
-40.468903007099506 -101.374357384706784 -81.353978324471370
-10.237876103840298 -71.338484323334924 -81.798422888260774
95.813873960804756 35.084129130562943 -81.447552746894530
96.888274743350834 36.072251219082155 -81.823836983534392
97.615578994708343 36.563908126970283 -81.573825578888872
97.930699985692243 37.788113188788110 -81.793943066859441
99.421025961616451 39.146179230972002 -81.346883074741044
99.569351878764920 39.168499369910123 -81.771095995946951
100.346567724718980 39.854369262785852 -81.684517626757085
100.678260453686946 41.143078818700289 -81.838965812064629
102.575632080370482 41.687692657200245 -81.762597541613047
103.205545775794718 42.359386470107381 -81.786326543097687
104.061954418286703 42.660782078433698 -82.031123247010683
-10.221602462226544 -70.976141846079898 -82.237758666566251
94.993931058898482 33.987799083339958 -82.088581651481121
97.241968289638592 36.429142303715921 -82.282947516712213
98.507291386203619 37.497335007013298 -82.033839015233696
99.019776598675534 38.154029831388577 -82.419478625673946
99.915970813740159 38.736318683899512 -81.942702667642948
100.353740687488809 39.850086077705072 -82.210992440342238
100.961440627162858 41.118792300037661 -82.289177319573767
101.518169012670413 41.008073900348123 -82.183510663883382
102.362183672571859 41.798928901126494 -82.104956369098048
106.139481762681712 44.366629079258949 -81.785065188478725
106.529350339191268 45.171175795697337 -82.267924815535039
105.851854701405202 45.166663174376602 -82.869924035686907
95.496908476918549 33.915768287667255 -82.548392347124363
96.295785130205516 35.172325820434672 -83.487604113112695
96.104946091079015 35.554365550916636 -81.698473246237910
97.148530876903408 36.811674391716267 -82.506688212302592
98.514620776039024 37.481932472187630 -82.559940437298437
99.459175724154690 39.329417307390756 -82.185068278855226
101.200018684661217 40.695383244115085 -82.501223693047166
101.802563447428753 41.488922314326729 -82.675476691364750
102.507309272293028 41.911515162275521 -82.783312289546942
103.725100238696854 42.693374621778460 -81.969041360350502
104.275856717346400 42.535158475086298 -82.842476782376394
106.168525198308004 45.039167059683173 -82.924006657148738
-9.931948670340626 -71.057399909110529 -82.705628286355008
98.859053432201335 37.754183274564880 -82.764687230490537
99.130916113981300 38.371576152626517 -82.676711093353219
99.598133414333020 39.428933277759157 -83.115872235621126
99.701292920108358 39.933684432029239 -83.132585634776376
99.732508200974848 39.845164375356831 -82.786669954831339
101.715452621733633 41.019598453122711 -82.708206622143678
101.850338159452960 41.983821686371847 -83.100915908155685
103.081779792110453 42.215257481040368 -83.186253372253034
105.864420528355154 44.609969514837815 -82.769102445949713
-10.861954854181681 -70.777759105643923 -83.145950033235636
95.673810786616187 34.150291890003899 -82.987608628218567
96.845708116239322 36.460235950242541 -83.459077964720166
97.966935099118160 37.249456131228825 -82.963053282602473
99.483081511199529 39.321341787164407 -83.556285660447728
100.305483774459077 39.940198653909476 -83.472079280252700
100.849693437678440 40.591189004918334 -83.590556377856856
102.333000461160637 42.003953668708277 -83.431662973034065
104.210806646080727 42.511757005395033 -83.171329420201289
106.323803224740985 45.325334870459997 -83.419017690605529
-40.821806019245926 -101.351488693386855 -83.648158089615691
-9.957746434001638 -71.478849223341669 -83.571136270242235
97.175798727956703 35.409052198939293 -83.493391148492591
97.456018795299570 36.581447596706376 -83.615856254503740
99.124627461256267 38.088201328123859 -83.882241356448233
102.735022549599918 41.924939658136005 -83.558917771637439
106.193777595203457 44.776835307294739 -83.678943776389787
106.173895284469978 44.954916262115454 -83.793807457790649
105.966515009335168 45.219962546041607 -83.791382110967405
-40.674703111571752 -101.969906320572250 -84.354759002406396
-9.775547212765305 -71.663704284474491 -84.763204372982884
97.524710495325806 36.649403984986435 -84.373655578456095
98.414366155536854 37.830478076839704 -83.690418900193890
99.952002781691220 39.054458139746103 -83.717528141384776
100.547437528397069 39.978891686279262 -83.974252573419960
101.217479105018469 41.033359901036860 -84.457235045502927
102.524884122411308 41.928516820836983 -83.905195826849592
103.237971510819293 42.369131575009199 -83.791218452208369
-10.501698473462440 -71.458449602639305 -84.419688086984692
99.642569626191133 39.366250044069346 -83.997497074183585
100.420554395793019 39.635938838277816 -84.582394030779724
101.289288228427495 40.481757945648127 -84.295975654059049
102.825563839165852 41.706756315665295 -84.561984906345486
103.416306125402841 42.531673068540371 -84.811800808797003
105.524716845542144 44.694645375638181 -84.525174254426489
106.259219055769691 45.289006465011994 -84.653803280564929
105.739630517381684 44.883494131385106 -84.081266239365874
-40.599690369508870 -101.729188692534564 -84.764163255852935
96.112322289358744 34.255646626509140 -84.545034478976049
98.534413796395839 37.598953915054146 -84.861586636295996
99.946077478547195 39.182500543284988 -85.120996912824481
101.825558757926345 41.624185661509550 -84.925105527332107
104.045557047547959 42.201129647782174 -84.486428959256600
106.485424595980035 44.804931778119062 -85.278374078232801
-40.035220998573649 -101.776324568025018 -85.445315176924737
-11.572984569718903 -71.360427453611365 -85.213490352991300
95.741580768733854 34.795710929245217 -85.016771649291726
96.443408745611237 34.980304696910707 -84.420599590909902
97.348279119441301 36.206404177393239 -84.958595576006189
98.537239579198840 37.838792272339738 -85.315792271695841
100.374305155009338 39.663664880635302 -85.179264125094207
101.166365146907268 40.868361557196941 -85.534569076644303
101.628075218627899 41.162363475582303 -85.452325097494679
102.182338710170910 41.813871998852676 -85.087823681062147
104.265137792273322 42.772409976752037 -85.117059337929248
102.956545499513155 42.193888598178575 -85.627457558679154
106.190087671235375 44.190021316782484 -85.007345842863145
105.705718790318329 45.486694799472659 -85.083978475572025
95.512579017451543 34.020513258141193 -85.444022056188018
96.841724683739088 35.812005045919662 -86.199103734946391
98.557984438195717 37.962555624221963 -85.867925958169565
99.147636178601715 38.271111287719926 -85.713279450244997
99.657212098812963 39.371867406647887 -85.732086208056373
100.776924878724628 39.830008024862991 -86.293471889753675
101.429843922049059 40.729733589132906 -85.775035911926253
102.584275666579742 41.823823477070455 -85.757929000786845
105.951833084853320 45.124159189627001 -85.678521992437368
-40.353975607388811 -101.644334384293202 -85.959138580787339
98.005485479079525 37.095352523867213 -85.616223326811337
98.198210500622068 37.929326996220063 -86.455036945003371
99.991280487447156 39.745253378951539 -86.240751042297887
100.693103726349477 40.984285193805256 -86.132469713358248
101.812447307486451 40.823433005161235 -85.649452482105360
104.046517996213822 42.416250288541377 -85.824780775019562
103.490548852445826 41.866054210916445 -85.757690282028690
105.901455609491421 45.306905048248524 -85.800948253907094
-40.118996620812823 -101.505724730694354 -86.398621521572181
-10.628441143649450 -71.801104684344608 -86.614652518250224
97.344911984446924 36.042324329777038 -86.096375318969947
97.607969606555372 37.219235589966559 -86.452824519141657
99.169294184901844 38.663571708094061 -86.612728702239934
101.000420084082805 40.520909745526865 -86.769815923391903
102.264201003459334 41.643625363234584 -86.450931937197581
104.483618802625315 42.385075912921721 -86.513952675692281
105.766296834955796 44.489990749134712 -86.889523853419036
106.638638040995517 44.611084345955902 -85.898579091290102
96.539677747826502 35.536668355937763 -87.312792827754024
98.546674593353757 37.905475699742098 -86.788444760487536
100.186569148027843 39.758105303527472 -87.252942096888603
100.110199113473385 39.905998202639971 -86.885120669093553
101.635776827580955 41.130015606895803 -87.206803659003711
102.631649828175682 41.593846626132446 -86.656382902029335
102.914699985714847 42.186445434176385 -86.669503005512055
106.064309080697413 45.240688749353225 -87.007937890244037
-40.504242077423257 -101.771010764028361 -87.198068818354329
-40.806838573953804 -100.395887678771032 -87.282977409079464
97.567638665048193 36.813247676660104 -86.854028387558159
98.229230365920316 37.286799116563010 -87.372022196244302
99.805167023909732 38.920470749796173 -87.371197060090921
101.400116303097121 40.529949266590798 -87.131132252954188
102.763728977261451 42.344752775023331 -87.411849305878945
106.365807873041547 44.683155616316377 -87.547728223212005
-40.406173121082432 -101.502794772970816 -87.887052312292468
-11.055290644684746 -72.508508229163596 -87.949378713279287
97.091186799636944 35.386542780082898 -87.405574358319043
97.212907967083893 36.283161742728211 -87.635352479416994
99.063491844272519 38.823509700843189 -87.830953085786632
100.547746257393385 39.773669312116319 -88.290787572774150
101.039666266454191 40.106183170282819 -87.456732734960269
101.735054528491247 41.258998377903545 -86.847623679117220
102.315052675004367 41.436126846601404 -87.532931165259157
103.377360273371025 42.760366379187396 -88.016942782244953
105.977533905430789 45.112708841188343 -87.985901991942640
-10.802492429344429 -73.214815163408360 -88.262356757944232
96.208763003792654 34.646262236728504 -88.061380648399904
96.632358493905741 35.788430018865427 -87.620075716176331
98.413749557738413 37.265273633013784 -87.694090185196146
99.460697467385359 38.407300068688109 -87.942864350818326
102.212829393632390 41.635638921150303 -88.329760708034385
106.095421047087626 44.971056780478506 -87.651458888855672
-40.360420507109680 -101.553684172845635 -88.364213884351500
-11.130263877039308 -73.521588052553639 -88.746336078363186
96.550891635455827 35.452555607563106 -88.201938264858398
97.525933042747198 36.574046258535439 -88.819147178587727
98.923794307865478 37.851298365286993 -88.734218960781675
100.085378969868188 38.648395273810557 -88.255390702827242
100.386300575428422 39.765917013363925 -88.793027937187858
101.222558080176640 40.541528446932894 -88.050510926661275
102.381772496497717 41.583790165895202 -88.673640797560722
103.614306825374953 41.913317674221574 -88.126148520953038
102.927726424811283 42.455677059430919 -87.861352482812421
106.265533316026549 44.735573025487810 -88.744221882917884
-40.456549695228688 -101.333612110937381 -88.831880396392478
-11.518120499559991 -72.640567687956832 -88.751204782887399
98.664802046410657 37.129287016095546 -89.368977409868762
99.286425565254305 39.024869145649035 -89.397245747328995
101.752413074213024 41.268561183207197 -88.060816087244760
102.286642229852816 41.722702891628053 -89.194663184395282
103.166268225848057 42.676835926968025 -88.759923775601635
106.074661699038259 44.673417906053466 -89.010101607812359
-40.481890921326830 -101.038617351777063 -89.440137240707941
97.380458295081425 35.582196106799650 -89.397150496539354
98.785872583387516 37.799528675238975 -89.328016935676501
99.300283289516571 38.836853764886769 -89.605802478240733
100.667224309034623 39.835410539987954 -89.257386591319658
100.703146189908097 40.399053897128425 -89.134909288087272
102.660800834503121 42.080901259222259 -89.601358576195992
98.303093619340274 36.209438108973622 -89.581662503664901
98.325169805360147 37.725221611463773 -89.949991700637170
99.168875834202296 38.562152206844935 -89.743116446769392
100.947340719831345 40.202299951905211 -89.323598960193806
102.294226041904437 41.753772815608954 -89.428944492074564
103.309913646101265 42.252827489245838 -89.099204680781881
105.618316194602954 43.675637752290868 -90.044257222750176
-40.397389151732575 -101.333634965827670 -90.316632961404665
-12.175185853273229 -73.788780596056952 -90.105955683775079
97.165948633841111 36.275935098637611 -91.127277566023409
97.684911244346694 36.701565705807816 -91.049888513427547
100.457716942835063 39.658151061241725 -89.310828029962408
103.724416449666180 42.631167042642780 -90.177326993402630
-12.735126184722315 -73.795092669034744 -90.232051627563436
97.257088957657771 35.576001286653053 -90.641646651648870
98.792217031577010 38.204721415368333 -90.556710980659304
99.876041419331159 39.483928001727911 -90.184354627044925
100.620657460321340 39.926399475662130 -90.683343100017595
101.643774009256930 41.132451823565695 -90.547711109942512
102.547731401242046 41.714985521379432 -89.978601042629180
103.627320226445548 42.487760632276292 -90.107409745764656
105.638139417338422 44.179086694383791 -90.442999119438298
-39.825755956085565 -101.774976727169317 -91.194780215866544
-12.486311030151496 -74.370030624534564 -90.608726168466475
-13.054338043955072 -74.577286231873785 -91.178543672605869
99.660565619470987 38.767601595729715 -91.561221212735376
100.929307288249660 39.896408242299763 -91.470205310052691
103.136316605782696 41.787549169925313 -90.508844456708687
102.677276280460660 41.264595004941022 -91.041060667514770
97.436289819205101 35.323372869380719 -90.982932097536874
98.145296500263527 37.130796297915118 -91.108481697086233
99.406883995532539 38.207124023800723 -91.302259418858000
100.242742789196299 39.452088091526434 -91.426793393112391
101.716026963570044 41.391192032530078 -91.217225712623303
103.274437031036840 41.761428636444570 -91.745055895681404
96.598206813460990 35.141759767656119 -91.441341439345706
97.377148693914265 36.329551855335033 -91.534203257204510
99.076522327403296 38.701732990062112 -91.927330023856456
101.262202781251162 40.775325882010534 -91.668579233986108
103.259722623061066 41.647004125270726 -92.079607970967515
105.332115476155849 44.604270923002595 -91.707388412523485
106.236200766086128 44.241447794721473 -91.655428090753517
-39.508985913914316 -101.533411912907027 -91.946023255234607
-13.705726310902145 -75.195933757028200 -91.746868615316927
97.089600543601065 35.866436093947613 -92.445940893589935
99.722319404285102 38.870923075832785 -91.750886064608153
101.239501093579960 40.506234488947271 -92.113480453547382
101.769489346083503 41.089324997897592 -92.188803382255983
102.691012838931314 41.368538671780669 -91.374539159802794
-14.076034423880406 -75.229812597095247 -92.024499792647617
97.357896116240667 36.306499032411232 -92.827360950685659
97.765110685262968 37.040001485450517 -92.722040723350062
98.785206196429314 37.652060472269952 -92.833827722390865
102.817425616796271 41.589609201727882 -92.259164476056824
105.447057630186364 43.988063954624351 -92.283840109261604
-40.308587113622259 -101.668431372764232 -93.648654604369099
-14.160602825897747 -75.327905665502541 -92.950328634965544
-14.837243529819588 -75.777688894856979 -92.898986004851949
97.441773852799415 36.313011684846330 -93.104154702924234
100.085036253000723 39.133265487708172 -93.034066657413348
100.060596924533769 39.640431491628071 -92.457393943573024
101.955476227960020 40.647631776194757 -92.567803934332716
102.903080241626100 41.837274559744401 -93.382367899033085
103.246571864274600 41.595053738007650 -93.116960040273725
105.138165255720068 44.545543992270673 -92.546642958217149
98.770841760861870 37.701745423026622 -92.832292909275210
99.609939414295468 39.296113159198491 -93.871241069250473
103.064352377381013 41.593262905162668 -93.096829084908606
101.841920814385702 40.622862633550412 -93.383686316854707
-14.651159839930378 -76.390355572574549 -93.862595188354689
99.047953869812972 37.656858898994777 -93.582930019556656
100.647892438672372 39.396939712224942 -93.603733989142853
101.559729665782811 40.184331650016176 -93.486927557789699
103.075659562313177 40.795536855995614 -93.703184022793721
102.332691679566523 40.942496908952336 -93.822368240187231
-39.713919789167726 -101.845758452960325 -94.004646754181806
-15.114977687450480 -76.222877360392275 -93.964805025934751
98.157759043468246 36.767529569835624 -94.029102218487736
101.348610577348282 39.966205534895330 -94.313352693720105
-39.980162875096987 -101.435875971786729 -94.363126957346168
-15.580079064685195 -75.916166898998355 -94.831958239399768
97.131935585299559 36.138783472492463 -94.294525684789505
97.643029365594955 36.257351855945643 -95.012319469769423
98.686657308101658 37.324013697621950 -95.031386740233827
100.615008830751322 39.260310934890569 -94.348849630343310
101.502174573425279 40.380001639252200 -94.477651425201614
102.323725225918324 40.885923901548637 -94.707644582308845
105.038855786361793 43.290329180566346 -94.501170882092850
100.014035535708402 39.380022787140135 -95.144090250717710
100.923347349069303 39.791127597879381 -95.794389200268995
102.043505301022762 40.684041813139089 -94.717586218412819
104.751895397329747 43.930531765355248 -94.992497280054891
-39.914082910086869 -101.259751729586185 -95.283472157729165
97.503666960617267 36.566649649775798 -95.646780212050459
99.207988355921785 38.361654523964816 -94.506361248610020
