# This PCD file was generated using the MATLAB® pcwrite function
# from Computer Vision Toolbox®.
# .PCD v.7 - Point Cloud Data file format
VERSION .7
FIELDS x y z
SIZE 8 8 8
TYPE F F F
COUNT 1 1 1
WIDTH 786
HEIGHT 1
VIEWPOINT 0 0 0 1 0 0 0
POINTS 786
DATA ascii
-154.908974225331491 -78.131911044140864 -239.477872209965312
17.012862281534197 -76.624093571422392 -236.880044165176372
-2.678494790134387 -79.078822536301132 -239.439738330216358
-0.007345954448887 -78.439966727479302 -235.282174540453724
-23.813879211558550 -76.728232551612763 -244.242649432737011
-151.267657109769573 -77.903659551266045 -248.420311251442740
-144.504434940371283 -78.766573510395233 -246.092295842617943
-37.070904851547319 -76.120718736946714 -247.867969724507503
7.385758804595042 -80.276255079961174 -246.565688738147941
-63.311141221532417 -80.615832470520473 -247.473828640146195
3.907989920419311 -75.808991189616705 -245.328776896506326
10.314089146263022 -80.631942060227644 -249.442604735012964
-150.101716522769465 -80.770905717601352 -254.829818431994795
-54.084946121109546 -76.867485007344300 -250.507892436892149
-64.021041989650314 -76.721833147656653 -250.574888470484751
-6.715530245933721 -77.891029401679575 -253.304362187243896
-152.507100030076856 -75.756131815102890 -256.768889685554484
-139.118343080612760 -78.964212763181095 -259.627379376222166
-139.645285877202042 -76.934441024077401 -268.689858278739393
-12.706849241330914 -71.358130351961222 -266.480804813891211
-9.546293347454998 -80.012995509907341 -273.331892089324185
-151.323836238822366 -77.245616354873007 -279.879917923055814
-147.110053775520470 -76.948770186822628 -281.773166064412123
-151.400242673127735 -79.835024065732512 -283.585386118886390
15.608961810487170 -76.003359215783220 -280.381446951012322
11.833741066171530 -78.568253460544625 -280.374471105901137
-146.393241705023001 -77.284837179623054 -288.097813622639137
5.629784637994263 -76.299431041957973 -286.824786572455821
-143.457420406159088 -79.796232613618614 -292.238045150932805
-136.511701783220246 -74.621822553745488 -291.309499850244151
-37.592859852245276 -79.517183443118128 -293.718481119788919
-28.545092438598623 -77.030917951993075 -289.903439515394155
-14.434662612812481 -78.278214979028704 -294.249253291525008
-11.114725834947315 -74.625506458734776 -293.065645840952811
-142.282231234238282 -76.963105017994721 -298.072894042186306
15.332093112772455 -77.290079990976125 -291.948386429447112
11.938902708001407 -76.031863516854543 -294.840355476687705
-151.950315646376794 -78.355673854424026 -306.167165493468815
-148.030072451381272 -79.430142931003360 -316.710297208351051
-147.954044796225389 -76.100696186767436 -318.056542560116327
-56.695905412512353 -79.648519663610585 -62.337450820560846
-51.108610137415106 -78.211550014258719 -61.941718709668891
-75.728484239714135 -78.336716373366357 -67.449026129883336
-48.402546467462081 -81.677662272209034 -64.786880078096587
-81.853610193821822 -76.365386025609723 -69.983831778471412
-35.249617290657362 -80.204198284758618 -85.023317969357265
78.974731524481001 -80.882914211939109 -81.843157297735871
82.890949234895587 -77.642297897876702 -82.536188983023493
-55.110163542840233 -79.961130644638885 -94.644298491612844
80.360630355797085 -76.266240740224276 -88.562234019645928
88.762650334306301 -75.431641969586551 -88.704687311721770
-60.070007559062596 -78.658347426670417 -94.928126056739586
77.905126872187054 -75.891477685064714 -91.248726834887378
-61.861976111668206 -78.830183819714421 -97.562677580200557
83.317197310742287 -80.167730763574895 -92.821135228828410
37.239239143583568 -78.814484339742350 -106.605835891074733
40.808778858448534 -80.894837653725091 -120.470787787030318
26.659069436951953 -74.871865216208448 -121.082556151595213
39.906554786996878 -78.964020923458264 -130.339892283231677
26.613635207863879 -79.723382999449228 -129.130115985486555
26.885726197784006 -78.161022817288099 -129.954847488652746
-54.874871526791559 -78.103157699216069 -142.785763309772818
21.423055219870058 -76.362871307413769 -145.612025862535717
-52.146626500128313 -77.908317002753549 -148.368512744442427
-56.512363603518871 -81.045109333998838 -147.879346093318730
-51.946094847880651 -73.748048876947323 -148.199917312594579
-48.888853093178717 -73.511636045533038 -152.546450705448819
24.169545493957688 -75.406434053534014 -152.502005392607202
-70.984209450863290 -80.403811536476681 -156.940662987985007
109.587292095805509 -78.509168094645815 -153.369946321518711
-51.973233213116934 -77.033355056528279 -160.998976448024081
23.069320059085769 -80.226800836505319 -162.944098168072827
107.384644503222006 -78.816469520557249 -163.123267295601067
-38.412305234700547 -78.841303132541171 -166.380987019283054
-8.165190781439691 -76.488612576931544 -164.298539199927234
28.614724490108934 -77.069173543588306 -166.532893753427402
-3.374512777996777 -76.429001989830795 -170.399088476942211
-65.267057669000906 -76.496874191459767 -173.940432031275094
-66.268564851601894 -79.254888793448174 -175.405032199482719
-58.345625255738092 -80.765818200402435 -178.864694361349166
-6.380448294829421 -78.244550963631696 -175.560885104917560
109.039335932338162 -74.434179607886520 -174.081755210930652
22.167354799703549 -77.265964663325306 -179.327550996278291
-15.470115903910134 -75.069041036374159 -183.240324041845952
-18.817181375825371 -79.449934047632667 -177.466010929039726
102.985787748899625 -75.279413268424051 -182.633538366618154
105.913286430431128 -75.702438276085928 -183.696706392746336
-54.031523432580450 -75.549482422916824 -185.342747082956635
20.867037240746850 -75.646281800111126 -184.147721434767050
-27.665126992557610 -75.447730448626061 -182.799133927566459
-24.249246695291411 -78.470645891024446 -186.873721097515300
-53.268794282027493 -78.605591105521029 -186.968224165560514
13.975185027926564 -74.863343613813640 -183.008885619288861
-147.140427123766216 -74.903586960873682 -195.385164328391426
102.374407556535346 -78.153373288347652 -189.259151992330970
17.703972807763755 -77.397344644709719 -188.781370066344408
-47.491807317629387 -79.150177798562282 -196.012100026554606
-149.563396178289338 -78.381641898783343 -202.165297247487160
-157.897867546198086 -75.356124119333913 -199.203960946193433
-46.173516316804928 -79.376621574151073 -197.111951702482003
97.889692501375691 -77.040774249846990 -195.479565647543012
-42.962986001961504 -78.872615771416946 -198.229012737973449
-21.833067631844457 -78.965683354707679 -200.617559590950776
-16.349673338966880 -78.069823755031877 -199.413840478715741
13.274648487029879 -77.196213079498960 -201.618135099272024
-39.092555344705339 -77.622691969141570 -199.521583963941566
-29.780314446284471 -79.216898701774113 -201.781653143761332
96.263308187488718 -77.646506972851512 -196.010615459759435
9.694661331364387 -76.068808336238220 -200.411550993566465
95.636274562960452 -75.510447728782239 -198.977813777884933
-148.858741716095381 -76.562040572361937 -207.993977010510235
-45.769395198589230 -76.093790537350657 -202.552921133918005
-135.164263926033442 -76.797568694457937 -209.862434712169971
13.053008014483961 -77.591387641020958 -205.188632747497479
-153.450173408761401 -80.446770732138944 -209.025615713808975
-43.665161584772825 -75.528255202825207 -205.064264676717045
-37.825048088128177 -77.262833927031977 -207.509467117024002
-146.468001681707534 -78.543477658208431 -211.194299829527722
-146.816572912948658 -78.800038130416482 -211.150621866226913
7.140384163306280 -77.376860957301574 -206.345534236084916
-146.996582753212380 -76.658075928941258 -210.517425115379183
12.035202063979824 -73.502437594231466 -206.736731405901821
91.417194556425130 -74.261612020120282 -203.650203539491343
91.452011954571987 -76.518599198262493 -204.125470960915635
-71.698159640497039 -76.907736908696478 -211.919974522995119
-147.825941582604059 -77.886067181389919 -216.690986964460478
-31.678837579808196 -76.800950579727214 -210.074776184299225
-20.173069535954887 -78.417306099412784 -209.893597473071310
-12.703274697811047 -76.559610003141998 -209.560043281262836
-39.532459898872865 -78.529892994144888 -213.909340797604841
-151.881952045961384 -78.950625006991700 -218.235501394668034
-68.830928257490285 -78.222414658226128 -214.852705752893144
9.526381863476288 -75.939571740871429 -213.149708890545696
-26.229071411967617 -75.299931758094274 -216.629508667618410
-25.211125846125150 -77.760302505822864 -215.227033276466187
-11.092299535697499 -75.333778331609096 -218.852242343142194
-95.326160667559094 -77.128887498223577 -219.533920209356410
-80.831126760798583 -77.201193262996640 -220.427949337746355
13.458384303843086 -76.151404749522726 -215.716783944452430
-23.983288713237805 -77.271988445107382 -221.545132488922263
85.696286753568330 -77.649457014605218 -213.303531489333068
-151.501997744099697 -75.835261432581490 -222.884679472286592
-89.435335386931683 -77.441852177630452 -222.370216056915183
-87.035553648377004 -76.164259140920166 -224.440060222909210
-149.740507912307947 -76.222810189745672 -223.275571387438646
-3.949649058870385 -78.509972682517102 -219.226144356713434
14.492467489324149 -78.358001189183625 -223.349551883803315
1.960120504218651 -76.829337228144382 -228.386484990823675
-158.584426701619179 -78.623903255780959 -231.902835993281826
-13.922689914516049 -79.069748313733854 -229.386272960554948
-137.319913849130586 -75.956303679402652 -232.720758516720224
8.410756991256868 -77.642685073710410 -229.482377521165120
0.296758847925773 -74.922182267469779 -232.546562983416209
1.615666834095350 -78.416272785404772 -234.400574554452419
-142.169667256300698 -78.077092934164540 -240.330315637220565
-153.915158434586260 -77.448390363731164 -243.241391054460905
-0.947188226582739 -77.364219622628127 -240.000970474156190
-18.406771983934291 -74.780031326402877 -240.146131508618168
-34.955248737620870 -78.301242830961414 -240.063985733159768
2.167356163540333 -80.358250544265445 -239.471128907657828
8.637594309917922 -75.236694811321087 -239.970461981977110
-41.041728959319165 -81.413308634089290 -243.536416500779438
-148.233616375791541 -79.210118831439345 -248.515515602574482
-20.319774395667643 -77.700475315349976 -242.172088455787588
-60.421864825393534 -76.593196509761327 -247.049569164895416
-152.311774505841555 -78.554484925330740 -251.974702036321276
-47.163960057661562 -75.688729054792702 -249.808932142074127
-68.589511187244909 -76.984431490650095 -251.175490040903554
17.203344378789872 -78.415039730153097 -244.406420283747281
-144.259759533063260 -76.596296935286929 -261.142448126695456
-155.379041695838879 -78.349750859525443 -264.484898544652367
-15.240526451650602 -76.878040641251445 -256.763501533439808
-137.798741453299812 -77.154633795566937 -268.710483329029216
-149.823017180234416 -77.921400815813115 -276.246884153851113
-145.818328914355817 -73.173127609476026 -277.453027162107730
-3.208672939116191 -78.050150107432060 -284.123293586256978
-27.944805129729552 -76.238138930183680 -287.975636931527333
-48.863791796708149 -76.127797979502262 -287.983127647986521
-14.093305881846902 -74.686669764857385 -287.945867510939991
-134.215442180903892 -76.823943465071380 -294.752915760336805
-1.297181912329535 -74.581307724651822 -292.038383633810611
-127.524198319573799 -78.824199614951212 -298.787393679015508
-50.901488502638692 -73.336805912678798 -291.705982489270355
15.849778911128492 -75.346249670573727 -289.689711259486103
-124.542006113602184 -76.857474758994329 -297.824142226594518
6.128411735945491 -78.967424540067000 -292.320975379229537
-130.694689107026619 -78.733553311128489 -296.110556277924957
-39.983376306630682 -77.321195286127235 -293.521930878835519
-25.600789927548441 -80.473868399498457 -293.552505688758231
-11.397067945722505 -76.316020007080084 -294.585955111677492
-5.082260236418023 -77.819346274528030 -294.303536846340535
5.414529911200923 -74.297943433278334 -289.942866871532544
-151.531388151035372 -73.399449810840082 -303.855268448055881
-145.783944362945476 -77.550831919063938 -307.041048881637209
-154.329544491663853 -76.495614734022240 -318.640519902981737
-43.425858622271001 -78.366796544984652 -64.575765672422548
-86.638027829038464 -80.539378994993697 -66.748337147788135
-28.557487603452806 -76.682223667724088 -69.717615692541642
-90.978400266137101 -79.643534171309710 -71.859811032094129
-29.918381212635516 -81.880104616909733 -72.766138161340479
85.285257364009809 -76.718356412813179 -75.522480940361476
82.387117554210448 -78.062864983710867 -81.595311593052188
-38.284804065399292 -78.557302220775441 -84.384143586473755
85.603813815072655 -79.954928328502874 -80.638694500255482
-98.156741779943928 -77.349862872538324 -83.671412098908675
66.935110908600024 -77.999235695806306 -81.636895437942556
86.709877267927823 -78.106505164947635 -80.082831933456433
-50.599084249416840 -79.238134607808561 -89.995879380207398
89.615434133526463 -75.760764796112696 -88.908035251266213
75.587737544408441 -74.605837780585205 -89.588240607004252
73.453561408451264 -80.204157011471409 -89.104383710601127
73.911338144194588 -75.921774759882197 -93.876058604191059
-69.931979809933779 -77.360094154393309 -102.260269286590827
48.697950587864199 -77.550572502619858 -96.450176443777906
42.030910171377620 -75.225244567271119 -101.649964594117662
-87.308110333679792 -77.102072406607562 -109.550561497039794
43.990657248991241 -77.468157814497459 -104.061328666715582
40.051089726282285 -74.898092940619364 -105.603317327035725
45.641367545192146 -77.050947206642562 -107.556411377546596
34.009958320320088 -77.818403543004550 -112.320847936923840
-93.543541061500662 -73.638766570986348 -123.033625089897043
109.766875038666171 -77.786888640168442 -130.145857018958424
23.261508921116530 -77.935021646240060 -134.404946872121258
39.497415619296198 -74.290237744088088 -137.008201636411883
105.214621936237108 -74.098898847781669 -135.833670051994915
-52.113994853358840 -77.440625128254283 -140.684226249114033
30.252367378140768 -79.190219630857001 -146.585683641717480
23.553380561241156 -75.130493193044884 -147.759801514175081
111.323152812320473 -75.853650404706670 -148.697261029037719
-56.622038182016688 -75.714479456536338 -149.507568157227894
108.126934316153751 -77.496831637930995 -149.693231023837228
29.580598686819798 -74.919839261151267 -152.289467853236999
107.916703274390841 -77.876983509970216 -151.615971865683861
-53.701521156283654 -76.424078020002071 -156.792943447516166
-37.803098998484479 -77.559239910296853 -154.981190910167243
-67.994580990906002 -77.649689607849623 -164.020821376192004
106.354597700919015 -73.875528843388238 -157.697039662021837
-39.374243395693178 -75.752427752704648 -164.920000325038927
18.074656185054028 -74.394140549924742 -163.113634710469995
-71.742132098620431 -76.224794931369090 -170.803645533583477
25.566682565676594 -74.378353274917558 -170.212806226976880
-46.697116014638006 -76.015457718006758 -169.327262522173100
-65.045034423911289 -77.537768502838688 -171.070841892515148
-61.805577641943891 -77.953310223945820 -176.995558714418166
22.344595631812052 -75.689635497942888 -169.665917581474559
-33.666724750271776 -75.567785275572021 -177.945565582121787
-26.793736911770047 -75.309119160772013 -177.735401066393678
-14.576538483027655 -78.367628073132266 -176.187530847619882
17.977636265091551 -78.446017549382233 -177.306660260244257
11.571235446377621 -73.845802088161392 -178.663848290566676
-40.156640327170415 -76.224094374072124 -184.305788207093315
-37.754525019730103 -76.269669716989156 -181.377418740817660
-55.157089413369512 -76.541574566787062 -184.605868766473094
-35.196351670329939 -74.332364250717674 -191.431659785823314
-23.143142789507486 -74.392453274268249 -193.394390654708133
-54.076669011536303 -75.562088417087523 -194.223731527183958
-41.736219780929751 -76.488289899157593 -193.418369108116934
-153.311576667888914 -78.005362269615546 -197.368755427436867
-56.027114527987472 -77.287996221822681 -198.490410613471596
-32.119546300625082 -78.213740252670206 -197.799272893942515
-21.258322607203603 -79.539594049348764 -194.535435644148208
-141.823124043786237 -74.765786294518279 -205.411189014075006
-38.623801628072464 -75.127181704472292 -203.507395396201218
-154.148975734245141 -78.765787410195287 -204.455892465747354
-47.580881789496495 -77.069894114606086 -200.678428609864511
18.228224748844852 -73.230373316390811 -199.360087756334849
-133.282681107103485 -76.750112282425647 -206.216835855570906
-15.933830626899855 -70.751748267771944 -205.694133512901061
-37.555772167799837 -75.764762646705492 -207.552131774547604
-21.924563967799877 -75.237022927632509 -210.457635976527513
14.822269213651481 -74.055462079017573 -207.965734282437580
-37.911413775543913 -74.867636836512887 -208.408029522760160
-11.501342448531652 -76.245807590158108 -206.396372447418173
-37.211934649480675 -74.935266216748417 -210.712184367274148
15.989701237977325 -80.129701591778101 -210.764176784554365
95.195116399245421 -75.466954755766295 -207.511347535561015
-76.915060557762700 -75.240784457220144 -212.139219730152632
-151.623468417476914 -77.378516730019925 -219.401529483072551
-31.535467714969876 -77.300443073169973 -214.723087143040686
89.125624198513890 -78.858917480959448 -212.436536290142044
-76.189480433120281 -74.770892027203686 -218.852626397181126
-18.939099501528041 -76.794935507143975 -219.161530759070018
-16.987558892588929 -73.370546137418771 -215.645382710608544
-145.561314423636361 -76.751020257923486 -223.481125885647089
-8.872649401421249 -76.632606911255806 -220.202790984925002
6.252381471613674 -79.982242972418916 -219.430345736495809
88.000060447277946 -76.575937057929110 -219.011179108732364
-30.470873107207460 -75.859280514820213 -220.254435933322100
82.740446749649124 -77.178968990827329 -223.180411314042516
-13.415543177718206 -75.661527777655010 -223.529804526803929
14.334279303646039 -74.115206428844701 -222.370358032168070
-20.161940047942089 -76.569681254385685 -224.705499680897731
-3.513193440382999 -75.088275561662527 -225.668567898684387
80.854814245446562 -72.530041878843704 -224.381061209792875
4.108072493723277 -75.475405464762389 -226.141744814772210
-7.547621946313726 -76.794659469642880 -229.239078368742469
-141.643659759696277 -78.065564853521252 -231.557303438521416
77.592054370176754 -74.123872764539513 -226.382390290111914
-12.541561757713282 -77.249128874796170 -230.391413230099801
-136.365652786495843 -77.185735688999372 -233.246277368059793
16.902697529818823 -76.752631355213168 -228.604713871573523
16.528702708242566 -74.998680222957816 -231.396927796457391
-139.578600333618482 -79.286398354504243 -236.799523409825525
3.724312337096784 -74.281606190315017 -236.955710301173468
-146.379312887487600 -75.305421895663571 -241.288592578102026
19.176278101911137 -77.022949956058923 -241.074180958792169
-149.616431533090235 -78.451911318657963 -246.788139924415390
-149.478363223943177 -75.416673108783186 -246.062280591530282
18.255462715153534 -79.296477537673809 -240.457742538489782
9.174170564777498 -77.218240839488132 -244.109496805092050
-0.417650274774140 -74.039009362173886 -244.427685679792830
-32.905172285699102 -76.863041309333752 -247.590016956863195
21.478138084744124 -75.562205069417743 -248.857520301227368
-7.103965893539026 -73.656720096579861 -248.071274230496641
-74.571389443999635 -75.728363778795966 -252.098786575389965
-61.680041976635700 -75.238027300342154 -255.529366300443058
-76.335166795915910 -76.139723509904101 -256.069016567799338
-69.963533606375393 -73.121022081754759 -256.371612787877666
-149.548230122141547 -73.972562369533946 -257.416725163432830
-147.270175235458026 -78.746555993135161 -259.858002570017049
-127.438644517162373 -77.115872458771506 -261.619045152333115
-136.157398640625104 -75.438528282234245 -264.152675502986654
-125.040271281768867 -75.735418437718025 -265.801006425009405
-144.252764279975622 -71.895967660263437 -269.280899689391788
-150.412807132311428 -74.496583533539720 -271.003732980246014
23.966403762936128 -77.186912268592607 -269.190698083483426
-149.070802061768518 -79.216033887242702 -283.583673210510369
-4.891394837651163 -73.855550247700222 -279.036208981525476
-133.566188565292407 -74.850803945575507 -292.066532766259797
-128.357473642461969 -74.068679271477919 -292.964001897094533
6.188900462878685 -76.354822288217719 -288.007815934243752
-51.936854346478476 -76.846305356638126 -288.017309465498897
-9.306011615112858 -73.675144680362052 -289.144039747781221
-63.756511704435447 -76.465381892122451 -292.422627575614115
-1.060298059572368 -75.230488209705655 -288.718411050739178
-116.760968555663425 -76.407394691653337 -295.373952650103604
-78.837618856555679 -72.281202594406068 -291.356685871202956
-56.364870955377306 -75.578143558106476 -289.788640257239763
-66.599673742991939 -76.658022562465916 -291.976284499527026
-143.683900169207817 -75.856224240038301 -295.219455345835684
-124.377239019290897 -77.530191175779791 -299.111943366939215
-54.782318693660905 -73.977861922534544 -293.556798278968188
-148.258722614348898 -74.389429891606426 -300.984165873667791
-145.314172846006528 -74.916538175719438 -304.441029394212137
-61.664929459461625 -77.843947824637510 -55.379747040429429
-72.740205381990222 -73.169904582989503 -58.903515362016769
-50.489524602423025 -76.384172017799784 -61.147837806426729
-24.644624182033034 -78.189034528007156 -74.815237346480501
74.818130748355671 -77.754045462615693 -75.459212050923327
72.958262783205257 -75.541052695525195 -79.035279975094667
69.052365539936247 -75.614815039219380 -79.418823456407011
-47.115915029254246 -80.711513749299385 -86.595513759749210
68.192481317776213 -75.539242402452373 -88.881253187306541
-96.790047009822189 -74.727928891024717 -95.675704196398087
49.868425462068821 -73.754162534174668 -93.187977266298319
79.393310549208650 -72.439616902656894 -94.850826248923525
87.470538815528045 -74.149154158723334 -97.474586394923818
70.518227570649344 -75.548714951417310 -96.674232582804777
43.383438495077137 -74.693091511291200 -96.583749162497782
86.296062199250287 -72.026831170458465 -97.413011285335529
51.896333340610028 -74.788972208846445 -99.953286584722605
-86.148210296803114 -77.995830708566459 -114.653217970090807
33.560295666892088 -79.769274799910562 -112.978190627650989
40.943396389882750 -77.286645789932436 -112.260191739454413
30.046876412276966 -74.496596458340264 -118.856661326923870
106.193407701870598 -79.714866414273715 -118.022892162892333
27.878780477412100 -79.185202888533169 -123.062078742718739
109.504007675153503 -76.955384868919879 -121.012001951641295
109.993412899888114 -74.697971360187864 -121.621899502569704
27.834838167311787 -74.362899096858257 -128.536201808130073
107.390461970684072 -73.770383053816701 -128.100050541068242
-61.058066002066091 -75.263825598453224 -139.460844069741711
108.329267618195814 -78.411235715384706 -137.517495945751932
19.333824242743184 -72.981634005882597 -138.592517167349797
-56.060827781042910 -73.772422258818054 -142.746907864549939
-53.783601116787672 -73.932156455145702 -145.727649004469527
33.608163867219631 -75.005618481374597 -140.908340119368489
-78.536336992235420 -74.861464079394224 -151.996277567337870
-77.607105123414925 -75.247175679615736 -149.299418723362805
-57.745581679208620 -73.591607097701171 -153.232730731851120
-45.470244010663642 -76.838167010494942 -153.653845076154909
-45.685267387141202 -74.860897781521842 -154.320736035212434
110.136603521904760 -72.703502606690250 -151.220519064949883
27.997377328139777 -78.577339042512449 -151.634178864929765
-68.150249121599046 -77.165916965676814 -155.778778252900366
-70.576531650329542 -76.160448570127869 -159.811442820009461
18.228973628503752 -78.177499361050764 -153.920550208589503
21.142146490721100 -76.683989844215063 -159.754017469658748
6.017333252288218 -76.135431703207431 -156.967218640213048
110.741951919908985 -75.722527833137093 -155.095697634238604
26.980445079904079 -75.661412489319645 -157.739317044764448
6.067272671941076 -70.586956507006647 -161.970938855434895
-67.621276192323023 -73.647596030893695 -165.728099238384118
-5.618767186925076 -75.956542782743171 -164.881816365347703
26.602398668394038 -76.499947114167128 -164.904130965332342
-34.608472216515260 -74.451326159617821 -166.243445132158882
-33.595738034987740 -78.655449933178232 -173.680200182196160
-10.806015841958960 -77.657043546055462 -171.271950881011691
106.280211257133288 -75.834725698615529 -168.695006079828659
-6.955088454881498 -74.477426476981620 -173.634578386181516
-5.853542170116135 -74.877997476479734 -173.903598421015857
-61.389966886149246 -75.787345612343316 -176.028414913446539
15.909841188830541 -75.768210989193207 -177.961471595315345
102.640660282250906 -76.894898940470270 -173.609578164558599
106.683837342363688 -76.656025020163895 -175.636398618803014
-64.409804069820069 -78.437252984160452 -182.143865931342503
105.308218263067189 -72.350204682027538 -176.328173335746186
-53.114417477694253 -73.548881063266236 -183.447878343509586
25.144197532930171 -73.775038128354623 -183.996942969989078
106.479194652254279 -76.659836943387447 -178.028786828816521
106.780372949094328 -73.999507883510788 -184.738059357401795
-21.506244006571521 -77.605510609345615 -187.056147466235672
-146.796343555373085 -76.513586014766560 -193.246232422419894
-148.298815757272422 -77.167574624853529 -196.164942258351289
97.280871784159530 -75.725948481575074 -187.343468791746318
105.331861898256875 -77.759656135729571 -185.940569281341595
-33.834026378308458 -76.513713525705796 -191.956547660519561
-49.111853714285978 -75.587062961365518 -193.629606892825677
20.986212374536105 -77.143016333095289 -189.977328064457311
104.813067301433222 -71.783474257891754 -188.606661853771413
10.785574280863500 -78.550116640121459 -191.049037450262063
-20.770707595557411 -78.949905365386186 -195.201829225305033
108.640387055669123 -72.418633541452479 -191.714748522846662
-145.795119401785144 -75.354171788362834 -199.790714458665121
96.643471557810543 -76.490043160338061 -195.286130763426968
20.326957794103464 -75.462654946198640 -198.756428346358973
-139.863403258507674 -74.931385053764402 -207.851936388229888
101.154904644206155 -73.584890708859589 -197.117984786074402
-149.194863165612901 -75.697330886026450 -203.969189982932278
-45.480119125460782 -74.955547945744428 -201.798451811017515
-22.219443273307064 -74.628072545578732 -200.880288310018159
-136.162606237467173 -77.088195599589881 -207.468880210015556
95.796107713710029 -76.508114049413308 -205.644060697295629
90.755133079508127 -74.680378970347135 -203.284435286583289
-153.149672395442877 -75.583494025217547 -211.077439477427106
-22.123643424527046 -75.495890998706344 -209.855788072041662
-150.751218528100765 -73.012163599037109 -208.025812678964940
93.440366442534895 -72.409375696192384 -205.451981912546046
-14.895424517828452 -73.854055499682545 -212.932441922446060
92.771794042656282 -72.766726528021039 -209.446759678331802
4.439396820067927 -77.625142995842154 -213.534715574055383
7.523127277314906 -73.148662636665435 -209.725362351539985
-37.469198627103559 -77.015380572103524 -214.191182668519133
-81.467595126443968 -74.474964757020871 -214.187537284151801
-30.015259381469399 -75.704575762963813 -216.546890382640811
-147.884390412784825 -78.652852801338597 -218.452552271903158
-85.543740340745273 -77.700230596523809 -216.643578537497092
-149.111551157519727 -75.125194507325844 -220.798109784693708
-30.326960496747070 -74.080687270181002 -216.525696493558570
-26.936486711996174 -73.832027300772140 -215.759166176806332
-4.925906528355306 -73.015317674124091 -213.981009212922885
-92.600246209754289 -73.148642610935937 -219.595075528244166
-152.150380600742409 -76.636159712478587 -221.056588145263987
-98.585908752276765 -76.216019288947876 -223.836355202069882
5.845455722961781 -71.007569533199984 -223.201591119347228
-25.215845967047606 -74.887328033461259 -222.789913925771799
-19.218859717803937 -77.579560584375145 -223.674170676257319
-146.391320454129101 -79.713249114482181 -227.334518880705019
-152.823874718444756 -74.839121863127261 -227.301608034627662
-25.020240247776776 -72.530618575478584 -225.472876219553228
-13.166050233220801 -74.113017447081987 -231.566951448923248
1.102104968699471 -75.405724696736002 -225.666979254572453
-21.958911970255613 -76.643789373662486 -226.262943907302144
77.743922255787652 -74.679095013085274 -225.866110033007573
80.040944584707432 -72.656551044584404 -223.188945282798983
-19.512115322488803 -72.114292861312293 -231.850914824171326
3.094577860928602 -73.597696810916730 -228.476048926144188
-10.373439868060096 -73.223708767499431 -232.850557336008364
-2.464835783040940 -75.444358246406580 -232.507117585717907
-18.598174039344052 -74.771197036237652 -240.591386667300839
-32.568992430952527 -76.240254591135155 -239.556261366547545
-3.070541102428713 -75.265535189795585 -241.038311931761939
-40.946642203422961 -73.786973649580588 -244.775134999438365
-49.632461123722472 -71.945933237064111 -246.869267470139789
-19.949300898458169 -74.082140881162942 -244.674080867731874
4.988538546252293 -71.373804735632532 -243.646529605829613
-29.787749005991564 -76.326372657069570 -248.201674635506464
-60.064507663177089 -73.937955185287464 -246.758975285110665
-36.318440174907401 -72.318591083105673 -244.546009916766451
4.790607441279050 -73.676350317477258 -243.482489062620175
-44.297635712434037 -73.034666033317990 -248.687962454139324
10.444400577747476 -74.816570238738180 -248.076607077027774
6.179241466220184 -78.138306662071585 -249.033823037882001
-44.323270395547119 -74.858664867732614 -247.724070401955657
-150.938707895887319 -77.522032072722681 -253.049612840391774
-144.799334539724384 -75.470785089822442 -253.187710772356695
-73.230515906932624 -73.386771667723252 -254.467821987197425
-55.719589107166478 -76.622713663879210 -252.133194186644943
17.756202465987673 -73.368509056925902 -250.496316592026290
-85.576604668013829 -74.080592568463231 -254.680733868416155
-64.389132333491887 -76.048314545682672 -254.771480022785653
-11.518859248020419 -73.621832949593312 -254.782028381934367
-83.509563696290854 -76.089677039010041 -255.650804524671145
-124.903083562757786 -78.347738865012460 -262.457480284024030
18.054160261579700 -75.750273506340065 -257.578240099878997
-134.503235693099157 -74.893566566430138 -264.955130333562693
-142.060630748204147 -75.405688238457486 -263.157183937658715
18.481896524853330 -74.570241080612334 -279.684898554155097
-164.042805141498889 -72.068639049239280 -289.525095785813960
-151.008618612236319 -75.577825001664650 -288.797154713447355
-146.392637892883897 -75.396957852198881 -291.548471636492252
-32.218230605685484 -75.140310725885456 -290.204597964841355
-150.602337024384354 -77.166985136686776 -294.940188563152844
-68.508709500452397 -74.510124601160030 -291.875622999408733
-22.984283923979412 -73.221827257525689 -292.549362241758899
-69.970039494318456 -75.451249190590104 -292.127473269924963
-163.426449208382991 -75.939313938681991 -295.970452453742382
-140.416172027454223 -75.934914714777378 -295.923270504763423
-146.351692022500515 -73.977746229652510 -292.719473050681700
2.261842248522413 -74.380263204125256 -291.718026198437371
-115.622579506434818 -73.055353717466744 -295.224150385798453
-133.768456346148525 -75.790296385186480 -295.948732388317637
-93.510037832236037 -75.211534935255443 -293.801850425404552
-74.880050113473288 -74.706338997587892 -293.873428366948929
-134.937014677777881 -74.649460937263356 -297.767463269391669
-84.047861478152811 -74.224938119141285 -296.363968332086642
-62.677381951874359 -76.470987369564227 -293.276767693382851
-41.758532414294443 -74.276889561748860 -295.521487981056055
-25.307070896585849 -74.965790036570993 -294.324957175911436
-3.803951205850666 -76.083025620311105 -293.632066947470832
4.338680256312550 -72.409121330284293 -292.822886478908742
-134.486243267332839 -77.197259278588533 -297.773206645570440
-128.226970792141941 -75.918517721989446 -298.922732671592712
14.633984559765828 -72.684462805200596 -294.064009614607301
-152.644321847743186 -73.959611228231765 -309.561093968879561
-153.800338988522327 -74.872104319338987 -317.061865356371584
-48.892260357538639 -76.059332895220564 -55.956185318704676
-75.410247357376051 -74.465327021231090 -60.408146493712010
-31.832654323224226 -72.889615791653412 -64.699703015871521
-25.722076062799111 -76.072000571919375 -70.804987640262524
80.626107476478794 -73.330426838193702 -71.042434838266018
-93.300497721698207 -75.066161530891307 -79.564909129924743
-28.792408793734303 -78.712074875492064 -77.926671978578426
76.961153599104847 -75.878822424441026 -76.177278750246288
66.590842185529539 -76.335593489494798 -78.155759698563799
-48.356619701788425 -77.448090499302765 -87.559409466411410
93.989439771320605 -75.124912893644222 -85.170928468786869
-100.964024468565668 -76.073217983630968 -98.308161426951813
65.515723367276621 -73.081786323135930 -94.699300071333312
43.768625849377258 -76.169271786891272 -99.840351931740372
-73.033265107967878 -75.323993206809277 -102.023849432692373
77.566386601562726 -77.230607758624373 -97.090418879671404
-85.334048419890081 -73.826804251924514 -105.012790662540908
102.033521013904476 -74.681605622999513 -108.314458426803526
43.999822663855227 -76.713266873565956 -109.839076318135398
34.537844024973239 -76.808203059403738 -111.985534349487395
100.045188481664511 -72.329212852614461 -111.551155215104814
-97.822333509811870 -73.909801012529257 -117.721698314223431
106.038452932033493 -72.286395798928694 -113.440941459518143
38.944737826723895 -76.258774914741153 -116.414582678170902
29.324785649723687 -73.235041704141906 -121.952477173591589
41.372611248157909 -75.453007735285439 -126.395620075531781
40.217291600109277 -74.247602829127018 -128.128791456213492
104.714417951825482 -73.597097901287100 -127.258984837482672
36.248397578619588 -71.487154823756725 -132.004517233959092
-57.959191466789427 -74.811126684771040 -138.551166866330988
-59.353334692004303 -75.410468153809333 -142.281831979488828
105.764404018696553 -76.799993445199249 -140.459046128961319
-76.846631668892854 -75.486899951242378 -144.222535620824004
-52.213797365213360 -74.254504972713690 -142.141861549159984
-73.800244388896573 -75.658678610844518 -150.735506492716780
29.385379428175085 -74.754352279330803 -151.071461260131144
108.057059541352942 -78.811176296916784 -148.621900875381954
-56.666037240511180 -78.388433749544859 -154.982126400435362
-67.455242685584409 -74.637178227080042 -155.853456526787824
-68.125966339478765 -72.853962250898633 -162.251805793255159
-49.469900593601700 -76.451044806376217 -161.683009556939794
110.681420744419086 -73.087717850513343 -156.630759277158717
107.450310351152581 -78.402795333232959 -159.170016209607979
22.285413985561547 -77.903642400958304 -160.573174299032644
110.641173045972920 -73.362513810381856 -160.140017893220687
-64.051166207252720 -74.351094040976633 -168.151512929135691
-66.328408868604157 -71.608162909528019 -166.654292299095488
-62.379704761774228 -72.180927038199741 -168.408131427495874
-72.188249246429962 -77.107528667283589 -169.466109995339735
-48.955240269672039 -76.476503924129489 -169.133263472114237
-5.720460432550226 -73.960753281136817 -167.339580141585685
14.399648071461094 -74.850426287772180 -166.760158902527365
110.410220631239923 -73.762565035220362 -166.495428478725728
26.114336984960637 -73.213212379829201 -167.454921382794424
-59.895011094013888 -74.830786362123234 -181.330789736028862
15.452776715266030 -74.023496861581350 -177.735620128763060
-62.039758596491303 -73.714036254366448 -181.339565577129036
-54.745105001094451 -73.247695594062634 -183.660330006728714
7.975739723374950 -76.752891480788733 -181.675637604449548
11.898093057022280 -75.553108387959355 -184.410119393278478
-25.009733959914904 -73.419631039363480 -188.300032133245821
-36.465770062967884 -73.380236726731297 -187.426841411703833
24.803080394211058 -73.343861777607387 -186.963012880075098
21.137053160320111 -77.004221440757590 -187.532149048000093
-54.726647224577924 -73.127394820361602 -188.701485381089725
-145.331485911578199 -74.921694645530323 -193.023912633931985
-153.221018542275942 -74.745855161261716 -195.586763495134250
-34.640867491181403 -73.624330713187433 -187.833920776867416
-46.994791539279113 -73.639408953653287 -194.806566473484139
-153.083700983894573 -76.395821631406690 -200.521690017836960
18.999183496652897 -72.159715665857419 -195.389185657519306
19.228051812592192 -77.100556053122020 -195.403020501776410
-48.530796010011947 -76.057992451052982 -203.783921976602841
10.972419050300545 -74.623268528551620 -200.712831963874976
-142.655516077312569 -74.032208270103212 -207.196539902599227
95.908434083433320 -77.615845639714877 -197.762508115209556
-42.903071920226132 -78.556803250845306 -203.946267147649223
-143.692269120738729 -72.356306561487401 -206.499930366512814
-39.067225333553772 -74.685101372104242 -208.257312861139127
16.462852318864403 -76.147280832170409 -203.298366975569081
16.230899140717899 -71.572581567637783 -207.852732840515273
-9.299456816850011 -71.165181834584445 -210.313700845356919
-36.677720459694491 -73.191210992836076 -212.649725491974635
-20.617004431940146 -73.084112846378943 -214.806730779889619
-82.375926938795089 -73.078586485262207 -216.496380674454429
87.865435857251754 -72.227530363401243 -212.092716024943172
-92.890299106829644 -75.409816053420613 -219.713506850146985
14.765054076160670 -74.423307166693590 -217.153860081375200
82.195874607450648 -74.425943354177718 -212.248301071337266
87.297041329523822 -73.533491832604312 -215.448162796060245
-149.094818972600194 -74.176689267628248 -222.971412244916337
85.490238838896602 -73.130067141859399 -218.011947724052504
-17.717378840382800 -75.976389502676071 -223.445024233047207
-4.762472619296595 -74.981003158814019 -219.382895474067112
-103.958465522934858 -74.886534424246605 -226.882214596650471
-93.178559657659321 -76.030328953431948 -227.302822547210752
2.218009838275677 -74.707746542206337 -221.839635722038878
-28.344122970919138 -75.296835178267727 -228.766585059187037
-102.762745261861596 -76.000239765726562 -226.123154173541195
82.560042107744806 -71.564066714213382 -221.725596567921258
14.459639289440627 -74.130394971571178 -227.471217896380153
-19.609236667031460 -77.756314908115883 -230.018552538413331
79.036586400553631 -72.632835694714771 -226.603478366937139
-0.374040984604839 -74.479043981293586 -229.105661713278153
81.444755578641065 -72.391024567634190 -223.815744242220632
-17.757937732787383 -72.819120643532003 -231.572167584713384
-12.244464497895400 -76.417022992606917 -229.027275367705158
-131.301504361954755 -70.802554025784318 -231.781690388100714
-127.633952479109126 -73.633387654618573 -232.440377926072017
14.724214943126928 -76.484092723899082 -227.633431818115213
-145.180144233026851 -76.156079049050120 -236.223920170094942
-6.898756635422068 -74.731172362137116 -229.934717264788276
-134.500130553776643 -72.769314123918207 -234.100858462251580
-123.265334052552390 -72.060511196179391 -238.196181212392304
2.671804325009823 -72.934034915066434 -236.800919395233848
66.799374210386617 -73.149196495489790 -234.717818110949793
-18.420995999728412 -76.204334152714083 -237.027221361708797
72.198538822866084 -72.920788371873968 -238.845152660530459
-159.942415701626032 -78.604418239685884 -243.844734783157065
63.398476812530774 -73.169385340784416 -237.288090427295401
4.246391520920625 -71.780892338117695 -242.632667671704183
61.530379162163229 -75.494661328133404 -239.364255646009525
-33.954867250041609 -73.861431275241586 -245.753079701116206
-22.941280537833698 -74.780624964949027 -245.325965167041545
-51.692825737882323 -73.437406648931159 -244.821077993117228
16.003508636596621 -74.174422998630632 -246.735274382742716
21.632614625345944 -74.432236075989763 -249.000164737294483
-163.060939555468565 -70.543209235292963 -258.947367722720912
-86.346210044690110 -75.030535878772682 -257.982589355217613
-92.598291970263915 -77.825766357817159 -255.308763119178167
-80.582434486958135 -74.627706657497555 -255.503054136802945
-91.811977548933896 -75.552320145629139 -255.516618060056572
-84.941996857448942 -75.724797445208523 -259.655891188907390
-136.350860208490218 -71.431254893364482 -265.138510318752537
-126.041811896849310 -76.819346098074590 -266.385051094655864
-163.591072538413613 -75.265514569165049 -267.823913900236050
-148.960949917014659 -75.856275861909268 -267.818511900267595
-138.198311721513221 -79.117788084747659 -264.143671958776849
-166.725008849154364 -71.976106008989447 -269.162538280613092
-152.326813336849881 -70.397490823870100 -270.820164210362577
-125.217104340553306 -73.373506931343243 -271.554006425950945
-148.789905897945260 -75.155099013420980 -274.149084872001652
-149.098145114718847 -72.911102464461749 -274.656747548185365
-161.432426666459094 -73.646597962825979 -271.851923038927225
-164.381602932000163 -74.455753412667733 -273.846017308545925
-154.352047884271371 -71.929083714292986 -277.197644705703226
-166.485654220271414 -78.021904175300975 -280.599472854639259
-148.606658666708228 -72.743305152815864 -286.159883528207956
-153.616246420555512 -71.677705634504207 -285.828910413347330
-154.171312483006488 -72.934698160612044 -288.501691096899208
-166.877989589069387 -71.508849002774539 -289.945721597419265
-125.605128606940781 -73.633914354179751 -289.737067682309430
-26.791732706649292 -71.651335753769601 -286.900519458978920
-45.134785494401989 -74.728314235999292 -287.291608148220803
-153.295581728006113 -74.478533317579760 -294.072588719093631
-9.641307323249876 -71.044242381303704 -289.161793864104425
-85.897224767407863 -73.081881428356510 -292.196551242272164
-93.227087026025288 -73.393708564477080 -289.912372741938100
-124.174357859561837 -73.435690471657622 -291.107612259920245
-108.172981357569540 -73.658140512396457 -293.376004606770152
-100.274166535201573 -73.177480530537139 -293.109552088515613
-153.270647589695187 -76.482314109271371 -297.855802741957291
19.997441357132573 -75.900115094272508 -293.898568852522942
-116.263728675365314 -79.863284283783543 -295.119856326783918
-110.689536930166582 -71.473079796338354 -294.053708901248967
-57.834891683603693 -73.898439017748146 -295.856654564339465
-102.307947923476945 -73.637002278572197 -294.027989705035566
-158.858638863430969 -76.373077100406860 -300.963631376299816
-14.001411491537375 -74.189703650705724 -294.506786200155716
-143.023366474559964 -72.481920172408266 -295.043279051410934
-134.200039022622434 -67.550772628071911 -295.671336469605876
-160.869433766298101 -73.840605302117510 -299.083747380885654
-153.126211250161077 -73.598761064118634 -300.741854035123765
-145.714846647609306 -73.385407999122592 -304.519261022285434
-154.536820975094287 -75.274697620604442 -302.339014307893137
-147.059822744511081 -73.679615137238159 -307.828444589164747
-142.246571451529775 -75.604191848409144 -308.262962574679307
-141.390931655084557 -73.809722374167606 -314.961744568765710
-147.578531044686002 -75.351866863004091 -319.154972537031313
-66.428534886953116 -77.545745296463338 -52.724551244201010
-55.686819701348547 -75.692169962476044 -57.643267064927095
-43.846711426594432 -70.905307770520139 -54.827400929572164
-38.189621103674305 -72.472150392232493 -62.214647844237099
83.329786438278489 -74.008158420320214 -66.843937540397349
71.235009336609266 -75.814044737148691 -71.183671582348055
70.083512410877319 -77.611501598369742 -77.218332408241068
-45.081548300043544 -76.076840168302553 -79.890541553562713
88.176894323811439 -74.566840329222146 -80.044746074211574
88.298956486998847 -75.113914625480760 -81.221153488414032
64.049718263197732 -73.352513762704220 -80.671881767113007
52.137694947757716 -71.398502759100793 -90.023590098523528
51.135970843418690 -72.725301894575537 -93.557323463865558
41.236719529613637 -73.091572024792868 -95.405253147326619
49.404022653963963 -73.342030888508489 -98.136249925159277
99.929563686337929 -76.701567967841825 -96.614302178734079
38.739444630008748 -74.142119602538500 -101.316437822993919
72.983851830755327 -73.460620440898225 -98.037548607523988
42.066785131994173 -77.619892055047600 -101.632986091633015
49.732898883889725 -74.455269663327726 -100.854659879008778
87.283850686481429 -72.050868573591544 -104.169007687967351
98.569601329974077 -77.906441413892367 -102.987514780071734
-102.510231549721766 -75.538263006966133 -110.314259361104334
32.837777858074695 -74.471470315895488 -107.862109030487019
-92.628516052053300 -73.674434212084364 -120.017799957814333
40.381205941439937 -70.988064279227800 -119.780664869161612
102.629807600234301 -74.003994442949988 -118.621886466908677
25.863685885636272 -74.469603006498645 -126.727678862591574
30.696307641659651 -74.261131302305060 -128.049376957371436
107.336007641414596 -71.654173500070030 -128.169634071959507
105.621713037771968 -77.698113408247039 -126.526062946671331
34.323651715321610 -75.731983885461545 -130.251321621296142
27.536476329853663 -72.248237283934586 -134.276980817295509
24.118212588217425 -73.535001304003941 -134.963914635523565
109.748139167254266 -72.852853400308376 -132.772734935061294
-82.438097738430571 -72.522984075610424 -140.574776104351031
-50.831974657273001 -74.684900854036655 -141.422794709668125
110.273394506424808 -77.890612405562024 -138.833577060026585
107.405149557003512 -69.224826751697179 -142.395873596299282
-50.141476036506965 -75.453804336179502 -147.848144018211229
-58.086141753722067 -76.605915009854641 -153.232411697415785
17.987704135124215 -75.375468647727303 -146.357576834995569
-77.281885678311482 -74.161227308904216 -149.951578745198873
32.780009939228286 -74.616441523445303 -146.280860746330291
-76.590561756091375 -73.630147924766860 -153.762280892559090
-76.817110160553909 -74.262434929584643 -156.488440345514107
-42.574072748876041 -73.246494800964939 -156.864781813881592
-42.271669191691807 -72.342248053060032 -152.906664734762188
9.035014146574881 -73.647770733936710 -154.718376074736483
105.074848212197438 -71.800253979828554 -151.180482890475020
113.330631441788938 -74.359142816798652 -150.658459986899373
19.660288294538987 -74.747351228396326 -157.363304441848044
11.237977792615027 -73.651754546638287 -158.897077808664307
23.051754708990504 -73.187156280886455 -153.520944504048657
-70.167507606033553 -73.298331541454047 -162.402294417933518
-35.712287468548759 -73.184482012467257 -165.785839463380000
9.422542217270298 -74.949828988988145 -164.032371666772065
17.489995181321461 -70.802030785167432 -161.204170747833018
26.753923886684255 -72.142333268363956 -162.549801466876772
-46.895054826760578 -77.016793908491650 -169.384370321988996
-7.202289232352392 -75.801778528669885 -165.337528809896838
109.955621992061083 -77.051495919166427 -164.480307445347563
-7.413121939397016 -74.446926778964311 -167.726386379344660
-67.027609617673477 -76.350846044210982 -170.096961268749055
107.843638633278800 -74.596587288201775 -168.877185729227477
-67.971889351719511 -70.312622515704234 -173.829987437803339
-33.095573252022128 -73.209584903078195 -175.749919908050487
-60.760278123457972 -72.141539229909952 -179.270579896346050
22.323665375161369 -75.260557082099893 -175.284685146680204
104.729708350240855 -71.966926578407680 -179.012659181214048
-29.541360530254785 -71.939170032533355 -181.901122455648164
-37.771109775754063 -75.278723629493342 -180.675902576305788
-37.936021253578666 -74.854099579142456 -181.666490300659348
-150.927790638637873 -75.257499029520915 -183.675481320565893
-56.444333550134793 -72.127297371125380 -185.510342084692837
106.638375050382791 -75.055093331740707 -178.103895388703222
-147.474349976015617 -73.780847417087827 -186.268994950851038
102.244855822085015 -73.910314048281521 -183.425144438746571
-25.495905097046069 -70.386568050241507 -183.090514048806426
105.347473307584465 -73.099864766734385 -184.814784045365855
-155.654744304214290 -72.536064868346728 -192.503990607522667
