# This PCD file was generated using the MATLAB® pcwrite function
# from Computer Vision Toolbox®.
# .PCD v.7 - Point Cloud Data file format
VERSION .7
FIELDS x y z
SIZE 8 8 8
TYPE F F F
COUNT 1 1 1
WIDTH 786
HEIGHT 1
VIEWPOINT 0 0 0 1 0 0 0
POINTS 786
DATA ascii
9.255613701397927 -77.237442874472251 -236.760992108032127
12.842501571923080 -80.353744570492282 -236.869990189680578
-119.084791677291577 -80.483051884999327 -230.646494968644419
79.749754752178887 -76.918893706449552 -244.424231526270603
-163.157846009009091 -74.302351559698323 -229.290915731915590
-9.811641572843207 -78.278214543360619 -240.949820619395581
-116.816648417810882 -71.402308000091850 -235.398962439487718
-8.782790403909637 -74.902514945405144 -241.477609585255692
-144.053685802826124 -77.931416762518282 -238.562223411787869
-121.105908643258942 -74.108980179792255 -232.272911208545793
-140.679218179006710 -78.900157789001156 -242.045001428088568
-126.510092265382070 -77.435651432471374 -241.053382390754763
-5.061023414172304 -69.530658837758153 -231.096692772197940
82.201708144993262 -75.165083567757677 -241.008042735667857
-139.809197123009540 -73.072940533675336 -245.269629115054073
-133.836332753208154 -71.655170622585615 -234.137038189032666
-162.315019805330849 -82.011742509237308 -239.807776150648266
-156.440395444111687 -70.760613371181350 -241.491861902944464
-153.070825326190885 -73.197478259509552 -241.747666238892748
65.704202207488336 -69.585578812406013 -247.089266408808129
2.408301916364707 -74.784355640026575 -239.023865572132024
76.376385992772626 -72.698216457247170 -242.748895055330223
9.380788133829711 -72.221982282740569 -246.301392080495447
-17.639860929513965 -72.776461378925291 -242.120787546022939
17.433144324251323 -65.236652629125302 -246.640343614806795
69.893244891352495 -74.502691258298583 -252.018620133309042
-5.818422635927163 -74.627540465510023 -243.879081118584139
-22.330573030626006 -71.889968956882186 -250.901354906996744
13.875944770283063 -72.000650060721327 -250.813502339766785
-14.184049746208764 -77.418781584205178 -251.154910350962126
-0.103198844596200 -76.322938295937661 -249.134268821687442
-8.021158213951807 -73.711502756062316 -258.402985570765225
47.058438432557082 -68.655618500579592 -264.211751990297785
-59.630314678316019 -74.193460841995446 -254.866155708655072
-9.794230049067856 -65.732570154287060 -258.775640679297567
48.519851180058765 -73.785078267823053 -255.737413124083730
14.796995090864577 -73.561865478509333 -256.211766404970376
-18.470019538802894 -75.752521906863137 -264.329605107454768
-12.256536264703989 -76.368552372918117 -261.064188839727308
22.336129494422202 -71.141310989457097 -258.489552393019835
-96.321250179004437 -75.684240994622314 -264.489265049813469
-124.240549427182458 -81.020484063928947 -265.129502948797096
-97.421596859223541 -72.593334275361627 -258.793805593079639
-81.570944349691530 -77.335601371593214 -257.232971960550572
-140.325208255259554 -81.625830752057723 -259.970835265015012
-79.047402695066125 -73.558065518750908 -260.626685210736753
-103.561071604081548 -81.346452146799891 -265.001662909006143
-100.086814793720890 -80.675236552781115 -264.550549825784003
-103.953450797789429 -76.322944885220622 -267.248609840645713
-120.202263300852621 -79.338602683450659 -276.569194466624026
-137.458616365453935 -75.386310528530529 -264.995766166020871
26.616301071129804 -82.721213414822770 -268.748842447750690
-160.265953577521685 -77.352720293867449 -264.182570116099214
-7.669691230348619 -77.531047526022050 -276.168437425231843
-140.299033055900509 -68.814195825816142 -276.069973263110796
-143.169830830406028 -75.609643675675045 -291.978307215840402
3.074426571474028 -77.922989622260445 -298.956211809220861
-133.500009038447757 -79.267461297157681 -293.888207590088143
-140.873885720959947 -78.464609914184919 -286.349380887602365
15.006584526597067 -68.489037576645330 -292.520005320606288
-49.186174951751035 -78.188145330737285 -295.262250417716814
-123.853048077683241 -74.941339431849258 -289.515531037959875
-98.282578905651434 -77.044789829103422 -299.641461018191649
-44.102973006714130 -75.058769868421649 -294.915597754219277
-36.088082651870842 -78.499070288963352 -295.315192295276688
-159.667560292230718 -78.272919289159319 -293.168954167333538
-111.927116128203181 -77.424248690945362 -300.239371052845456
-21.212581724800508 -71.830233502267831 -295.579472956338520
3.036743462879869 -68.691102182575023 -299.273644342911723
-54.809734023943030 -71.599259034415510 -297.509758998043992
-46.505001636232500 -73.627889219340688 -299.166355454152665
-32.797062874371484 -73.111675519866054 -295.784097188660894
-14.739415888241318 -75.393099545335488 -298.939271439693186
-7.760011819024719 -74.957762707571675 -301.956144962689280
-167.730216306077580 -78.754074681279661 -296.987664940726120
-87.621090482265231 -77.242880174648406 -292.471863294746697
6.172002187755979 -72.909203266921708 -298.134947203852391
21.146630439754844 -71.446695281649639 -297.090789080468426
-134.545290926993914 -76.057063909435939 -294.518680596723129
-143.073887388688945 -73.820249590167407 -298.838559015853718
-157.704093692445213 -76.840074602159774 -297.722119000889734
-150.188069824691496 -82.390939705689988 -302.914615201672689
-155.845296409541589 -78.687338844158617 -314.144638144264661
-153.633177067433195 -80.118638793312158 -320.059638163650334
43.049747598221096 -63.841461045507025 -20.292574957272400
41.009930226166787 -65.053364685868374 -24.051342602334248
33.615044771372489 -74.931026001115598 -22.652459246126952
47.635243784183395 -71.364110589751547 -23.862269723470366
40.698485092654607 -72.075674061940290 -27.812915274135207
49.449610811151629 -67.679172155758991 -36.024956975294309
48.214162811134415 -66.572893746665244 -24.875268290530933
53.358502355237931 -65.214010878491337 -29.448397063876840
56.346437634566044 -63.782502825841085 -41.362705610345600
46.588981623789813 -68.130487566690618 -37.961590421466767
52.314890347758791 -67.130091839109994 -48.284874734203200
40.956441511809629 -74.497762402222506 -50.718883001887086
-67.504950569147098 -73.033407255820265 -63.770649726254604
-67.195456255961773 -71.331661034608203 -61.264050550791609
-31.580802594624878 -67.779888655651277 -62.191160045585619
96.611477734125074 -65.347069157990276 -80.688748929358937
94.608872522667667 -69.861741494044850 -82.567382424490987
-32.020844332899394 -77.428199103290453 -86.895646365930801
-16.567308419901913 -72.143271268810722 -90.912578284586829
-31.152989350568284 -70.554143494333587 -89.103986292423031
-49.989986315106499 -74.064452394403133 -97.627148499559979
65.938637019439909 -67.281723542261858 -105.996393281494719
70.604343992058176 -70.023385957070730 -95.890124285507824
-54.019655772747306 -74.910131345387143 -100.859745555484878
58.003983690616337 -67.115610325824278 -101.596730262127977
-56.069118951444629 -73.023483798184699 -99.058971200890795
53.262216972955507 -60.980234909717275 -110.607138776542328
111.631806957686848 -62.384066820705435 -109.164129151648353
46.542601475285970 -72.615290948996545 -107.166646227416123
109.863545459055473 -65.943719633188067 -104.937540842871414
96.679226925581403 -67.188811685999738 -117.988053652539890
49.641350151125359 -73.169906172089895 -115.315375873343982
108.988328908517687 -67.815115156004453 -118.490235655402444
53.866708478316312 -70.170774650457162 -114.758244311492547
108.503475547545662 -68.695895429508084 -118.990346399713204
106.572850276287710 -69.360754457896164 -122.694554523879489
50.716658092904105 -67.284387351332597 -122.062237975188964
-91.485852454152194 -72.377632608735297 -125.380343123158454
50.794862438796628 -71.069725510524805 -126.647220786525864
116.457976352539532 -70.511916430022524 -134.624149056398636
35.764646520420769 -66.702395029521170 -136.686597540274903
119.944345647257194 -67.475584123314391 -135.328275006539656
120.619410226808753 -70.207449546909615 -134.232312298725475
-53.837512246087478 -61.278424118690502 -135.204942349328519
113.513839184677252 -60.190134666491581 -143.688298556985302
114.133756215997366 -65.374328475971183 -142.448967078206749
52.450272375379178 -70.434583976068154 -140.225686390489159
-55.274805863626547 -78.975598377547385 -141.182593969126032
30.827341942929774 -64.633478201291538 -142.588608811344045
37.709555190358145 -69.904599890290129 -147.225578550430271
-65.935105610959738 -71.718492399007729 -144.854265610108797
110.160115415495142 -73.367424609131263 -149.729591932595383
-43.288508403599145 -69.478663676325993 -141.031712052862190
-77.394554741919194 -70.747198356662508 -142.104352350420157
-46.158142808286790 -72.326175903249478 -147.445818493589655
34.812749306081088 -67.923516723138576 -152.668985497964940
-43.178467847463487 -73.185895015111981 -147.021515557813473
117.399600036214466 -68.660257432844190 -154.324188372400215
-42.844149528798845 -72.449123494219265 -150.404723700794790
-70.640479623645263 -66.415496441444631 -147.737952020621975
-66.397145240723262 -71.550730771224394 -151.165602756857766
-33.190193862433325 -69.078141366150774 -154.519710733154994
116.586047210976176 -64.131092388065156 -156.381191112798717
-66.058955859382053 -76.829885207511794 -150.980424593179947
-68.971091041961387 -69.162717241924526 -151.727170077689038
-71.462206923965283 -71.712916163679267 -156.929763551015299
-71.788032247408950 -70.418083485716437 -150.523872227598218
-50.972705920101880 -75.019933154400277 -160.814257994650404
18.188247723250406 -67.566594961455522 -160.411320107033617
21.399399229030742 -66.457786434299976 -157.437608156836177
31.475110819325870 -69.990134726118910 -158.625940638670897
28.605680068195518 -66.964199760195257 -163.768849319320452
9.554459215843330 -74.997381515387403 -166.709711327860418
17.072111127311778 -69.433390172207410 -164.095836175012977
30.268251537111002 -69.039130000060638 -164.096976524401782
6.331444622460047 -79.942505766702936 -173.436767564158146
-62.183806904016770 -64.783895134354751 -171.453016336745918
-33.494952815178841 -68.332750327797598 -164.953866874841424
10.879733978035432 -72.047017241647083 -172.924299146257709
3.960276469481059 -70.368275820496038 -168.513856632867657
119.722103906107549 -71.597734322138976 -174.256716926590173
33.489528464526686 -68.415439213697738 -173.234034069288725
-22.661687424155964 -75.337922069903470 -178.711098746518331
25.309467163563166 -73.547333671971160 -177.088892896445287
110.983837046177356 -71.031034291160935 -189.523741225096273
-34.781922643336607 -79.889006050663426 -182.434004907773527
119.797012139231697 -68.700242942821021 -184.635206570278058
-35.767086956669282 -76.095842735620508 -181.953723052638765
-148.343351191521066 -78.859430009936403 -181.584689862524300
-27.157639099546891 -71.124551559910273 -192.105299524212853
28.058271346660465 -68.254457356634759 -189.699305946693215
-136.856848080332355 -71.025035985717764 -189.478544464530756
-31.353531406286756 -75.119259527639016 -196.565113178203944
-26.659273716771118 -67.733556130420794 -194.308340470420603
-23.676847434485417 -73.492932662601689 -188.428699215167967
-24.672235771411501 -71.077425653720198 -195.669248061157845
110.603001304997889 -74.642761003836782 -196.087388170033222
-140.824311283697995 -66.487110177459485 -182.704027001355001
22.011183717677611 -63.125028379481485 -200.123191709745640
-16.913286763018711 -75.389092018201481 -203.143314096219939
-27.355660819122129 -69.161558625609089 -198.529512800350858
16.329874690840462 -80.981827070960890 -209.284032782750472
-152.769322249143300 -74.923948018435070 -198.954543762624581
-113.504831029408678 -70.451991521125393 -198.338963480825669
-133.782402406843374 -74.363000987189977 -206.483024103986452
95.968146441526969 -70.695824255567672 -211.419711752611477
-150.970647713585151 -78.851053008639354 -200.189318632732096
-149.578327681999383 -77.509848408044192 -203.286906719741040
-120.507248393936294 -76.150651986669146 -200.173394839602139
112.017259355363151 -69.479835703561250 -208.611518709493765
24.578914454092349 -61.701842393138982 -213.672721060774620
-144.709446236926880 -79.770678060672850 -209.000887717451377
-145.282130808107894 -81.723738643215327 -204.932603502827874
15.332296575352444 -69.403280602490710 -208.804386749262761
-118.841458514659990 -75.403460336814916 -208.357034415052169
-149.547366327587611 -69.610487221043456 -201.478171703407583
-142.765511890240987 -72.966935797904597 -200.810623688877314
-111.110059032375091 -77.984658644689659 -208.148745343848447
-9.379333254120986 -77.772637877056383 -213.756169430484704
-141.691977866355131 -72.802092304043342 -211.399566167267182
-154.898757462694050 -72.287904074093206 -208.534196372005084
-148.602218360793245 -77.846733696228924 -204.082894696703306
104.576581519598534 -68.550189564910127 -215.054546017552440
-16.524702197243933 -69.734689212548247 -210.994226965576559
95.026333089350317 -73.881092593318641 -222.267695415575361
5.875646325056259 -73.876846983300425 -219.551107863074520
-149.369401399997145 -73.134260551560217 -217.849569727335734
100.526601178728299 -69.006189589361540 -219.774303081645968
-6.300779581642530 -76.030601863326240 -220.193797083436834
18.001761185267391 -70.074060645482163 -219.275018694127709
80.067355581865939 -67.723034978206272 -227.938363002847865
-99.532411636746787 -71.962062854846494 -217.517597952145451
9.603862679177162 -76.784771518002415 -225.752884100337383
6.947415422107213 -74.212409627958507 -229.369779222905834
88.366475758608857 -71.109080984262945 -224.996539034889736
-19.183689628460705 -69.875593620151776 -232.051197109578567
1.725848771664317 -70.444410874015659 -226.156818512225044
-93.630422869792255 -75.197455549712970 -233.186093892915892
-23.251822067272009 -72.774030922105922 -228.814145183193688
-145.184327369747933 -74.727878098696848 -228.962006608519175
-10.357415902019532 -71.457005125995067 -236.743544641448551
-17.384478595690602 -71.106870912217715 -240.134194768728605
-108.026302950832076 -80.279359682251737 -231.395794657834983
-108.272136474712028 -79.783841677624707 -228.078553011438828
80.722046920828831 -68.920656375121553 -235.265956990828812
-107.550970081803911 -74.558333515454407 -230.767676713585729
77.727645210373879 -65.494238023954125 -236.335797200897019
-14.827499099495547 -72.390059271474271 -235.524867501016189
12.519531606369611 -76.132053853043601 -237.294508834290497
68.897006832458672 -71.295734383808991 -244.712735217051971
12.592648812056566 -74.376813806621129 -239.084574877939048
-17.959565278685794 -76.904977655739970 -247.821015970463293
-110.712059774438984 -82.471384971328050 -237.347582818491418
-115.362416528496908 -73.642280632808408 -236.908522955566497
-141.100256290189805 -74.619157814780550 -231.068722035818553
9.231703177811575 -72.315011173699702 -247.317454622109892
-125.833345985129853 -78.949815534446870 -238.673772534100294
-133.333724548269316 -75.602252877422174 -244.698008020238348
-141.567736675421457 -79.578926488780354 -245.396674926385458
80.386226129154025 -71.760706314883109 -240.419504277746825
-167.999054150177528 -73.268217135210193 -242.048659296779874
4.290441927017937 -76.673280439013197 -246.287366600568049
69.488265358306492 -70.761319508812079 -252.503177253934012
19.623550244380596 -70.203612315875247 -249.187824471024896
69.732317795229633 -64.151052900057564 -251.195053184082042
-9.582971469718579 -79.845922418698834 -245.217098280314389
-14.252665363332376 -68.663871387591612 -248.363039863323110
7.346722276918513 -68.091933843260733 -252.859049784156781
-11.637920817571434 -75.834835625852392 -250.182679180812158
17.504843234985429 -66.672053600727637 -255.224606082928659
14.851813376290060 -72.975132095686121 -254.824363751717584
-62.369363036043232 -77.395037774368717 -257.456577837025861
-64.650213772000342 -76.570525916303836 -252.757587385539296
46.047105762699225 -72.251128747518834 -259.663465993424325
-90.744546698784546 -66.999645274701351 -254.946822294387829
53.149008677256965 -77.213378241262760 -259.753592157861647
-66.531776527011431 -77.613299859449398 -262.537772752239960
-165.232728379562047 -79.757389167241115 -257.783665739456467
-90.140034710911181 -70.596645162803185 -248.831662574002451
-71.222029514114411 -75.874777476422096 -261.575487226148482
44.673775174824030 -74.630895335250315 -259.935110095979212
-138.715702105050610 -78.039286570511123 -266.210689921179267
-107.766862279893161 -83.123236356499021 -265.682025595404696
-95.589900503016679 -74.689118967362717 -266.203408315485262
-121.268307433380755 -79.834719432526555 -274.741135833010617
-133.957166160465874 -77.067010138478878 -273.108607109207526
-165.211040649039745 -77.359649391309389 -279.595435972186124
-11.766291606574661 -82.102476061321980 -292.259110864213937
-163.393240402431132 -76.208994600821072 -288.001786234123813
-85.346104449189255 -76.768829157749849 -293.723183213934476
-77.851978614045237 -74.470248283710276 -292.389349445563539
-66.174829015628205 -74.196005457608720 -295.664668218140264
-165.243217343111866 -80.164275939069213 -286.576311878200386
-0.320609089859609 -70.551147084880867 -291.896609615282102
-26.553465440047781 -78.686511583635095 -299.635503108211140
-38.346057540190081 -76.070780472067554 -299.878825901881441
-14.468301702422742 -70.648384232398882 -301.821441913764829
-38.315914963116604 -73.852327208652497 -292.483084619308954
-20.631232330495841 -77.565958760628078 -296.953854266920303
-1.847677789977247 -75.589619582112675 -301.694992730434819
-73.742563796967602 -70.124106349470651 -299.614629176875894
5.978937858333182 -73.516829676613725 -298.311803909556488
-93.869329659530734 -80.443034248278451 -297.357826303563854
-88.134411498904882 -73.576866523012669 -303.865166685831070
-131.600376433823158 -81.256164485309156 -300.740104174756880
-123.397024903789486 -76.116784106681536 -298.281875999761780
-143.189435927068416 -78.901234589333271 -304.785094405812913
-141.382514255089376 -78.901747887587604 -319.021322305307649
-147.527969744823395 -77.491614454796519 -322.430233426898553
32.534327272814338 -68.196533302665173 -25.937165053716825
44.031062198971377 -61.679982724971801 -27.062358717203018
43.149745429974544 -75.763553614900559 -27.671311103483507
28.408425676584585 -69.413698767612189 -29.244282620160529
26.121359230694122 -71.323411412849353 -34.666447875393025
24.410629041462020 -74.271732027532835 -45.733847884079680
26.822676764950582 -71.218681188175978 -39.162520822458816
30.327860994512140 -70.778397678741243 -37.978670841790866
36.435969989447187 -69.528961222253059 -41.780203733700262
35.343198107934327 -66.394157956596743 -43.496398809378974
27.461851079991437 -72.667585468018544 -45.643042265884830
30.512422914340764 -68.843037876924086 -40.727998294881850
31.314407788310135 -70.683784065284257 -51.256172754182060
38.078349961373050 -65.981705253939353 -52.561572728484236
37.199806714342699 -62.171983044403156 -52.488434217513557
-52.595168158797485 -74.432686898158636 -53.177746811975837
-28.197128901093514 -70.076748516482652 -57.838972774663247
-13.817289474996478 -65.545167815827796 -70.536489769156745
-7.556434322394075 -74.866640549193150 -74.664180571409929
84.987033714798798 -59.959011588284120 -70.072241821924763
-84.574533565436269 -69.743353137512145 -74.239514315532588
88.653641675963783 -65.284723251554908 -71.333056258933723
75.925462496161941 -68.674783970263135 -75.130296871246784
72.940587918782128 -66.429070859966814 -82.972483265296162
-18.070656601733241 -68.484793803751685 -80.526596166001326
107.302779423452876 -69.085718108621862 -86.815274947271931
111.174458988148103 -66.919214720472553 -88.158468396698240
-85.448782989494987 -64.586565416341216 -88.735147964088767
-49.443517884304121 -66.241416930402053 -92.567337207038548
69.295712767906878 -63.766423627053392 -98.845371326504051
106.637741022997304 -68.915491659833776 -104.287240103784995
108.613108887399406 -71.372953114881923 -107.922150134296615
105.108061562987373 -64.244342871302322 -109.656332253883889
48.200230515688418 -69.551420742368805 -107.645113075320410
62.763183626351982 -69.930071514109187 -114.212821906004820
51.286863219865154 -68.165334386885206 -119.476892922537488
85.828526462316077 -65.349003038584442 -102.906699579119064
59.542449153520202 -69.239897027155877 -115.349994395879179
111.837145643882565 -67.958032118856607 -109.544377882078550
111.709756942918844 -71.772603387696364 -118.506424732644589
39.993406646094833 -65.872634199194579 -120.864220998093373
42.782821037368102 -62.104756960935013 -119.341188302641356
-78.574247019483892 -71.773786523386391 -120.237711582373038
-75.037371045837773 -75.584541615851663 -121.909404257701425
102.537379274257660 -68.815446791002799 -132.151374819722434
36.515581607596204 -68.434364045531638 -126.005850130755888
112.928323699233516 -65.058380203876084 -134.609297725078704
-92.321919683616215 -77.765696943244748 -123.653818008566844
115.575847400632540 -68.249000384898338 -125.888522892852350
40.253920779935072 -76.787987517694603 -126.187744649688000
44.279505154991455 -70.270489502002604 -126.741620591008513
110.353618268151109 -63.248620331175069 -136.610129519388437
-80.666960328806795 -76.161967289115481 -132.695819935576566
34.982500555475937 -70.243478293852334 -139.280008419141495
-80.326166105380281 -72.982245323139011 -133.560946421214993
38.691049337101788 -70.238852098084820 -136.813556654597846
44.257083509304138 -69.739697444067772 -146.564757116403513
111.901453782891110 -64.820586507338049 -147.891848168092224
-59.471266654307989 -77.320650037208921 -143.214168848241087
-47.981233382101586 -75.357751325822804 -148.958875580774787
126.940843872666704 -65.010253706029204 -146.389358995069642
40.015093039493060 -72.769313085888427 -147.014334698540239
-50.365693031364920 -74.259823963089971 -156.490228509147897
111.932917696653547 -70.355909643289110 -148.107472621222030
32.891701364311402 -70.391226048311026 -163.141306307232384
24.438176806267993 -63.633173816045208 -164.350175993257494
126.570715209860111 -73.083899438576395 -159.522011806752857
-39.224302099933304 -79.042140998314764 -154.476450474462212
22.799280928990122 -63.458648703710189 -157.955174511816239
34.566847976158897 -67.472490092534102 -158.426148494522380
36.019425655899674 -72.702134890769187 -159.715855481295193
113.429093097451442 -66.297949279051139 -165.479594612246217
21.358299908852437 -81.686285327776673 -159.602106941335933
-44.267068609532707 -68.354894520775787 -157.127021656642285
-65.458178718502921 -64.747225094566659 -159.002349587052237
-38.008749410152454 -67.667997375586097 -158.176034735544960
-70.924961461969360 -67.078831563018639 -168.144229877618073
-35.433896114863394 -65.054889123943809 -164.667335361974125
12.331350865197905 -73.100914695894915 -164.734238112560320
107.445306536499729 -74.165287548012401 -173.527545916030363
118.940536348034215 -67.457309786861160 -174.995949751321632
-37.442677741208804 -64.913728021489518 -169.770992110813211
35.957274193965006 -69.316285303253096 -178.792160656265935
23.104233510911140 -72.336449588312760 -172.515943317710764
-34.397957836143100 -71.393032889814336 -164.609806577942294
112.535618552514393 -67.497838419310838 -186.753038642899639
-23.462900110521694 -74.575164784175655 -176.674815209526372
113.744948027289610 -69.323265816482007 -185.495403680827678
29.102720566231397 -67.502985663036185 -184.420795645166464
29.796409897529781 -72.388482362042510 -175.914554077280457
-33.960943851215525 -73.512015055044444 -192.418274444804950
117.212324316049859 -72.662198349507335 -187.440366228719739
17.920053517432251 -66.455664781298012 -183.929057964167214
-30.039103074400579 -69.358843812585505 -195.603617120275771
113.776093145405113 -75.651622934022569 -191.893792791456946
110.753237921234501 -64.604496980755599 -196.204265070291029
-29.288289681107152 -76.338560464569071 -188.384484946797897
-22.249140158744545 -67.944058174931612 -187.359804933756294
-149.022201565173305 -73.230502006316399 -189.723962315782018
-19.375602673228720 -67.045915633196515 -198.156967548702681
-17.516702184186180 -75.869477938425035 -200.924562391641587
-148.616062593549771 -74.445739525813096 -196.336272389807704
107.504058707919953 -70.082936537020856 -196.479816428036912
-31.814458905930501 -72.668187397651479 -198.408293838755043
-151.631676698208821 -78.341813246208034 -193.129908518353659
-152.232354297289930 -74.548401681918335 -199.774974470649653
-140.705285227078548 -70.806491670848388 -202.205515471887423
-147.859753266217893 -74.349190688406878 -202.050261310471001
100.178217398014553 -66.020908667328641 -208.769106884173880
-11.508159411870245 -72.351767417860586 -203.474912001292580
-114.944847493083671 -74.771601046105360 -203.735317784962263
-4.752369660727133 -71.642032048167152 -204.964043555359439
-24.994004986749680 -72.560923214340733 -209.136934684534907
99.738299253386245 -66.608722737013181 -208.014866077272728
11.360000012019583 -71.566606946294556 -210.114152653407984
-119.035259421970579 -74.078735515013790 -208.380264218902994
-160.348219063834279 -74.438034970053465 -210.888144661260213
-142.058555497742333 -74.070931588495952 -207.536886065229709
-146.041650983430117 -74.855954168693671 -204.566635627922437
-11.695808229190909 -67.868444845603889 -218.060718195714742
102.081149445825645 -69.114212734545106 -219.168967942470886
20.695109024550945 -64.926846064292207 -226.025235766844304
20.135146209986267 -70.215609213046335 -225.047985349298870
9.934034108930490 -71.292292383483627 -225.150502714699428
-93.467955516208860 -68.666751674991261 -225.526975138092240
-96.604714533461674 -75.155407249613930 -226.943651944442848
-88.947469416367767 -80.304527773427168 -221.247723462040142
3.016764352997555 -63.849845190724643 -226.166008997623379
-161.621208265364317 -68.132064622081870 -218.718630155006366
-14.498728589904282 -64.647547403057644 -229.380030306353063
12.372821222434105 -70.183134760987329 -229.836007939545681
82.021120827396288 -74.948180403009658 -223.874823718879099
-10.032234891785770 -75.639605167001889 -232.155628009609558
8.675390107226725 -78.130571337283428 -232.162599380250469
75.303202307464460 -77.987303140614443 -234.138834684599232
-121.326336300704241 -71.248045171352061 -223.031668039402689
-115.592841826313304 -77.827081496963643 -228.437303501735613
-131.021840267226594 -70.826312374186273 -228.430517911586236
11.826301342039812 -73.874061518477262 -234.811434691416935
-109.107622983426637 -72.223117745762352 -230.364329921935109
-165.462436268649526 -71.807405152786444 -236.091234706635220
87.210068526642345 -69.159348346085409 -236.368975133571496
-3.275142253255943 -68.804296347230022 -246.855082193615516
9.148463473883439 -70.034226102751376 -234.515348644406913
69.135304118424159 -75.719508474978895 -242.223011468506968
12.171355753856417 -67.826749849341496 -245.868946084231311
-140.811882404999892 -73.194127012303412 -237.781486911806468
-9.788072489569934 -73.322419268767135 -252.373816121865246
-2.455192091722118 -72.796976534894100 -252.473257404082545
-0.265914002585944 -68.157016924595609 -250.923433538733576
-2.187696003622847 -73.551403065082852 -248.629843011199540
17.109497624611350 -75.786707562693550 -250.661532181469966
13.419216434096427 -67.005712655767255 -241.589725844315609
53.098428631835034 -75.391048822394950 -249.910413720835123
19.280657377142951 -67.879122661011550 -253.796413277383579
-9.256793682817609 -71.518710847797522 -248.050654243366836
55.224095065873847 -67.801454416982338 -256.815564871569961
62.322408616772719 -65.256513594083145 -255.970987267064487
54.762740890487912 -63.001685296294831 -256.523577960149282
63.305493317584684 -72.780009028278101 -258.504779341106882
-72.326244921639585 -73.085743901465349 -258.432748394541875
-137.597960213751662 -74.276659027143722 -256.183651258515226
44.520951230431209 -73.883158319803698 -265.443308970731664
-128.842220516940898 -76.712151534807830 -257.838495716840953
-17.075280897641854 -75.713731455485259 -263.861884153573442
40.200310830517338 -71.710041339063125 -260.893334702395293
35.101108727829768 -73.797818045405975 -266.139642022225701
-151.176373374617157 -67.531235570622215 -270.875486050433608
-16.736959925212084 -78.527383118719257 -270.816348738885381
-117.674065682914204 -75.655364932223648 -270.444723658499015
-136.627897309801000 -77.284131112922665 -270.204331012807529
-113.631791415320492 -75.494102964238891 -272.101013628688918
-155.525649421940699 -77.517822888554051 -271.014091149932426
-124.000161916641474 -71.126356904452408 -276.282339040419629
-154.952352918067248 -71.971809087678650 -263.219582727254249
-147.923141703447158 -74.838792170602161 -269.520025247125375
-159.996015648512611 -75.885080668101736 -271.290567091612900
30.557723802956826 -63.665585406451903 -279.190858492736425
-11.032593594569612 -75.897702833014819 -277.978289685846732
15.337297113899439 -71.982796990250861 -282.503355801188377
-164.742029393210117 -77.208637345527293 -283.895603786386118
-161.842918564818206 -77.977157871405637 -283.758622562508776
-153.829442248794493 -77.098351737168770 -286.431958347887416
-168.130154578380143 -79.221771058292873 -294.278926054201918
-129.535707882774062 -75.053302659760121 -289.030382633931197
-144.750103230479056 -77.043025336962515 -296.745146339033397
-132.987568182985996 -78.293282412858701 -289.612784268717235
-124.577246440588027 -71.525828009198662 -290.795106029481417
-152.738381125886463 -73.018024397764577 -290.675044601015713
-106.720116159893820 -67.915379889229868 -295.053055616219979
-71.913506869557125 -73.124188026353551 -299.383973376961762
-63.783912738398421 -74.978313899148731 -294.473690067399957
-58.151434324302663 -80.796657424775816 -295.960876329212738
-46.595318611059149 -77.656463457553755 -294.930270206540399
-51.551638167862571 -73.610956688757014 -293.489462371530294
8.134245043892584 -76.608417692952372 -295.767369488450697
-67.692218437558239 -66.167402260898797 -294.126015330140319
-67.957647245727344 -75.673295930040467 -297.292196652007362
-5.551665232709347 -66.633620370203403 -295.688878408046833
-166.252417061350513 -80.164260274156106 -291.386087402961721
-95.237528361696747 -68.141644718777300 -302.374261311044961
-113.387800692056345 -71.301082101185827 -293.728982145366388
-130.170337484901466 -77.575995721920279 -298.118877713284462
-115.989316628162129 -74.459009264679480 -296.815655030442144
-153.844139724283934 -78.852626799377376 -298.804796026437941
-153.578405363852937 -79.203262081024391 -299.730156206641652
-151.469545608032746 -81.614472781013930 -322.184024950915898
37.808774941733105 -62.800418462103586 -20.935736505399575
49.194197181928892 -61.483419664177909 -28.635947442689449
22.931476496151134 -69.323665171658590 -28.954252295218616
55.977658788102531 -69.512852053662073 -23.750108218560470
42.908648768587838 -60.585666903174108 -33.639382078832213
34.985336859423825 -66.698039734727502 -33.431798930662154
60.620861840601400 -68.324762677177546 -46.996259052945554
46.287113598505073 -64.247648701192929 -33.737913207595469
56.007106027496981 -68.152655557171059 -40.117657560524052
53.174617644684226 -62.191555332563091 -42.044137044450693
50.477492176995902 -66.275191842684492 -43.144793182351535
53.065056012176775 -67.208652480656397 -43.116430753800969
36.544567771963699 -68.575156263436824 -45.608567955307123
33.919051785248520 -70.725632768488708 -41.109726848824096
38.610634809621075 -63.265932509823081 -54.890118952640876
47.960491088416887 -59.789602686318140 -45.195888158300505
40.394286369366142 -67.086660572333884 -48.871001071656607
42.073844770404115 -67.053651069795038 -46.280098158173963
34.068077156065044 -72.426314597226678 -53.583684486340331
47.441771138274490 -75.582116214423522 -49.747808690209027
-55.793336892002465 -71.890460569607527 -61.028450344718436
-46.483971749250294 -69.114569691045446 -59.728118553707048
-17.068403256335309 -61.779279913343295 -69.094255034671377
-78.867628292154194 -68.287355097018619 -67.983153734220963
83.271265005438352 -72.522342347020455 -78.741101924817400
-14.930816700420188 -69.722668638977410 -78.862159428463997
73.769885617928537 -65.811058794752142 -91.107891658839833
67.176211508800847 -69.263099866468394 -102.194522763995806
64.487934136419724 -62.203564038920796 -94.725521220568851
66.554851930287043 -67.721679868483221 -99.716105803514992
60.472106382542954 -64.745833402555334 -105.962830136353105
-55.925414693532495 -63.424608938711010 -101.058425990940108
111.936002804776891 -65.139117679759195 -112.627780568821066
-91.807566330606932 -69.013746220798097 -107.580518870999612
114.023137792557549 -68.206725145357865 -109.028132924256042
98.873801223079155 -69.701650905500870 -104.254105953033971
-76.118230447910719 -73.449312464896380 -108.791626378327251
57.083665040141959 -65.848850424594374 -115.339801613109145
78.939292599650983 -68.173251785657953 -118.543534828519171
-73.654590733709796 -74.873224639242878 -118.725284838762079
43.480739519197421 -67.044313836686044 -113.029675454675015
104.481385739816304 -67.550421439373054 -121.366532454057023
58.115288173093347 -64.739550276942069 -111.517125149965167
95.977143034649885 -64.115080425487577 -118.792290219166418
-86.529368881467633 -66.806571309718450 -112.757412136022978
54.887336394545862 -63.431821039152148 -128.461391815400361
44.924598188075663 -69.672173356225088 -117.256872440232101
52.170427768933237 -71.873184443280465 -115.406387683592129
-61.753888225850027 -73.221416769509943 -119.937550685488048
-92.368414787022004 -66.976184201269575 -123.843061487384304
116.383078784802848 -64.675132283276497 -119.866559709798381
-86.891265506644459 -73.445984393275737 -121.533402635977893
114.705801128853935 -62.393449842728593 -128.422181754237812
55.752220407851247 -61.888572496965317 -126.136959821222362
41.942438576025836 -72.202434110365928 -130.162352173987472
45.375748624779163 -64.703984242433023 -126.584030534929980
117.670578448208545 -61.022440697526143 -137.372085867368952
-78.318327461541003 -71.989932246968451 -131.867421756591000
-49.795202544752620 -67.797439953157379 -135.861422331683798
-54.247012289786149 -75.606321221954275 -136.436139124555382
112.216624901231597 -68.098617972309739 -136.795838692129252
-46.178362983175084 -75.427610162089564 -137.300464696716119
30.274846846089108 -74.021665625598544 -144.545065094818455
-77.149741422378128 -61.723264806853557 -138.627867411181910
-86.749476136012618 -72.268094908310459 -134.079421918982661
122.132552509426318 -65.398557811273292 -146.475275919082975
-75.155742083304176 -69.056408968149526 -138.237323683254232
44.245896820865411 -69.673253030474655 -150.446435841915957
-72.581128749790594 -65.435586430448623 -134.599642128701106
121.744983048533754 -59.591875205630132 -146.206409910118168
-82.287001183325913 -73.225789176760898 -141.227087086672014
-64.330241628145046 -71.226173133756930 -140.506540668340278
38.185419352854240 -66.167690058953568 -151.197077469956071
-70.226454415267341 -76.338121745653112 -152.956798770924649
115.281800640982397 -71.709790059853631 -155.433764035960877
-61.483970894703937 -73.810810566419718 -153.895396531316948
29.680225080878277 -67.152674893709545 -153.068564099502851
121.181786237335700 -65.266992498560384 -162.196893944097098
-34.471239941860127 -73.975388728347454 -161.106022716010528
128.262088038615843 -72.023158823445002 -167.629229176011421
-42.903934387433118 -70.034383463300770 -155.550388827379351
-44.684561653656026 -69.766685245972042 -156.280356429692091
13.341250240018105 -62.140725178662002 -151.914286064583024
-64.531120083140081 -71.543336507259710 -153.537858105923505
-50.955712821090337 -73.490806143094517 -161.037856416768619
18.766257910039364 -72.416876452156458 -161.824368911803958
-37.354876116340556 -65.161967087430909 -163.333606398061931
9.249913085294729 -75.264978319947332 -166.884694533711183
-42.099424833202541 -69.427333043458859 -166.871521514902753
17.267599484265951 -70.176032876508998 -169.996466436554527
17.770644329093621 -72.940248998437170 -167.102895803856768
19.298872799585510 -72.603529018794177 -179.416745273796352
23.733572007609357 -61.614715756544236 -168.409974572169347
121.201597805755995 -70.366569674222134 -179.557371096167685
28.466857008884364 -70.747036456364881 -171.546718820311668
-38.164896758065787 -70.817680056372524 -169.179862893925190
24.182642020614360 -61.972371371659371 -175.134477918708484
115.465581037518319 -71.107082693705451 -174.684422449195381
-41.061280902323936 -71.679441502571834 -176.678878951850322
26.626410544323882 -63.681533622130139 -177.224849864637804
116.665914024188055 -68.408079035745246 -177.488179073107858
-149.236800600601384 -71.278154624894171 -182.002472379421931
-136.651337755280707 -73.287177740349705 -183.313695101285333
28.147417978012296 -68.679569477488002 -189.768142987841770
25.291468004831611 -73.803781153147227 -188.350084032675369
-105.834742362334310 -80.620646167596234 -191.072351471577406
27.292219154167615 -67.552734677501419 -186.071733137544726
-16.146816867393788 -65.568713154209490 -190.067061916549051
-109.848284696583079 -70.890862294364780 -193.531937117308814
-103.096693533424684 -72.331677123447037 -198.874520336798810
-31.001166559986437 -70.412831775230430 -192.631224522112660
-143.358136002473401 -78.290960149661245 -189.944683097423450
25.934726725587414 -67.161124974209571 -197.914804814157321
-25.432526171473064 -68.548864954661823 -195.920413806563772
14.053760143786398 -74.481947282360281 -204.076893171065109
-16.816189175388523 -70.502781351332729 -198.488628825967112
15.213314753297404 -69.559949832057811 -205.263867386246488
-127.796170007407909 -77.200177782360740 -194.941579832220242
29.814434381164670 -63.352789701031575 -197.867186147834758
-141.473029908264579 -79.417844018799869 -201.261113287304624
-19.640615071297326 -78.918851778136457 -207.118506315124250
24.001110678358568 -76.851043102353145 -206.175001397223951
-161.704979585063086 -71.085331109648834 -199.537681151434299
102.264445164705137 -67.273708780363634 -211.190239233564114
-101.265884737586816 -70.768340566490636 -207.888080560340313
20.407338958117315 -76.696140691907218 -206.783505906186377
-18.747480288983844 -70.406515556739080 -205.449524616594005
26.477333237573927 -69.075298592511174 -211.378389696656086
-138.676329485380023 -69.696715690120001 -216.036657737961207
-125.792116895446668 -73.363732087555121 -217.514520491612160
-125.561655129263812 -72.241126934678022 -212.553074568361211
26.242317372556673 -66.245919037789150 -215.550254769194794
-4.903598274199062 -68.119016850834157 -218.801281509421528
92.889062638101791 -71.232441463379189 -221.338986352629860
13.775738322136576 -69.654092938650251 -221.404235291213553
-11.020612829428096 -67.190342197802053 -218.478629360505721
93.048231372196341 -66.654983866941876 -217.204980399917389
12.116768979990148 -68.905901447958598 -220.067453666745223
-13.968116996900029 -68.464072805796661 -221.109154178782745
-4.473002225695538 -70.028713955342624 -227.665317958836795
95.788372215661013 -68.600702420127163 -230.893640504751573
96.377134903656327 -69.501515514834679 -238.048414035245628
-3.827569539743642 -63.686135123222876 -225.914644936030413
-0.570038909846815 -72.053336796117975 -231.857975599581039
-103.199191605310887 -74.581144411100041 -228.206536409447494
-142.935150617820710 -77.611662152204318 -225.185972007523418
1.681392545946544 -73.186059460324955 -232.914211412328029
87.794181626556423 -62.899677854693699 -238.132312159576315
-131.838993487275758 -75.231606340317242 -227.762231650662670
-8.019845642833758 -66.500213095850555 -233.913589251137580
-138.598208801243061 -77.512791548088543 -230.407716729406303
-136.540841881214703 -74.819762080047212 -230.402331203749299
-133.060353873654691 -77.011978037223145 -231.842398977875973
-18.885600110913806 -71.335322724322367 -240.204871405835974
-7.847689852668189 -73.867072452591785 -234.493372131032373
-4.078450298307601 -72.033901091430778 -242.342071723577874
4.060694902446606 -72.544306189314256 -231.934515715740048
-4.652032429591848 -69.227255571649366 -235.130126876318059
-154.151877493488342 -74.749220159666478 -240.517112607888350
-6.002615939151923 -76.239010781843220 -243.439772958360493
13.446980884168561 -72.104513167654503 -239.047678231568710
14.103526254086667 -72.332502130246141 -239.214853538377923
-127.911082544428155 -75.163556045708248 -238.949084759739065
-4.564971185148195 -75.793056568897484 -247.105164940927494
-154.509526794804913 -70.915276549095225 -239.159885851926134
-123.937307610228459 -76.823748322496513 -240.197362956506339
67.974871384057721 -70.778427975238813 -243.625971160105053
75.600065593726626 -71.287872304709666 -243.263960941182205
71.910310213164564 -65.778839539442075 -246.417902447900474
-142.742380646064362 -73.665755123774844 -249.124351607117148
75.019987379380439 -72.592229833410187 -246.898991967792540
61.528558350237468 -67.551209727165016 -249.776074531979930
-149.084122800032361 -71.337802349422361 -238.040819909410743
-16.544266807101216 -76.289655267999947 -256.336055348327079
66.702674608818995 -71.943065862531697 -250.917017399212114
3.743201787060634 -70.438291808212171 -247.847527890436851
12.229812096877509 -66.746691681756644 -261.087408979924476
61.569932642544629 -66.375528952952592 -254.756718151226750
-164.499822277559730 -76.715617327111445 -247.940676418202258
55.747493499160143 -66.776701416418760 -257.061170033716280
-18.130555404119953 -73.058390666599266 -253.012942613669338
-152.056837419241305 -78.561627695236055 -252.059995346786991
49.252782970513557 -67.670329022781061 -253.162933230935494
-85.015108726598527 -70.569912660722295 -263.348834743908128
-83.048928507572640 -73.481630917809696 -256.328909714322435
-92.571181266119453 -70.434869343400393 -263.580518588482619
26.165747443458248 -74.643254324820163 -257.806672088439541
-145.740692773191512 -75.294784786044943 -262.845206659005214
-160.855119064383246 -71.339923843190647 -257.264977318328420
-152.944300264952972 -74.482002084953606 -263.517705976802006
-84.851202847162426 -69.848738030620297 -258.123935463745852
-108.319285310118431 -71.038550431674409 -263.095406372147352
-82.347055989674544 -80.021064317809603 -259.098608390758898
23.486773077749049 -66.931654387752729 -270.672982127082037
-104.317100242588651 -71.207955733716844 -271.944899731837268
-19.854729320350749 -74.477256460408796 -270.232495792327541
28.110763554021187 -73.891244083769706 -268.989543784312104
34.130769752287947 -72.719375538749844 -275.005671521360910
-132.229157717914376 -72.794632366787667 -280.726659252275226
-135.223060554519662 -78.546452197473727 -268.313884752970012
-168.096018227373349 -78.063613147089910 -266.312323354778869
-168.447495739420930 -71.027882368458791 -266.987609400425129
-128.062144608196519 -78.544895381132349 -268.918122986969763
-154.250499313988001 -85.087684112810507 -270.423617415514002
-162.753762955144879 -81.529978220719613 -267.258955997315411
-158.246020041623069 -75.366931371844970 -282.510957227801043
-147.656127537132988 -72.817341576488829 -280.796648758048548
-6.682668084155225 -72.338859912516298 -283.924085866883274
-167.209130558435845 -76.877440256597922 -287.808468734097971
19.541965684063022 -71.660618885260348 -287.209383324464170
-154.190420409977662 -82.977533355099865 -281.648229813919443
-164.229972069141098 -76.488050461555645 -291.479637584580701
-4.965378837728203 -74.615021824473018 -286.520733266384980
17.178452655390302 -65.680540797069014 -282.415897223155071
-166.946266720907659 -73.504246900510722 -286.390334850815691
-152.467307255816820 -74.154204502808767 -291.566187891413279
-124.761601640900579 -71.761218257566000 -287.012409129815353
-4.874069305500264 -72.008434282101490 -291.017573774992172
-120.949591445561595 -73.804134701159612 -289.328478027522124
-114.897373607369701 -70.901363240191344 -282.782347769704131
-111.335023222299299 -78.619174862424657 -286.504049778252522
-87.946937357205826 -72.576167691385010 -299.656077007075680
-143.485170754599721 -73.166517420250344 -290.057438853758924
-86.751010739754406 -76.356563974662862 -288.230598872058238
-64.355200891335613 -71.126095306395527 -299.301080615030344
-164.216883769253116 -77.430724953762336 -295.589367283387901
-80.191241126652187 -71.134226925017202 -294.077638482979125
-93.056810982241643 -75.061877093999172 -295.568580243822908
-152.745750932347079 -82.047731463408638 -291.951880612412765
-105.283301768850293 -71.717656624942563 -291.584725568220790
6.066879053621733 -69.410928966387587 -302.526861180521621
-156.367638441967330 -74.584874896953224 -297.080513784346749
-143.595687338307982 -74.348917878690642 -301.274701059941208
-137.357520794574896 -78.111583542455520 -298.527482900216228
-136.614488370777678 -74.977917858320197 -298.320906705597793
-156.612433934762009 -73.554944888440900 -301.336716705803326
-162.304357709218863 -75.487607455473778 -312.817338628130415
43.288624629438353 -65.167380406881961 -24.769812378378816
55.625515121374882 -71.835514534308487 -33.717890900559290
40.325599894540360 -69.937832331874276 -48.143850622135432
-75.857590020752752 -61.229868748694507 -53.757266902781993
103.562170715857718 -70.243061791111387 -82.795353631227755
-92.801276591204356 -73.829632100400076 -77.144358115881644
102.480819914777769 -67.014144580077883 -92.427671146176451
76.262359123874731 -62.746542913251410 -96.752991845361635
68.621482491974646 -69.342180192987172 -90.128591024842436
65.297203530012069 -67.054720212211549 -99.082422437857630
107.420698247822543 -68.582817768996250 -94.473351028239080
72.876140116486795 -66.353577173597841 -96.666616603393379
55.477040446884011 -67.444582646246232 -94.403689455956567
63.369586473495694 -70.181556321547276 -100.362589378582186
67.903473427427301 -69.958265310319462 -96.211587384942561
67.012404534096731 -61.232702307297181 -112.479851290842007
73.257142537100691 -66.166372929642051 -109.241545930792810
112.607011998168829 -67.570604214205531 -110.787281610561251
109.871324036635770 -66.624551640328662 -112.290139608043688
76.975722957891136 -68.330299366519853 -113.786775616920465
43.917833913051048 -65.874846568917008 -112.844014959472247
79.242440889502930 -66.473033974818904 -111.217611063637179
95.454797319747485 -64.795398626272899 -112.640594133679187
-75.941593529973289 -74.465671956304675 -129.273004582365417
49.905637264959012 -64.881700091814977 -123.426709164153181
43.646227633657162 -69.778718210539736 -123.478771315500239
117.920948329877675 -64.359393045532471 -125.533219810326244
-70.871188686738577 -64.803971128982923 -127.158948187500883
-92.133520320579549 -68.182845788340870 -127.609399100058610
-78.452725930064730 -69.376991736648037 -125.767094145187414
-81.026721761317901 -71.845342524846117 -124.366957158827333
44.742361389159299 -68.946079659024775 -140.454406827259220
-58.596975527557966 -67.545212023943733 -128.907285069485027
116.586724695256066 -57.877757091666474 -134.995687644402324
115.076141856360039 -66.218146373104403 -138.251456953686841
-82.499464007044395 -72.365848716673653 -138.823975430495466
120.544849594319771 -68.430370630591554 -135.169863741115506
-54.878684348899220 -78.911781814493636 -142.838914998070180
-76.300113365352757 -67.177522990788589 -137.338034674986318
-66.001005241314175 -73.687132901445878 -134.498830498980681
30.669024174974894 -64.775388039598440 -145.944124911790453
37.173238051143542 -66.326611341121108 -138.756347479320937
-70.828884981614095 -72.405893974279465 -137.437713273085819
120.057367528414034 -63.339867570219759 -150.452893554096391
-87.106406184404676 -66.653450445464287 -143.415367544949817
-52.183995235615221 -71.524509270357996 -155.158574366837399
-44.215543843712105 -71.430131279731981 -147.094887747501275
-62.832495671178286 -72.442664544550027 -151.034840869954792
33.269360718481352 -72.058144774616565 -156.679042826568718
