# This PCD file was generated using the MATLAB® pcwrite function
# from Computer Vision Toolbox®.
# .PCD v.7 - Point Cloud Data file format
VERSION .7
FIELDS x y z
SIZE 4 4 4
TYPE F F F
COUNT 1 1 1
WIDTH 1461
HEIGHT 1
VIEWPOINT 0 0 0 1 0 0 0
POINTS 1461
DATA ascii
-5.282982 176.393280 -72.616165
-31.824522 175.079742 -71.742722
-38.904408 174.573517 -72.482986
23.432241 180.970322 -71.906105
-6.827652 177.101624 -71.418526
-42.000134 178.852234 -71.516930
-39.834263 180.849228 -72.448906
18.530270 184.743546 -71.727028
-28.441771 182.406052 -72.697029
-34.399956 181.223862 -72.539719
-38.011307 181.126633 -71.073090
-36.537460 187.881851 -71.301964
27.545776 181.695663 -72.173920
-36.915981 179.761627 -72.258995
27.684748 184.141068 -71.199059
-29.739899 192.310455 -72.242783
-18.737755 187.911987 -72.344398
-16.540386 191.284088 -72.950836
-24.742092 188.003738 -72.007233
-17.912521 190.374878 -72.104027
-28.222759 196.041870 -72.107872
-24.951061 194.408020 -71.964226
-30.887165 197.326645 -71.967575
-19.179386 198.346313 -71.796791
-30.925884 198.006699 -71.464264
22.232323 198.520065 -72.193916
-41.427132 202.461472 -72.895454
-144.049133 199.547241 -71.896347
-151.235046 204.495895 -71.972771
-49.619541 203.711136 -72.556549
-147.631638 207.300400 -72.042473
-21.065304 208.668015 -71.554199
-147.073135 210.838104 -71.663437
10.816137 212.463730 -72.427238
-22.332405 210.897079 -72.182899
-14.879967 213.548355 -71.928596
-27.810421 218.613205 -71.995178
-34.301975 215.381989 -72.179527
14.176269 213.974258 -71.785866
-63.290733 219.319656 -72.916298
-66.561317 219.861282 -71.828278
-16.319912 223.059570 -71.200684
-24.116104 222.713165 -71.759674
-83.484688 222.787262 -73.212929
-75.861130 224.120270 -71.004166
12.935568 223.643997 -72.403328
-23.633194 224.961792 -72.975845
-12.365267 228.961716 -71.782364
-22.669930 226.835693 -73.133713
10.330138 227.953064 -72.291534
-19.125534 229.008377 -71.902023
-23.880768 232.083405 -71.161705
-9.668348 232.495163 -72.253456
15.067858 230.952011 -72.048584
2.347635 234.376038 -70.613838
-0.056700 233.784302 -73.105171
17.688988 238.280807 -72.820007
-135.098877 237.376389 -72.678024
-149.336334 238.121948 -68.304581
5.015447 241.191833 -70.985794
16.252449 240.714752 -72.127373
10.395555 247.626755 -73.174713
-0.996291 244.761444 -72.740654
1.915550 249.893585 -71.660660
-24.929562 248.765793 -72.633492
10.570671 251.842224 -72.451782
-36.867508 249.384933 -71.931076
-47.508621 252.219971 -73.236542
-25.414417 252.411209 -72.827690
-59.168045 254.743988 -71.606705
-56.521370 256.099731 -72.545494
-50.837975 256.556458 -72.590858
-52.224449 257.477356 -71.909897
-6.182641 259.816071 -72.473518
-145.939636 256.764191 -73.633415
-141.218872 266.224915 -73.963219
19.121107 265.535522 -72.460480
-155.323303 269.380066 -69.509636
-146.994476 268.990326 -72.724388
-154.261749 272.379791 -69.841118
-150.665527 275.705017 -72.389244
-9.179392 281.899658 -72.504700
-149.914444 285.511688 -72.473930
-1.916623 290.891754 -72.517685
1.543456 291.890106 -72.795685
4.653496 295.741699 -70.828484
-142.303711 299.822418 -71.330353
-29.428221 298.537811 -72.125786
-23.402151 299.940735 -72.145721
10.868326 300.806335 -72.306709
-149.551041 315.754425 -72.733330
-146.576828 315.724792 -71.924911
-150.254013 319.140015 -72.738075
-50.366524 67.533035 -70.715385
-50.273560 68.341179 -71.311646
-54.038422 69.857254 -71.965790
-47.854958 70.315948 -71.845604
-75.462967 72.704613 -71.293655
-41.709423 70.226929 -71.264160
-32.225189 74.160812 -70.937195
-32.689922 73.570450 -70.768440
-80.997284 77.840118 -71.361877
-81.324524 80.330452 -72.013306
-22.625698 81.212585 -70.752228
-26.522997 86.714691 -71.412674
75.906204 92.430992 -70.721474
-39.155815 93.965508 -72.627060
89.153618 94.319275 -71.328979
92.003387 95.534500 -70.752586
74.499588 96.237495 -70.174904
75.642311 97.693825 -70.456284
81.190613 98.031296 -71.685760
87.584412 102.277336 -71.264778
-90.079071 101.331238 -71.412979
-62.992348 104.351128 -71.668800
-64.750107 106.925728 -70.612892
-67.198120 109.913193 -72.138481
-77.402504 109.972839 -68.670677
-79.195740 111.994064 -70.752609
44.699566 112.542343 -71.332275
45.028706 116.875511 -71.248810
39.797535 118.807945 -71.706047
-91.278557 121.363739 -70.733208
-90.645508 122.548203 -71.152687
-85.775009 122.368294 -70.566269
37.830444 126.092812 -71.330040
34.582951 130.912643 -70.245239
30.351206 136.301041 -71.361038
39.386322 138.445587 -70.778702
30.429832 141.938416 -70.763901
-52.986008 144.242447 -68.402206
-49.658508 151.917694 -71.451263
-44.233231 153.402069 -69.805138
-41.404945 161.410980 -72.810722
-50.285343 157.761719 -70.663940
-48.283268 161.462921 -71.442650
-53.048725 156.712296 -71.114304
-69.924393 159.963593 -70.430611
21.580791 166.256393 -70.595551
-66.799774 165.256149 -71.722839
-69.486633 161.878860 -70.846840
31.872097 167.568848 -72.072670
24.700958 167.699142 -71.446815
-68.045975 167.856079 -71.999954
-36.563416 166.154724 -70.487442
28.626057 170.476868 -71.725899
-46.489223 163.988800 -71.956947
112.805367 168.106796 -71.131393
27.585941 174.653107 -71.473961
-39.058903 178.019257 -71.877632
109.512733 178.344070 -71.324722
-59.064545 175.632034 -71.784935
25.187119 170.929871 -71.829163
-42.945118 177.853058 -70.953758
30.034389 175.386398 -71.653076
111.836311 176.712952 -71.278946
24.355148 180.032089 -71.891899
-60.357071 180.875488 -71.626976
25.564688 182.686218 -71.295616
22.145945 181.754166 -71.465202
-6.794252 184.263779 -71.936119
-11.827901 187.146072 -71.356400
-60.332592 187.525375 -71.763596
108.098457 184.596756 -71.419876
-26.006004 190.503235 -71.667549
108.169151 188.276871 -71.705307
21.953571 189.700150 -71.168129
-22.323830 191.530899 -71.426956
16.876209 194.169128 -72.133430
-27.912842 197.635101 -71.936905
103.462921 197.977707 -71.516640
-52.576004 193.185471 -70.893517
106.077896 195.590515 -71.642967
-48.154892 200.405411 -71.478775
22.835091 200.726730 -71.054787
17.992874 198.257111 -71.038361
-26.969269 202.958817 -72.425385
103.735535 199.106201 -71.588783
-44.933510 198.113571 -71.663948
102.259537 207.962082 -71.295372
-19.245476 204.442047 -71.683670
-23.279570 205.457901 -71.821083
-16.330494 201.847244 -69.951332
-26.090504 205.676575 -71.456642
-25.003628 207.931915 -71.150055
97.994324 207.248322 -70.682396
-136.431229 207.448059 -69.820274
-44.464649 209.535217 -69.927330
-41.645004 207.868790 -70.904655
-148.688095 208.474777 -72.727264
-41.266758 206.452454 -71.775520
15.272892 210.429825 -71.544456
95.346733 213.627594 -71.275009
100.363777 212.413651 -70.858154
14.473409 212.084137 -71.600555
-36.210499 216.339157 -71.221542
15.630695 212.602142 -71.534607
16.514946 215.069382 -71.029831
97.204636 212.410126 -71.553215
16.090340 220.063263 -71.083900
-36.047623 216.536591 -71.295761
11.537433 217.915985 -71.685364
96.514496 217.488144 -71.154510
-145.624039 220.978760 -70.492859
-16.440357 217.967331 -71.056931
7.952987 222.471863 -72.302155
-6.077810 226.195892 -70.959648
-7.341312 224.883499 -71.301880
15.619892 222.471039 -71.281151
-25.871563 224.173447 -70.918610
-89.807335 225.888321 -71.399719
-150.322479 229.031677 -71.848480
8.622726 226.707596 -70.348335
-26.607609 229.767014 -71.282440
-9.151856 231.325623 -70.447159
-145.190048 232.551178 -71.885170
-7.774954 231.849274 -71.614799
8.995220 228.970551 -71.170624
8.583661 237.707855 -71.371017
-1.380453 235.260925 -71.958466
-6.118020 237.730148 -72.322853
2.015893 242.987869 -71.164772
16.900007 242.360306 -71.111275
-149.902985 245.201324 -70.953606
9.426912 245.866959 -71.382423
-30.211639 248.279770 -71.083893
17.534740 246.547638 -71.422630
10.274676 250.826370 -71.580391
-50.249249 252.312378 -72.236526
-23.180923 252.423035 -71.989960
-149.806305 255.488632 -70.449356
22.041550 255.124985 -70.838310
-44.895859 256.145111 -71.102577
-50.857422 257.369537 -71.563324
-59.174980 258.410431 -71.703697
-146.161957 260.410553 -72.216606
-10.130713 260.928833 -70.024780
-152.921097 263.904663 -72.547379
-153.260132 264.222260 -69.676552
-137.560822 267.900848 -71.859177
-151.972839 273.756775 -74.201042
-12.817604 276.364044 -69.871788
18.585602 283.242126 -70.809380
17.133228 282.159424 -73.401764
11.460323 292.960266 -70.387711
6.783782 292.984924 -72.747398
-29.410343 296.007080 -69.962044
-42.825397 297.228455 -71.542229
-40.960476 297.827118 -71.715614
-15.025052 297.591461 -71.539589
-35.216015 297.877502 -71.835899
-50.763622 298.120575 -71.532646
0.028572 298.562073 -71.529114
-127.610245 297.948181 -71.416222
2.687270 299.093903 -71.642632
9.992279 298.930481 -71.433853
-48.040829 300.426422 -70.781624
12.973829 299.554077 -71.754890
-20.287661 300.579224 -71.746094
-126.914581 301.660034 -70.619499
-29.842724 300.863129 -71.394371
-16.864235 301.620331 -70.258377
5.082896 302.049438 -71.134369
-144.058502 302.801483 -71.511337
-152.639252 314.524017 -71.707336
-145.421417 320.149139 -70.630806
-56.511440 65.320511 -69.814659
-67.056015 66.579041 -70.051048
-69.864731 67.762604 -70.198654
-34.477325 71.903008 -70.598724
-31.392643 72.520454 -70.228065
-87.694206 81.563774 -68.914185
-88.097496 86.590576 -70.001045
80.528526 86.521194 -70.070587
81.111191 88.643242 -70.826881
-30.499443 89.128227 -70.459885
76.716354 89.866730 -70.096832
88.340302 89.942032 -70.539101
-86.326447 93.986870 -73.043228
-87.952812 94.401917 -72.013809
93.126846 98.328026 -70.592407
-53.077694 100.485458 -70.032181
84.558960 104.230782 -69.989769
88.421638 104.535606 -70.674675
90.542633 105.013023 -70.099670
51.444851 108.431648 -71.153809
-75.982864 110.634178 -67.289268
52.486893 116.972549 -69.361847
46.780807 123.860855 -69.580696
47.515888 126.228699 -70.365166
43.220135 130.603592 -70.461815
30.343529 134.839005 -69.044662
29.441299 138.360809 -70.603088
29.240887 143.462769 -69.092796
25.893408 148.536819 -71.000732
36.818275 151.677078 -70.140739
114.322800 147.835785 -70.305328
27.503693 149.448730 -70.015480
115.659317 151.769363 -69.657127
-51.066628 152.368408 -69.717712
-51.062252 154.108902 -70.023972
113.414597 156.440903 -70.754883
111.315231 157.256927 -70.321106
22.858589 160.308334 -70.700546
-53.961723 158.601074 -69.604210
-51.304012 159.281219 -69.699501
34.220551 160.620636 -70.413605
33.410549 165.014160 -69.129692
31.236031 166.365677 -69.397766
25.352570 163.086090 -71.385941
-46.442875 169.058990 -69.548103
21.193869 168.487228 -70.764061
2.375036 169.640640 -70.078674
-1.344693 172.641556 -70.809792
4.276909 173.137070 -71.078712
23.060770 173.788925 -71.047279
-31.996872 177.782150 -70.555336
27.659248 179.003006 -70.115158
108.028450 176.791977 -70.085564
18.241549 181.577881 -70.477859
-9.523667 180.625259 -70.206879
-29.889622 182.960556 -71.568069
-7.889431 184.169403 -70.517067
21.503866 179.862640 -70.862137
-56.267456 185.160919 -70.696632
-52.519707 186.762741 -70.492188
16.427338 189.851166 -70.826347
111.325882 187.760468 -70.172760
16.232046 191.745560 -71.168434
19.411949 189.330368 -70.614677
103.590050 192.107086 -69.370613
-56.734150 193.158340 -72.476860
25.414021 195.209274 -69.825081
-19.821545 194.910461 -70.213432
-47.170734 195.603287 -70.178566
-146.517883 196.118820 -73.152252
101.688995 199.157013 -70.508148
-149.555099 202.598160 -70.701790
23.061157 201.935333 -70.382973
-28.451822 199.124084 -70.248718
-49.149994 203.908981 -70.501175
-25.796623 207.407074 -70.153625
97.118683 207.172318 -69.858017
-36.158508 209.283569 -71.024895
10.893332 210.333710 -71.848785
96.100037 209.830734 -70.202591
11.895390 212.586655 -70.673920
18.505970 209.752075 -70.049057
-10.789066 214.097260 -71.298882
18.042744 209.698898 -70.475868
-34.397682 217.745834 -70.568611
-8.519681 217.315460 -70.379997
-20.104988 217.446777 -69.824554
-73.572258 219.634598 -70.556320
-33.601223 219.184692 -70.802902
8.562344 216.436783 -71.107086
-9.597279 219.374161 -70.216438
93.476486 223.950974 -70.305656
-14.164336 224.326004 -69.567902
-19.823643 226.831833 -69.569214
-79.529106 225.456314 -70.394058
-146.588806 226.012665 -71.002289
16.271412 225.779816 -69.920914
-2.107491 227.226852 -69.377449
-18.068897 229.153473 -70.616211
-11.405043 229.150696 -68.968544
-21.073807 230.265610 -70.221695
5.876876 230.310486 -69.239166
-149.325653 227.688797 -70.091576
-20.123262 233.311279 -72.158096
83.728432 232.317841 -70.485542
-10.127622 234.409943 -69.100342
-5.886118 236.463806 -70.168381
-21.165054 233.942841 -71.024086
-154.427429 237.391190 -69.288399
77.775124 239.723953 -69.895844
-9.527941 239.514343 -69.633507
-138.182251 238.560852 -69.874947
-148.781952 240.303314 -67.633652
-138.238632 241.070389 -71.445564
-0.110629 244.903091 -70.882233
-145.793671 245.500183 -70.135826
1.759403 245.491013 -71.033165
17.739977 248.247818 -69.925613
-0.385568 249.481735 -70.159904
-46.091873 251.269424 -70.758347
-48.472668 251.745224 -70.723938
-26.131924 253.169922 -70.528183
-150.126755 253.971146 -70.030182
-39.673817 255.259155 -71.490891
-66.263939 257.168335 -71.542007
-48.364342 257.009155 -69.958244
-62.356926 259.967560 -70.402237
-73.225945 260.668854 -70.494286
-143.604919 264.297607 -68.133820
20.687916 268.578583 -71.205910
-127.383682 270.755310 -70.221466
-10.911402 278.647522 -72.346756
-13.214983 280.208893 -68.458267
19.006821 285.102478 -69.131737
-147.034363 290.578247 -70.717705
-5.358552 292.687622 -69.454041
-155.736877 296.457916 -70.328178
-131.330292 297.076355 -70.928871
-27.988142 296.547546 -70.590271
-133.470718 296.379578 -70.432381
-66.997437 297.347107 -70.451439
-139.943222 298.476349 -70.195961
8.238648 298.438232 -70.923759
-119.855240 299.105988 -70.962601
-69.443680 298.889191 -70.558876
-142.380920 300.297180 -70.978905
-55.170906 300.687531 -69.667725
-30.656954 301.240173 -70.413513
-6.053500 301.423370 -71.064987
-143.505310 302.398987 -70.443306
-154.041565 303.483795 -70.094475
-152.574280 304.450775 -71.795128
-147.967087 307.795715 -70.611397
-145.301254 312.388489 -70.683800
-47.338066 64.612488 -69.252617
-62.282402 63.114754 -68.397568
-60.639412 64.689896 -69.468887
-43.464745 66.338860 -69.843887
-38.502331 68.297379 -69.968475
-34.503860 70.572861 -70.164047
-24.833128 72.917336 -68.803818
-24.030037 75.231239 -69.436249
-21.683855 80.460487 -70.232887
90.948593 86.058609 -69.520126
79.924789 85.033066 -69.606209
75.815598 86.071564 -68.642632
-34.753242 89.041840 -69.382599
-44.540688 93.750458 -67.918259
-50.508331 97.753380 -67.678413
-51.437695 99.377693 -69.974892
-89.590698 103.525734 -72.343742
74.886398 102.948547 -69.563316
92.944145 103.728455 -70.020370
75.957298 105.184715 -69.397743
-92.667229 111.817673 -69.513710
78.815842 106.974380 -69.383873
49.970219 109.628670 -69.546349
54.597027 110.050957 -69.980598
41.676083 114.191750 -69.632973
45.900246 111.997452 -69.286736
44.579399 113.469002 -69.167686
-92.805740 117.415253 -69.370323
49.704964 120.780151 -70.960182
36.549744 125.783348 -69.481888
32.804638 134.480835 -68.159294
112.730240 133.520767 -69.483368
111.421318 132.752213 -69.691078
109.424255 134.470840 -69.037193
112.876328 139.630020 -70.070419
40.108227 143.033981 -69.332817
36.966618 145.343170 -70.487091
27.075356 150.622452 -69.714256
23.619728 154.953430 -68.967041
111.140549 154.700623 -70.026978
110.394806 157.828598 -69.488876
-44.739902 157.079498 -69.861900
24.954830 159.627502 -69.608620
-65.862335 161.252579 -68.869415
-72.559074 162.638931 -68.882629
109.557358 164.640518 -69.002518
115.282196 166.599533 -69.686493
32.879692 167.309586 -68.850784
-68.515526 164.689117 -68.983414
5.825294 166.767105 -68.817009
5.955887 169.704666 -70.159348
-66.802132 169.894928 -68.363907
-45.940201 173.822159 -69.389908
21.222525 177.119141 -69.910622
109.411896 168.834961 -69.699577
31.464027 173.720993 -68.857681
2.881375 175.916855 -69.485611
19.416910 176.490555 -70.431740
-62.072586 177.662323 -69.399208
-60.902863 180.225708 -69.793953
-40.589283 178.692169 -69.123962
27.600677 180.193268 -69.273155
20.210665 181.535736 -69.897293
29.614330 179.443008 -69.464516
19.550747 182.832138 -69.228508
-25.451511 184.819855 -70.072342
19.708599 184.034622 -69.809135
15.079013 188.740448 -67.695313
-59.543552 187.904007 -69.024734
108.595299 189.089142 -68.919785
14.797220 192.148453 -69.543068
27.683308 188.274002 -68.180367
-30.915247 195.129501 -69.942963
-46.803513 196.730988 -69.624779
15.241070 200.312378 -69.871964
-53.000221 196.650452 -69.242912
104.782822 197.983414 -69.018372
-48.709911 203.103745 -69.357353
-147.453400 199.642380 -69.187523
14.532160 201.591827 -69.391434
-41.144295 206.537766 -68.594551
13.655983 206.323746 -70.164154
-17.429829 204.663254 -68.924469
14.140950 207.188782 -70.916725
-137.190445 207.345032 -69.841835
19.643711 208.569321 -68.894035
-137.460983 209.971100 -69.146507
-139.307068 211.166718 -69.062759
-34.968269 211.233261 -70.105858
98.653687 211.358032 -69.123245
-152.998901 212.366425 -68.096230
-11.235395 216.392303 -69.923042
-33.153255 213.337723 -69.905266
-40.127926 215.615082 -70.334518
7.350519 218.487732 -69.897141
91.386040 216.882797 -68.869797
-75.911171 219.662766 -69.642662
-32.832703 218.512115 -69.985054
-7.298690 223.320038 -70.083611
-74.602989 222.098373 -69.676155
-35.500336 220.396744 -69.129791
-16.601166 224.397583 -69.062309
-22.444168 225.119339 -68.379837
94.169815 224.195511 -68.726898
-76.905228 224.139587 -69.643471
16.296242 226.833710 -69.081314
6.024184 225.989090 -68.502922
-3.849436 228.446991 -68.870995
-92.530075 227.992325 -70.381416
2.810347 233.678787 -68.168030
-19.840660 230.232849 -69.902336
18.121620 232.060455 -69.688286
79.648308 232.620560 -68.951256
-152.772705 234.503983 -68.134018
-13.725324 233.190735 -69.856148
84.511826 234.829071 -69.669479
-141.901062 236.016525 -69.520554
16.219046 235.646515 -69.121391
-9.071519 236.756409 -68.443092
5.975707 236.708862 -70.236855
19.033108 241.605423 -70.382088
70.600014 243.667465 -68.971786
76.827072 241.834930 -69.308342
5.835415 244.990295 -68.218376
0.987907 247.105057 -67.991173
-1.314093 248.877914 -68.274422
2.679163 249.986694 -69.745178
-41.540253 250.609055 -70.217735
4.911999 249.724594 -69.602242
-34.469440 253.379196 -69.236084
8.093536 253.048752 -69.080956
8.163977 254.643127 -70.513000
19.730896 256.340424 -69.075081
17.420729 258.238586 -68.093712
-80.196899 261.479614 -69.762329
20.992252 262.406738 -67.585220
-75.570518 261.184937 -70.189880
-142.216415 266.160614 -70.257416
-125.592606 268.248047 -70.196777
-135.703186 269.693024 -68.796509
-133.266937 270.403198 -69.831871
-151.491196 274.468018 -73.320778
-146.882706 281.378754 -70.593254
-150.518951 277.285034 -70.879471
-151.318634 291.199463 -69.930161
-163.670578 294.651367 -69.121033
-129.833664 295.225494 -69.559593
-47.419895 296.265350 -70.299652
-61.716068 296.092346 -69.286110
-74.550385 296.729248 -69.191132
0.505762 295.092346 -70.718521
-124.376572 296.789246 -68.919586
3.267512 295.810822 -71.023621
-136.475174 297.829895 -69.838203
-93.140182 298.655029 -69.590393
-82.126068 298.740967 -69.921005
-158.456390 299.293365 -69.126251
-138.993439 300.442688 -69.874855
-116.300964 299.600494 -69.645973
-68.785889 300.074127 -69.934967
15.999025 301.541199 -68.857613
-30.974991 301.360992 -69.151390
-18.691338 301.835480 -69.351036
-132.768158 302.018524 -70.289368
-130.369598 303.741180 -68.674232
-146.140350 305.988831 -69.180595
-144.768356 312.460724 -69.915627
-145.830704 322.412506 -69.087532
-58.827080 62.871700 -68.391060
-77.275307 67.159523 -67.903305
-77.747192 67.183197 -67.730820
-25.302547 71.328186 -68.148972
-21.385803 73.632339 -67.933731
-83.098457 74.559113 -69.119652
-86.333542 78.611572 -68.833633
83.934784 81.359741 -67.743843
91.282372 83.622879 -68.401115
-89.904854 85.135368 -68.403206
-28.552589 88.290123 -69.258057
95.340759 90.038254 -68.014320
94.503639 94.373329 -69.482780
-92.117981 90.493408 -67.583878
-48.590897 95.446129 -67.392395
97.645340 99.612434 -67.970459
-54.310959 101.590096 -70.678223
54.543724 101.324600 -67.914009
-56.239586 102.053917 -70.200775
49.592190 104.458282 -68.555641
45.974426 108.651878 -69.552490
55.393272 106.354584 -67.790520
54.555054 110.546150 -67.134735
41.691109 112.835144 -68.142792
107.368561 113.653275 -67.994781
-82.702988 117.222061 -69.686607
-83.355446 118.824265 -69.701614
108.765144 118.986710 -68.599091
46.672874 124.340546 -68.739166
46.767078 127.964508 -68.685097
-89.231911 126.110786 -68.204147
107.516701 123.195435 -68.556511
113.283310 128.153259 -67.537346
44.006477 133.939331 -70.113213
113.303871 133.641205 -69.079071
108.952347 138.961075 -67.933334
27.214167 143.737473 -68.690453
115.629608 146.335419 -68.981102
109.454514 143.092590 -68.499664
-56.442604 146.075439 -68.351097
-52.676102 147.420105 -67.731255
26.454031 152.529221 -68.576225
-55.494659 146.106720 -66.745491
-73.124130 147.917435 -67.504814
-71.874329 152.038010 -68.385498
109.471046 149.712921 -67.418915
-52.384773 155.982254 -69.505058
-74.156265 153.631775 -68.630836
-42.721111 155.971146 -69.778366
109.726044 161.723007 -68.924301
22.182207 160.313217 -68.542046
-73.176178 162.329788 -67.880066
-50.346573 166.568436 -68.281540
-36.754944 165.561157 -69.295273
-38.985245 165.635544 -69.175476
-71.405014 166.412872 -68.141777
10.169460 167.928177 -68.393860
-50.060017 166.941528 -67.276794
-46.672943 169.000534 -68.045525
29.439167 173.086563 -69.214149
-35.099968 172.437469 -68.784050
-67.431488 174.580307 -69.230484
108.537514 170.459610 -68.350197
108.058342 171.735046 -67.355034
28.965704 174.593048 -68.944817
111.404755 178.640411 -68.254723
110.060776 179.773819 -68.679558
17.340462 183.278595 -69.384422
-27.380001 182.521072 -66.064240
-53.085751 186.861420 -69.441307
109.297356 187.920837 -68.136688
-37.342873 184.829239 -68.093300
15.621465 187.501053 -66.905983
-36.424271 190.344650 -67.518845
-52.158295 191.774414 -68.305305
-146.274139 192.649841 -68.035248
-148.822296 194.917389 -68.011528
106.185303 192.974503 -68.672134
23.643482 195.881851 -68.698402
-51.722324 194.622467 -68.319931
-51.784088 198.791763 -69.621086
-46.934422 200.253357 -68.413414
-46.784897 203.542923 -68.435890
13.060303 198.130112 -69.211174
12.431052 198.916351 -67.946526
104.641724 200.974792 -67.993896
-25.345318 205.001892 -67.772438
-45.140453 206.186340 -68.462341
21.790390 208.681107 -69.077553
-42.017426 207.209427 -68.490456
98.785477 209.704666 -68.842010
-36.711761 212.302322 -68.361382
94.242432 211.852570 -69.093040
18.820406 211.549271 -69.228348
-38.202309 214.398422 -68.048096
18.783848 212.724152 -68.021538
-21.189625 216.026077 -69.278999
-39.213654 215.221680 -68.890709
94.587486 219.044083 -68.781952
9.535447 217.965240 -68.613121
90.711273 225.190125 -68.144608
-5.699492 220.936035 -67.388954
-26.560564 221.205399 -68.625336
-79.633606 223.672516 -68.229805
88.102615 226.331390 -68.343452
-19.865801 227.271103 -68.421333
18.542782 225.940063 -68.311035
-26.520258 226.067703 -69.202309
-30.959488 225.362946 -68.461563
-97.073502 228.986191 -69.016342
-12.792150 231.177155 -66.185867
-21.807852 231.224258 -68.529190
2.758050 233.673813 -67.808136
15.972505 230.127151 -68.023682
-13.924734 232.395340 -68.180374
-15.479277 236.005814 -68.724678
15.540953 233.360138 -67.807442
8.081273 236.676880 -68.933243
6.150591 235.676590 -68.230804
-127.207817 238.829178 -69.000305
-13.047894 237.621994 -68.054718
82.787834 237.913651 -67.837509
-16.290512 239.794983 -68.123291
-154.137451 240.591919 -71.599472
-127.178894 241.190598 -68.808121
-10.386256 243.845963 -67.860001
78.377747 241.048935 -69.097267
-7.668286 242.382156 -69.006355
-2.042977 242.181854 -68.599693
68.153770 245.329773 -68.568558
-1.800099 247.172516 -69.242157
68.406616 246.783310 -68.809723
-150.560486 252.933685 -67.954254
63.829464 248.652481 -68.127724
-34.111107 249.770462 -69.251526
-36.306389 251.100388 -68.750305
11.123866 251.431000 -68.945313
-42.648369 252.476547 -68.369919
-24.596548 252.610687 -69.011200
7.979737 252.194962 -67.602158
-41.730225 253.521561 -68.362648
-146.434143 254.829926 -70.090034
13.089369 253.413193 -68.124542
-150.278107 252.822037 -69.431541
-69.948593 256.629761 -68.650124
-6.151381 257.218781 -69.125008
-8.836258 258.927246 -68.539680
-81.568039 259.627167 -67.648186
-152.480972 263.197876 -68.052528
-144.264572 263.623352 -70.552551
-88.654678 265.009094 -68.306847
-164.226379 268.087006 -68.284576
-126.511467 265.667664 -68.817734
22.761223 267.028778 -67.808128
-155.292633 266.883057 -69.439606
-147.232681 268.767487 -68.835693
-163.017532 270.761108 -68.681038
-135.319824 272.361877 -67.140434
-125.289764 273.314270 -67.829193
-161.468414 274.625031 -68.537064
-144.381393 273.882446 -68.936691
-166.995148 274.206299 -67.595306
-154.006744 275.297516 -68.059677
-161.389160 276.820709 -68.519348
-165.690536 272.879608 -68.472084
20.773201 281.389404 -68.657234
19.445526 282.410004 -69.983864
-161.017288 281.285278 -68.674179
-157.888062 282.093292 -68.604134
-167.147064 289.324188 -68.317657
-153.306290 281.741699 -68.461609
-151.684631 281.522675 -68.663887
-151.840271 285.430145 -68.791206
-146.566513 290.025421 -69.117577
-162.054855 288.839539 -68.969955
-154.219437 289.642853 -68.795807
18.086821 289.222626 -67.737640
-151.921524 292.441132 -69.968750
-160.320938 292.008911 -69.005112
-160.380936 294.977966 -68.997353
-127.502251 294.726715 -68.953789
-29.401810 296.041931 -67.780144
-40.902702 296.040131 -68.652443
-66.884254 296.210510 -68.849190
-18.340105 296.584839 -68.108948
9.154952 296.548828 -69.142929
-2.337148 297.251190 -68.904419
-109.771271 297.867157 -68.035141
-93.227890 297.738434 -69.044449
-112.495880 300.258667 -68.655937
-102.724487 299.346588 -68.921082
-91.585693 300.360779 -69.142807
-48.972244 300.841644 -68.895752
-120.708046 300.668549 -69.401634
-87.288170 301.197876 -68.135284
-117.386841 301.419678 -68.268677
-135.601456 301.582153 -69.113266
-8.420300 302.054993 -68.751274
11.411728 303.479614 -68.804192
-153.563843 306.228607 -68.985779
-154.975845 318.318970 -69.987541
-65.717102 61.965343 -67.455338
-61.595474 62.208332 -67.827187
-51.020363 63.907604 -69.020935
-73.331467 64.629837 -67.690552
-42.062328 64.659348 -68.594337
-79.380341 67.526680 -67.241531
-84.606613 70.861656 -66.253319
-18.647741 79.419632 -68.633949
-17.517941 80.786049 -66.662949
74.937080 83.342628 -67.277199
-38.420593 87.015717 -65.816750
-31.474255 87.427040 -66.717659
70.081268 88.652527 -66.003555
96.240829 95.969002 -68.560486
-55.983978 100.123459 -66.354286
59.287453 102.563713 -67.547493
46.572510 105.448402 -66.106537
49.704868 106.468727 -67.573563
43.886883 108.816422 -65.217751
105.800629 108.000984 -67.112457
60.579632 104.453453 -66.157867
-93.923370 110.681793 -67.808640
-73.895142 110.970474 -64.854485
56.173653 111.639503 -66.952316
44.150215 112.263626 -65.420219
42.508072 114.810143 -67.040993
-93.833488 119.908089 -67.723442
36.595917 121.230598 -68.039627
50.046230 121.680801 -66.859688
43.388748 130.602890 -69.148621
44.266212 131.623474 -66.826843
115.834442 137.850128 -66.307487
-55.329834 141.787872 -67.057869
38.344704 147.498154 -67.192543
36.829346 146.786636 -68.245201
113.659790 148.032639 -67.558334
-74.839272 146.386292 -67.151642
-54.596062 147.021576 -67.280373
116.823441 148.685028 -67.055862
-74.868454 151.892853 -68.127205
-45.934593 153.036407 -67.436348
-58.885620 151.791306 -65.505783
112.166489 150.786423 -67.306259
22.537830 158.500702 -67.076843
33.167656 156.889420 -67.757637
-42.596092 159.474045 -67.796043
-68.715599 160.700912 -67.432213
24.261999 161.959229 -67.760742
-73.891617 161.254257 -66.325294
32.667400 158.672729 -67.791801
-37.887688 163.988495 -66.846176
21.905849 161.720718 -68.134117
11.510283 165.229187 -67.813164
-70.202911 168.874069 -68.907578
-47.948383 167.050980 -68.267860
-62.008564 169.883545 -67.711853
-48.102631 170.121292 -67.658020
5.226111 173.739349 -68.878418
-33.638748 175.191498 -67.840889
-45.171593 175.430252 -68.588333
20.466507 177.221237 -67.086273
-42.449757 175.831558 -67.872856
28.667337 175.783417 -67.216743
114.494888 178.493820 -67.644424
-30.383530 180.290131 -67.684059
27.784271 179.881226 -68.530327
-63.873611 179.843628 -67.762680
-58.088657 180.405823 -67.707626
-41.085670 182.109238 -66.852562
-59.314377 183.466888 -67.222595
109.138771 187.278671 -67.377007
-147.557602 185.942719 -67.152740
-146.541199 189.181992 -67.801430
-54.939262 191.310455 -68.136665
107.814400 186.035812 -67.988449
111.213013 190.136917 -66.375130
108.480179 190.287567 -67.767113
24.060562 194.159241 -68.937874
-34.453270 192.928741 -69.498741
-143.518311 193.844772 -67.293030
107.254852 193.872971 -67.492897
20.809952 205.289429 -68.776741
106.947525 201.321518 -67.832169
103.072777 200.133682 -67.143776
10.192452 207.208359 -69.217873
-128.102417 206.682068 -67.036064
-122.468872 207.616653 -65.840797
-148.605316 208.310074 -72.014847
-131.930695 209.373688 -67.546600
-124.240211 210.484909 -67.912964
-22.498466 210.203705 -66.635010
-22.344578 210.264694 -68.050743
-131.686920 211.317902 -67.465469
-141.903778 213.236710 -67.889214
-10.524055 217.341919 -68.551605
97.880806 210.924088 -67.072945
-18.937637 216.796722 -67.737381
91.174973 220.996216 -67.823273
17.592560 217.808502 -67.006569
-7.408314 222.985153 -66.585045
17.117405 220.927460 -68.220543
-27.303560 222.190414 -67.338173
-83.995377 223.586456 -67.120636
-89.526756 223.502136 -67.901817
-15.170534 223.630051 -68.132507
-93.776184 225.589783 -69.354935
-96.839355 226.734848 -67.071236
84.182663 229.914963 -67.185966
-25.729923 230.924362 -67.875381
-23.605589 233.127106 -67.544449
-21.460081 230.080170 -68.131844
-19.035942 232.887314 -67.464142
-18.882221 233.529846 -67.393448
17.801037 233.340515 -67.472473
-141.582977 236.167755 -67.277420
77.736870 237.339722 -67.240417
-5.060673 238.689728 -67.156250
8.704605 239.450623 -67.871574
79.384064 237.672653 -67.661201
-124.652443 239.755722 -68.656380
-162.615295 244.143845 -67.337639
-137.872910 240.743607 -67.746582
15.867588 240.737686 -67.771011
9.345069 243.387283 -68.110657
-129.562042 243.076187 -67.714668
-0.548927 244.406891 -68.051857
-145.328400 245.509460 -67.139870
-2.783935 246.540298 -67.919998
11.050323 247.423447 -67.648857
-3.581996 247.326965 -67.568825
-2.707534 247.768356 -67.224907
6.878917 248.458939 -67.884972
-161.912170 248.691162 -68.071663
-157.255402 249.824860 -67.338020
16.413706 251.238541 -67.813034
-0.747481 251.132736 -67.135307
65.396515 250.310089 -68.241745
60.843460 250.833817 -67.603569
-165.450378 254.771820 -67.533134
-161.100082 253.256424 -67.691994
-152.906967 252.485077 -67.297234
-57.534084 253.828140 -68.402214
-5.621984 253.172882 -67.364594
-50.624336 254.010895 -67.631805
-153.485138 256.365295 -67.557137
-60.856297 255.279984 -67.000122
17.509296 256.749146 -66.388489
-9.887289 258.533051 -66.653099
-6.921555 257.046082 -67.937630
-156.920944 259.276459 -67.758575
-166.609985 261.370453 -67.011780
-85.956726 260.653717 -67.287773
-163.665833 263.388306 -68.017914
-145.629517 262.496857 -68.316719
-75.408585 263.197540 -68.070610
-93.277481 264.962860 -68.288002
-85.356888 265.402039 -66.969383
-135.306992 266.016937 -67.070045
23.194405 265.936646 -66.370392
-97.366592 266.875610 -67.844299
-102.582336 267.413696 -67.617531
-104.461296 267.792877 -67.498863
-115.615425 269.421722 -67.909264
-108.680145 269.724060 -67.090706
-115.908417 270.724060 -67.804756
-142.875885 272.386444 -69.495934
-133.755753 273.738495 -67.097305
-152.013153 276.012390 -68.341431
-145.724777 280.519531 -67.559212
-167.413467 287.340485 -67.882935
-9.380229 289.063751 -67.409790
-129.941513 294.144501 -67.560738
-137.853699 295.596649 -67.625946
-46.211086 295.787445 -68.837578
-88.770256 296.515015 -67.335487
-27.935658 296.710541 -66.908028
-32.645252 296.696320 -67.323143
-113.939331 297.498627 -68.092903
-16.040977 297.198792 -66.939072
13.325936 299.394897 -67.535057
-51.357021 300.827484 -68.362091
-113.664146 301.087036 -67.990936
-78.752136 301.179932 -66.346336
-68.720444 300.945831 -66.833076
-32.086567 301.008423 -67.264351
-101.620422 301.596497 -67.499641
-112.299973 301.722412 -67.092400
-9.531591 301.830017 -67.585663
-160.174744 302.547668 -67.812798
-152.895706 310.109314 -70.517799
-152.286774 322.300598 -69.602203
28.678181 26.118784 -66.385902
24.941904 28.044842 -66.393166
24.899334 30.953571 -66.604279
21.370148 34.975899 -66.328072
23.213974 40.724548 -66.655960
30.580748 47.202038 -66.460403
28.343761 47.827606 -66.468117
-55.219162 60.786690 -66.876343
-30.308132 63.907581 -65.102180
88.010506 78.275848 -65.976601
-90.185616 81.995598 -67.352173
73.037766 85.126991 -67.066063
-40.710075 89.687714 -67.264832
-92.685020 90.781822 -67.072487
-45.404579 94.456032 -68.242455
98.706970 98.876251 -66.825775
-92.823532 101.512360 -68.415001
69.960617 101.006622 -66.292313
-94.083176 103.666382 -67.133995
57.588440 104.370369 -68.598480
104.498367 106.856461 -66.161469
-68.100128 109.567673 -65.914490
43.732563 109.556015 -67.284866
77.653526 111.743416 -66.183380
82.097450 111.363396 -65.852867
44.336300 111.927589 -66.190399
109.041397 113.827393 -67.020287
-94.299210 122.637314 -66.907890
103.242638 115.192177 -65.899231
108.266754 121.044579 -66.135323
36.674019 125.478920 -67.424805
46.353844 124.477455 -67.780556
44.523552 127.661224 -67.998322
33.467331 127.139870 -67.636154
43.101830 128.134323 -66.051628
44.603161 130.567047 -66.460739
107.763634 132.436600 -67.497398
112.589951 137.333496 -66.740288
30.563463 135.393677 -66.227020
30.637989 142.235123 -66.152489
-74.240135 144.778580 -66.723045
-55.468861 142.796524 -65.555885
114.063324 150.984482 -66.932243
26.813099 146.162094 -66.130424
36.558037 145.669022 -66.973366
-77.396599 148.189926 -66.331078
25.700714 149.151291 -66.530060
26.662107 152.160446 -67.256424
-45.790813 153.885666 -65.921127
-71.605728 156.149048 -66.917694
-53.787022 157.414337 -66.999428
33.016472 156.507980 -66.763771
-52.876549 162.237610 -68.607834
34.277298 160.813461 -67.161812
29.668715 169.246735 -66.073433
109.394142 161.876312 -66.422264
23.386932 164.781769 -67.217712
13.110279 164.331833 -67.007851
-38.538754 166.551422 -67.666664
-71.393021 164.876694 -65.200554
-47.279167 167.903412 -66.970032
108.416786 169.515808 -67.083755
32.286926 169.401108 -67.338570
111.704697 171.695602 -66.892525
-35.667202 172.866013 -66.439484
18.540655 176.194916 -65.671204
2.453342 173.821152 -66.282692
-31.706524 174.999680 -65.901680
-62.433441 175.805267 -66.370644
-32.065327 178.076859 -67.013618
-58.312138 182.532257 -67.235741
-37.402969 184.346481 -67.437981
27.608269 180.253387 -67.333870
-37.983032 186.814041 -65.845627
-150.809982 187.687256 -66.137802
111.932373 187.792038 -66.242722
-151.041077 191.661621 -66.463531
-143.753510 191.599152 -66.854477
14.081796 192.017181 -66.688736
24.231009 194.817169 -67.024048
-33.811302 193.905304 -66.238991
-149.557465 197.954102 -66.234344
-30.089422 200.087845 -66.454697
-145.217316 199.908951 -66.334358
-16.004581 202.537170 -66.652451
13.304651 203.271042 -68.250816
99.903290 208.499817 -66.987289
10.455623 204.773300 -67.385704
-127.428223 205.622467 -65.775795
-131.132675 206.478531 -66.734756
-140.232239 208.577713 -68.067276
95.421822 209.862152 -66.086884
-133.461838 210.786240 -66.628792
7.226661 217.517822 -68.026237
-24.900738 210.149673 -66.560837
-132.721054 212.824814 -65.748505
-149.551987 215.390549 -69.356735
99.137604 217.245255 -67.729912
-12.754587 213.702438 -67.297020
98.074577 210.907883 -67.008469
-8.228100 217.241592 -66.942352
94.062378 218.376251 -66.900177
-144.960312 219.185379 -66.448608
-16.707586 220.310516 -66.281136
-149.990387 224.321182 -66.703949
-149.609161 218.551895 -66.880478
-17.394665 223.401352 -65.251968
-88.405754 224.352844 -66.019943
-161.757523 225.404831 -66.619926
-160.288666 221.769806 -66.396584
-156.175140 222.898712 -66.248375
-28.694132 225.160751 -66.732574
-25.929613 228.503036 -66.364365
-15.910580 226.132721 -66.056870
-15.421500 226.925812 -67.072166
-145.755768 228.295776 -67.911789
18.116373 230.484741 -69.044640
-151.392044 231.475632 -66.541283
-88.990158 228.769073 -66.922752
-164.897858 233.659103 -66.765923
-25.834991 230.503098 -67.356659
-18.362133 228.916183 -67.448959
-161.520721 226.439026 -66.639198
15.408104 229.299194 -66.622292
-157.608871 229.478790 -66.644463
6.248377 232.394470 -66.589081
-159.928986 232.126053 -66.774460
-154.983139 230.847443 -66.614120
-104.942497 231.775726 -66.459724
6.810677 233.055832 -65.499634
-159.901627 236.503601 -67.099319
-161.636551 235.208328 -67.467888
4.103609 235.344910 -67.137161
-116.352539 236.557190 -66.027390
-157.217712 236.691177 -66.826309
14.145508 235.747116 -66.236092
-110.459595 238.577728 -66.137169
-116.493103 238.129517 -66.363647
-120.610474 238.421051 -66.616020
79.038422 238.624252 -66.727379
-162.342575 239.305038 -67.076607
-155.454269 237.848038 -66.785271
-3.467676 239.946198 -65.975174
-165.223877 242.430176 -66.975761
4.891264 240.753220 -65.871490
-161.632599 240.718170 -67.087143
-159.908600 241.982300 -67.041489
71.953316 242.737823 -66.556938
-166.216660 241.997940 -66.232628
-165.561356 246.971436 -67.170723
6.065758 244.988998 -67.890579
-154.650696 248.272888 -67.147285
73.563614 246.617386 -67.050400
70.126907 245.105988 -66.589645
-145.707825 249.778900 -67.600937
8.576689 250.586014 -65.507942
-9.785467 251.101273 -66.489632
66.893669 251.149307 -67.135704
-166.559174 251.456131 -66.428658
9.548973 253.560043 -65.843582
20.091084 252.734116 -68.044029
61.771732 254.973434 -66.271896
18.224518 256.588654 -66.555290
16.368446 256.393433 -67.597893
-72.522232 257.028229 -67.440163
16.154768 256.896057 -67.817482
-12.120678 257.262939 -65.672409
-145.264801 257.662415 -66.804443
-66.435982 261.005127 -67.833679
-144.005371 263.249969 -66.314110
-128.306046 264.500763 -67.082550
-98.015915 264.744598 -67.134315
-135.117386 265.060577 -66.281105
-110.585373 266.977509 -66.085045
-113.074371 267.583679 -66.428314
-95.949715 267.831268 -66.585159
-102.138054 269.475555 -66.349930
-114.074776 271.435028 -66.331627
23.850340 275.243958 -65.885910
-14.206430 277.962921 -67.431458
-167.808273 280.647736 -66.223053
-145.460663 282.595337 -67.111115
14.232505 294.343170 -67.136955
-126.543114 293.808167 -66.369392
-124.482307 295.746185 -64.547043
-82.048019 296.376678 -66.822113
-52.506405 296.041809 -66.782387
-106.077827 296.874542 -66.056938
-39.145294 296.738007 -66.810745
-30.482504 297.592316 -66.520836
-9.092152 297.013306 -68.019417
-40.066059 300.010071 -66.258430
-59.879314 300.704193 -66.319687
-28.947798 300.581970 -66.481689
-19.498299 301.014374 -66.813004
13.800566 302.116211 -66.661133
-115.124763 301.887878 -67.044411
-119.523178 302.289612 -66.935303
12.129124 302.790009 -67.109291
-135.810974 303.026398 -66.105545
-146.069504 308.907776 -67.300644
-144.042114 315.419434 -67.876564
-153.058456 322.489044 -67.391411
27.245163 24.496880 -65.428795
44.077927 24.798532 -64.170982
37.438126 26.548595 -65.553116
47.063622 30.746939 -65.613129
45.174973 32.778469 -65.659645
47.245594 34.036209 -65.708641
25.238445 36.394539 -66.014671
25.700100 38.021309 -65.624420
45.291931 42.657890 -65.854507
38.805737 46.574272 -65.628014
38.181625 46.063515 -64.503349
39.306690 50.926327 -64.242393
-61.711433 59.951756 -65.986557
-49.117107 60.021515 -65.820869
-79.279663 62.475143 -63.691574
-74.579308 63.790905 -66.642311
-77.534050 65.801506 -66.899574
-27.083500 65.698135 -65.167946
-20.640354 72.524933 -67.071617
-17.801832 75.012276 -66.942230
78.342583 77.105560 -64.725090
79.295670 78.580208 -66.155754
72.050064 81.012161 -64.502808
72.998596 86.300255 -67.625114
-30.533617 87.977325 -63.754547
-48.154766 95.153946 -66.404579
99.786774 96.646599 -65.795860
56.164970 96.183472 -63.152714
-63.779758 102.549744 -65.212410
52.915497 101.245018 -64.193924
-64.487747 103.797012 -64.093590
57.871185 105.296608 -65.812073
105.432297 106.485817 -65.929550
71.249969 108.670677 -65.017982
94.433601 111.159554 -66.157326
107.055298 116.997002 -65.912964
-95.192444 109.951073 -65.784981
53.892246 115.426903 -65.243294
39.870274 115.929626 -64.981247
42.041134 115.783455 -66.175468
-95.729927 118.271263 -64.778038
-85.917557 122.448311 -68.460197
38.140915 123.941933 -65.747650
-94.511787 125.761314 -66.273331
44.685558 124.307243 -65.366013
108.990936 126.333229 -66.106888
110.808418 128.034302 -65.152870
110.983734 129.121048 -65.147812
110.379005 132.068924 -65.298355
42.373878 135.113510 -65.889282
34.530376 135.696487 -65.370117
41.261608 139.264954 -66.984383
32.151142 140.033142 -65.653786
-58.459023 139.897812 -65.592323
-54.652870 142.781616 -65.351212
-60.222675 143.860168 -65.199318
-50.895592 147.122971 -67.278946
30.193756 145.940674 -65.488861
-79.693657 143.926392 -64.057228
116.746742 154.451263 -65.271042
36.970528 148.068130 -64.977966
35.078709 154.448730 -65.074242
-68.352570 154.849457 -65.683670
-70.450302 157.100861 -65.740891
-75.854736 156.424240 -64.807396
109.774017 158.547516 -65.485535
-69.217651 161.385010 -66.447800
-70.993866 159.127884 -65.814644
-38.614422 162.960617 -66.828728
21.522657 164.610153 -65.985161
33.066204 163.590942 -65.914360
7.882848 163.896240 -66.328003
14.458820 167.784424 -64.906448
24.481804 162.447357 -65.328712
-38.791473 163.799530 -65.178284
-67.117462 168.260681 -64.944656
-40.094006 166.360367 -65.604134
28.777214 170.702499 -65.452522
-65.493080 172.054382 -65.511520
-65.106262 172.773148 -65.644386
-44.655930 169.524887 -65.022568
21.771858 172.595001 -65.712982
20.333862 178.444382 -65.714424
113.661148 179.133179 -65.232613
-29.896944 184.270279 -65.441185
113.152893 183.798523 -66.343132
-146.402771 185.373138 -65.082413
18.402489 187.091156 -65.765602
111.739319 185.828476 -65.182198
27.131285 189.507492 -65.989372
103.815430 193.209976 -65.323952
-19.737719 195.909271 -65.896355
-29.536728 196.749268 -66.482491
13.758726 201.195984 -67.157104
-28.178841 199.130539 -66.554718
-150.150986 198.897568 -65.248390
98.976212 205.115219 -65.000381
-131.187744 205.985977 -66.228424
22.696499 204.621521 -64.792442
105.072021 205.232269 -66.148506
-121.817009 208.387161 -65.610695
103.744072 207.048615 -65.438042
12.173750 207.721985 -65.782135
-155.021942 207.778641 -65.756676
18.753204 210.390320 -64.972450
-159.335587 210.760452 -65.883072
9.073359 209.801407 -66.001762
-122.119896 210.287689 -65.868507
8.321988 214.570862 -65.437408
-24.024115 210.457016 -64.818634
-161.389465 212.640701 -65.983734
-154.983887 213.954132 -65.940727
-152.921783 215.759491 -65.943993
-22.290728 215.131500 -65.623566
-153.316986 216.354446 -65.956680
-161.178085 215.205338 -66.082039
-150.818863 217.566788 -65.940331
7.042569 220.115143 -66.725838
17.070835 216.219131 -64.926071
97.538483 219.316498 -66.100563
-150.880630 220.055801 -66.015442
-165.748810 225.923019 -65.646744
84.924553 224.952560 -66.655724
-144.488297 226.487549 -65.564613
-5.374140 226.503204 -66.825325
6.284349 226.400040 -66.919548
16.736752 226.506317 -64.712318
14.197520 228.679077 -65.475082
-144.752991 231.957367 -65.936958
-17.399031 230.696533 -65.992516
-22.116560 231.307480 -65.450378
-97.194351 232.667938 -66.201492
1.719078 233.242996 -64.855446
81.242027 235.600204 -65.967384
77.855331 233.167953 -66.375954
-100.956505 234.504745 -66.421600
12.674590 238.367050 -65.675102
86.711517 233.932465 -66.324112
-105.618233 236.165771 -66.430832
76.657051 234.763855 -67.288528
-4.756529 237.656616 -64.890793
-17.541916 237.995209 -65.335587
-9.787322 240.127426 -65.358147
73.382942 243.958496 -65.750458
11.515657 246.071259 -66.906059
-123.789734 243.085693 -64.612083
-166.710571 240.760818 -65.222786
75.228645 245.304230 -65.867928
-126.250305 244.697632 -64.601006
-8.570190 246.800339 -64.872421
72.706909 247.658890 -64.975151
8.005305 248.527847 -65.603920
-2.303646 250.465607 -66.646568
-8.812527 252.098068 -65.625847
69.137642 250.439331 -65.909615
15.229408 249.443237 -64.864578
-144.862228 255.818390 -65.498138
51.642841 254.776245 -65.420341
-12.129461 256.480835 -65.416214
-70.767487 258.208405 -65.013191
57.039711 258.457184 -63.715675
-67.535645 260.418793 -65.704544
48.920887 259.108978 -66.440918
-91.190140 261.819031 -65.983192
23.059847 263.740082 -64.964981
43.728653 264.535004 -65.074890
-135.944305 265.348907 -65.469643
-167.610748 268.862701 -65.280693
-106.721497 270.517731 -66.089188
-141.987595 272.729492 -66.130875
-143.419495 273.119568 -67.035789
-15.132312 273.912262 -65.316017
21.585524 284.981567 -65.295654
-8.783730 291.299072 -66.453201
-158.000610 292.316528 -65.258377
-128.688889 293.739838 -65.577713
-156.240860 295.466278 -65.262413
-90.460739 296.646210 -65.310181
-83.658577 296.588470 -65.331177
-48.952599 297.118622 -65.745644
-14.452864 297.787781 -66.164505
-37.690742 297.951904 -66.041306
-14.146688 298.757599 -65.588524
-35.805119 298.978455 -65.831017
-12.531494 299.176392 -65.606628
-45.530121 299.943298 -66.066940
-5.334237 300.021881 -65.513832
-71.229591 300.962494 -66.132034
-85.908287 301.276672 -66.045441
-105.132599 302.081696 -64.992546
-117.158585 302.490234 -64.413429
-133.358734 304.335510 -64.875473
-153.840698 308.210266 -65.633034
-155.765030 316.571472 -64.361732
-148.594528 322.582062 -66.353012
42.484768 23.729881 -64.283569
22.853989 28.121193 -61.591141
43.575573 30.658503 -65.031715
26.271332 34.140877 -63.831074
42.086948 42.840534 -64.159782
24.739462 47.290924 -63.841347
35.365059 49.229347 -64.444679
-62.287106 59.211044 -65.277283
-45.765350 58.390190 -63.742870
-44.512535 58.934776 -64.159294
-41.772564 59.263153 -64.022079
-32.771004 62.444832 -64.650307
-26.608908 64.187393 -63.787819
-14.386268 75.195480 -64.776176
77.101669 80.998253 -67.132507
98.108551 82.170143 -63.574284
-21.224218 84.106850 -65.309059
71.805916 86.684761 -67.018333
-42.391537 90.244614 -65.693642
67.089958 92.634056 -62.939995
58.022926 95.386963 -63.068649
60.850266 97.857933 -63.334335
56.321556 102.106056 -66.286957
-60.637398 101.555672 -65.293083
-96.049721 105.938461 -64.052536
45.800835 106.175316 -65.051468
103.763786 107.221558 -65.360596
59.471146 107.234917 -65.218040
71.542053 110.810234 -63.023964
-71.776398 110.260735 -62.587170
52.599167 113.482590 -64.282883
107.486145 114.852036 -64.557510
75.890869 113.400482 -63.984493
105.082153 113.239525 -64.528404
89.629028 113.206543 -65.956970
103.662399 117.487694 -63.914627
52.035378 118.057091 -65.452934
-86.953217 122.807007 -66.256157
42.228748 123.955879 -64.380348
-95.322937 123.120171 -65.122864
42.341290 126.667511 -64.980072
-79.744179 129.360687 -64.263466
45.395512 126.477715 -64.544846
113.222122 124.874687 -64.532707
35.537983 134.462082 -65.076508
-79.936920 130.139938 -64.158539
-85.213806 131.631180 -64.052299
35.848858 137.106384 -65.016800
-85.055359 136.979752 -64.725471
34.082447 131.225037 -63.872093
-78.343025 137.890518 -64.663704
-50.983101 141.284149 -64.383102
-55.578068 141.755280 -64.898392
-49.729294 142.454071 -64.369942
32.387707 144.513351 -64.765907
-60.386719 144.550827 -64.954483
32.777588 145.895248 -64.731064
-71.695961 146.088943 -62.995998
116.569733 154.671097 -64.915726
25.406261 151.185516 -65.489532
30.329851 149.563751 -64.773567
-72.673447 153.034485 -64.165237
-53.084984 158.457092 -66.030197
32.570152 153.715195 -65.322342
-53.351570 156.407181 -63.880810
25.658667 162.115326 -64.495865
-73.066452 161.160782 -64.411819
-54.073502 160.418396 -65.949257
-44.522346 161.377090 -64.360802
10.108811 161.383102 -64.293320
115.891113 162.928040 -64.805862
-51.552887 164.235825 -65.451141
28.833576 167.396179 -64.959625
-38.350826 165.342590 -64.672310
30.309696 170.035126 -64.127655
-41.220543 167.266815 -64.788284
-37.047012 167.646332 -64.645996
-42.819740 170.038757 -64.610634
-43.331081 170.103180 -64.674576
8.239260 169.325211 -64.127266
-45.450588 172.449677 -64.612671
26.554541 171.770294 -64.098000
-38.504223 172.559601 -64.844795
