6.704589843750 -64.849609375000 -114.834548950195 26.670917510986
40.418075561523 -67.546867370605 -140.677597045898 5.568941593170
41.492355346680 -66.101257324219 -139.514053344727 7.114507198334
51.675933837891 -68.204513549805 -145.046981811523 15.732829093933
50.939987182617 -69.021949768066 -142.098571777344 14.048270225525
-24.832321166992 -61.493591308594 -80.907409667969 8.513699531555
56.278396606445 -69.689033508301 -140.896728515625 18.645244598389
-21.306091308594 -61.346496582031 -83.943359375000 12.460632324219
-71.414939880371 -57.240959167480 -39.912933349609 2.862679719925
-56.911407470703 -58.266052246094 -48.238128662109 5.854167938232
-64.153457641602 -59.042259216309 -40.942718505859 2.999280929565
-61.742633819580 -58.145004272461 -41.888488769531 1.031671524048
-73.676437377930 -53.523696899414 -27.851165771484 15.501920700073
-65.946960449219 -56.432357788086 -24.982208251953 17.303680419922
-71.300933837891 -55.982315063477 -26.075500488281 16.730785369873
-63.588714599609 -56.703765869141 -14.449981689453 27.784463882446
-71.383613586426 -56.730537414551 -4.233367919922 38.538669586182
-44.055076599121 -58.303253173828 -24.136505126953 20.024749755859
22.277587890625 -62.465873718262 -72.883819580078 33.222576141357
10.740127563477 -62.627220153809 -64.380950927734 20.043638229370
0.892463684082 -61.948486328125 -56.153137207031 10.022201538086
59.779647827148 -64.920806884766 -102.649291992188 4.744664192200
-38.789192199707 -59.247444152832 -26.139892578125 19.878753662109
62.425781250000 -64.771759033203 -103.750396728516 6.519314289093
-47.766769409180 -57.595703125000 -18.079040527344 25.496585845947
-12.745185852051 -60.416702270508 -43.459991455078 8.398035049438
-3.902946472168 -60.742424011230 -50.027770996094 7.776762008667
-64.430068969727 -56.976753234863 -3.664672851563 38.560470581055
-48.197204589844 -57.375450134277 -14.482360839844 28.904321670532
-30.630126953125 -58.967941284180 -28.785217285156 19.072858810425
7.532135009766 -61.506912231445 -56.984222412109 16.193103790283
75.939453125000 -67.619491577148 -106.732192993164 2.473623514175
38.408477783203 -64.527336120605 -78.651275634766 16.955705642700
48.491409301758 -65.054496765137 -85.666198730469 4.915339946747
-42.269798278809 -57.312744140625 -16.986602783203 27.458639144897
-39.384384155273 -59.045822143555 -16.979614257813 28.171699523926
-50.577224731445 -57.571113586426 -5.729248046875 37.167739868164
-45.553421020508 -56.836288452148 -1.424682617188 42.228488922119
-40.434295654297 -57.471893310547 7.191741943359 51.416568756104
-127.574150085449 -66.683113098145 -252.140594482422 3.107475757599
-139.710556030273 -66.014846801758 -237.607147216797 5.456924915314
-140.079208374023 -66.158569335938 -237.296646118164 4.954703330994
-95.770362854004 -68.815521240234 -265.535949707031 6.850656032562
-91.268753051758 -69.234382629395 -266.042297363281 8.360129356384
-139.842269897461 -64.358642578125 -228.259338378906 1.723811626434
-139.988998413086 -64.399246215820 -223.068298339844 4.398636341095
-2.687370300293 -75.605499267578 -323.181671142578 30.787149429321
4.558380126953 -75.358596801758 -325.823455810547 32.795394897461
-138.919738769531 -64.532257080078 -215.696838378906 6.407402038574
-88.091812133789 -67.297210693359 -250.101119995117 2.745328664780
11.644195556641 -75.904434204102 -323.127075195313 29.110158920288
13.648727416992 -74.333206176758 -319.233093261719 25.101243972778
-137.486358642578 -65.149383544922 -210.053939819336 7.573739528656
-99.821418762207 -67.872688293457 -232.259948730469 7.087819576263
19.250106811523 -75.962890625000 -316.872131347656 23.209661483765
-100.545326232910 -64.173095703125 -224.071365356445 4.054111003876
-14.068183898926 -73.426979064941 -289.593170166016 1.992698669434
-101.821723937988 -64.528701782227 -222.519897460938 3.329964637756
-16.099609375000 -72.451080322266 -284.146118164063 3.850798845291
-16.415084838867 -71.186584472656 -278.671691894531 5.026710033417
-10.364120483398 -73.536399841309 -286.085235595703 1.105923771858
-8.531654357910 -74.087234497070 -282.207031250000 1.394776940346
-17.363113403320 -72.284584045410 -272.694274902344 3.628150224686
35.463165283203 -76.338417053223 -311.516510009766 27.059448242188
-113.788116455078 -63.269317626953 -194.486587524414 2.818618059158
-113.341682434082 -63.194885253906 -192.816802978516 2.255168199539
39.815093994141 -75.750137329102 -308.128906250000 28.315629959106
-6.434089660645 -71.838882446289 -266.537536621094 4.402264595032
-4.176704406738 -71.852012634277 -263.700439453125 5.346204757690
-113.692222595215 -64.245704650879 -183.401855468750 2.622807502747
41.355438232422 -75.664222717285 -304.018707275391 27.702964782715
48.898773193359 -76.961807250977 -303.482879638672 34.633266448975
-2.718215942383 -70.185317993164 -257.340118408203 4.976024627686
52.284637451172 -75.353820800781 -299.188110351563 36.540359497070
51.977890014648 -76.169708251953 -292.275085449219 34.555538177490
-10.250770568848 -70.478416442871 -239.362808227539 2.581264019012
61.785949707031 -75.427536010742 -290.454193115234 39.340465545654
54.891052246094 -75.581420898438 -289.306976318359 35.106407165527
-75.521942138672 -65.798400878906 -187.191925048828 20.664112091064
-71.734542846680 -66.624458312988 -188.354751586914 18.025583267212
-5.561592102051 -70.434379577637 -231.886489868164 1.349931955338
-74.811676025391 -67.457145690918 -187.662704467773 19.613605499268
-87.739028930664 -65.624710083008 -175.655273437500 14.617350578308
-84.224136352539 -64.767364501953 -173.159820556641 17.408821105957
58.851745605469 -76.576255798340 -283.985290527344 32.679401397705
-66.270568847656 -64.761550903320 -181.780868530273 12.843801498413
-85.072166442871 -64.365974426270 -170.527877807617 15.360381126404
-58.565303802490 -65.065177917480 -187.611602783203 10.799244880676
66.354415893555 -74.934890747070 -274.626403808594 27.825428009033
-4.275177001953 -70.113945007324 -223.106811523438 1.737839698792
-79.078063964844 -65.062263488770 -164.143081665039 12.844048500061
-58.313945770264 -65.968605041504 -174.503952026367 7.587135314941
-48.049392700195 -65.780197143555 -183.524902343750 8.833024978638
-49.786682128906 -65.765823364258 -182.119293212891 8.994106292725
-75.194969177246 -64.854309082031 -161.962387084961 9.783400535583
-9.264015197754 -69.447860717773 -209.803314208984 1.997450947762
-57.900745391846 -66.983787536621 -174.332168579102 6.728292465210
-53.929771423340 -66.392074584961 -174.761108398438 7.547130107880
9.234283447266 -69.712081909180 -217.309722900391 2.238369226456
-42.606002807617 -66.300994873047 -179.010238647461 7.554639339447
-67.061843872070 -63.899871826172 -157.885314941406 6.563279151917
70.650619506836 -75.325027465820 -266.915313720703 23.185235977173
70.997909545898 -76.273414611816 -265.563781738281 22.547927856445
9.754318237305 -69.933364868164 -215.810791015625 1.562196969986
77.862991333008 -75.486419677734 -262.107849121094 23.081260681152
77.492095947266 -74.967697143555 -260.415313720703 21.451972961426
5.743057250977 -68.689964294434 -201.913253784180 3.762356996536
-30.484115600586 -69.346824645996 -175.480773925781 2.621343135834
-48.218368530273 -64.387466430664 -156.721023559570 4.543548583984
81.772933959961 -75.359573364258 -253.431594848633 18.406564712524
-36.951416015625 -66.697822570801 -167.743835449219 2.723440170288
6.819564819336 -71.007125854492 -197.396774291992 2.995966196060
-32.917694091797 -67.255271911621 -163.869323730469 3.497880458832
-44.563110351563 -65.513671875000 -153.306518554688 2.922470569611
-119.048034667969 -60.159523010254 -96.018218994141 19.192651748657
-119.712799072266 -60.002166748047 -92.676254272461 19.920980453491
82.360519409180 -74.574752807617 -247.553680419922 14.223672866821
18.335632324219 -69.588981628418 -195.615692138672 1.325498461723
-42.498344421387 -65.488555908203 -151.297088623047 4.396590232849
-39.982513427734 -64.132675170898 -147.993743896484 6.062346935272
-35.284889221191 -65.608566284180 -149.687271118164 7.437540054321
-33.181953430176 -65.552871704102 -147.153778076172 9.934388160706
11.277450561523 -68.417221069336 -187.483642578125 3.777095794678
11.199508666992 -69.631912231445 -186.419738769531 2.644990205765
85.925781250000 -75.057098388672 -240.211791992188 11.034609794617
-15.243553161621 -67.474906921387 -158.847503662109 15.009644508362
-30.277023315430 -65.590637207031 -146.034622192383 12.519234657288
24.589157104492 -68.935928344727 -184.307922363281 2.843262672424
-27.170433044434 -65.735702514648 -147.097091674805 14.501289367676
86.554901123047 -73.749404907227 -229.765777587891 4.462113380432
-19.877555847168 -66.115631103516 -146.217483520508 20.765363693237
84.239227294922 -73.200378417969 -225.332717895508 1.538400650024
23.957229614258 -68.571517944336 -180.241241455078 1.076925873756
-19.814376831055 -66.312568664551 -143.634719848633 21.801198959351
24.588180541992 -69.758842468262 -179.226242065430 1.289013862610
-5.226615905762 -66.077621459961 -152.620101928711 12.071184158325
-20.090507507324 -65.400665283203 -142.408843994141 22.449438095093
88.836715698242 -73.439262390137 -219.788375854492 1.375724911690
20.400848388672 -68.549644470215 -169.512542724609 1.414102315903
89.427001953125 -73.765472412109 -212.525436401367 1.708058595657
10.001907348633 -68.824928283691 -157.927490234375 0.197455778718
-6.410835266113 -66.343368530273 -145.229125976563 16.781930923462
-47.233901977539 -63.541595458984 -111.337905883789 11.436327934265
88.044006347656 -73.396797180176 -210.055923461914 1.484288692474
2.572456359863 -66.868453979492 -144.404983520508 10.493465423584
32.373916625977 -69.286056518555 -168.550994873047 3.703522682190
-3.424804687500 -65.707534790039 -141.400833129883 17.088903427124
-7.416816711426 -66.191207885742 -139.260253906250 21.185562133789
-57.897598266602 -61.648391723633 -96.651016235352 6.971992969513
10.474868774414 -69.471511840820 -145.437835693359 3.929975032806
3.411987304688 -66.594306945801 -140.088668823242 12.680439949036
24.436599731445 -68.747566223145 -152.868835449219 1.592794895172
32.838073730469 -69.365921020508 -163.652130126953 2.855475664139
10.386138916016 -67.397560119629 -143.877182006836 4.873436927795
11.345321655273 -66.715263366699 -140.087356567383 6.668671131134
34.434310913086 -69.514572143555 -160.803451538086 4.348949909210
30.533782958984 -67.903488159180 -153.724960327148 2.742961883545
28.364242553711 -68.502311706543 -153.329925537109 1.090408682823
-75.979408264160 -59.741172790527 -70.682373046875 9.917047500610
14.230392456055 -67.508255004883 -140.228652954102 4.682867527008
90.769989013672 -73.436355590820 -197.597244262695 4.783225536346
12.958908081055 -67.218582153320 -136.548904418945 8.354578971863
-96.273735046387 -55.518325805664 -53.207397460938 3.761812448502
-74.540603637695 -59.904449462891 -68.806976318359 9.136415481567
20.095413208008 -67.781524658203 -136.854187011719 4.207269191742
89.195663452148 -71.875755310059 -192.502944946289 9.231482505798
21.424743652344 -66.818161010742 -139.708847045898 1.419612526894
25.770645141602 -67.562095642090 -143.231491088867 2.388890028000
83.607406616211 -71.738899230957 -182.917160034180 18.080816268921
28.998107910156 -66.871322631836 -139.425598144531 3.021131992340
84.694671630859 -71.494621276855 -181.920654296875 17.699205398560
-86.129165649414 -59.211822509766 -45.343109130859 3.600744724274
82.146606445313 -71.878440856934 -177.646408081055 21.279462814331
4.815490722656 -64.901832580566 -117.929733276367 26.069519042969
3.847732543945 -65.254158020020 -115.525894165039 28.447889328003
41.852416992188 -67.883712768555 -143.783660888672 7.237660408020
-0.391906738281 -65.237998962402 -110.597961425781 34.820220947266
14.100204467773 -65.672683715820 -121.372329711914 17.035112380981
39.753784179688 -69.027076721191 -141.222076416016 4.387267112732
0.969390869141 -65.286605834961 -110.315856933594 33.663417816162
-81.612670898438 -57.301780700684 -46.409393310547 2.379643917084
44.580856323242 -68.794754028320 -143.345916748047 8.783354759216
-85.912551879883 -57.755561828613 -45.670104980469 2.333582162857
-19.633087158203 -63.277046203613 -90.886016845703 17.405424118042
31.581527709961 -66.599960327148 -128.789489746094 3.173659086227
30.448410034180 -67.002182006836 -125.785430908203 4.343502521515
-27.125907897949 -63.545783996582 -81.463439941406 6.130253791809
-81.468643188477 -58.867607116699 -36.004333496094 9.135219573975
-74.564773559570 -56.856765747070 -40.719543457031 2.828925848007
-29.502929687500 -62.396736145020 -72.940002441406 3.420282840729
-87.872360229492 -57.872886657715 -25.053771972656 21.355707168579
-59.254043579102 -59.620819091797 -49.680725097656 7.486932754517
60.483047485352 -69.512779235840 -138.282958984375 21.473539352417
-81.432647705078 -57.268196105957 -31.438110351563 13.402238845825
-73.897750854492 -58.327468872070 -34.752014160156 8.493142127991
-85.281311035156 -57.514968872070 -23.665344238281 21.928886413574
-62.305244445801 -60.683891296387 -38.967529296875 3.695067167282
-53.710647583008 -60.582336425781 -44.269042968750 1.850856781006
-81.723449707031 -57.701507568359 -21.507293701172 22.935430526733
-68.538314819336 -58.331108093262 -32.389984130859 10.840114593506
-86.417724609375 -58.317306518555 -18.475524902344 27.242879867554
-75.390838623047 -58.614349365234 -25.434295654297 17.857355117798
-80.337486267090 -57.695762634277 -19.802429199219 24.343563079834
-86.142807006836 -57.536964416504 -20.358673095703 25.299846649170
67.588943481445 -68.362571716309 -125.670104980469 19.739538192749
67.198989868164 -66.946151733398 -124.118972778320 18.287803649902
-77.343811035156 -57.506156921387 -16.471252441406 26.966991424561
-74.365829467773 -57.752319335938 -17.704498291016 25.250543594360
-77.397209167480 -57.393402099609 -6.356445312500 36.906703948975
-70.932182312012 -58.172309875488 -20.732727050781 22.070150375366
-69.763839721680 -58.069931030273 -21.891662597656 20.966341018677
-67.527450561523 -57.883468627930 -18.686614990234 23.815433502197
-60.541778564453 -57.813270568848 -18.205841064453 24.021095275879
-73.605300903320 -57.052200317383 -9.834350585938 33.010204315186
-66.883911132813 -57.682983398438 -13.895660400391 28.480312347412
70.133193969727 -69.019821166992 -117.763366699219 12.214270591736
-63.319160461426 -56.613372802734 -13.098724365234 29.140790939331
-70.311691284180 -57.079872131348 -8.349761962891 34.389286041260
-68.570114135742 -57.045974731445 -5.944641113281 36.520015716553
-42.521965026855 -59.053352355957 -25.907989501953 18.726913452148
36.401245117188 -66.058044433594 -83.777236938477 15.211012840271
27.269760131836 -64.501548767090 -76.905212402344 26.738161087036
6.675354003906 -62.753608703613 -61.159667968750 15.590543746948
45.556793212891 -66.382537841797 -90.008987426758 4.430339813232
67.487411499023 -66.990577697754 -106.613998413086 4.733194828033
58.743087768555 -66.534317016602 -99.134201049805 1.520316123962
-26.535591125488 -60.987388610840 -34.019012451172 14.510545730591
-13.389350891113 -60.968154907227 -44.113311767578 7.855374813080
-27.240547180176 -60.174606323242 -30.501831054688 17.890933990479
-19.992843627930 -60.504348754883 -37.115753173828 12.788122177124
-10.496063232422 -60.934288024902 -43.012939453125 9.801301956177
23.743026733398 -63.715911865234 -68.234802246094 28.359836578369
-33.508125305176 -58.935325622559 -25.272521972656 21.752050399780
-6.606895446777 -62.185478210449 -44.882019042969 10.254071235657
-30.453811645508 -60.254592895508 -26.617523193359 20.993009567261
-44.837623596191 -58.323287963867 -15.577239990234 28.231327056885
56.784896850586 -66.262825012207 -91.637786865234 3.498769998550
73.450088500977 -67.374397277832 -102.425613403320 2.364830970764
-56.356307983398 -57.319801330566 -1.066345214844 41.273380279541
-50.153770446777 -56.080688476563 9.381927490234 52.324554443359
-133.648513793945 -67.217842102051 -248.678588867188 6.005975723267
-130.202651977539 -67.089347839355 -250.979614257813 3.696761131287
-120.703369140625 -66.506675720215 -256.036224365234 3.555038928986
-138.100997924805 -66.494827270508 -241.986358642578 7.407756328583
-113.128486633301 -67.457038879395 -260.801879882813 1.496726989746
-141.193145751953 -66.545150756836 -236.018249511719 3.276667118073
-143.387161254883 -67.177101135254 -230.170227050781 2.863358020782
-85.570373535156 -68.624549865723 -263.103485107422 7.347200870514
-83.924964904785 -70.641731262207 -262.601531982422 6.846145629883
-8.681083679199 -75.509284973145 -316.169250488281 24.166151046753
-96.861106872559 -70.159988403320 -245.026870727539 8.093736648560
-91.041641235352 -69.669708251953 -248.916076660156 2.877285242081
-9.400810241699 -76.422897338867 -308.955139160156 17.168115615845
15.958175659180 -75.336914062500 -318.961791992188 24.840610504150
-102.935028076172 -68.408020019531 -224.036102294922 1.735893249512
-9.555557250977 -74.059806823730 -291.439361572266 1.536628723145
-18.006835937500 -74.702850341797 -281.427886962891 6.656970977783
-14.837112426758 -73.412269592285 -282.564575195313 5.320534706116
-18.152297973633 -75.386642456055 -277.085388183594 7.341676712036
30.771377563477 -77.198074340820 -315.042633056641 26.539796829224
-7.442115783691 -75.499671936035 -290.644348144531 2.335788011551
-126.746963500977 -64.558532714844 -192.872634887695 3.334971666336
-110.730033874512 -68.697845458984 -204.545867919922 3.211316108704
-6.589996337891 -74.351821899414 -282.299346923828 1.915135979652
-15.856468200684 -75.156059265137 -274.502838134766 4.221192359924
-15.565505981445 -73.407722473145 -271.558868408203 1.943323373795
-121.117301940918 -64.530639648438 -185.561965942383 8.631496429443
-16.367012023926 -71.976066589355 -262.928619384766 1.186784863472
-5.423995971680 -73.950126647949 -270.600585937500 5.587593078613
-5.260093688965 -71.154060363770 -259.586059570313 4.260860443115
-4.038208007813 -73.510749816895 -259.192138671875 6.930568695068
56.727813720703 -78.217178344727 -297.223510742188 40.586807250977
-77.271179199219 -67.210556030273 -191.221801757813 19.280267715454
0.826408386230 -72.589073181152 -242.984466552734 1.320330739021
-0.768112182617 -71.457130432129 -242.689743041992 1.406333208084
61.182510375977 -76.708435058594 -287.850311279297 37.103660583496
-90.042869567871 -65.894577026367 -175.829483032227 12.567074775696
-73.522781372070 -66.965118408203 -187.497711181641 18.771165847778
64.076873779297 -77.390258789063 -289.208465576172 39.662288665771
-86.707984924316 -64.848487854004 -171.463806152344 14.502914428711
-62.988529205322 -67.248832702637 -187.913070678711 11.698934555054
-74.136825561523 -68.419448852539 -181.031829833984 15.369583129883
61.642364501953 -76.835678100586 -284.744018554688 34.598907470703
-5.142730712891 -71.620864868164 -224.698989868164 2.140027523041
2.384170532227 -71.595893859863 -232.405990600586 2.742469549179
-56.433227539063 -67.006355285645 -184.800628662109 7.583464145660
-76.523094177246 -65.796173095703 -168.103378295898 12.271946907043
-1.656730651855 -70.996719360352 -223.007827758789 1.589342951775
-80.358497619629 -66.585266113281 -164.499298095703 13.169530868530
3.061820983887 -71.509101867676 -230.684097290039 2.106085538864
-49.997703552246 -68.177345275879 -183.985580444336 6.257522583008
-3.663253784180 -70.486587524414 -221.798950195313 0.551757514477
-9.845535278320 -70.142036437988 -212.735809326172 1.987983942032
-72.722908020020 -64.130065917969 -160.756835937500 8.609079360962
-56.112480163574 -66.119087219238 -175.560012817383 7.334370136261
-65.631935119629 -65.799278259277 -164.822265625000 5.861407756805
-54.408988952637 -66.679229736328 -172.989624023438 7.769069671631
-9.681236267090 -68.594902038574 -202.217849731445 2.635038852692
-39.819068908691 -67.294227600098 -177.647933959961 4.415356636047
-48.835990905762 -65.857368469238 -170.559036254883 8.434973716736
4.491348266602 -71.247901916504 -208.518951416016 3.164475202560
-46.453559875488 -66.728683471680 -171.842056274414 6.998824119568
10.165191650391 -71.625160217285 -214.601974487305 1.273438572884
80.212844848633 -76.281738281250 -264.054260253906 26.137031555176
-34.157844543457 -67.579513549805 -175.529846191406 2.433698654175
11.983917236328 -70.208824157715 -210.862503051758 1.013382673264
-61.112438201904 -65.509628295898 -155.757263183594 7.508165836334
-56.165664672852 -65.902343750000 -158.783813476563 8.472168922424
-41.623115539551 -67.747924804688 -167.606628417969 3.761459827423
-55.316642761230 -66.274139404297 -155.582458496094 6.041807651520
81.229187011719 -76.116615295410 -253.813522338867 18.559862136841
-124.148948669434 -61.049850463867 -100.556900024414 24.595890045166
-121.360534667969 -60.421440124512 -98.613540649414 21.672632217407
-47.065673828125 -65.522102355957 -151.997116088867 3.336188316345
79.448974609375 -75.443275451660 -254.037170410156 17.465932846069
84.565124511719 -77.203674316406 -252.733886718750 19.845584869385
82.533599853516 -75.649391174316 -251.035110473633 16.984758377075
17.639205932617 -69.396919250488 -197.251770019531 0.784257948399
-29.710403442383 -65.363464355469 -163.083984375000 6.590019226074
-116.161193847656 -61.049377441406 -96.687286376953 16.566833496094
83.707412719727 -75.804054260254 -247.425415039063 15.355732917786
21.751403808594 -69.221191406250 -186.410537719727 1.483322262764
87.965866088867 -75.351585388184 -241.313842773438 13.228430747986
84.134582519531 -75.822860717773 -239.900436401367 9.797285079956
14.464477539063 -68.123123168945 -178.517303466797 2.644385814667
-96.148292541504 -62.060577392578 -95.700988769531 2.997214794159
-91.143157958984 -63.577583312988 -98.286788940430 7.638486385345
-111.307434082031 -55.847534179688 -82.306777954102 11.128816604614
-97.556274414063 -61.288192749023 -91.275817871094 2.686192989349
-90.743217468262 -61.366867065430 -95.029312133789 8.290001869202
-9.884666442871 -68.713287353516 -156.356353759766 12.008843421936
-9.668823242188 -67.308586120605 -156.465560913086 12.467941284180
-96.193313598633 -61.358779907227 -89.867523193359 4.307751655579
-103.161720275879 -60.301956176758 -82.214431762695 4.442173957825
4.037048339844 -67.422813415527 -157.948303222656 3.166250705719
86.498474121094 -75.445587158203 -228.167419433594 3.127488851547
-3.028907775879 -67.740776062012 -153.287887573242 9.324766159058
87.255737304688 -74.167625427246 -216.135284423828 2.230756998062
26.663116455078 -70.635688781738 -174.406936645508 1.758252739906
9.843231201172 -69.499160766602 -155.228347778320 2.198457479477
28.212921142578 -69.355651855469 -171.689025878906 1.039118051529
-6.460510253906 -67.571197509766 -143.937194824219 17.370218276978
-50.805938720703 -64.389694213867 -108.733322143555 10.189106941223
-55.233634948730 -63.281188964844 -105.511459350586 7.762546539307
4.107872009277 -67.483428955078 -150.119049072266 5.870949268341
-57.303726196289 -61.550598144531 -101.358489990234 7.018104553223
-59.145610809326 -63.632698059082 -98.498107910156 6.201070308685
87.034103393555 -74.272422790527 -204.787048339844 4.537000656128
0.079612731934 -67.016853332520 -137.940002441406 16.547668457031
3.087089538574 -67.445602416992 -137.444412231445 14.563595771790
2.983665466309 -67.026321411133 -141.192153930664 12.264741897583
6.580963134766 -67.801345825195 -140.379043579102 10.048214912415
7.087936401367 -67.872833251953 -139.955566406250 9.981976509094
36.210220336914 -69.983947753906 -162.162277221680 5.329273700714
-89.108070373535 -60.637725830078 -64.084564208984 6.905876636505
86.375091552734 -73.738487243652 -194.991180419922 9.891414642334
21.203292846680 -68.867668151855 -144.136810302734 0.731644392014
32.660140991211 -68.964790344238 -151.837753295898 2.563766717911
87.905197143555 -73.412445068359 -195.735214233398 8.194209098816
-73.398216247559 -60.224960327148 -71.463470458984 7.754338741302
-101.058685302734 -59.221122741699 -45.080474853516 12.733561515808
-83.374542236328 -60.332015991211 -62.685882568359 10.021617889404
39.140197753906 -69.475822448730 -155.112274169922 6.944757938385
35.553009033203 -68.713874816895 -149.093109130859 3.282030344009
-75.346755981445 -60.829574584961 -65.819519042969 11.000157356262
28.280654907227 -68.169471740723 -142.329208374023 0.739228188992
-86.467308044434 -60.431900024414 -54.373809814453 3.740673303604
27.780258178711 -68.140457153320 -139.277511596680 3.172288894653
39.326446533203 -69.224754333496 -146.876846313477 5.153355121613
27.604476928711 -68.433296203613 -138.153945922852 3.156288385391
28.553695678711 -68.823059082031 -138.311599731445 2.581432819366
36.635803222656 -68.727043151855 -143.553985595703 2.882061958313
-97.728065490723 -58.472091674805 -41.909179687500 11.969118118286
-93.362930297852 -59.467529296875 -43.770263671875 8.255798339844
45.906799316406 -69.331809997559 -147.064880371094 10.876601219177
32.140075683594 -68.986236572266 -136.801635742188 1.225921392441
84.399139404297 -71.836830139160 -177.271240234375 19.289510726929
81.061004638672 -72.195579528809 -174.086898803711 23.575407028198
-96.903877258301 -58.720657348633 -34.906188964844 17.086952209473
-94.344200134277 -58.840942382813 -38.737640380859 12.626947402954
-88.295715332031 -59.733444213867 -44.260070800781 5.246236324310
-11.438484191895 -64.300743103027 -100.572647094727 28.467977523804
29.494445800781 -68.440536499023 -132.254287719727 1.427273154259
-5.852584838867 -65.479431152344 -104.545059204102 34.398178100586
-86.407180786133 -59.389793395996 -40.828857421875 7.046456336975
-13.266738891602 -65.483489990234 -97.352508544922 24.584005355835
50.044784545898 -70.748374938965 -143.261367797852 13.132034301758
29.298019409180 -68.827629089355 -125.381011962891 3.306862115860
30.816329956055 -67.741409301758 -128.409454345703 3.233213663101
-87.382377624512 -58.946525573730 -36.450225830078 11.162386894226
-93.871238708496 -59.087280273438 -28.920593261719 20.496503829956
-30.018867492676 -63.630645751953 -77.989593505859 2.757468700409
-90.268585205078 -58.232727050781 -29.127044677734 18.702125549316
-76.420684814453 -59.021476745605 -40.694519042969 3.274143457413
-20.048385620117 -63.445678710938 -82.337219238281 10.687171936035
-33.215515136719 -62.140464782715 -70.197052001953 2.095947027206
-26.691368103027 -63.923332214355 -74.547241210938 3.376555681229
-66.122436523438 -60.836265563965 -44.033966064453 1.315691590309
60.112625122070 -70.987670898438 -139.348297119141 21.187896728516
-35.338890075684 -62.314971923828 -66.192413330078 5.912395954132
-39.180053710938 -62.223381042480 -62.617248535156 10.132280349731
-40.453590393066 -62.224914550781 -61.179718017578 11.715322494507
-48.344230651855 -61.129234313965 -53.193908691406 8.884519577026
-42.667823791504 -62.355972290039 -57.084014892578 10.939992904663
-47.796852111816 -61.199378967285 -51.973937988281 7.560834884644
-68.218032836914 -57.881866455078 -34.514343261719 8.825488090515
-60.230747222900 -60.802558898926 -38.807495117188 3.966484785080
-73.359985351563 -58.442840576172 -26.075439453125 16.866069793701
-65.663085937500 -59.540817260742 -26.223724365234 16.461109161377
-78.822578430176 -57.836860656738 -7.758819580078 35.798900604248
48.135574340820 -67.711135864258 -101.363265991211 1.351405739784
-44.872314453125 -60.305809020996 -24.841796875000 19.030059814453
-50.299690246582 -59.750274658203 -18.929901123047 24.039726257324
22.894531250000 -64.003440856934 -73.924255371094 32.048763275146
-10.642616271973 -62.955444335938 -47.690155029297 6.860865592957
37.937896728516 -67.007392883301 -84.084930419922 13.676000595093
34.192749023438 -66.312377929688 -81.284271240234 18.399814605713
-30.077011108398 -60.685897827148 -31.810089111328 16.185754776001
47.712432861328 -67.679473876953 -90.847274780273 1.933533310890
72.462753295898 -68.807693481445 -106.776550292969 3.016034603119
21.812759399414 -64.106552124023 -66.787872314453 27.463279724121
-27.698753356934 -60.758079528809 -29.107971191406 19.195856094360
0.113410949707 -64.480361938477 -49.945190429688 12.481220245361
7.986053466797 -64.595756530762 -56.184936523438 17.473947525024
37.234893798828 -66.349090576172 -78.177215576172 18.011898040771
-17.813476562500 -61.960136413574 -35.918884277344 14.487302780151
-26.264457702637 -61.728149414063 -29.379638671875 19.098279953003
55.717224121094 -67.362876892090 -91.095413208008 3.115942001343
-63.890163421631 -58.143562316895 0.025238037109 42.285186767578
-53.423568725586 -55.780723571777 1.557281494141 44.190658569336
-45.626144409180 -56.574615478516 10.959777832031 54.389019012451
-80.074218750000 -74.374023437500 -333.973114013672 42.751251220703
-81.890411376953 -74.119270324707 -330.190795898438 39.086143493652
-80.162597656250 -73.868721008301 -327.854339599609 36.638370513916
-80.561470031738 -73.882377624512 -322.511016845703 31.325660705566
-75.613861083984 -73.591346740723 -319.048278808594 27.942134857178
-65.846496582031 -74.142807006836 -318.299987792969 27.338331222534
-67.251785278320 -73.993682861328 -316.456512451172 25.600816726685
-126.016159057617 -68.436897277832 -255.902984619141 1.647196650505
-104.353828430176 -71.653274536133 -268.306396484375 7.676297187805
-1.368751525879 -77.652038574219 -328.010559082031 35.661552429199
-141.077987670898 -65.604843139648 -217.984451293945 4.201678276062
-9.127510070801 -75.583892822266 -313.594146728516 21.639318466187
-97.017257690430 -68.543807983398 -241.585662841797 11.690732955933
-137.784774780273 -65.622306823730 -209.459350585938 6.770275115967
-97.845130920410 -67.226921081543 -235.004531860352 10.415117263794
19.606735229492 -77.178192138672 -318.044799804688 24.494443893433
-131.373474121094 -64.136451721191 -200.877212524414 1.787748694420
-2.038635253906 -75.969093322754 -299.039794921875 6.660447120667
-131.129959106445 -65.312339782715 -198.342346191406 2.505427360535
-9.778602600098 -72.886299133301 -289.025146484375 2.713854074478
29.005813598633 -78.084304809570 -315.128967285156 25.648038864136
-106.915252685547 -68.003372192383 -209.197601318359 8.585495948792
-17.747055053711 -73.304695129395 -276.497985839844 6.231631278992
10.559509277344 -76.398910522461 -295.093475341797 3.454930067062
13.858673095703 -76.998687744141 -298.052856445313 4.300394535065
-15.880020141602 -74.402725219727 -274.918334960938 4.244021892548
36.862380981445 -77.408622741699 -312.338226318359 28.737855911255
-119.875823974609 -65.281906127930 -183.066970825195 7.915045261383
33.019241333008 -78.164291381836 -307.711730957031 22.952581405640
40.560134887695 -78.153205871582 -306.073791503906 28.151773452759
-13.768486022949 -72.539932250977 -259.557861328125 3.261421918869
-6.644012451172 -72.774932861328 -266.192260742188 5.223410606384
-6.174797058105 -72.407600402832 -262.562011718750 5.245162010193
-15.314315795898 -72.116462707520 -256.314819335938 1.653235912323
-7.100212097168 -74.259819030762 -261.240051269531 6.379261016846
-4.421089172363 -73.909812927246 -260.220611572266 7.088240623474
47.080383300781 -76.617607116699 -296.745635986328 30.950784683228
53.848098754883 -77.598327636719 -295.705230712891 37.451110839844
-12.709373474121 -73.243972778320 -247.919204711914 1.965953946114
-8.529067993164 -73.235092163086 -242.502441406250 1.603150248528
-90.551597595215 -66.378715515137 -177.452499389648 12.682659149170
-76.833854675293 -68.688514709473 -190.264190673828 19.861576080322
63.258453369141 -77.319572448730 -285.709014892578 36.251335144043
-9.210945129395 -72.978668212891 -237.069152832031 2.367294788361
-1.708709716797 -72.724746704102 -243.359558105469 1.787766337395
-91.026344299316 -66.537986755371 -172.815322875977 10.641436576843
-8.279647827148 -72.475120544434 -234.034088134766 1.743264198303
-5.670684814453 -71.768859863281 -232.244857788086 1.194261908531
-62.422443389893 -68.758911132813 -187.252014160156 10.034645080566
-81.590560913086 -66.195739746094 -169.973754882813 16.798593521118
-66.624694824219 -67.160530090332 -179.679718017578 10.226111412048
1.994140625000 -72.583786010742 -232.573547363281 2.768016815186
-62.927639007568 -65.547576904297 -176.453262329102 9.200487136841
5.610038757324 -72.206474304199 -229.914932250977 1.091535210609
6.977432250977 -72.909866333008 -220.366149902344 1.116374015808
66.082580566406 -77.410507202148 -274.189056396484 27.944078445435
-0.674354553223 -71.450363159180 -220.204864501953 1.203293561935
-9.143508911133 -71.052764892578 -214.376373291016 2.084844350815
-48.938941955566 -67.286697387695 -181.587356567383 7.772192001343
-76.228652954102 -67.810470581055 -163.059402465820 8.779948234558
-55.117088317871 -67.443473815918 -175.222305297852 6.171577930450
69.935028076172 -76.594017028809 -267.537231445313 23.655294418335
9.207397460938 -71.801239013672 -221.875335693359 0.979651451111
73.861511230469 -76.953010559082 -267.765899658203 25.872777938843
-42.893188476563 -68.601875305176 -178.219131469727 6.438980579376
2.281555175781 -72.558654785156 -208.114715576172 5.299886703491
-11.945060729980 -71.019393920898 -200.365921020508 2.975343227386
-38.472198486328 -69.347503662109 -178.873001098633 3.018297433853
-62.454490661621 -67.036735534668 -159.780563354492 4.984370231628
-36.858932495117 -68.176795959473 -176.253646850586 1.801932692528
-55.080795288086 -66.332763671875 -156.931213378906 6.547272205353
-37.316429138184 -67.354530334473 -168.062606811523 1.971751213074
12.020294189453 -71.387786865234 -210.404571533203 2.023157596588
-36.354774475098 -68.877693176270 -165.671768188477 2.464276075363
-125.729690551758 -61.846572875977 -97.163085937500 26.115524291992
83.719650268555 -77.408805847168 -255.030960083008 21.146646499634
-123.505195617676 -61.456710815430 -93.868438720703 23.836231231689
-117.719734191895 -61.501884460449 -98.317199707031 18.093517303467
8.306167602539 -71.074249267578 -192.858200073242 3.170310735703
18.095321655273 -71.308898925781 -196.740997314453 2.225439071655
-28.740127563477 -68.642913818359 -162.540298461914 4.895907402039
-118.539047241211 -61.693260192871 -89.729568481445 19.056596755981
-22.038803100586 -68.570289611816 -159.855209350586 11.616039276123
-113.898002624512 -61.827194213867 -90.783676147461 14.456995010376
-9.330162048340 -69.181434631348 -166.377319335938 7.019154548645
14.532745361328 -69.324447631836 -183.484756469727 1.318909764290
86.645477294922 -75.682777404785 -231.313354492188 5.775607109070
13.133361816406 -69.998794555664 -180.533630371094 2.195817708969
-96.299964904785 -63.372299194336 -96.893447875977 2.550874710083
-98.697837829590 -62.183235168457 -94.027832031250 1.349446892738
-104.630889892578 -60.283638000488 -86.944458007813 5.436246395111
83.859466552734 -76.296791076660 -227.490890502930 2.315602302551
-97.961593627930 -62.094871520996 -89.186080932617 2.804616451263
18.267868041992 -69.003494262695 -168.454498291016 1.117125272751
-11.834579467773 -68.644760131836 -154.951904296875 14.136253356934
-96.177536010742 -62.991554260254 -87.964385986328 3.555089235306
-107.899848937988 -58.353462219238 -75.966125488281 8.601506233215
91.336502075195 -74.783752441406 -223.910186767578 4.061470985413
0.015693664551 -68.588714599609 -159.453094482422 4.205648422241
86.640563964844 -75.521705627441 -228.293853759766 3.327846050262
5.742095947266 -69.167274475098 -159.334259033203 1.127799630165
87.940658569336 -75.294784545898 -219.918624877930 1.922169685364
-102.069175720215 -61.481330871582 -75.564605712891 3.800342559814
0.808227539063 -69.282249450684 -151.757934570313 6.677180767059
-102.971755981445 -60.860656738281 -68.455261230469 4.750409603119
-106.138526916504 -60.781158447266 -73.295318603516 7.664508342743
2.082756042480 -70.228897094727 -148.831497192383 7.280313014984
-53.902542114258 -65.215499877930 -105.419784545898 9.911006927490
-111.699256896973 -60.228912353516 -60.513031005859 14.697692871094
-112.728744506836 -60.586036682129 -64.285797119141 14.824224472046
-108.776046752930 -60.964797973633 -65.851104736328 10.946330070496
-5.802337646484 -68.054664611816 -140.703567504883 18.714225769043
-1.599281311035 -68.544189453125 -139.681961059570 16.339969635010
4.943939208984 -69.478973388672 -147.581695556641 6.401103496552
5.852218627930 -68.484565734863 -147.289855957031 5.904716491699
-97.153190612793 -59.856628417969 -67.885681152344 1.541306495667
34.802795410156 -68.470130920410 -164.702774047852 5.174605846405
-99.782669067383 -60.847702026367 -61.897277832031 3.434148788452
-51.670242309570 -64.222900390625 -101.586868286133 12.414231300354
-109.220489501953 -59.790084838867 -52.046691894531 15.370246887207
-0.278724670410 -67.533737182617 -138.188995361328 16.524791717529
4.723594665527 -67.907592773438 -143.951583862305 8.939959526062
-110.886398315430 -60.210533142090 -59.831207275391 14.260136604309
31.833343505859 -70.741653442383 -163.908706665039 1.510011911392
-105.936470031738 -60.399589538574 -59.757934570313 9.743922233582
26.398315429688 -70.188888549805 -155.931427001953 1.668708324432
-106.184486389160 -60.097526550293 -56.257202148438 11.188625335693
-103.020210266113 -60.568901062012 -60.243041992188 7.000402450562
-62.588920593262 -63.695220947266 -89.577087402344 1.450935721397
27.201629638672 -71.301361083984 -155.691513061523 2.264624595642
-103.511032104492 -59.718780517578 -52.796203613281 10.193675041199
-105.659698486328 -59.264053344727 -52.803649902344 11.929589271545
26.489440917969 -69.476104736328 -152.313522338867 1.737574100494
-68.816772460938 -63.385017395020 -78.883361816406 8.949795722961
-101.270019531250 -60.148925781250 -54.247406005859 7.916280269623
34.698455810547 -70.969177246094 -157.987701416016 3.161679267883
-62.898296356201 -63.600959777832 -80.818939208984 4.216349601746
-67.967605590820 -63.020843505859 -77.559967041016 8.765090942383
-71.063003540039 -62.519676208496 -74.863891601563 8.107879638672
88.166137695313 -74.311714172363 -194.725128173828 8.573598861694
-103.768508911133 -59.559967041016 -49.092803955078 12.218744277954
-99.169013977051 -60.280220031738 -54.382659912109 6.415028095245
23.183044433594 -70.125427246094 -144.037506103516 2.036247253418
-104.184906005859 -59.448738098145 -44.862823486328 15.014592170715
30.326705932617 -70.717048645020 -148.413833618164 1.119707226753
-102.350494384766 -59.573677062988 -48.392669677734 11.428690910339
-100.216453552246 -59.705848693848 -48.418395996094 9.855628967285
84.992721557617 -74.006584167480 -187.176239013672 14.905128479004
-105.266227722168 -60.136825561523 -44.576568603516 16.112840652466
-101.708686828613 -59.175788879395 -41.045898437500 15.539938926697
33.896408081055 -68.717445373535 -145.833755493164 1.680580973625
-92.230300903320 -59.833129882813 -46.565429687500 5.726871013641
88.634185791016 -73.560333251953 -185.071929931641 12.518609046936
84.966018676758 -73.834655761719 -184.190490722656 16.116374969482
-84.177764892578 -59.894317626953 -50.760803222656 2.718159675598
39.176177978516 -71.173622131348 -142.767898559570 3.815102577209
24.892913818359 -69.092147827148 -131.363784790039 4.671945095062
86.053985595703 -73.019325256348 -177.450668334961 17.615571975708
-99.830139160156 -59.799468994141 -36.833892822266 17.384338378906
41.757049560547 -70.858451843262 -140.995162963867 4.719841480255
49.748046875000 -69.301361083984 -148.093017578125 14.663747787476
84.242935180664 -73.527053833008 -171.280853271484 21.102588653564
50.524658203125 -70.626594543457 -143.827041625977 13.769334793091
48.969421386719 -69.477752685547 -142.915161132813 12.262138366699
-21.492088317871 -64.326171875000 -88.965118408203 14.774514198303
49.110885620117 -69.239387512207 -142.395858764648 12.324557304382
26.713516235352 -69.689590454102 -125.006439208984 4.811356544495
-79.104431152344 -60.614669799805 -44.700927734375 1.138513088226
-14.229003906250 -64.245346069336 -89.469253540039 18.261068344116
-74.752258300781 -61.107551574707 -40.977600097656 3.721921205521
-61.456722259521 -61.260719299316 -49.452758789063 6.786377906799
-37.169181823730 -63.012229919434 -67.469451904297 6.484659671783
-66.579269409180 -61.647308349609 -44.874542236328 1.855696558952
-45.881774902344 -63.281356811523 -58.083465576172 11.459541320801
-47.486206054688 -62.782524108887 -56.119476318359 10.566836357117
-33.683921813965 -63.644004821777 -66.223632812500 5.868046760559
-37.633697509766 -63.488685607910 -61.180816650391 10.711192131042
-45.965774536133 -62.769989013672 -52.440979003906 7.089275360107
66.226303100586 -71.391029357910 -132.294815063477 23.948120117188
37.599029541016 -67.544036865234 -107.319290161133 3.418534755707
-83.237632751465 -59.555923461914 -12.784362792969 31.965072631836
-64.219207763672 -59.977218627930 -24.705718994141 17.717035293579
70.124252319336 -69.323890686035 -111.333435058594 7.522376537323
-42.414329528809 -61.701904296875 -27.098052978516 17.644145965576
-39.676513671875 -63.618911743164 -26.706634521484 19.179012298584
-5.389450073242 -63.870506286621 -51.817871093750 7.122390747070
17.949127197266 -65.676124572754 -69.842041015625 28.709077835083
-24.269439697266 -63.194885253906 -36.939910888672 12.289578437805
29.017501831055 -66.435668945313 -77.319885253906 24.878770828247
36.424392700195 -67.230674743652 -81.832550048828 16.238264083862
53.181289672852 -67.017898559570 -95.222396850586 2.377919673920
30.234054565430 -66.890090942383 -74.130432128906 26.009645462036
14.865539550781 -65.638511657715 -61.668792724609 24.064998626709
39.447937011719 -67.322944641113 -80.368179321289 14.940439224243
47.252197265625 -67.550209045410 -85.719024658203 5.506492137909
74.446502685547 -69.673408508301 -104.850448608398 0.947898566723
-28.417724609375 -61.605468750000 -27.547332763672 20.694988250732
-31.685058593750 -61.446937561035 -24.577697753906 22.525753021240
73.538528442383 -69.117767333984 -103.328796386719 0.737774252892
-44.253921508789 -61.294395446777 -14.160186767578 29.650327682495
-48.836235046387 -59.414367675781 -3.356323242188 39.661388397217
-43.272514343262 -58.876922607422 0.593383789063 44.409713745117
-46.215644836426 -58.732856750488 11.676055908203 54.921566009521
-82.232017517090 -75.264694213867 -334.361450195313 43.279773712158
-68.686134338379 -77.520095825195 -344.181671142578 53.315063476563
-72.867446899414 -75.722137451172 -338.857788085938 47.704105377197
-62.663726806641 -76.182418823242 -341.297424316406 50.397624969482
-62.942390441895 -75.997306823730 -338.543457031250 47.629680633545
-60.532196044922 -76.055755615234 -338.787048339844 48.020496368408
-76.636154174805 -74.407691955566 -323.690155029297 32.492275238037
-75.303230285645 -74.803894042969 -322.651824951172 31.557643890381
-56.886291503906 -75.683120727539 -330.740936279297 39.980941772461
-59.703517913818 -75.472167968750 -323.706817626953 33.122207641602
-60.553588867188 -76.564079284668 -323.687194824219 33.057804107666
-56.736206054688 -76.829284667969 -320.471923828125 29.786149978638
-131.728668212891 -68.948570251465 -252.625213623047 2.156029701233
-121.656684875488 -69.864105224609 -260.132965087891 3.598463296890
-144.299423217773 -70.159263610840 -239.945037841797 1.032709598541
-139.642898559570 -67.477455139160 -241.857131958008 5.740824222565
-140.775360107422 -67.018692016602 -238.488708496094 4.867556571960
-100.702156066895 -71.756973266602 -268.819396972656 8.821081161499
-91.376586914063 -70.153549194336 -267.334106445313 9.566563606262
-87.620376586914 -70.420066833496 -267.050109863281 10.311679840088
-9.828544616699 -78.339691162109 -323.074584960938 31.282110214233
-8.123092651367 -76.949615478516 -322.537109375000 30.616155624390
-12.497146606445 -78.136230468750 -316.164916992188 24.323974609375
-8.429214477539 -75.008499145508 -312.660400390625 20.622632980347
-90.078475952148 -72.676345825195 -248.905731201172 3.012914180756
-99.689369201660 -68.888420104980 -232.709625244141 7.454185009003
19.082199096680 -78.299163818359 -320.425201416016 26.828514099121
-16.064994812012 -78.341995239258 -294.449584960938 3.584541797638
-107.730567932129 -69.051765441895 -217.361297607422 4.846138000488
-15.562011718750 -77.044052124023 -288.506134033203 1.726330161095
-107.587547302246 -70.110290527344 -215.888961791992 5.758831024170
-9.106048583984 -75.672492980957 -288.327545166016 2.200387001038
29.517395019531 -78.376235961914 -315.975402832031 26.661890029907
3.557800292969 -77.219680786133 -293.641662597656 2.355561256409
23.578735351563 -77.433067321777 -305.645385742188 14.794892311096
37.146041870117 -78.354804992676 -308.564422607422 26.671350479126
-128.279449462891 -66.512115478516 -192.599288940430 3.631120920181
-6.193244934082 -75.873054504395 -277.827362060547 1.592951416969
-17.074905395508 -75.291984558105 -268.984954833984 3.939759254456
-15.385421752930 -74.231315612793 -270.461700439453 2.204888820648
-123.732666015625 -67.378448486328 -185.591812133789 8.927286148071
-113.248443603516 -64.234741210938 -188.328018188477 2.395448207855
-13.592826843262 -74.321151733398 -261.588500976563 1.203057408333
-118.187446594238 -65.862548828125 -180.417541503906 6.774121284485
-8.172348022461 -75.087669372559 -265.213714599609 4.928973197937
44.324005126953 -78.156967163086 -302.288513183594 30.066265106201
46.759719848633 -79.195777893066 -301.979919433594 32.341594696045
47.554290771484 -79.197349548340 -301.218078613281 32.887107849121
48.855316162109 -78.973236083984 -298.509674072266 33.311416625977
-3.479881286621 -74.288970947266 -255.226928710938 7.136460304260
-9.399742126465 -74.331962585449 -250.022766113281 1.553642511368
-1.820190429688 -73.076354980469 -251.296813964844 6.005917549133
-8.670417785645 -73.851333618164 -245.145797729492 1.707164764404
-80.962585449219 -68.511001586914 -190.780944824219 19.464292526245
-76.200729370117 -68.941658020020 -190.757171630859 19.393184661865
-79.995285034180 -68.747299194336 -186.541412353516 22.490470886230
-70.512779235840 -67.185920715332 -189.641281127930 17.567882537842
-6.675903320313 -73.823478698730 -239.248458862305 2.488853931427
-95.517524719238 -68.725280761719 -174.730957031250 7.562008857727
67.420364379883 -79.093246459961 -284.479644775391 37.749618530273
-0.013404846191 -74.710273742676 -241.601409912109 0.909335792065
2.328926086426 -74.419548034668 -235.378128051758 2.323695898056
-79.830650329590 -67.638130187988 -172.909210205078 16.272037506104
-80.142959594727 -67.427055358887 -169.854629516602 15.075022697449
-84.894889831543 -68.045196533203 -167.102493286133 14.165301322937
64.341430664063 -78.410827636719 -277.029907226563 29.956140518188
-76.550071716309 -66.740043640137 -167.210357666016 11.464413642883
-79.351348876953 -67.295036315918 -167.914123535156 13.707193374634
-51.197120666504 -68.164604187012 -184.367950439453 6.344748973846
-2.312606811523 -72.571647644043 -219.164184570313 1.212766051292
6.269378662109 -73.343765258789 -226.913421630859 0.357335180044
-13.598960876465 -71.425201416016 -211.550048828125 2.610777378082
-6.071464538574 -73.186401367188 -212.335540771484 1.840909481049
-1.284286499023 -73.431060791016 -222.638244628906 1.092031121254
-50.898330688477 -69.790664672852 -183.516036987305 5.077579021454
-70.791816711426 -68.277473449707 -162.918075561523 5.121004104614
-50.375740051270 -69.255096435547 -180.709640502930 5.359963893890
7.119735717773 -73.457794189453 -218.640151977539 1.952245473862
-67.187957763672 -67.759887695313 -160.894104003906 3.365709543228
-66.441146850586 -67.641120910645 -160.559326171875 3.487336397171
-52.126846313477 -69.522964477539 -175.415725708008 5.688477039337
2.688247680664 -72.755798339844 -212.931091308594 3.595247983932
5.068244934082 -72.593612670898 -207.400054931641 2.871832847595
79.837677001953 -78.631141662598 -262.931640625000 25.530330657959
-31.460350036621 -69.796195983887 -172.543441772461 1.400314807892
