# This PCD file was generated using the MATLAB® pcwrite function
# from Computer Vision Toolbox®.
# .PCD v.7 - Point Cloud Data file format
VERSION .7
FIELDS x y z
SIZE 4 4 4
TYPE F F F
COUNT 1 1 1
WIDTH 1460
HEIGHT 1
VIEWPOINT 0 0 0 1 0 0 0
POINTS 1460
DATA ascii
163.476288 -69.321404 123.765869
164.082886 -70.003098 37.287971
165.436066 -69.888702 -26.823679
165.425873 -70.003098 -22.559990
165.846680 -70.003098 -31.270609
166.478088 -70.003098 39.299698
167.038330 -69.612000 -27.772955
166.905548 -70.003098 27.803587
169.050308 -70.003098 -32.788860
169.440598 -69.839500 -28.720318
169.281219 -69.103996 37.998291
170.292221 -69.545097 117.110138
171.817261 -70.003098 -18.949013
171.879715 -70.003098 122.340942
172.629211 -69.440598 -23.947088
174.887817 -70.003098 35.238876
174.882874 -70.003098 37.308971
174.683090 -69.442101 120.933632
177.417816 -69.956100 -19.170033
178.229187 -69.812500 -23.933710
178.224625 -69.429199 -22.027414
177.896744 -69.578201 115.222290
179.377411 -70.003098 -14.399638
178.884720 -70.003098 36.534931
178.687637 -69.212097 119.036194
179.313828 -70.003098 24.358521
181.017792 -69.535202 -19.161432
180.696732 -69.225502 115.228981
181.832611 -70.003098 -25.360703
181.889893 -69.103996 118.090843
181.886719 -70.003098 119.421837
183.312958 -70.003098 -142.714493
183.008942 -70.003098 -15.453364
183.000641 -70.003098 -11.978975
183.687088 -70.003098 35.550900
185.310776 -69.070099 25.645851
186.518509 -70.003098 22.408127
186.301285 -69.135399 113.336365
187.313004 -70.003098 -142.724945
187.406403 -69.349701 -14.380457
187.395935 -70.003098 -10.001069
187.894440 -69.303902 116.199181
188.908401 -70.003098 -140.799133
188.892960 -70.003098 -134.334152
188.614670 -70.003098 -17.845480
189.105835 -69.468102 111.436066
192.617157 -70.003098 -18.877920
192.588760 -70.003098 -6.992355
193.308884 -70.003098 -140.993622
193.711502 -69.367699 -142.084656
194.120590 -69.759903 -145.895691
194.091492 -70.003098 -133.714722
194.925156 -69.066200 -147.800781
194.701248 -69.367699 113.356430
195.391754 -70.003098 -8.240562
195.112640 -69.560402 108.591408
196.011292 -69.517303 -100.141045
196.525269 -70.003098 19.590025
197.334244 -69.824699 -151.607040
197.215851 -69.871597 -102.045174
198.022675 -69.736298 -104.902252
198.015839 -69.830597 -102.043259
198.873947 -70.003098 -105.853226
198.980789 -70.003098 -3.651475
199.409500 -70.003098 -15.665785
199.517181 -69.306999 106.695724
200.519836 -69.139603 21.869675
201.722153 -70.003098 20.896944
202.440872 -69.933998 -112.516724
202.886414 -69.879601 -131.577713
203.344864 -70.003098 -156.042679
203.405090 -70.003098 -13.815534
203.110336 -69.731903 109.563515
204.489731 -70.003098 -132.968887
204.323990 -69.292297 103.847794
205.329025 -70.003098 -2.900108
204.907242 -70.003098 27.139170
205.329712 -70.003098 17.741484
206.893906 -70.003098 -134.707153
206.328552 -69.611702 101.946281
207.000229 -70.003098 -11.779540
207.310699 -69.050003 25.698408
207.117157 -69.329803 106.713882
207.768997 -70.003098 1.298124
208.317154 -69.888397 106.716751
210.171921 -70.003098 0.071151
210.104919 -70.003098 28.118191
212.893814 -70.003098 -134.663803
212.561996 -70.003098 4.234252
212.739899 -69.608902 97.195984
214.132416 -70.003098 16.611389
213.925583 -70.003098 103.189926
214.519791 -69.408096 21.903120
215.307205 -70.003098 27.175917
215.715225 -69.899399 23.812281
216.372528 -69.263603 -83.889549
216.365692 -69.431999 -81.030258
216.914047 -70.003098 3.799438
217.585266 -70.003098 -89.218880
217.385483 -70.003098 -5.589113
217.965698 -69.334297 -81.026436
219.167969 -69.428299 -81.976669
218.952911 -70.003098 8.039641
219.747009 -70.003098 -156.921509
219.382828 -70.003098 -4.476138
220.396988 -70.003098 -94.124771
220.088837 -70.003098 90.541626
220.894073 -70.003098 -134.759705
220.771667 -70.003098 -83.521645
220.531158 -69.186996 17.151867
220.524323 -69.773399 20.011259
220.737610 -69.762802 98.168198
221.772614 -70.003098 -0.201176
222.110107 -70.003098 25.962564
222.919754 -69.866997 21.923187
223.606461 -70.003098 -98.079117
223.163193 -70.003098 87.461853
224.556931 -70.003098 -116.275894
224.829361 -70.003098 -114.369240
224.194901 -69.385002 -9.526957
223.943329 -70.003098 95.772339
224.532455 -70.003098 16.613646
225.227661 -70.003098 -106.955261
224.983505 -69.170303 -4.759459
224.965302 -69.050003 2.865540
226.152420 -70.003098 -124.851112
226.574402 -69.431297 -0.943147
226.510620 -70.003098 25.753777
227.223083 -70.003098 -105.040497
227.747375 -70.003098 -157.062393
227.390350 -69.211800 -7.613017
228.167557 -69.670898 1.920067
227.974014 -69.073601 82.935440
229.531464 -70.003098 84.845459
229.554993 -70.003098 90.901741
230.586639 -70.003098 -6.059077
230.658844 -70.003098 0.972896
232.422134 -70.003098 -106.726074
232.765106 -70.003098 0.024795
233.312912 -69.427200 24.807425
233.573898 -70.003098 82.994415
234.133224 -70.003098 16.302160
233.983109 -69.863998 79.137283
234.380829 -69.365898 80.091331
234.945862 -70.003098 11.011256
235.726563 -69.526604 19.094425
236.494186 -70.003098 -134.792419
236.161133 -70.003098 4.617002
237.093475 -70.003098 -4.730528
237.351608 -69.708504 8.613902
237.192642 -70.003098 75.153236
237.182999 -70.003098 79.192123
238.124268 -69.875099 20.053305
238.377731 -70.003098 81.394485
239.362991 -69.746696 3.853068
239.495880 -70.003098 7.665896
239.315170 -69.475098 23.868660
239.312897 -69.647903 24.821758
240.922531 -70.003098 20.783892
240.813599 -70.003098 66.379860
240.794174 -70.003098 74.514740
241.327515 -70.003098 18.704054
242.172073 -69.427299 0.047268
242.006424 -70.003098 69.385223
243.775360 -70.003098 -1.326355
243.603577 -69.067200 70.582138
244.410416 -69.787697 67.724655
245.798584 -70.003098 25.790356
246.549026 -70.003098 -157.738464
246.507507 -70.003098 27.083054
246.414963 -69.071297 65.823242
246.806854 -70.003098 69.210388
247.226349 -69.102997 61.059566
248.720062 -69.436798 -61.890415
248.711792 -70.003098 -58.426128
249.129166 -69.307297 -65.701950
249.538284 -69.605400 -69.513481
249.244553 -69.566704 53.439365
250.317780 -69.440300 -60.933392
252.095230 -70.003098 -135.206161
251.786499 -70.003098 -5.974230
253.749710 -70.003098 -158.011276
253.258209 -69.578598 47.730141
253.235428 -69.683502 57.261311
254.089859 -70.003098 -132.959381
254.247131 -70.003098 -117.158966
253.938263 -69.694199 -69.502968
254.525055 -70.003098 -123.830330
254.183914 -70.003098 -4.896900
254.966919 -70.003098 48.687321
255.805603 -70.003098 -125.733261
256.253265 -70.003098 -114.294167
255.974915 -70.003098 -75.216827
255.646805 -69.519897 52.501457
256.450836 -70.003098 -99.043648
258.474121 -69.427299 41.070683
258.464996 -69.400101 44.883167
259.724976 -69.074600 -147.645981
261.599548 -70.003098 -98.078354
261.786163 -70.003098 -5.822041
262.420685 -70.003098 -103.995407
263.584534 -70.003098 -132.386719
263.352234 -70.003098 -131.433258
263.274780 -70.003098 -105.699371
264.118134 -69.302498 -144.775467
265.055817 -70.003098 -116.179138
265.724945 -69.241203 -147.631638
267.295929 -70.003098 -135.483841
267.715851 -69.314102 -143.813873
268.129486 -69.412903 -149.531891
270.092926 -70.003098 33.209217
271.782898 -70.003098 -4.441055
274.113525 -69.144897 -142.845581
273.695923 -70.003098 31.963120
274.950378 -70.003098 -158.274628
276.134033 -69.062897 -151.418777
276.129486 -69.807602 -149.512787
276.096466 -70.003098 -135.690826
276.915802 -69.535202 -143.791901
277.376343 -70.003098 -1.698385
278.929443 -69.980598 -149.506088
279.715790 -69.623001 -143.785202
282.096771 -70.003098 -135.821487
284.150604 -70.003098 -158.345657
284.175964 -70.003098 -123.759491
284.519684 -70.003098 -145.407730
285.631470 -70.003098 -132.334045
285.674194 -70.003098 -126.355911
286.474976 -70.003098 -106.596947
286.922424 -70.003098 -146.548981
287.114197 -70.003098 -97.064392
286.884399 -70.003098 -77.049286
286.518005 -70.003098 22.734024
287.334015 -69.210297 -151.392029
287.149567 -69.295601 -74.189247
287.466064 -70.003098 -48.454014
287.526794 -69.149101 -64.657120
287.501740 -69.375504 -54.172745
287.763763 -70.003098 3.582906
288.908936 -69.232101 -140.904221
288.685791 -69.589401 -47.497997
288.914429 -70.003098 -42.731838
288.922882 -70.003098 20.706665
290.140808 -69.155502 -154.245331
289.873688 -70.003098 -42.428543
290.129120 -70.003098 18.077969
290.719940 -69.288300 -61.790077
290.725006 -70.003098 -55.118149
290.558380 -70.003098 5.833169
291.739502 -70.003098 -153.691513
291.581421 -69.107002 -87.522499
291.351440 -69.333099 8.742907
291.402344 -70.003098 12.555544
291.972321 -69.817497 -83.708946
292.543396 -70.003098 -104.676445
293.229767 -70.003098 -126.596863
292.829224 -69.123299 -107.534775
293.329437 -69.229202 -149.471695
294.528656 -70.003098 -149.154831
296.520050 -70.003098 -145.549072
296.915741 -69.135902 -143.744110
298.116455 -70.003098 -144.038239
311.693939 -70.003098 -134.591782
313.111694 -70.003098 -143.705429
11.768041 -69.050003 45.247017
12.188623 -69.050003 40.482307
14.046388 -69.050003 52.387779
15.960553 -69.050003 33.819401
17.636721 -69.050003 56.438171
18.914034 -69.050003 50.029705
18.834637 -69.050003 57.312832
21.115007 -69.050003 36.691124
22.485071 -69.050003 36.204994
25.629768 -69.050003 59.358070
26.043732 -69.050003 53.514042
28.829876 -69.050003 59.317520
30.338472 -69.050003 52.916405
31.231577 -69.050003 58.608253
32.432262 -69.050003 58.322422
34.214191 -69.050003 50.066257
34.434975 -69.050003 57.189003
35.370842 -69.050003 48.162712
35.236416 -69.050003 56.585915
36.865086 -69.050003 44.588772
37.918571 -69.050003 53.887615
38.065639 -69.050003 44.358639
38.443748 -69.050003 53.520668
39.220322 -69.050003 51.984417
39.648346 -69.050003 51.598640
40.469585 -69.050003 42.708878
40.466457 -69.050003 44.017475
41.042843 -69.050003 40.551239
41.104668 -69.050003 41.504490
41.212002 -69.050003 47.223564
41.010326 -69.050003 48.176182
47.497868 -68.365501 -52.839802
47.877377 -68.819298 -44.260773
47.865990 -68.464401 -39.495190
48.716080 -68.844299 -60.461918
48.654602 -68.573402 -34.727688
49.047771 -68.449203 -31.867344
56.602207 -68.613998 -12.786740
58.354767 -68.816803 -76.642036
65.567650 -68.356796 85.406860
65.560822 -68.486504 88.266251
65.533501 -68.644203 99.703712
67.974480 -68.535797 82.553200
69.571716 -69.050003 -83.725159
70.187340 -69.050003 -6.546968
71.181297 -68.639397 79.701447
73.399780 -69.050003 -11.749510
77.185738 -69.050003 77.848595
78.376541 -69.050003 -85.733635
80.788460 -69.050003 76.714989
84.404037 -68.200996 70.201813
84.389175 -69.050003 76.421097
87.610855 -68.197998 67.350067
87.601746 -68.139000 71.162552
88.707001 -69.050003 110.821213
89.996376 -69.050003 73.412277
92.005104 -69.050003 69.763573
92.703484 -69.050003 -55.134720
92.387390 -69.050003 77.178307
93.508102 -69.050003 110.367676
95.239029 -69.050003 55.563656
97.206894 -69.050003 69.018394
97.183502 -68.442200 78.810471
97.091583 -69.050003 117.284264
98.379700 -68.762001 -87.030846
97.898216 -69.050003 114.512177
98.310638 -68.393799 109.313148
99.202904 -69.050003 -66.060120
100.263702 -69.050003 -69.870094
99.617195 -69.050003 64.710945
100.373848 -69.050003 82.857002
101.125038 -68.691399 -64.149223
100.716560 -69.050003 106.835091
100.707748 -69.050003 110.523872
103.037529 -69.050003 -72.722885
102.296967 -68.133797 115.041687
102.694679 -68.749298 115.995644
103.564842 -69.050003 86.629433
103.498566 -69.050003 114.372559
104.051476 -69.050003 50.366894
104.045059 -69.050003 53.050488
103.924278 -68.516899 103.607941
104.304718 -69.050003 111.797470
104.820793 -69.050003 63.208370
104.762985 -68.465698 87.406700
104.742493 -68.703400 95.984871
107.152084 -69.050003 -75.463455
108.040398 -68.377502 55.008236
109.249496 -68.944099 51.198616
109.238113 -68.978897 55.964199
109.931847 -68.617401 -66.987595
109.492386 -68.851097 116.964890
111.179024 -69.050003 -86.734871
111.538673 -68.672302 -69.843163
111.089684 -69.050003 118.098701
112.759163 -68.131302 -78.418373
113.531837 -68.573402 -66.978989
113.879539 -69.050003 122.349380
114.840370 -68.667397 55.024483
117.178162 -69.050003 -86.368637
117.263138 -68.355003 45.499043
119.649467 -68.455002 51.223461
121.267677 -68.540398 43.602306
122.275726 -69.050003 123.954445
125.134079 -68.544701 -67.904381
125.486259 -68.377998 -47.887878
125.491264 -69.050003 117.454102
127.656281 -68.587097 48.383179
128.072205 -68.249397 41.712254
128.688538 -68.319603 -48.833328
128.289658 -69.050003 118.128792
128.673767 -69.050003 124.781731
130.726227 -69.050003 -64.612305
131.477142 -68.917900 -44.061054
131.276764 -68.681503 39.813705
132.354553 -68.732300 -76.465248
132.761383 -68.860901 -79.323692
132.274109 -68.479599 124.644333
133.540207 -69.050003 -70.458206
133.534058 -68.109802 -67.884308
134.264877 -69.050003 -38.926682
134.060806 -68.788696 46.492275
134.729507 -68.976700 -65.975243
137.120270 -69.050003 -62.112324
137.085480 -68.539597 119.889809
138.324982 -69.050003 -64.084656
138.768204 -68.155197 -82.168747
138.688980 -69.050003 -49.007442
139.059540 -69.050003 -36.688118
138.883560 -68.579300 36.972469
139.750107 -69.050003 -61.197536
140.324921 -68.447403 -64.055580
140.727203 -68.104897 -65.007820
140.465347 -68.821297 44.601269
141.086807 -69.050003 -48.100010
142.272263 -69.050003 125.426216
143.115051 -69.050003 -59.918697
143.524933 -68.938698 -64.047935
145.706314 -68.336998 27.457542
145.883163 -68.401604 120.864830
146.712692 -69.050003 -58.927097
146.491257 -69.050003 33.762737
146.469894 -68.729599 42.709412
146.913147 -68.468803 24.601017
147.080902 -68.134300 121.820694
147.851135 -69.050003 -33.156307
147.474060 -68.530701 124.680649
148.328720 -69.050003 -65.633362
149.072525 -68.927200 -42.112816
149.858871 -68.907799 -36.392120
150.663422 -68.637802 -38.296402
150.523926 -69.050003 20.095230
151.122620 -68.337402 -63.076675
151.076813 -69.050003 -43.904434
152.509872 -69.050003 25.980991
152.283157 -68.455299 120.880119
152.276321 -68.354797 123.739113
153.444931 -69.050003 -30.552637
154.085800 -68.772003 36.055683
154.658859 -68.994698 -36.380653
154.914337 -69.050003 24.114429
155.297073 -69.050003 31.341665
156.116089 -69.050003 23.379799
156.665680 -68.625702 -39.235268
156.533615 -68.383904 16.045855
156.483521 -68.964798 37.014515
157.637665 -69.050003 22.720432
158.526779 -68.345001 18.909996
158.915390 -68.297501 23.676586
159.300186 -69.050003 30.041426
159.076309 -68.746002 123.755356
159.692627 -68.997101 33.209671
159.685791 -68.927299 36.069061
160.260895 -69.050003 -37.228172
160.878952 -68.403397 38.931320
160.678574 -68.461502 122.806183
161.080856 -68.313499 121.854141
162.256546 -68.440201 -35.409401
162.890335 -68.586601 34.170414
164.231491 -68.492104 -24.920252
164.685394 -68.433296 119.955742
166.497162 -68.940804 31.319721
166.680832 -68.644302 121.867523
167.449722 -68.623802 -32.537586
167.287048 -69.050003 35.554420
168.492599 -68.127602 33.230694
169.024658 -68.680702 -22.049393
171.307205 -69.050003 27.118801
171.087662 -68.550301 119.018044
172.285385 -68.619003 119.973900
172.901688 -68.899803 29.428717
173.440598 -68.541298 -28.710762
175.710739 -69.050003 -141.789658
175.290298 -68.884804 34.200039
175.089935 -68.696503 118.074593
176.887573 -69.050003 -132.091827
176.901672 -68.127602 29.438272
178.610977 -68.608704 -16.307774
178.999222 -69.050003 27.537079
180.894836 -68.705200 32.307220
181.687195 -69.050003 -131.925354
181.829178 -68.599701 -23.925110
181.494461 -68.984299 116.183891
182.409058 -68.857803 -99.220535
182.093582 -69.050003 32.831085
182.604126 -68.696404 -13.438827
185.096725 -68.695999 115.239494
187.213593 -68.921303 -101.115059
187.209045 -68.957199 -99.209068
187.020050 -68.304703 -20.100197
187.687469 -69.050003 -132.036011
188.491364 -69.050003 -133.668106
188.896683 -69.050003 31.542234
188.891556 -69.050003 33.689728
189.408661 -68.759201 -15.328776
189.501266 -68.835999 113.344009
190.520111 -69.050003 21.740885
191.215866 -68.983803 -102.059502
191.391800 -69.050003 -8.265018
193.008240 -69.050003 -15.150377
192.997269 -68.973198 -10.554590
192.915298 -68.850998 23.757813
193.691483 -69.050003 -133.709686
195.149673 -69.050003 -122.065170
195.061737 -69.050003 -115.393356
194.495743 -69.050003 31.945513
195.681900 -69.050003 -112.532867
195.388153 -68.108002 -6.736367
196.183441 -69.050003 -131.593719
196.621216 -69.050003 -123.968658
196.199524 -68.119400 -11.500142
196.820404 -68.113998 -103.952118
196.903900 -68.933502 28.532955
198.139343 -69.050003 -153.738113
197.510345 -68.885399 109.550140
198.810272 -69.050003 -99.709358
198.925446 -69.050003 19.515259
198.898621 -69.050003 30.746027
199.401825 -69.050003 -12.450596
201.214493 -69.050003 -101.471619
200.987167 -69.050003 -6.318990
200.906036 -69.050003 27.641613
201.745148 -69.050003 -156.158508
202.513000 -68.105003 24.733845
203.484131 -69.050003 -130.623276
203.222656 -68.905602 -104.889832
202.714890 -68.825699 107.656464
203.668213 -68.473701 -123.951820
203.776001 -69.050003 -1.640914
204.467682 -69.050003 -123.738914
203.919434 -68.745499 105.753036
205.085648 -69.050003 -122.041435
205.223267 -69.050003 -117.276085
204.502731 -69.050003 29.030609
205.795120 -69.050003 -9.640913
208.166733 -69.050003 -1.940225
207.521713 -68.710403 104.808540
208.121841 -69.050003 21.030033
208.919800 -68.729401 21.889742
209.390427 -69.050003 -7.667118
210.147034 -69.050003 -156.944443
210.576721 -68.129204 -1.934468
210.330811 -68.610802 101.002739
211.728897 -68.543999 18.083961
211.717514 -68.861000 22.849628
212.591644 -69.050003 -8.176573
214.981552 -69.050003 -3.953351
214.730789 -68.742996 101.013252
215.367615 -68.971802 1.889488
215.939896 -68.330597 97.203629
216.744446 -68.560600 95.299240
218.493591 -69.050003 -134.566437
218.337616 -68.470001 98.162460
219.172516 -68.395599 -83.882866
219.374619 -69.050003 -1.039747
220.951050 -69.050003 8.826095
220.912933 -68.734596 24.777802
221.601608 -69.050003 -96.052902
222.831192 -69.050003 -134.390060
222.157043 -69.050003 6.313920
222.344437 -68.434097 95.312622
222.758087 -68.333397 89.594894
224.685852 -69.050003 -122.947601
224.386475 -69.050003 -89.719223
224.128860 -68.554398 18.113585
224.563019 -68.121300 3.817711
225.286667 -69.050003 -131.658203
225.270340 -69.050003 -124.820221
225.270416 -68.505402 -124.853226
225.243088 -68.650299 -113.415253
226.029419 -68.106400 -107.694351
226.015732 -69.050003 -101.965370
225.719757 -68.120796 21.929876
226.146729 -69.050003 10.636634
226.588058 -68.565804 -6.661831
226.578964 -68.518799 -2.849342
226.515198 -68.621399 23.838081
226.968582 -69.050003 1.489512
227.553528 -68.653900 91.512657
228.492096 -69.050003 -96.251434
228.940338 -69.050003 13.318006
229.326584 -68.921402 19.079136
230.583496 -68.489998 -4.746080
230.554169 -69.050003 7.530565
231.320480 -68.137497 -145.806808
230.759216 -69.050003 89.137405
231.615646 -69.050003 -101.918991
231.758453 -68.317902 5.741157
231.722015 -68.669899 20.991114
231.717453 -68.744301 22.897408
231.985855 -69.050003 77.983406
232.762543 -69.050003 1.931044
232.535065 -69.050003 15.528200
233.224854 -68.478104 -105.771164
233.670105 -69.050003 -124.710152
234.148483 -69.050003 -157.524094
234.147446 -69.050003 5.746864
234.469833 -69.050003 -124.600243
234.922760 -68.243103 -146.751221
234.915924 -68.195801 -143.892227
235.209900 -69.050003 -116.250443
234.393509 -69.050003 74.785851
234.768646 -69.050003 85.190071
235.691086 -69.050003 -133.488342
236.091980 -69.050003 3.845254
235.881882 -69.050003 7.657263
235.983658 -69.050003 77.235855
236.571213 -69.050003 0.406849
237.294174 -69.050003 -134.788513
236.971909 -69.050003 0.111095
236.785263 -69.050003 78.240669
237.202667 -69.050003 70.960052
238.122742 -68.247803 -146.743576
237.781204 -68.123497 -3.775782
238.929337 -69.050003 17.932901
239.389404 -69.050003 -7.205250
239.581650 -69.050003 79.756355
240.137924 -68.630203 14.339320
240.403595 -68.799797 70.574493
240.399033 -68.215103 72.480690
240.794922 -69.050003 74.197342
242.928360 -69.050003 18.349127
242.812180 -69.050003 66.977737
244.149078 -69.050003 -157.759201
244.522720 -68.441597 -146.728287
244.397064 -69.050003 73.307747
245.780197 -69.050003 -3.349571
246.034271 -69.050003 57.734612
246.913620 -68.421799 -142.910568
247.619507 -68.144501 63.919811
248.833160 -68.525101 58.203999
249.230896 -68.709999 59.158051
250.949142 -69.050003 -157.774963
251.324982 -68.513397 -147.666046
251.313599 -68.627502 -142.900055
251.131912 -69.050003 31.521914
250.833160 -68.159203 58.208778
251.551941 -68.157700 -75.227394
251.533722 -68.539101 -67.602409
251.785843 -69.050003 -5.700031
252.391159 -69.050003 -82.850410
253.176666 -69.050003 -85.577942
253.142822 -68.253799 -71.411079
252.893051 -69.050003 33.141624
253.713608 -68.551598 -142.894318
254.122696 -68.898804 -146.705353
254.918152 -69.026001 -144.797455
254.941193 -69.050003 -93.329247
255.151917 -68.420303 -75.218788
254.983917 -69.050003 -4.894989
255.766251 -69.050003 -131.451370
256.004211 -69.050003 -97.107719
255.692352 -68.649101 33.439014
256.549408 -69.050003 -157.882584
256.074127 -68.381401 41.064949
257.163086 -69.050003 -79.880394
257.722046 -69.050003 -146.422745
258.080933 -68.718300 38.210434
259.583557 -69.050003 -88.453445
259.287781 -68.307999 35.353909
260.073639 -69.050003 -91.409973
260.085510 -68.704399 36.308918
260.067291 -68.616302 43.933895
261.015442 -69.050003 -94.267731
261.383423 -68.520500 -4.672500
261.290070 -68.709198 34.405491
261.276398 -68.751900 40.124271
261.784973 -69.050003 -5.332442
261.683228 -68.656303 37.265835
263.103271 -69.050003 -114.277802
263.286255 -68.856796 -131.433411
263.557556 -69.050003 -125.714745
264.549500 -69.050003 -157.916473
264.547729 -68.319298 -157.165466
264.938019 -69.050003 -123.805450
265.313599 -69.050003 -142.879608
265.731781 -68.135399 -150.490631
266.097626 -68.154099 -136.192719
267.331665 -69.050003 -150.432800
267.745453 -68.100304 -156.204834
267.291077 -69.050003 33.988224
268.949158 -69.050003 -157.767960
269.338623 -68.132896 -153.341019
269.296356 -69.050003 -135.650070
270.581085 -68.514397 -3.697423
274.536285 -68.365097 -152.375610
274.945404 -68.290100 -156.187622
276.576538 -69.050003 -1.786196
277.347687 -68.726898 -157.134888
278.499908 -69.050003 30.290293
279.336304 -68.498703 -152.364136
280.145386 -68.368500 -156.175201
280.573364 -69.050003 -0.451444
282.105408 -69.050003 28.000898
283.347687 -68.647797 -157.120560
283.714996 -69.050003 -143.437653
284.133026 -69.050003 -117.087570
284.538544 -68.589203 -153.304703
285.319519 -69.050003 -145.331818
284.968628 -69.050003 1.547432
286.047546 -69.050003 -115.207993
286.351196 -69.050003 -114.222260
286.545380 -68.682800 -156.159912
286.921753 -69.050003 -146.274994
286.826965 -68.145500 -106.596107
287.223297 -69.050003 -105.052155
287.232758 -69.050003 -98.970116
287.242157 -69.050003 -86.579659
287.704407 -68.772598 -139.001114
287.963226 -68.168800 -79.906120
288.658417 -69.050003 -59.888699
288.735870 -68.321899 -68.466637
288.722229 -68.634102 -62.747955
289.338562 -68.835602 -153.293228
289.538177 -68.356796 -69.417923
290.779144 -68.107201 -86.571213
290.747253 -68.525299 -73.227547
290.742889 -69.050003 -68.461838
291.167786 -68.744102 -81.804665
292.122589 -68.669899 -146.614563
292.004181 -68.110001 -97.052711
291.988251 -68.758499 -90.380730
292.490723 -68.816597 -133.270645
292.485565 -69.050003 -101.817574
292.137787 -68.339500 14.463547
293.320313 -68.458603 -145.658691
294.495575 -69.050003 -135.308868
294.651215 -69.050003 -124.687469
296.098297 -69.050003 -136.438049
300.098633 -69.050003 -136.579498
301.320099 -69.050003 -145.560593
301.294098 -69.050003 -134.669632
306.921204 -69.050003 -146.025208
310.920990 -69.050003 -145.921661
312.119446 -69.050003 -145.278793
312.496521 -69.050003 -135.677856
313.469604 -69.050003 -139.892563
12.092785 -68.096901 47.153999
13.249897 -68.096901 50.917973
14.843794 -68.096901 53.474388
19.842316 -68.096901 57.656944
20.848312 -68.096901 51.590427
21.231922 -68.096901 58.451366
22.173733 -68.096901 58.615616
23.630093 -68.096901 59.219795
30.030418 -68.096901 59.091084
36.470272 -68.096901 42.416122
37.268661 -68.096901 43.091831
47.513805 -67.705200 -59.511684
48.727467 -67.456299 -65.227608
48.643219 -67.397499 -29.962002
51.138847 -67.620300 -69.987457
52.615883 -67.751701 -18.514980
53.145672 -67.431000 -72.842072
64.347168 -67.406898 93.982071
64.740326 -67.562302 96.842415
65.991585 -68.096901 94.939095
69.579735 -68.096901 80.352928
70.571220 -68.096901 105.434471
71.912987 -67.771400 108.297081
73.576500 -68.096901 -85.721603
73.185844 -67.736603 77.800034
76.310699 -67.650299 109.260597
77.697685 -68.096901 -31.798901
79.506615 -68.096901 110.973228
81.855927 -68.096901 -35.242573
82.790367 -67.301201 75.916779
84.792641 -67.760498 74.968361
85.213135 -67.541603 66.391235
85.104973 -68.096901 111.666603
86.790337 -68.096901 75.936432
88.825874 -68.096901 61.062351
89.219955 -67.656998 63.541397
89.192635 -67.574898 74.978867
90.790344 -67.230400 75.935890
91.196442 -68.096901 73.385750
95.209221 -68.096901 68.042122
95.507339 -68.096901 110.690453
95.986702 -68.096901 77.470909
97.636086 -68.096901 56.801086
97.904137 -68.096901 112.032181
97.901527 -67.751602 113.125183
99.582268 -68.096901 79.330299
101.088524 -68.096901 118.571815
103.638130 -67.143799 55.950821
103.574379 -67.727097 82.638252
104.780548 -68.096901 -87.378456
104.435852 -67.286003 56.905830
105.251350 -68.096901 50.419262
106.033569 -68.015602 57.862854
105.928833 -67.629700 101.706429
107.131851 -67.641602 -66.994278
108.301033 -68.096901 113.347023
108.854050 -67.762299 49.291367
110.033562 -67.856697 57.872410
112.742844 -68.096901 -71.586487
113.658592 -67.873001 47.396637
115.532349 -68.096901 -67.191711
115.247208 -67.429199 52.166046
116.679428 -68.096901 122.395065
118.351425 -68.096901 -75.173599
118.058586 -67.516899 47.407150
117.880981 -67.204803 121.750938
119.567253 -68.096901 -81.798615
119.254021 -67.623001 49.316212
119.093452 -68.096901 116.528824
119.937584 -68.096901 -69.376595
121.175072 -67.850403 -85.070183
121.077583 -68.096901 123.174583
122.740921 -67.958099 -70.769501
122.290077 -67.631302 117.948456
123.156349 -68.096901 -77.229729
122.858566 -67.603897 47.418617
123.493095 -67.469704 -50.752048
125.559128 -67.158203 -78.387794
125.543182 -67.620300 -71.715912
125.897644 -67.557602 -52.652508
125.667671 -67.733002 43.612816
127.528641 -68.096901 -65.623947
127.078674 -67.362396 122.725906
128.060822 -67.712097 46.477943
128.285507 -67.384903 119.868782
129.549057 -68.096901 -74.164452
129.267670 -67.504402 43.621418
130.331787 -67.355003 -66.938858
131.469147 -68.096901 -40.710865
131.963608 -68.096901 -80.259201
133.878647 -67.415497 122.742157
134.691895 -68.096901 -50.236496
135.940109 -68.096901 -70.417572
135.896271 -68.096901 -52.066521
135.674469 -67.550903 40.777313
136.469925 -67.563904 42.685520
137.170471 -67.310303 -83.125671
137.479767 -68.096901 -66.921783
138.280914 -67.612396 121.799675
138.867630 -68.034500 43.644352
139.076370 -67.824600 123.707581
139.893600 -68.096901 -50.942669
141.163635 -67.550400 -80.256821
142.290314 -68.096901 -49.565239
143.065720 -67.804298 -39.267757
143.533340 -68.096901 -67.569221
144.072159 -67.692902 41.750481
144.483551 -67.459999 36.985847
145.477875 -68.096901 -44.352707
145.472549 -67.453499 -42.121414
145.465714 -67.836899 -39.262024
145.279007 -67.159103 38.894054
145.977280 -67.718498 -85.964035
145.970459 -67.571404 -83.104645
145.699493 -67.174797 30.316933
146.678619 -67.954697 122.772736
147.688095 -67.557297 35.087299
148.315796 -67.779198 -60.223976
149.276718 -67.377296 39.856709
150.105087 -68.096901 27.973652
150.652039 -67.670303 -33.530815
151.472534 -67.686501 -42.107082
152.892639 -67.715599 33.193428
153.584106 -67.720497 -88.805267
153.579544 -67.648697 -86.898979
153.449753 -67.651703 -32.571030
153.276703 -68.028198 39.866264
154.130386 -68.096901 17.394789
156.119949 -67.182503 21.763603
156.661133 -67.495697 -37.328972
156.529068 -67.407700 17.952091
159.042908 -67.615501 -29.698259
159.586365 -67.718803 -89.744034
159.297180 -67.594299 31.302521
159.681229 -67.511200 37.975357
161.193176 -67.652100 -92.599205
161.440628 -67.499199 -28.739429
163.593170 -67.923798 -92.593468
165.302063 -68.096901 29.263260
166.793167 -67.817398 -92.585823
167.199997 -67.669601 -95.444862
167.040604 -67.218803 -28.726051
167.445160 -67.590698 -30.631290
169.599991 -67.953300 -95.439133
169.294876 -68.055000 32.279507
171.195419 -67.556801 -93.529312
171.692581 -67.942200 33.238338
172.404526 -67.869698 -97.338432
172.629211 -67.323799 -23.947088
172.624649 -67.638397 -22.040792
175.033752 -67.660202 -25.847546
175.700165 -67.677002 -137.361679
176.802246 -68.054001 -96.374924
176.486603 -68.096901 35.746998
177.314850 -68.096901 -143.510834
176.899399 -67.879402 30.391470
178.222351 -67.271698 -21.074316
179.314468 -68.096901 -143.352051
178.911392 -68.096901 25.372562
180.086716 -68.096901 -131.732178
180.411331 -67.983002 -100.178314
180.213242 -67.555298 -17.257050
180.899384 -67.848701 30.401026
181.705338 -68.096901 27.910845
182.489288 -68.096901 34.635136
182.897110 -68.001099 31.358900
184.220062 -67.495399 -20.106886
184.805023 -68.096901 -97.524811
184.613235 -67.151802 -17.246538
186.114655 -68.096901 -143.417816
186.115875 -68.096901 23.501169
186.886078 -68.096901 -131.450943
187.308487 -67.889702 26.603727
188.018143 -67.188599 -103.020149
187.801834 -67.447304 -12.473307
188.103912 -67.549202 28.511932
188.910782 -68.096901 -141.795135
191.206940 -68.096901 -98.322517
192.019226 -68.096901 -103.462585
191.708466 -67.590500 26.614239
193.387497 -68.096901 -142.085434
192.903900 -67.836899 28.523399
194.124908 -68.096901 -147.697678
194.006744 -67.173103 -98.239830
194.121170 -68.096901 21.300186
194.610931 -67.796700 -16.269550
195.959503 -68.096901 -107.766190
197.358978 -68.096901 -9.591066
197.708450 -67.918701 26.628572
198.515305 -68.096901 23.763491
199.806030 -68.096901 -14.215433
200.182007 -68.096901 -4.163407
201.794968 -67.914703 -9.580469
203.592880 -68.096901 -112.513969
203.218445 -68.096901 -103.123840
203.303848 -68.096901 28.565744
204.185837 -67.985497 -5.762247
204.124359 -67.543297 19.972080
204.927399 -67.178902 -148.729874
204.843781 -68.096901 -113.727989
205.688812 -68.096901 -132.576019
205.392685 -67.983101 -8.618772
205.799728 -68.096901 -11.569708
207.292801 -68.096901 -134.247192
206.988113 -67.659798 -6.708655
208.547379 -68.096901 -157.090256
208.108414 -67.569603 26.653418
208.583557 -67.681900 -4.798637
211.327377 -67.335403 -148.714584
211.366898 -68.096901 2.178792
213.313705 -67.249100 -142.990829
213.311432 -67.187302 -142.037827
212.981262 -68.050400 -3.835029
212.910675 -67.908096 25.711786
214.562561 -68.096901 3.996811
215.312958 -67.676804 24.764423
216.972153 -68.067398 -0.012934
216.926605 -67.713402 19.049511
217.369705 -68.096901 1.016779
218.547592 -68.096901 -157.168365
218.182343 -68.096901 -4.282705
218.779358 -67.724899 -86.743217
219.186172 -67.464203 -89.601654
219.727356 -67.588799 -148.694519
220.379349 -67.512802 -86.739395
220.563034 -68.054703 3.808156
221.767578 -68.054802 1.904778
221.717484 -67.820801 22.873518
222.381927 -68.096901 -87.819611
222.175552 -68.096901 -1.430158
222.922791 -67.595001 -146.779877
222.963028 -67.819504 3.813889
222.751266 -67.670998 92.454285
223.711411 -67.372902 -142.012985
224.354919 -68.096901 -116.276375
224.124313 -67.781097 20.019859
224.920517 -67.826897 -145.822098
225.241425 -68.096901 -124.853294
225.270615 -68.096901 -124.938217
224.758087 -67.515602 89.599670
225.645187 -68.096901 -114.288292
226.164093 -68.096901 -113.413048
226.626312 -68.096901 -103.880913
226.153900 -67.988800 7.634023
226.539688 -68.096901 13.590141
227.347534 -68.096901 -157.131348
227.320496 -68.059898 -145.816376
228.153900 -67.894203 7.638801
228.760345 -67.525902 88.656128
230.140228 -67.947403 13.362312
230.569839 -67.293900 0.972683
230.544785 -67.329300 11.457024
230.778564 -67.596497 81.035927
231.776657 -67.261002 -1.883822
232.947632 -68.096901 -157.163971
232.367172 -67.459801 85.805336
233.478058 -68.096901 -113.395576
235.034821 -68.096901 -122.922874
234.949326 -67.429703 9.561291
235.194504 -67.858597 74.374557
236.511368 -67.420502 -141.982407
236.156158 -67.605499 6.704785
236.149323 -67.894302 9.564157
236.570404 -68.096901 0.742918
236.531204 -68.096901 17.150372
238.127304 -67.266197 -148.650558
237.757385 -68.096901 6.194149
237.578049 -68.096901 81.257675
238.945526 -67.316200 -156.273636
238.581207 -67.367996 -3.773871
239.344910 -68.096901 11.421706
239.209595 -68.096901 68.060837
242.529556 -67.221100 -149.593048
242.174057 -68.096901 -0.783980
242.911346 -67.461502 -141.967117
243.347626 -68.096901 -157.155121
243.213486 -68.096901 66.436195
244.127289 -67.552803 -148.636230
244.370422 -68.096901 22.927635
244.010406 -67.643600 67.723701
244.940948 -67.348999 -154.353317
244.934113 -67.960701 -151.493317
245.633591 -68.096901 25.789961
246.145493 -67.470901 -156.256424
246.943222 -67.241302 -155.301529
247.295822 -68.096901 -135.461624
247.207321 -68.096901 69.020042
248.033096 -68.096901 58.231186
249.329544 -67.381203 -149.576813
248.900223 -68.096901 30.133778
249.384644 -68.096901 -5.202766
249.639984 -67.303703 55.346516
250.945480 -67.535896 -156.244965
250.453171 -68.096901 49.829842
251.743210 -67.379799 -155.290070
251.711334 -67.360397 -141.946091
252.531815 -67.498199 -150.522156
252.496063 -68.096901 -135.562195
252.349655 -67.779198 -74.272377
252.027084 -68.096901 60.747833
252.761047 -67.390602 -79.037010
252.853638 -67.188599 49.635380
253.242264 -67.157997 54.402023
254.333115 -68.096901 -117.158760
254.383804 -67.528702 -88.564461
254.354202 -67.533997 -76.173790
254.051361 -67.849503 50.591442
254.581161 -67.608498 -3.735647
255.690826 -67.680298 -133.358566
256.071747 -68.096901 -125.377632
256.002014 -67.577698 -96.185715
256.486267 -67.208000 -131.449661
256.656281 -68.096901 -114.293205
256.737793 -68.096901 -105.714989
256.943176 -67.522797 -155.277649
257.225220 -68.096901 -103.807816
257.745483 -67.698402 -156.228714
257.572418 -67.605202 -83.791130
258.129517 -67.773201 -149.555786
257.669556 -67.219597 42.975067
258.376953 -67.781898 -85.695511
258.490051 -67.850403 34.398800
258.859070 -68.096901 47.376320
259.721466 -68.096901 -146.178970
259.381134 -67.805298 -3.724180
260.145447 -67.742897 -156.222977
260.529510 -67.916901 -149.550049
260.904449 -67.769600 -139.065125
261.613403 -67.245697 -100.937325
262.138611 -67.192001 -153.358215
262.314392 -68.096901 -100.935646
262.519379 -68.096901 -145.301285
262.823303 -68.096901 -105.098442
263.568329 -68.096901 -107.604675
263.376587 -67.633797 -1.808330
263.283234 -67.199799 37.269657
263.280945 -67.386497 38.222855
264.515350 -68.096901 -143.614517
264.471893 -68.096901 -125.424568
264.943146 -68.042702 -155.258530
264.895538 -68.096901 -135.323578
264.888733 -68.096901 34.971188
266.576538 -67.679298 -1.800685
268.169708 -67.155296 1.062509
271.699890 -67.177101 -137.132339
272.098206 -68.096901 -136.432373
274.574249 -67.585800 -0.828476
275.712860 -68.096901 -142.555771
277.371979 -67.341599 0.131360
279.371979 -67.504799 0.136138
284.095947 -68.096901 -135.473709
284.870239 -67.720596 -124.710838
285.248169 -68.096901 -115.460899
286.490723 -67.848503 -133.284973
286.874786 -67.445602 -126.612045
286.566528 -68.096901 2.415222
287.857941 -68.096901 -140.906738
288.013306 -67.343002 -100.874252
287.981445 -67.755501 -87.531097
288.502838 -68.096901 -138.346191
288.779144 -67.474098 -86.575989
288.767761 -67.769798 -81.810402
288.518494 -68.096901 22.528803
289.558655 -68.096901 -77.996002
289.476685 -67.638397 -43.683598
290.493958 -68.096901 -140.900436
289.988251 -67.209602 -90.385513
289.761871 -68.096901 4.375391
290.503754 -68.096901 -138.729416
290.797363 -67.391602 -94.196587
291.124237 -68.096901 -90.382797
291.690735 -67.179604 -133.272552
292.047455 -67.467499 -115.161659
292.017853 -67.554199 -102.771698
291.752930 -68.096901 8.116809
292.474762 -67.869003 -126.598671
292.426941 -67.443100 -106.582726
292.416351 -68.096901 12.557966
294.769012 -68.096901 -117.062164
300.114288 -68.096901 -143.131470
300.111176 -67.307503 -141.830475
300.102081 -67.629898 -138.017471
309.696350 -68.096901 -135.609558
311.697510 -67.395699 -136.083786
17.665308 -67.143799 40.495392
25.688448 -67.143799 34.795841
32.149143 -67.143799 51.967525
39.669277 -67.143799 42.836365
45.891045 -66.564301 -49.984337
46.302429 -66.850800 -54.748970
46.277382 -66.861504 -44.264595
46.661438 -66.503403 -37.591759
47.852997 -67.143799 -34.055801
50.224998 -66.906403 -22.333202
54.752495 -66.791100 -75.697540
54.999939 -66.742203 -11.837465
59.963867 -66.701202 -80.450806
60.981705 -66.814903 -4.198153
63.960827 -66.743103 88.262428
63.931229 -66.439598 100.652992
65.924393 -66.822098 103.517159
67.174065 -67.143799 82.724091
75.589592 -67.143799 76.235672
76.218094 -66.722198 -19.411797
82.397209 -66.575699 73.056427
83.506126 -67.023201 111.183784
86.780869 -67.143799 -87.535164
87.074059 -67.143799 -42.827328
86.820930 -67.143799 63.130768
87.698212 -67.143799 65.444069
88.280396 -67.143799 -45.475857
88.397377 -67.143799 72.994766
91.029503 -67.143799 61.639519
90.800308 -67.143799 71.765900
92.789040 -67.143799 76.485260
94.436943 -67.143799 56.439041
96.693390 -67.143799 116.529305
98.442101 -67.143799 54.284504
98.953156 -67.143799 110.267685
99.513412 -67.143799 -59.283661
99.918213 -66.210701 -61.292694
100.336426 -66.943398 -68.916718
100.414665 -67.143799 65.769753
101.179497 -67.143799 80.492020
101.917061 -67.143799 106.627762
103.522758 -66.728996 -63.190392
103.622192 -66.691399 62.622704
105.153877 -66.190598 91.220245
105.931854 -66.858498 -66.997147
105.925148 -67.143799 -64.189751
106.322754 -66.847198 -63.183704
107.122345 -67.143799 -75.572433
106.660378 -67.143799 99.801964
106.286140 -67.143799 119.577232
106.287842 -66.430199 118.863235
106.847229 -66.399002 52.145977
107.100571 -67.143799 113.537155
108.033569 -66.635399 57.867630
109.249496 -66.628700 51.198616
109.638115 -66.692001 55.965157
109.484589 -67.143799 120.229874
110.340210 -67.143799 -70.487823
110.297775 -67.143799 114.711800
111.085548 -66.503403 119.827690
112.328140 -67.143799 -65.431267
112.849487 -66.809303 51.207214
115.492371 -66.675003 116.979218
117.951576 -67.143799 -75.236557
117.883255 -66.615898 120.797935
120.336372 -66.610001 -68.868935
119.885529 -66.492401 119.848717
122.297661 -66.407898 -52.661106
125.888535 -66.471901 -48.840019
125.483231 -66.807404 120.816093
127.144958 -67.143799 -72.458389
127.099060 -67.143799 -53.244541
127.631981 -67.143799 -46.929653
127.875961 -67.143799 -43.572655
129.899033 -67.143799 -53.227551
130.349136 -67.143799 -44.063751
130.271164 -67.143799 -41.561932
130.764786 -67.143799 -80.747658
131.093842 -67.143799 -51.055592
131.524078 -67.143799 -63.709103
131.898636 -67.143799 -53.058075
133.529282 -67.143799 -65.881912
133.931778 -66.206100 -66.930260
135.521515 -67.143799 -62.632347
137.091324 -67.143799 -49.990959
141.060532 -67.143799 -37.101940
141.918839 -67.143799 -61.502262
141.872559 -66.190598 -42.130016
142.904053 -66.588303 28.403950
143.861160 -66.486603 -37.359550
143.770767 -67.143799 29.359123
144.320358 -66.529800 -62.139824
145.127182 -66.539703 -64.997307
147.119644 -67.143799 -61.837738
147.058868 -66.679901 -36.398808
147.970444 -66.756699 -83.099869
148.277084 -66.775703 -44.020920
149.461151 -66.391701 -37.346172
150.485825 -66.885002 36.047085
150.924042 -67.143799 20.045486
151.865692 -66.596397 -39.246735
151.681259 -66.947701 37.956245
152.910538 -67.143799 25.700247
154.126785 -66.730301 18.899485
155.454300 -66.856598 -34.472546
156.485794 -66.659500 36.061417
158.252014 -67.037903 -33.512657
160.492615 -66.494102 33.211582
161.694885 -66.650597 32.261353
162.885773 -66.684700 36.076706
164.788620 -66.984901 -90.684608
166.492599 -66.211800 33.225918
166.485779 -66.811401 36.085308
170.101685 -66.905502 29.422028
172.888031 -66.813499 35.147499
173.595428 -66.190598 -93.523582
175.360703 -67.143799 -139.269501
176.010345 -67.143799 -99.766823
177.599655 -67.143799 -95.289017
178.908493 -66.811401 26.583658
182.015213 -67.143799 -101.796486
182.002548 -67.143799 -96.495499
182.092545 -66.683899 33.263184
184.416916 -67.143799 -102.509750
186.894821 -66.899696 32.321552
187.714783 -67.143799 23.965790
188.606384 -66.635101 -14.377590
189.410950 -66.694504 -16.281973
191.605469 -67.143799 -97.703568
193.290878 -67.143799 -133.455643
193.401825 -66.264999 -12.459929
194.087860 -67.143799 -132.190735
193.717575 -66.687401 22.806625
194.743729 -67.143799 -115.394119
194.821640 -67.143799 -104.471893
194.592712 -66.852402 -8.644572
195.267517 -67.143799 -123.677887
195.806168 -67.143799 -113.485573
196.129150 -67.143799 -130.640839
196.207230 -67.143799 -123.969650
196.534485 -67.143799 -151.710938
196.707901 -67.143799 -112.530418
196.501633 -66.794701 29.485096
197.222672 -66.722198 -104.904167
197.738678 -67.143799 -153.460083
197.607574 -67.143799 -98.582230
198.604080 -66.806602 -13.400603
200.518295 -66.715698 -144.927414
200.185852 -66.638199 -5.771802
200.944565 -67.143799 -155.918411
201.719818 -66.496399 21.872541
202.527405 -66.924698 -148.735611
202.108429 -66.448898 26.639084
202.999512 -66.503799 -11.483896
203.739883 -67.143799 -112.513618
204.068665 -67.143799 -124.147858
204.024933 -66.501198 -105.840919
204.546875 -67.143799 -156.886810
204.916016 -67.092796 -143.963898
205.844696 -67.143799 -115.367599
205.379028 -66.771599 -2.899988
205.312988 -66.314499 24.740534
206.093246 -66.320900 -134.430054
206.911453 -66.889999 -142.053116
206.519806 -66.492104 21.884008
207.346451 -67.143799 -156.705124
208.129669 -66.538200 -149.675232
209.392670 -66.851799 -8.609216
211.769882 -66.850998 0.927770
212.919785 -66.784302 21.899298
216.143311 -66.262802 -155.375107
216.545578 -66.671600 -156.327148
217.293869 -67.143799 -134.684296
218.178970 -66.862999 -2.869409
219.734192 -66.334602 -151.553528
219.731918 -66.605202 -150.600525
219.758484 -66.892502 5.712489
221.343292 -66.358101 -155.362686
221.593018 -66.345398 -92.454910
222.131897 -66.395599 -150.594788
221.999832 -66.844704 -95.313950
222.494202 -67.143799 -134.812866
222.788452 -66.506699 -90.546051
224.127350 -66.480904 -148.684006
224.946030 -67.143799 -156.504074
225.192993 -66.864197 -92.446312
224.967575 -66.842796 1.912422
225.716644 -67.143799 -144.203217
226.144348 -67.143799 -131.522141
226.069870 -67.143799 -124.623299
226.144791 -66.645798 11.446512
227.343277 -66.570900 -155.348358
227.197937 -67.143799 -94.512527
227.727341 -66.745499 -148.675415
227.363022 -66.839600 3.824400
228.519562 -67.143799 -145.426514
228.936432 -66.630501 -152.484543
228.900009 -66.196899 -137.234589
229.605331 -67.143799 -97.603783
230.106827 -66.284103 -140.091705
230.500000 -66.254997 -137.230759
229.969452 -67.002899 84.846504
231.319305 -67.143799 -145.314835
232.016541 -67.143799 -102.291039
232.172104 -66.656197 0.023378
232.371735 -66.740997 83.899147
233.316956 -67.143799 -144.326050
233.286331 -66.972900 -131.505081
233.535660 -67.143799 -125.786469
233.222565 -66.851997 -104.818161
232.937943 -66.904602 14.322119
232.929901 -67.143799 17.693159
233.342514 -67.051201 12.416840
234.129593 -66.920197 -149.613113
233.735504 -67.143799 15.344207
234.543243 -66.685699 -155.331161
234.169815 -66.397499 0.981283
234.845337 -66.190598 -114.345306
235.311539 -67.143799 -142.056274
235.187668 -66.357597 77.233948
235.180832 -66.349998 80.093239
236.378555 -66.990303 81.049309
237.340958 -66.752502 -154.371460
236.796768 -66.603996 73.425285
238.131851 -66.472603 -150.556564
238.830154 -67.143799 6.711174
238.524673 -67.143799 19.884460
239.336411 -66.410896 -152.459702
239.735306 -67.143799 9.572724
239.342499 -67.055000 12.431173
240.536392 -67.097504 -152.456833
240.578918 -66.744904 -2.815896
240.928818 -66.873802 18.153721
240.789917 -66.611504 76.294235
241.696167 -67.143799 -135.608002
241.772079 -66.311501 0.046313
242.172073 -67.070396 0.047268
243.326660 -67.143799 19.061371
243.310608 -66.525398 25.784412
243.223938 -67.143799 62.061806
244.398804 -67.143799 72.584442
245.172501 -67.143799 63.913967
245.232666 -67.143799 58.407795
245.706039 -66.569397 27.696440
247.219727 -67.143799 63.831261
247.626343 -66.695702 61.060520
248.695389 -67.143799 -152.437332
248.102066 -67.143799 29.359268
248.033554 -67.143799 58.039684
249.336380 -66.722702 -152.435806
249.637711 -66.208603 56.299614
249.628601 -66.987900 60.112103
249.617508 -67.143799 64.755394
252.061752 -67.143799 46.239277
253.244537 -66.200203 53.448921
253.231766 -67.143799 58.797207
253.970139 -66.961800 -82.846634
254.868057 -66.934502 -123.829506
254.576599 -66.595596 -1.829353
255.247818 -67.143799 -115.357574
255.176971 -66.462097 -85.703156
255.170135 -66.662598 -82.843765
254.873566 -67.143799 41.296577
255.378403 -67.143799 -2.578639
255.290604 -67.143799 34.172054
255.775635 -67.143799 49.642357
256.519714 -67.143799 -145.448624
256.872589 -66.232803 -125.730713
256.804291 -66.517799 -97.136803
256.774689 -66.636101 -84.746239
257.245300 -66.710999 -114.291794
257.504242 -67.143799 -103.807144
257.954742 -67.143799 -140.025177
257.703644 -67.143799 -138.722763
257.624786 -66.398201 -105.712868
257.986084 -66.320503 -89.508957
257.885010 -67.143799 44.881783
258.454437 -67.143799 49.306656
259.301514 -67.143799 -137.828949
259.190643 -66.569603 -91.412086
259.283234 -66.194298 37.260101
260.501831 -67.143799 -137.960083
260.906860 -67.143799 -140.077118
261.206573 -66.825996 -98.079292
260.883240 -66.530998 37.263924
261.632782 -67.143799 35.359509
262.088531 -66.561302 -132.390289
262.017944 -66.841499 -102.843369
262.490784 -66.254204 -133.342316
262.472565 -66.243202 -125.717339
262.085480 -66.746597 36.313694
262.072052 -67.143799 41.935577
262.971008 -67.143799 0.531158
263.898254 -67.143799 -114.275902
263.367462 -66.616402 2.004159
264.468018 -66.640198 -123.806572
264.448486 -67.143799 -115.633591
264.852081 -66.552597 -117.133636
265.711334 -67.143799 -141.934647
267.367462 -66.732002 2.013715
270.891144 -67.143799 33.960922
276.111115 -67.143799 -141.830811
278.498108 -67.143799 31.054289
282.511230 -67.143799 -141.872513
282.167419 -66.455200 2.049072
282.900330 -67.143799 -137.316574
283.368744 -67.143799 1.499561
284.829468 -67.143799 25.883600
285.252045 -66.548599 -117.084900
287.254028 -67.143799 23.983187
287.688446 -66.828400 -132.329132
287.674805 -66.613098 -126.610138
287.647461 -66.534500 -115.172173
288.440613 -66.433998 -112.311264
288.888428 -66.533302 -132.326263
288.822418 -66.648399 -104.685333
288.802917 -67.143799 -96.530357
289.274811 -66.369499 -126.606316
290.008759 -66.840103 -98.963478
289.803864 -67.143799 21.129869
290.888428 -66.832901 -132.321487
290.874756 -66.652199 -126.602493
290.826965 -66.203697 -106.586548
290.822388 -66.907402 -104.680557
291.247467 -67.031601 -115.163574
293.248718 -67.143799 -115.688789
295.300140 -67.143799 -137.207947
295.968201 -67.143799 -141.840363
296.506653 -66.854698 -139.933090
301.315735 -66.370499 -143.733597
301.697113 -67.143799 -135.939667
306.515717 -66.275200 -143.721176
311.315735 -66.519501 -143.709717
312.502045 -66.428902 -137.987854
312.911133 -66.780701 -141.799896
16.040989 -66.190598 54.649452
19.961634 -66.190598 37.641571
27.644125 -66.190598 53.351166
32.997379 -66.190598 57.688370
38.088413 -66.190598 34.825466
51.145676 -65.737900 -72.846848
62.369236 -66.190598 -82.695068
62.577847 -66.190598 -2.581336
62.738060 -65.772202 97.790733
63.167660 -65.711700 85.401123
63.147163 -66.031799 93.979202
63.972214 -65.865402 83.496841
65.377937 -66.190598 -2.618047
68.182663 -66.190598 -4.591452
70.195343 -65.794701 -9.894858
72.209641 -66.190598 -15.877864
75.980354 -66.190598 -87.334259
77.803307 -66.190598 -27.033031
77.847687 -66.101303 -31.798542
78.197990 -66.190598 -23.219479
