# This PCD file was generated using the MATLAB® pcwrite function
# from Computer Vision Toolbox®.
# .PCD v.7 - Point Cloud Data file format
VERSION .7
FIELDS x y z
SIZE 4 4 4
TYPE F F F
COUNT 1 1 1
WIDTH 1504
HEIGHT 1
VIEWPOINT 0 0 0 1 0 0 0
POINTS 1504
DATA ascii
91.129341 -54.753101 101.473869
92.198326 -54.753101 -57.498734
91.593071 -54.753101 74.799004
91.590347 -53.920300 75.937805
91.583519 -54.159698 78.797089
91.579689 -54.753101 80.398384
94.312790 -54.753101 -59.029484
94.324677 -54.753101 85.475555
94.789871 -54.753101 -91.293831
94.322037 -53.855000 104.538109
95.503807 -54.248501 112.166458
98.803062 -54.753101 70.623917
98.844788 -54.753101 95.017578
99.164284 -54.753101 86.855919
99.124290 -54.665501 103.596474
99.422539 -54.753101 105.503395
101.117455 -53.983002 106.460648
103.595596 -54.753101 73.755676
103.511414 -54.753101 108.991875
104.326141 -54.753101 -64.604774
104.666985 -54.753101 -53.656334
104.722000 -54.042599 104.562950
105.501450 -54.753101 -54.271339
106.740211 -54.250999 96.942749
107.926544 -54.403999 102.664299
109.130318 -54.753101 -66.348503
109.618370 -54.753101 64.230232
110.039536 -54.753101 55.369915
113.518509 -54.753101 -61.400707
114.336998 -54.753101 -69.136772
114.782677 -54.753101 -88.257767
114.832359 -54.753101 58.379673
115.250603 -54.753101 50.744850
116.295319 -54.753101 -51.689846
117.145836 -54.753101 -72.835175
117.842331 -54.753101 -58.390568
117.251755 -53.998798 50.264633
119.555786 -54.753101 -76.998230
119.256302 -54.285801 48.363110
120.359833 -54.753101 -78.688713
121.968246 -54.379601 -82.208878
121.897659 -54.694901 -52.662064
122.454018 -54.173901 49.323856
123.660843 -54.325298 46.467430
127.093086 -54.359699 -50.743450
237.792221 -54.753101 13.380593
238.578918 -54.590698 -2.820674
238.946564 -54.753101 10.720833
239.376648 -53.907902 -1.865665
239.917664 -54.753101 15.291926
240.149307 -53.927601 9.573713
240.588028 -53.832298 -6.628385
240.548004 -54.753101 10.126745
240.983459 -54.036301 -4.721235
240.967529 -53.847301 1.950646
241.376648 -53.968601 -1.860888
242.500183 -54.753101 30.142588
243.697845 -54.753101 31.122053
246.496933 -54.575401 31.510839
247.733597 -54.753101 16.162331
249.388000 -53.996700 -6.607362
249.783447 -53.990601 -4.700212
250.080963 -53.955601 38.191322
250.883255 -54.288799 37.240036
251.381165 -53.809799 -3.743292
251.795425 -54.753101 -9.711319
251.790268 -54.459900 -7.554726
252.121948 -53.802601 21.039848
254.587982 -54.311600 -6.594940
256.196198 -54.753101 -10.036008
256.592529 -54.399799 -8.496456
257.386993 -54.753101 -6.177151
259.687775 -54.100498 35.354862
260.885498 -54.210201 36.310829
261.286804 -54.753101 35.770985
261.786255 -54.753101 -5.857641
263.686279 -54.753101 35.985119
266.085480 -54.168999 36.323250
266.883209 -53.835999 37.278259
269.779755 -54.753101 -3.138637
270.515076 -53.815701 23.943197
271.287750 -54.119801 35.382576
272.485443 -53.827999 36.338539
272.895355 -54.753101 32.205406
274.573608 -54.753101 -0.556177
274.897827 -54.753101 31.172588
277.300293 -54.753101 30.142626
277.694550 -53.836700 32.538475
278.092285 -54.233799 33.492527
278.578796 -54.453098 -2.725115
280.892273 -53.810101 33.499214
281.366455 -54.753101 2.447080
281.719604 -54.182098 22.063660
283.174225 -54.753101 -0.807931
282.971985 -53.825100 0.144739
282.899109 -54.151501 30.644701
283.696808 -54.076698 31.599710
284.119568 -54.188499 22.069393
285.692841 -54.753101 3.963750
286.569672 -53.948299 1.106466
287.308197 -53.966400 26.842625
288.556000 -54.442799 6.829968
289.350616 -54.753101 9.095550
290.115021 -53.992199 23.990021
291.310455 -53.831100 25.899082
291.742340 -53.883301 12.556356
292.155212 -54.753101 7.163757
292.124115 -54.194698 20.182310
292.533203 -53.820099 16.370756
293.335510 -54.720299 15.419540
293.324127 -54.649700 20.185177
293.317291 -54.050800 23.044569
294.529602 -54.753101 11.609882
294.935516 -54.690800 15.423363
294.926392 -54.145599 19.235851
19.559895 -53.799999 56.703064
21.402212 -53.799999 57.660671
33.457371 -53.799999 36.720608
39.620201 -53.799999 51.032272
44.494884 -53.799999 -44.268856
45.287216 -53.799999 -71.907646
48.357834 -53.799999 -77.939323
53.771118 -53.799999 0.224563
54.969448 -53.799999 0.924728
58.160919 -53.799999 99.686104
62.211807 -53.799999 -16.797651
63.420284 -53.799999 -20.345274
63.589542 -53.799999 76.241806
63.512211 -53.799999 108.611519
68.297401 -53.799999 -52.619915
68.794312 -53.799999 74.250435
70.796249 -53.799999 73.442215
71.499908 -53.799999 -53.664768
71.908974 -53.799999 -57.458702
76.798073 -53.799999 72.684853
79.149399 -53.195400 93.064323
79.863625 -53.104500 -38.465542
79.958504 -53.419800 89.253746
80.298073 -53.799999 114.551132
80.745262 -53.799999 94.795647
81.198029 -53.799999 72.708664
81.969887 -53.684502 84.492935
82.338974 -53.799999 97.433762
84.685402 -53.799999 -47.575851
84.397202 -53.290100 73.061211
84.377777 -53.799999 81.193184
85.190369 -52.981602 75.922516
85.989670 -53.799999 -91.220863
85.930824 -53.799999 100.847649
86.701553 -53.463600 113.098427
89.192635 -53.168201 74.978867
90.725014 -53.799999 103.283714
92.300476 -53.799999 113.559799
93.709106 -53.799999 91.192909
93.753197 -53.799999 98.818031
95.119751 -53.519299 105.493118
95.581955 -53.799999 79.457542
97.998581 -53.799999 72.500198
98.337959 -52.853500 97.875786
98.722015 -53.568901 104.548615
98.704872 -53.799999 111.724098
99.205193 -53.799999 69.733276
99.904831 -53.799999 84.535782
100.708351 -53.382000 110.271873
101.112900 -53.328201 108.366837
101.614281 -53.799999 65.931122
101.982040 -53.799999 76.915726
102.324043 -53.799999 -63.730656
103.515175 -53.695999 107.419472
104.400406 -53.799999 71.743591
105.495125 -53.799999 -51.622746
106.370522 -53.799999 68.348083
107.101059 -53.799999 -54.105816
108.031288 -53.095402 58.820728
108.718193 -53.589699 -61.271671
109.525543 -53.799999 -64.350357
109.493835 -53.799999 -51.078693
111.238106 -53.076900 55.968979
111.226723 -53.014702 60.734665
111.933090 -53.799999 -67.505508
111.918182 -53.658199 -61.264027
113.091789 -53.799999 -50.216797
112.835823 -52.853901 56.925900
113.523705 -53.799999 -63.575802
113.633545 -53.089199 57.881008
115.918167 -52.890900 -61.254471
115.911339 -53.473400 -58.395180
116.698471 -53.799999 -53.007687
116.690300 -53.799999 -49.587498
117.792046 -53.799999 -74.593834
117.649475 -53.400501 51.218681
118.304497 -53.578400 -55.530056
119.179085 -53.799999 -86.750153
120.690834 -53.437199 -49.805641
122.306763 -53.289799 -56.473602
124.697655 -53.426201 -52.655373
237.736649 -53.799999 -1.869583
238.124268 -53.225101 20.053305
238.547043 -53.368999 10.523013
238.542496 -53.438000 12.429262
238.537933 -53.373699 14.335497
238.984818 -53.799999 -5.289612
238.910599 -53.684700 25.773901
239.721985 -53.478401 21.010225
239.701492 -53.359501 29.588301
240.558426 -53.455399 5.762179
240.537933 -53.151901 14.340276
240.510605 -53.162201 25.777723
240.926544 -53.038799 19.106848
241.349319 -53.240002 9.576580
241.703766 -53.632301 28.639980
242.162964 -53.218700 3.859757
242.143799 -53.799999 11.881874
242.470200 -53.799999 13.391768
242.096939 -53.472801 31.500328
242.590118 -53.799999 -7.503404
242.585739 -53.441601 -5.670510
246.192505 -53.799999 -8.498001
246.890091 -53.356499 34.371086
247.294647 -53.743401 32.465847
248.498627 -53.799999 30.800720
248.483261 -53.448399 37.234303
250.492371 -52.888302 33.426590
252.490829 -53.799999 34.073166
252.487808 -53.261700 35.337662
252.479828 -53.799999 38.673553
252.985703 -53.460098 -5.645665
253.381348 -53.799999 -3.814314
253.792542 -53.736500 -8.503145
254.890060 -53.685398 34.390198
256.893768 -53.799999 32.847782
256.887787 -53.734299 35.348175
257.385498 -53.799999 -5.552953
258.483856 -53.799999 36.992794
261.785675 -53.119202 -5.624641
262.114868 -53.799999 24.015730
264.882843 -53.799999 37.426880
265.782349 -53.799999 -4.229589
268.978851 -53.498402 -2.748049
270.088776 -53.799999 34.946411
270.581604 -53.799999 -3.906624
272.178833 -53.281200 -2.740404
272.978851 -53.799999 -2.747893
274.573059 -53.799999 -0.328297
279.369965 -53.799999 0.985136
279.705231 -53.799999 28.075865
280.164703 -53.799999 3.180411
281.312775 -52.966702 24.922096
281.710358 -53.799999 25.926348
283.772919 -53.799999 -0.252339
283.715027 -53.563400 23.974731
285.755554 -53.799999 7.016888
286.165131 -53.446301 3.011745
287.356415 -53.799999 6.665681
287.301361 -53.638000 29.702017
289.364319 -53.799999 3.353609
290.551422 -53.697201 8.740995
292.156830 -53.799999 6.481149
292.146881 -53.323399 10.651062
293.340057 -53.280102 13.513296
295.145355 -53.799999 12.564486
295.522217 -53.799999 16.377897
12.133747 -52.846901 41.435280
12.559108 -52.846901 48.108212
13.283190 -52.846901 36.981915
33.634876 -52.846901 57.230289
44.738712 -52.846901 -69.939751
45.602154 -52.846901 -41.406799
49.562408 -52.846901 -79.853149
49.870323 -52.846901 -21.380947
50.997673 -52.221600 -10.893825
53.571873 -52.846901 -83.809685
58.129776 -52.846901 97.779724
58.350842 -52.846901 92.435036
58.776779 -52.122501 81.578125
60.190815 -52.279701 -8.012454
60.380028 -52.846901 104.457016
61.983440 -52.846901 -88.642006
63.102379 -52.583500 -54.708832
63.497581 -52.846901 -52.700882
64.627235 -52.089600 -23.251900
66.394150 -52.846901 74.318298
67.031776 -52.412102 -25.152460
67.106918 -52.846901 110.831604
69.587692 -52.846901 -90.411736
70.304634 -52.463200 -55.644730
75.899734 -52.846901 113.849625
77.843132 -52.480301 -29.892244
78.367050 -52.846901 85.675735
79.188858 -52.240299 -90.889107
79.428398 -52.846901 -35.607277
79.179001 -52.268002 80.673759
79.537552 -52.846901 98.024467
80.394936 -52.162102 74.004745
80.726624 -51.901199 102.599319
81.180428 -52.846901 80.077637
81.133095 -52.846901 99.889183
82.698364 -52.846901 114.428871
83.126617 -52.325901 102.605049
87.922050 -52.323502 104.522820
88.300453 -52.846901 113.564240
93.519058 -52.846901 105.780396
93.949356 -52.649899 93.099686
94.363022 -52.498001 87.381851
94.337975 -52.471600 97.866226
95.174400 -52.589901 82.618179
95.524307 -52.435600 103.587875
96.383507 -52.266300 78.808556
97.122025 -52.479801 104.544792
97.524300 -52.356201 103.592651
98.389809 -52.846901 -91.262238
98.756096 -52.846901 90.282562
98.713226 -52.846901 108.228104
99.601707 -52.225101 71.191223
100.781143 -52.846901 79.801666
101.208534 -52.188499 68.335754
101.990318 -52.381901 75.962646
104.806244 -52.167801 69.297455
105.222183 -52.533600 62.626526
106.019913 -52.023102 63.581532
107.102959 -52.846901 -54.900215
107.215347 -52.402901 65.490700
107.909081 -52.075600 -57.461201
108.321388 -52.846901 -62.611629
108.422180 -52.170101 62.634171
110.596214 -52.846901 -88.907967
110.031281 -52.368000 58.825504
110.702248 -52.709499 -54.595119
112.322731 -52.349300 -63.169369
113.511345 -52.608601 -58.400913
114.339104 -52.846901 -70.018272
115.104507 -52.706799 -55.537701
117.148254 -52.846901 -73.848373
120.706772 -52.392200 -56.477425
120.695389 -52.405102 -51.711834
121.902214 -52.408199 -54.568363
236.960709 -52.422199 4.800462
237.454361 -52.846901 -0.917155
237.347046 -51.914501 10.520146
238.174362 -52.114300 -0.915435
238.160706 -52.068802 4.803329
238.949310 -52.269199 9.570847
239.767532 -52.306801 1.947779
240.549316 -52.066399 9.574669
240.517441 -52.575600 22.918430
240.985748 -52.002499 -5.674332
240.974350 -52.708401 -0.908746
240.962967 -52.197399 3.856891
240.935654 -51.926102 15.294358
242.153854 -51.919498 7.672246
242.147018 -52.092899 10.531613
242.583466 -52.752300 -4.717412
242.760208 -52.846901 13.392462
242.990158 -52.846901 -7.518649
242.978897 -51.921799 -2.810163
242.931091 -52.346600 17.205381
242.894424 -52.846901 32.553936
243.312881 -52.774799 24.831314
243.299225 -52.129200 30.550098
244.115692 -52.846901 23.651928
244.588013 -52.260300 -6.618829
246.096924 -52.086700 31.509884
247.322327 -52.846901 20.880682
248.583450 -52.250301 -4.703078
248.492371 -52.357800 33.421814
249.321976 -52.212700 21.033159
249.296936 -52.846901 31.510029
250.877731 -52.846901 39.548531
251.283249 -52.600300 37.240990
251.280975 -51.947899 38.194187
252.183945 -52.846901 -4.909378
252.477798 -52.846901 39.527950
254.483246 -52.362499 37.248634
254.915298 -52.846901 23.829329
256.982605 -52.846901 -4.341612
258.085510 -52.283699 36.304138
258.997314 -52.846901 33.446907
259.382843 -52.846901 -4.438979
261.781128 -52.512299 -3.718446
262.085480 -52.395401 36.313694
262.081787 -52.846901 37.861488
263.680939 -51.942600 38.223812
264.976593 -52.399601 -1.804508
266.333374 -52.846901 -4.660674
266.081573 -52.846901 37.957146
268.481873 -52.846901 37.834282
269.057312 -52.846901 33.470943
269.685486 -52.036701 36.331852
270.487732 -52.179699 35.380665
274.167419 -52.485600 2.029960
274.575043 -52.846901 -1.161475
277.287201 -52.846901 35.622608
277.696167 -52.846901 31.861275
279.762909 -52.846901 3.930133
279.765137 -51.983700 2.996456
279.694550 -52.408001 32.543251
280.560577 -52.489498 4.904621
281.765228 -52.846901 2.957524
282.499084 -52.120701 30.643745
282.958313 -52.579498 5.863472
284.104736 -52.846901 28.286676
284.895905 -52.846901 31.988575
285.758759 -52.846901 5.674442
286.144623 -51.901798 11.589850
286.951477 -52.280399 8.732395
286.903656 -52.216599 28.747963
288.910492 -52.181198 25.893349
289.346893 -52.217400 10.644373
289.308197 -52.127998 26.847403
290.558258 -52.473598 5.881629
290.907104 -52.846901 27.310522
291.317291 -52.388199 23.039791
291.737793 -52.442501 14.462591
292.517273 -51.902401 23.042658
293.313904 -52.846901 24.463863
294.149902 -52.846901 9.389029
294.252228 -52.846901 16.374863
294.519318 -52.846901 22.186438
11.891994 -51.893700 43.341007
13.650220 -51.893700 50.783131
15.505154 -51.893700 33.818314
18.097061 -51.893700 31.181297
19.298796 -51.893700 30.456865
20.181210 -51.893700 36.688892
20.499813 -51.893700 30.031633
21.701399 -51.893700 29.369703
22.432367 -51.893700 58.266232
23.545553 -51.893700 34.790722
24.503218 -51.893700 28.611794
26.889425 -51.893700 34.388210
28.103472 -51.893700 28.509995
31.286783 -51.893700 35.499020
32.101173 -51.893700 29.477047
32.990021 -51.893700 51.016434
34.498260 -51.893700 30.698778
34.481606 -51.893700 37.670757
35.696293 -51.893700 31.523743
36.865959 -51.893700 44.222672
37.292797 -51.893700 32.987659
38.067505 -51.893700 43.577442
38.489750 -51.893700 34.265022
39.972553 -51.893700 36.736172
40.227272 -51.893700 50.080620
40.470688 -51.893700 42.246979
40.467892 -51.893700 43.418274
41.174240 -51.893700 40.551556
41.227303 -51.893700 47.223598
41.266842 -51.893700 43.858288
41.535957 -51.893700 45.318130
44.077209 -51.893700 -68.098022
46.970318 -51.893700 -75.716133
50.776604 -51.893700 -13.753760
51.442707 -51.893700 -5.174045
52.411697 -51.893700 -1.359219
54.774334 -51.893700 -84.837914
59.581257 -51.893700 -87.730942
59.523739 -51.893700 103.780769
60.309532 -51.893700 -3.246557
60.784393 -51.893700 78.393906
63.505104 -51.893700 -55.849976
64.785904 -51.893700 -89.669113
67.995682 -51.893700 73.677231
69.100082 -51.805500 -53.741302
68.976463 -51.893700 111.149078
69.582466 -51.893700 73.978920
71.102333 -51.893700 112.755157
71.995911 -51.893700 73.588081
73.176735 -50.959099 81.612526
74.792671 -51.089500 74.944466
74.769897 -51.419399 84.475739
74.749405 -51.428200 93.053818
75.305344 -51.893700 86.383224
75.988869 -51.008701 -90.896751
75.579010 -51.308300 80.665161
75.548431 -51.893700 93.464226
76.794945 -51.535702 73.996147
77.099960 -51.893700 113.755486
77.579414 -51.893700 80.499237
79.190384 -51.511501 75.908180
80.300262 -51.893700 113.634132
82.268929 -51.893700 -40.682003
81.922066 -51.399200 104.508484
83.475189 -51.893700 -43.303829
85.759048 -51.893700 -48.935886
85.500206 -51.893700 113.664558
85.920593 -51.893700 105.131332
90.704308 -51.893700 -55.481590
95.147072 -51.421600 94.055649
95.990257 -51.893700 -91.453964
95.567566 -51.383301 85.478523
95.905037 -51.893700 111.653412
96.347076 -51.182499 94.058517
96.774391 -51.058498 82.622002
96.765282 -50.996201 86.434494
97.604424 -51.893700 -61.298222
97.183502 -51.473000 78.810471
98.365288 -51.346199 86.438316
98.374947 -51.893700 89.297745
99.988052 -51.215099 76.910957
100.399437 -51.310699 72.146233
102.803978 -51.438301 70.245773
105.527855 -51.893700 -65.322006
105.901146 -51.893700 -54.142883
107.896576 -51.893700 -52.225311
110.720459 -51.291801 -62.220093
114.715897 -51.443501 -60.304245
115.981094 -51.893700 -87.593895
116.697678 -51.494801 -52.674484
118.306778 -51.425201 -56.483158
118.299950 -51.429401 -53.623764
121.168243 -51.478298 -82.210793
236.340439 -51.893700 5.752103
236.786880 -51.893700 7.659425
237.456619 -51.893700 25.770426
238.162979 -51.095798 3.850201
238.124268 -51.355701 20.053305
238.561432 -51.893700 22.913757
238.958420 -51.390701 5.758357
238.908325 -51.230400 26.726997
238.900406 -51.893700 30.041788
239.717438 -51.580601 22.916519
240.103775 -51.683899 28.636158
240.524277 -51.377800 20.059038
241.102478 -51.893700 12.435378
241.273773 -51.893700 28.638954
241.725082 -51.893700 0.046200
241.358429 -51.572800 5.764091
242.537933 -51.338799 14.345054
242.533371 -51.035198 16.251307
243.074081 -51.893700 0.049423
243.341415 -51.893700 12.886209
243.794647 -51.893700 15.301188
244.508316 -50.953300 26.740376
245.694656 -51.655499 32.462025
247.378250 -51.893700 -2.528452
248.120834 -51.893700 21.503191
248.481644 -51.893700 32.468685
250.979553 -51.893700 -3.072650
251.286682 -51.893700 35.807594
253.778870 -50.979500 -2.784362
255.381149 -51.729401 -3.733736
256.981293 -51.893700 -3.787014
256.983429 -51.262798 -4.683011
257.061157 -51.893700 -3.729722
257.380737 -51.893700 -3.560759
257.378876 -51.459801 -2.775761
258.082214 -51.893700 37.684536
259.384369 -51.893700 -5.078577
261.687744 -51.893700 35.373241
262.183167 -51.893700 -4.575289
262.174286 -51.549999 -0.858099
263.880951 -51.893700 38.224289
264.081055 -51.893700 38.166965
266.087769 -51.141300 35.370152
267.692322 -51.068901 33.467682
269.376556 -51.746498 -1.793996
269.291138 -51.893700 33.964001
270.895294 -51.893700 32.227028
271.308258 -50.954601 26.804401
271.294586 -51.074200 32.523186
271.762878 -51.591499 3.930471
272.911255 -51.893700 25.552826
273.287109 -51.893700 35.658154
274.100647 -51.893700 29.979980
274.094574 -51.507702 32.529873
276.156036 -51.610199 6.800344
276.092224 -51.893700 33.508450
276.511932 -51.893700 25.265926
277.305786 -51.893700 27.847431
277.296692 -51.893700 31.646919
277.363831 -51.893700 31.584579
277.296844 -51.827999 31.584421
277.294556 -50.957100 32.537518
277.699127 -51.160000 30.632278
278.965149 -51.747700 2.994545
279.654144 -51.893700 2.996191
279.349213 -51.433399 9.667361
279.291840 -51.893700 33.683994
279.764923 -51.893700 3.088105
280.562836 -51.615101 3.951494
281.305939 -51.042999 27.781487
282.146912 -51.587399 10.627172
282.503632 -51.589298 28.737452
282.917328 -50.940601 23.019722
282.896515 -51.893700 31.735298
284.144623 -51.551601 11.585073
285.326416 -51.205399 19.212917
285.756012 -51.692101 6.823278
287.315033 -51.273499 23.983332
288.540070 -51.770802 13.501829
288.515015 -51.697498 23.986198
288.919586 -51.225800 22.080860
289.719574 -51.454700 22.082771
290.546875 -51.525101 10.647240
290.537781 -51.450100 14.459724
291.328674 -51.664299 18.274124
291.742340 -51.344200 12.556356
293.346893 -51.791302 10.653929
295.344696 -51.893700 11.576539
12.159163 -50.940601 46.201057
12.877099 -50.138000 39.530849
13.652050 -50.086102 50.017132
14.487128 -50.940601 35.334984
14.845666 -50.940601 52.690693
16.893591 -50.940601 32.632526
17.031179 -50.940601 43.353287
17.657269 -50.940601 47.167294
17.239370 -50.940601 55.329315
17.693024 -50.169498 32.870438
17.676039 -50.940601 39.980415
18.096355 -50.940601 31.476297
18.437071 -50.940601 56.292782
18.854023 -50.940601 49.197659
19.683910 -50.456699 36.687702
20.034618 -50.940601 57.320999
20.449850 -50.940601 50.945774
21.156784 -50.940601 35.738121
21.288460 -50.053200 34.785332
21.700626 -50.940601 29.693001
22.032072 -50.940601 51.943356
23.246609 -50.940601 52.306461
24.093006 -50.003201 32.885727
24.831572 -50.940601 58.602962
25.299833 -50.163200 30.029301
26.444805 -50.940601 53.065002
26.902567 -50.940601 28.887627
26.890722 -50.715199 33.845512
28.770176 -50.940601 52.912655
29.701771 -50.940601 29.224014
30.092989 -50.005600 32.900059
30.432116 -50.940601 58.381142
30.888281 -50.940601 34.872463
31.247190 -50.940601 52.072170
32.097538 -50.147400 30.998642
32.885147 -50.940601 36.186440
33.299030 -50.940601 30.374611
33.686150 -50.127102 35.768051
34.035999 -50.940601 56.760147
34.854099 -50.940601 49.184483
35.481224 -50.940601 55.787994
35.678009 -50.940601 39.176819
36.059406 -50.940601 46.964455
36.038971 -50.940601 55.519627
36.473103 -50.940601 41.232025
36.888416 -49.992001 34.822598
37.292236 -50.940601 33.223358
37.270950 -50.940601 42.133533
37.241611 -50.940601 54.414101
37.672474 -50.133900 41.496292
37.666981 -50.940601 43.796684
38.043701 -50.940601 53.541912
39.681576 -50.080898 37.688679
40.070782 -50.940601 42.207920
40.874744 -50.366798 40.550838
40.858803 -50.236900 47.222721
43.149422 -50.940601 -59.522114
43.506989 -50.198200 -56.661854
45.317917 -50.940601 -71.907570
49.838661 -50.535900 -28.052944
51.015888 -50.674599 -18.518803
56.569115 -50.940601 1.065720
57.770329 -50.476299 0.559868
58.745392 -50.940601 94.716583
60.116467 -50.940601 -9.918937
61.118832 -50.940601 105.836189
61.814590 -50.940601 -17.963503
63.402859 -50.940601 -22.301722
63.495403 -50.940601 -51.789383
64.706131 -50.940601 -56.275505
66.304649 -50.533001 -55.654285
66.697418 -50.940601 -52.625435
72.658997 -50.940601 88.283203
72.356255 -50.592201 90.188690
73.149185 -50.940601 93.145294
75.408592 -50.940601 75.899147
75.135880 -50.940601 98.717453
75.131195 -50.337898 100.679749
77.199493 -50.119202 72.090805
77.128059 -50.940601 101.993027
79.201767 -49.987499 71.142487
79.858315 -50.940601 -36.244247
80.718704 -50.940601 105.913315
80.706131 -50.456001 111.177101
81.599487 -50.269402 72.101318
82.001762 -50.206902 71.149178
81.915237 -50.589802 107.367874
85.101433 -50.940601 113.147606
85.503838 -50.038700 112.142563
86.691452 -50.940601 -50.103863
88.397194 -49.995899 73.070763
88.702507 -50.940601 112.702202
89.199463 -50.388802 72.119476
90.397186 -50.134701 73.075539
92.312935 -50.488899 108.345818
93.506096 -50.355900 111.207680
94.399452 -50.412701 72.131897
94.308372 -50.247799 110.256584
95.514191 -50.940601 -59.615017
99.194878 -50.210999 74.049660
100.388802 -49.987499 -90.838463
101.990318 -50.324402 75.962646
105.187141 -50.940601 -90.139992
106.699982 -50.695801 -53.651474
107.130592 -50.940601 -66.468582
107.579361 -50.940601 -58.415085
107.985710 -50.940601 -89.537201
109.115906 -50.436298 -60.317623
109.902245 -50.370602 -54.597031
110.735611 -50.940601 -68.561378
111.915901 -50.558102 -60.310936
114.306786 -50.451698 -56.492714
114.302231 -50.573101 -54.586517
118.378349 -50.940601 -86.441269
118.356873 -50.543499 -77.451889
120.372803 -50.384602 -84.118896
120.671249 -50.940601 -82.211983
235.910767 -50.940601 11.469843
236.556152 -50.775299 6.705741
236.533386 -50.651798 16.236973
236.524277 -50.733398 20.049482
237.351608 -50.797600 8.613902
237.747040 -50.737499 10.521102
238.140503 -50.940601 13.258434
238.132034 -50.940601 16.801455
238.533386 -50.183701 16.241751
239.340210 -50.553200 13.384291
241.319717 -50.523602 21.967144
241.308334 -50.016399 26.732731
241.298508 -50.940601 30.844620
242.172073 -49.998199 0.047268
242.581192 -50.425800 -3.764315
243.306046 -50.378502 27.690706
243.708313 -49.996300 26.738464
244.101486 -50.257401 29.598812
244.675873 -50.940601 24.834570
244.890091 -50.654701 34.366310
245.683273 -50.035198 37.227612
246.576630 -50.047100 -1.848465
247.780548 -50.940601 -3.490693
248.477615 -50.940601 39.600296
248.883331 -50.940601 37.204857
249.778473 -50.940601 -2.619218
249.776611 -50.024899 -1.840820
250.181152 -50.455399 -3.746159
250.556885 -50.940601 -2.792059
250.090637 -50.940601 34.147232
250.658890 -50.940601 -2.791815
250.576614 -50.005001 -1.838909
250.514084 -50.940601 24.334816
250.978790 -50.940601 -2.755151
250.976608 -50.150200 -1.837953
250.928787 -50.065601 18.177610
250.878693 -50.039299 39.146328
251.779602 -50.940601 -3.092439
252.181152 -50.044701 -3.741381
252.075104 -50.940601 40.646893
252.582184 -50.940601 -4.165925
252.581161 -50.024200 -3.740425
252.933334 -50.011101 16.276154
253.378967 -50.940601 -2.819417
253.381165 -50.160801 -3.738514
253.511887 -50.940601 -2.785000
253.309937 -50.940601 26.077299
254.182709 -50.940601 -4.388701
254.085983 -50.940601 36.100182
254.877228 -50.940601 39.764484
255.310562 -50.059399 25.813080
257.382568 -50.940601 -4.326157
257.307617 -50.940601 27.045753
258.521912 -50.305199 21.055138
258.483215 -50.456200 37.258190
259.372040 -50.769299 0.088359
260.078674 -50.022800 39.168308
261.767456 -50.633202 2.000337
261.707306 -50.940601 27.188366
262.108246 -50.407200 26.782421
262.479309 -50.940601 38.898441
263.335602 -50.232399 15.347871
263.283325 -50.940601 37.223457
264.176575 -50.803398 -1.806419
264.079590 -50.940601 38.780666
264.515076 -50.379601 23.928864
265.360626 -50.538601 4.868309
265.349243 -50.096600 9.633915
265.328766 -50.246899 18.212011
266.483185 -50.833199 37.277302
268.540100 -50.282200 13.454049
269.369720 -50.635399 1.065376
269.280914 -50.869999 38.237190
270.528717 -50.288799 18.224434
270.510498 -50.358501 25.849392
271.290039 -50.791698 34.429379
271.283203 -50.181099 37.288769
271.751495 -50.683701 8.696082
272.485443 -50.622898 36.338539
274.883850 -50.940601 37.020370
275.362885 -50.743198 3.939071
275.302155 -50.940601 29.355650
276.140106 -50.691601 13.472205
276.512756 -50.540699 24.910629
277.303680 -50.834702 28.725029
277.289032 -50.940601 34.849911
278.558289 -50.782902 5.852961
278.896851 -50.654701 31.588243
279.321899 -50.614799 21.104828
280.488525 -50.940601 35.067554
280.917328 -50.775902 23.014944
282.501373 -50.706799 29.690548
283.351471 -50.741100 8.723795
287.710480 -50.797600 25.890482
288.119568 -50.305199 22.078949
288.546875 -50.882900 10.642462
289.740051 -50.572201 13.504696
289.702148 -50.940601 29.373350
290.117279 -50.757000 23.036924
291.737793 -50.761902 14.462591
291.726410 -50.818199 19.228207
294.209381 -50.940601 19.234138
294.935516 -50.320000 15.423363
295.971680 -50.940601 18.285217
12.870268 -49.578999 42.390244
14.852046 -49.373001 50.020000
14.847492 -49.861801 51.926189
15.283924 -49.749199 36.677193
15.663429 -49.403702 45.256321
16.856596 -49.259201 48.118481
16.845211 -49.208801 52.884167
17.279364 -49.674999 38.588264
17.256594 -49.576500 48.119434
17.240843 -49.987499 54.713017
18.886190 -49.793598 35.732697
20.038370 -49.193802 55.751102
21.245197 -49.345901 52.894680
24.836081 -49.177502 56.715668
24.832077 -49.987499 58.391365
27.242903 -49.612701 53.862114
27.240627 -49.283501 54.815208
30.033787 -49.544201 57.681290
32.445164 -49.401199 52.921436
32.438335 -49.227402 55.780727
34.437237 -49.987499 56.241707
36.051987 -49.441299 50.070648
37.245152 -49.438900 52.932903
37.663368 -49.761799 45.308880
38.874748 -49.664799 40.546062
39.654251 -49.541801 49.126049
40.063362 -49.565800 45.314613
43.575207 -49.987499 -64.286713
49.841343 -49.987499 -32.818550
51.690414 -49.987499 -8.985964
53.771469 -49.987499 0.077684
56.300121 -49.885101 -53.771881
57.178619 -49.987499 -86.628777
57.502392 -49.987499 -54.722210
57.414131 -49.987499 83.481178
57.307743 -49.987499 88.246529
57.893288 -49.274700 -50.908768
58.001575 -49.987499 97.779419
58.730839 -49.987499 100.808769
59.494473 -49.987499 -51.404140
59.182682 -49.987499 79.107788
59.437431 -49.987499 92.064133
60.704857 -49.987499 -55.749260
61.235352 -49.987499 -14.681878
60.786800 -49.987499 77.386215
62.789932 -49.987499 76.077995
65.112373 -49.987499 108.545235
67.187614 -49.987499 -90.383179
67.592697 -49.649300 74.927269
68.975014 -49.987499 75.883774
69.181305 -49.522202 79.696671
69.165367 -49.425900 86.368561
70.052200 -49.987499 83.511368
70.677780 -49.987499 91.137886
71.040817 -49.987499 -28.931192
71.994957 -49.667400 73.984680
72.339813 -49.987499 97.068474
73.443146 -49.444698 -29.902756
73.134720 -49.987499 99.200371
75.194946 -49.503201 73.992325
75.115250 -49.047100 107.351624
75.106148 -49.213299 111.163719
76.797218 -49.865799 73.043053
77.517029 -49.987499 106.612663
78.008415 -49.987499 110.217644
79.692261 -49.987499 -32.747234
84.790314 -49.987499 -91.489723
84.397202 -49.723301 73.061211
85.531273 -49.987499 -47.983330
86.711632 -49.987499 108.879738
89.906105 -49.578201 111.199074
90.802277 -49.987499 70.943298
91.108376 -49.563900 110.248940
94.311302 -49.987499 -58.404583
96.799438 -49.913200 72.137634
97.592606 -49.882702 74.998940
99.188797 -49.987499 -62.247643
98.790321 -49.289902 75.955002
99.597160 -49.737301 73.097519
101.123192 -49.987499 -63.376827
103.192589 -49.781200 75.012314
103.185760 -49.559399 77.871704
106.378922 -49.558601 80.738739
107.185745 -49.435200 77.881264
107.181198 -49.913502 79.787453
107.906807 -49.770500 -56.508003
108.367531 -49.370800 85.509109
109.972084 -49.453201 83.606735
119.175537 -49.987499 -85.265564
235.917267 -49.987499 20.048033
236.533386 -49.784500 16.236973
237.607224 -49.987499 13.380151
237.328842 -49.757702 18.145121
237.317444 -49.403301 22.910786
241.321991 -49.188702 21.014048
241.296951 -49.283001 31.498417
241.692474 -49.987499 33.369370
242.110596 -49.569099 25.781546
242.576630 -49.493999 -1.858021
242.553864 -49.583500 7.673202
242.965240 -49.875401 2.908541
242.947021 -49.504902 10.533525
243.367523 -49.240002 1.956380
243.360703 -49.211700 4.815751
243.326538 -49.695400 19.112581
243.292389 -49.190899 33.409389
243.772079 -49.067600 0.051091
244.107834 -49.987499 26.940119
244.108307 -49.860401 26.739420
244.106033 -49.093899 27.692617
244.535645 -49.711899 15.302958
245.374359 -49.102501 -0.898234
245.740189 -49.604500 13.399581
245.728806 -49.606201 18.165188
245.717422 -49.666199 22.930853
245.701477 -49.651600 29.602634
246.090088 -49.751900 34.369175
246.876633 -49.987499 -1.847748
246.515869 -49.987499 23.579464
246.976669 -49.987499 -1.869709
246.978897 -49.431499 -2.800607
248.158386 -49.034401 5.780336
248.960678 -49.065399 4.829130
248.915131 -49.794998 23.891596
248.877121 -49.987499 39.800350
249.376617 -49.806702 -1.841776
249.278702 -49.577599 39.142506
250.096619 -49.987499 -1.840056
249.774338 -49.585300 -0.887723
249.699188 -49.360401 30.565388
250.176651 -49.987499 -1.859765
250.309616 -49.987499 -1.839547
250.572052 -49.496700 0.067336
250.519684 -49.799000 21.989122
251.292358 -49.261700 33.428501
252.178879 -49.498100 -2.788184
252.946991 -49.468700 10.557414
253.767487 -49.640900 1.981225
254.556107 -49.401402 6.748743
254.878677 -49.702702 39.155884
255.379776 -49.987499 -3.155538
255.290070 -49.298901 34.391155
256.540161 -49.707699 13.425382
257.688812 -49.987499 34.923786
258.480927 -49.679699 38.211388
259.290710 -49.987499 34.129913
260.574280 -49.868401 -0.861922
260.546967 -49.688599 10.575570
260.894623 -49.275700 32.498337
261.756073 -49.882900 6.765943
264.890564 -49.987499 34.200191
265.280945 -49.884201 38.227634
268.899139 -49.112099 30.611256
270.560608 -49.807899 4.880732
270.492279 -49.910198 33.474369
270.949249 -49.298698 9.647294
271.303680 -49.170502 28.710695
272.494568 -49.780300 32.526051
274.953796 -49.825100 7.750605
276.485657 -49.987499 36.255096
276.917358 -49.352100 23.005388
277.742371 -49.601398 12.522910
280.135529 -49.617901 15.388006
280.110474 -49.526501 25.872326
280.101379 -49.925201 29.684814
281.741455 -49.987499 12.913715
281.692261 -49.819302 33.501125
283.691528 -49.987499 33.811405
284.124146 -49.656799 20.163198
284.108185 -49.902401 26.834980
285.696808 -49.655499 31.604488
286.875793 -49.987499 31.607304
287.324127 -49.923401 20.170843
287.701355 -49.609699 29.702972
290.508179 -49.584499 26.850269
291.708191 -49.258598 26.853136
292.107300 -49.987499 27.214489
294.114594 -49.987499 24.169777
294.524109 -49.651100 20.188044
295.855225 -49.987499 16.378693
295.839386 -49.987499 19.238033
43.606117 -49.034401 -59.521023
44.139057 -49.034401 -66.191666
44.564575 -49.034401 -52.846809
46.548580 -49.034401 -44.263950
47.470543 -48.621300 -41.402336
47.956203 -49.034401 -77.256683
49.056881 -48.522499 -35.679832
51.034103 -48.702499 -26.143780
51.969185 -49.034401 -82.685707
52.187222 -49.034401 -12.797288
52.215885 -48.336498 -18.515936
52.695576 -48.085602 -51.874287
53.900127 -48.096500 -53.777615
57.960846 -48.098701 88.248093
58.974735 -49.034401 -1.283040
59.381706 -48.486301 -4.201976
63.902378 -48.772900 -54.706921
63.914585 -49.034401 107.618668
64.700104 -48.936600 -53.751812
64.779037 -48.093201 80.639359
67.036331 -48.750702 -27.058754
66.888885 -49.034401 78.738098
66.772202 -48.601601 83.503532
67.587593 -49.034401 77.061760
68.238609 -48.301201 -28.008987
67.995392 -49.034401 73.798225
69.546013 -49.034401 94.471092
70.390411 -48.666100 75.887154
70.736206 -49.034401 98.576546
72.306160 -48.152599 111.157028
72.303879 -48.807899 112.111031
75.197227 -48.281502 73.039230
75.602226 -49.034401 70.946686
75.599503 -48.124100 72.086983
77.199493 -48.373299 72.090805
79.595566 -49.034401 73.739037
83.816277 -49.034401 -44.174915
83.204529 -49.034401 69.992149
87.199471 -48.618301 72.114700
93.199448 -48.526600 72.129028
94.397171 -48.472900 73.085098
96.394890 -48.167900 74.042969
97.997162 -48.115299 73.093697
99.594879 -48.492199 74.050613
102.388214 -49.034401 -90.589684
101.990318 -48.367901 75.962646
103.190315 -48.317600 75.965515
104.728645 -49.034401 -65.651413
105.983475 -48.278900 78.831497
107.181198 -48.240101 79.787453
107.167534 -48.471901 85.506241
107.156151 -48.235802 90.271828
107.984222 -48.125599 -88.914207
108.358429 -48.821602 89.321594
108.351593 -48.659698 92.180984
109.578911 -48.889702 80.746384
109.960693 -48.468498 88.372314
109.951591 -48.244400 92.184807
114.350052 -48.287998 -74.602058
119.965973 -48.802502 -81.260559
236.151733 -49.034401 21.954798
236.414612 -49.034401 25.767937
237.308350 -48.288399 26.723175
238.106049 -48.404598 27.678284
238.499542 -49.034401 30.404331
239.299225 -48.341202 30.540543
241.294662 -48.676998 32.451515
241.714203 -49.034401 24.271494
242.158417 -48.614101 5.766002
242.147018 -48.822601 10.531613
242.926529 -48.711700 19.111626
243.441315 -49.034401 26.737827
243.733368 -48.719101 16.254173
244.165237 -48.602501 2.911408
244.517426 -48.670601 22.927986
244.507675 -49.034401 27.012775
246.412064 -49.034401 0.057398
246.126526 -48.564899 19.119270
246.106033 -48.866199 27.697395
246.577744 -49.034401 -2.318863
246.540192 -48.471199 13.401492
248.517410 -48.477299 22.937542
249.376617 -48.661098 -1.841776
249.778229 -49.034401 -2.515319
249.706024 -48.538601 27.705996
250.178207 -49.034401 -2.508762
250.933334 -48.618900 16.271376
251.344742 -48.317299 11.506714
251.699188 -48.590801 30.570166
253.706009 -48.618900 27.715551
254.524231 -48.748402 20.092484
255.746994 -48.323898 10.564103
256.569763 -48.759201 1.034797
257.756104 -48.321800 6.756387
258.528748 -48.782799 18.195766
260.099152 -48.755901 30.590233
261.340149 -48.596802 13.436849
261.705994 -48.902199 27.734663
262.121918 -48.943600 21.063738
262.960632 -48.807800 4.862575
264.953796 -48.697201 7.726715
267.337860 -48.681599 14.404300
269.715088 -48.960499 23.941286
272.935577 -48.958099 15.370806
52.659451 -48.081200 -3.264833
55.092770 -48.081200 -50.695854
55.902683 -48.081200 -54.844631
55.560852 -47.358200 88.242355
57.177452 -48.081200 84.433708
57.154015 -47.392101 91.105576
57.775276 -48.081200 97.778877
58.380566 -48.081200 -87.441803
58.377876 -48.081200 81.118774
59.549454 -47.179600 93.017502
61.120960 -48.081200 104.945694
62.697716 -48.081200 -52.757492
62.624111 -48.081200 -21.948381
62.789173 -48.081200 76.395889
62.774494 -47.135201 82.540779
63.976768 -47.561699 81.590546
64.388153 -47.456001 76.825912
65.987167 -48.081200 -90.198242
66.360825 -48.081200 88.268158
66.356270 -47.575600 90.174355
67.990417 -47.572300 75.881424
68.340042 -48.081200 96.970116
69.994965 -47.938702 73.979904
72.315262 -47.511002 107.344940
76.644798 -48.081200 -30.588812
77.189919 -48.081200 -91.335876
78.397987 -48.081200 72.725571
81.862694 -48.081200 -38.073067
84.402405 -48.081200 70.882614
86.805107 -48.081200 69.754150
89.998009 -48.081200 72.731384
89.994141 -48.081200 74.349983
90.394096 -48.081200 74.369034
90.392632 -47.158901 74.981735
92.004341 -48.081200 70.080971
93.200577 -48.081200 71.657234
93.193260 -48.081200 74.718925
96.790871 -48.081200 75.725426
100.387314 -48.081200 77.220024
105.530647 -48.081200 -66.492706
106.785362 -48.081200 -89.390671
107.149315 -47.507702 93.131218
107.972084 -47.676701 83.601959
107.958427 -47.210499 89.320641
108.774361 -48.022701 82.650673
108.758415 -47.374901 89.322548
109.983437 -48.081200 -88.581734
109.537926 -47.743000 97.902542
109.528816 -47.587601 101.715027
109.967529 -47.167801 85.512932
109.924263 -47.195499 103.622276
111.140198 -47.975399 96.953262
112.347778 -47.890598 -73.653740
119.170525 -47.273499 -83.168671
243.365250 -47.837101 2.909497
243.772263 -48.081200 -0.028329
244.156128 -47.867001 6.723897
245.348450 -48.081200 9.943557
246.574173 -48.081200 -0.822068
247.360687 -47.630798 4.825307
247.749298 -47.916698 9.591869
251.765213 -47.913898 2.929564
253.351563 -48.019299 8.652125
46.578068 -47.128101 -73.810860
46.688763 -46.437302 -49.029224
51.603764 -47.128101 -31.861238
53.171425 -47.128101 -83.622734
53.399940 -46.492699 -11.841288
53.388554 -46.213299 -7.075602
53.755096 -47.128101 -1.356010
55.567680 -46.699200 85.382965
57.178814 -47.128101 -86.709976
56.767677 -46.184200 85.385834
56.763126 -46.463799 87.292023
58.347179 -46.462601 93.967735
58.774506 -46.617199 82.531219
59.233482 -47.128101 102.547974
59.902439 -47.128101 -54.738377
59.895535 -47.128101 -51.847786
60.591297 -47.128101 -12.777210
60.785267 -47.128101 78.027611
62.133614 -47.128101 -20.398548
64.381058 -47.128101 79.795509
65.549438 -46.732800 93.031837
65.911301 -47.128101 108.997543
66.342606 -47.128101 95.893135
66.783585 -46.306499 78.737846
66.733490 -46.521198 99.706581
69.108040 -47.128101 110.364388
69.923622 -47.128101 103.844421
70.400444 -47.128101 71.687065
71.189491 -47.128101 76.270264
74.389114 -47.128101 -91.000572
74.390404 -46.630100 75.896713
75.104057 -47.128101 70.179596
75.601776 -46.716499 71.133888
77.846466 -47.128101 -31.288042
78.648354 -47.128101 -32.075630
78.404053 -46.523998 70.187477
79.453308 -47.128101 -34.149010
79.192657 -46.810398 74.954979
80.260826 -47.128101 69.238815
80.797211 -47.128101 73.052605
82.675003 -46.361401 -43.224541
83.204033 -46.924801 70.198944
84.806305 -46.572102 69.249672
85.590363 -46.574001 75.923470
87.597321 -47.128101 73.014351
87.592636 -46.819401 74.975044
89.596695 -47.128101 73.277824
89.592667 -47.128101 74.965630
89.594910 -46.216400 74.026726
89.581245 -46.270302 79.745407
90.004013 -46.581699 70.215195
89.996712 -47.128101 73.273590
89.992661 -47.128101 74.967781
89.994911 -46.213100 74.027679
90.092628 -47.128101 74.981018
89.990356 -46.608898 75.933983
91.190346 -46.647202 75.936844
92.006142 -47.128101 69.327370
94.778954 -46.253799 80.711029
95.588058 -46.614899 76.900452
96.389641 -47.128101 -91.195015
97.985779 -46.551399 77.859283
98.402496 -47.128101 70.863457
98.399437 -46.377201 72.141457
99.520645 -47.128101 -62.312553
99.506081 -46.209000 111.222008
99.986313 -47.128101 77.639160
100.385902 -47.128101 77.810516
100.388046 -46.202999 76.911919
100.385773 -47.048698 77.865013
100.383499 -46.572102 78.818115
100.800217 -47.128101 71.815689
101.523758 -47.128101 -63.611366
101.983490 -46.930901 78.821938
102.712898 -46.471401 108.370659
103.185760 -46.775902 77.871704
103.910622 -46.313499 109.326530
104.395180 -47.128101 73.932678
104.378929 -46.875000 80.733963
104.317451 -46.385899 106.468292
104.790306 -46.813900 75.969337
105.174370 -46.465099 82.642075
105.517448 -46.761002 106.471161
106.735252 -47.128101 -68.417130
106.369820 -46.781502 84.551231
106.721992 -46.819801 104.567726
107.951591 -46.644199 92.180031
108.387733 -47.128101 77.054329
110.345665 -47.128101 -72.769417
109.947037 -46.658699 94.091003
110.356140 -46.309399 90.279472
110.337929 -46.378601 97.904449
110.321991 -46.346298 104.576332
111.210358 -47.128101 82.656494
111.137917 -46.195099 97.906364
111.528816 -47.022999 101.719803
112.337921 -47.029499 97.909225
113.579750 -47.128101 -87.036636
115.554596 -46.997101 -76.505386
117.176079 -47.128101 -85.494141
44.777477 -46.174999 -65.237045
45.900150 -45.588501 -53.796726
48.275101 -45.358002 -43.306725
48.670540 -46.067101 -41.399467
50.298336 -46.174999 -53.030815
50.764824 -46.174999 -80.863380
51.583118 -46.174999 -33.767490
55.371769 -46.174999 -0.046254
55.154018 -45.374401 91.100800
55.902172 -46.174999 -54.630733
56.351017 -46.174999 92.359154
56.754017 -45.410702 91.104622
57.751442 -46.174999 100.638229
58.375698 -46.174999 82.029861
58.351734 -45.622799 92.061539
58.319855 -45.677299 105.405205
58.770317 -46.174999 84.283417
59.383984 -46.066101 -5.155073
59.549454 -45.705200 93.017502
59.922131 -45.929001 104.455925
60.783176 -46.174999 -88.533569
61.171135 -46.174999 83.943947
61.578388 -46.174999 80.908714
61.510738 -45.681301 109.225235
63.185226 -46.174999 -89.387833
62.791592 -46.174999 75.383202
62.710735 -45.481800 109.228104
63.119225 -46.174999 105.674667
63.576767 -45.489399 81.589592
63.669476 -46.174999 90.167938
63.940334 -45.702999 96.840500
63.910736 -45.360500 109.230972
64.335785 -45.628502 98.747757
65.592697 -45.931702 74.922493
67.197830 -46.174999 72.776718
67.553841 -46.174999 76.833473
67.181313 -45.673801 79.691895
68.717545 -45.524300 106.383247
68.710716 -45.776699 109.242439
69.197174 -46.174999 73.053993
69.941452 -46.174999 77.792282
69.583580 -45.773701 78.744537
69.988136 -45.277100 76.839294
72.001289 -46.174999 71.334587
71.976746 -45.471199 81.609657
72.699318 -45.322201 114.017975
73.192680 -46.025002 74.940643
74.701591 -45.505199 113.069756
75.583565 -45.771400 78.758865
78.299309 -45.618301 114.031357
78.794937 -46.043800 74.000923
80.697021 -45.390099 114.990082
81.167610 -45.419800 85.444122
81.583549 -45.925900 78.773201
83.081825 -45.945900 -46.082878
83.899292 -45.494202 114.044739
85.581261 -45.921501 79.735847
87.190582 -46.174999 -91.601990
86.794914 -45.980999 74.020035
88.376701 -45.890900 81.648834
88.301559 -45.376202 113.102249
88.297005 -45.451000 115.008240
89.094223 -46.174999 -51.264027
89.195015 -46.174999 73.982475
89.423508 -46.174999 74.026314
89.167587 -45.607300 85.463234
89.592628 -45.793701 74.979828
89.499275 -45.735100 114.058113
90.790382 -46.174999 -91.512390
92.756187 -45.422901 90.237427
94.392624 -45.927502 74.991295
94.306099 -45.358002 111.209587
94.701530 -45.882301 113.117538
94.699257 -45.358002 114.070534
95.201721 -46.115398 71.180710
95.576675 -45.978298 81.666039
95.958458 -45.626400 89.291969
97.156174 -45.570900 90.247940
97.879234 -46.174999 75.952827
97.506081 -46.153801 111.217232
98.365288 -45.865398 86.438316
99.551620 -45.430401 92.159966
99.969833 -45.860802 84.535942
102.726250 -46.174999 -64.652802
102.383492 -45.766499 78.822891
103.151604 -45.495300 92.168564
103.567543 -45.952999 85.497643
105.160706 -45.707802 88.360847
105.592583 -45.918800 75.018051
105.976151 -46.174999 90.269012
106.374367 -45.709702 82.644936
107.191132 -46.174999 75.628464
107.169807 -45.907501 84.553139
107.916237 -46.174999 106.980888
108.383476 -45.830799 78.837227
108.324272 -45.514099 103.618454
108.721985 -45.339901 104.572510
109.586731 -46.174999 77.473595
109.556145 -45.677299 90.277565
110.376633 -45.266201 81.701393
110.365250 -45.488800 86.466980
110.778908 -45.276299 80.749252
111.172073 -45.299400 83.609604
111.131088 -45.558701 100.765755
112.344749 -45.791302 95.049828
117.561424 -45.863400 -79.360001
44.980671 -45.221901 -61.423939
45.509258 -44.705601 -57.610271
46.743412 -44.315201 -71.904167
47.494652 -45.221901 -51.494205
47.859161 -45.221901 -49.026428
49.090801 -45.221901 -49.878994
52.300640 -45.221901 -53.992435
53.091164 -45.221901 -50.026234
55.093296 -45.143700 -50.915455
55.895569 -44.965302 -51.866642
56.571507 -45.221901 0.065453
57.580311 -45.221901 80.098465
57.605198 -45.221901 98.731674
57.928967 -44.411301 101.591759
58.342625 -44.883301 95.874023
59.184666 -45.221901 78.276390
59.122131 -44.716801 104.454018
59.542622 -44.527302 95.876892
59.528961 -44.575500 101.595581
60.195370 -44.593201 -9.918749
60.146393 -45.221901 86.347008
59.922131 -44.659801 104.455925
60.383606 -44.924702 78.722557
60.358559 -45.056900 89.206924
60.774498 -44.985901 82.536003
61.169941 -44.796001 84.443245
61.976772 -44.822701 81.585770
61.974495 -44.304001 82.538864
61.922035 -45.221901 104.498802
62.374493 -44.312099 82.539825
62.589569 -45.221901 93.977867
62.644882 -45.221901 98.743713
62.331230 -44.702400 100.649170
62.790432 -44.923401 75.868996
62.715290 -44.995399 107.322006
63.431789 -45.113300 -25.161060
63.522118 -44.575401 104.464523
64.234070 -44.699600 -26.112246
64.381325 -44.951801 79.685204
65.563103 -44.567902 87.313049
65.517555 -44.601700 106.375603
67.101616 -44.877399 113.051598
69.185860 -44.946201 77.790482
69.987946 -45.221901 76.918694
70.188133 -45.221901 76.839767
69.906166 -45.104401 111.151299
70.372192 -44.951099 83.512131
71.556252 -44.436501 90.186783
73.497040 -44.745300 114.972885
75.590218 -45.221901 75.974770
75.963074 -44.797401 87.337891
75.953964 -44.637501 91.150490
77.190117 -45.221901 -91.420883
80.659386 -45.221901 -36.690838
80.353951 -44.721600 91.161003
80.701576 -45.028500 113.084091
81.881836 -44.470501 -46.085743
82.114868 -45.221901 -40.366470
81.590378 -45.186901 75.913910
83.144829 -44.567101 94.980072
84.286385 -44.879700 -47.986305
84.701561 -44.908901 113.093643
85.185814 -44.880501 77.828705
85.094734 -44.635300 115.953598
86.208649 -45.221901 -48.934814
85.951660 -44.851200 92.127472
87.716820 -45.221901 -49.884415
88.353928 -45.171700 91.180115
88.340263 -44.593498 96.898796
90.783516 -44.933102 78.795181
91.496994 -44.973801 115.015884
93.147079 -44.918598 94.050873
93.985786 -45.129902 77.849724
94.765289 -44.450298 86.429718
94.749352 -45.144600 93.101593
94.735687 -44.581402 98.820381
97.963242 -45.221901 -60.344269
97.533409 -44.528702 99.780159
98.374390 -44.770401 82.625824
98.310104 -45.221901 109.537148
99.181221 -45.105801 79.768341
99.506081 -44.279202 111.222008
99.908356 -44.517399 110.269966
100.762993 -44.596100 87.397141
102.344780 -44.995899 95.025940
103.585899 -45.221901 -89.621918
103.169823 -44.785301 84.543587
105.117447 -44.794300 106.470207
105.546448 -45.221901 94.331291
105.528831 -44.268700 101.705475
105.511017 -45.221901 109.163246
105.967537 -45.004902 85.503372
105.924278 -44.974300 103.612717
105.915169 -44.622501 107.425209
106.356155 -44.758701 90.269920
107.540207 -44.801399 96.944664
107.937935 -45.034401 97.898720
108.781944 -44.821602 -87.959206
108.328827 -44.277699 101.712158
108.742477 -44.782600 95.994431
110.353867 -44.610901 91.232674
111.147026 -44.692402 94.093872
111.560692 -44.453201 88.376137
112.354614 -44.357800 -76.513031
112.167694 -45.221901 88.377594
111.935646 -44.324799 98.861473
113.578751 -45.221901 -86.617134
117.565979 -44.537899 -81.266296
46.017586 -44.268700 -69.046486
48.684204 -43.534500 -47.118256
49.558071 -44.268700 -78.037758
52.293304 -43.454800 -50.922146
53.498493 -44.268700 -53.093971
54.234097 -43.605000 -26.136135
54.047855 -44.268700 88.238747
54.758575 -43.495998 89.193542
55.171604 -44.268700 83.739716
55.554020 -43.864101 91.101753
55.547188 -43.748901 93.961044
55.969959 -43.965900 84.430824
56.331245 -43.657299 100.634834
56.747288 -44.268700 93.920609
57.542629 -43.629501 95.872116
57.862953 -44.268700 96.825981
57.979061 -44.180099 80.623116
57.942722 -44.268700 95.833374
57.942303 -44.268700 96.009171
59.165394 -44.116901 86.344666
60.356281 -43.470798 90.160027
61.677223 -44.268700 -15.633925
