109.610801696777 -69.415649414063 -164.933776855469 1.479253649712
17.082382202148 -70.422019958496 -170.091644287109 1.819905281067
22.029533386230 -69.297004699707 -163.585601806641 1.923662424088
109.557327270508 -69.340003967285 -169.975082397461 0.647206544876
25.652883529663 -69.317588806152 -169.132232666016 1.761895418167
110.265693664551 -70.743041992188 -178.095321655273 0.826842606068
-37.557247161865 -68.775924682617 -174.089767456055 1.636152148247
27.042463302612 -68.756904602051 -171.942794799805 0.844543516636
107.216415405273 -69.548011779785 -179.089828491211 2.171990156174
24.213722229004 -70.150482177734 -179.166244506836 1.028908371925
-152.309448242188 -68.992965698242 -188.633682250977 1.321606874466
-28.230661392212 -68.136756896973 -187.379653930664 2.109073877335
25.646125793457 -69.505317687988 -182.496047973633 1.310933113098
-110.513252258301 -69.219909667969 -191.845352172852 1.855397105217
-108.748298645020 -68.878776550293 -189.706207275391 1.218586802483
22.360294342041 -69.716247558594 -187.895690917969 0.438680708408
13.493289947510 -70.345314025879 -183.940093994141 1.732717990875
-26.165616989136 -69.646980285645 -188.815322875977 1.552708029747
-30.270820617676 -70.480567932129 -188.183776855469 1.207740902901
-26.133739471436 -69.455307006836 -184.546707153320 0.952971756458
18.100214004517 -69.333595275879 -178.021240234375 1.230979442596
-150.409255981445 -69.359344482422 -195.083755493164 2.199025869370
-143.199737548828 -69.647048950195 -195.109313964844 1.858061671257
-140.387496948242 -69.625785827637 -197.811203002930 2.025175571442
-21.247734069824 -69.095252990723 -190.250274658203 1.051758408546
13.059733390808 -69.564079284668 -197.643066406250 2.627048730850
100.083808898926 -70.303825378418 -191.356567382813 1.381739616394
-113.356849670410 -69.516235351563 -198.957443237305 1.632801890373
22.017662048340 -70.133476257324 -197.451889038086 1.213561773300
-17.269334793091 -69.413223266602 -195.649108886719 1.270101070404
-17.834362030029 -68.328102111816 -198.007308959961 1.305073738098
100.645362854004 -69.807556152344 -195.250518798828 2.732726573944
9.952590942383 -69.578598022461 -199.423110961914 0.776135563850
-21.021331787109 -68.476860046387 -195.073928833008 1.218495845795
-121.855613708496 -70.721397399902 -202.015289306641 0.494937956333
-132.964950561523 -68.841400146484 -204.586242675781 0.529005408287
-112.993965148926 -68.639648437500 -203.929885864258 1.374933481216
-141.346801757813 -69.798088073730 -205.015899658203 0.853774070740
19.295406341553 -69.338920593262 -195.777481079102 1.550896286964
96.407226562500 -69.559539794922 -201.819610595703 1.400693774223
-165.962173461914 -67.815292358398 -205.448837280273 2.143863201141
100.440994262695 -70.473640441895 -200.087524414063 1.073249578476
-18.131011962891 -69.925453186035 -206.250411987305 1.136559486389
95.303230285645 -70.804039001465 -209.518783569336 2.626277446747
88.675346374512 -69.491600036621 -211.774780273438 1.848831057549
15.406029701233 -69.437561035156 -208.704238891602 0.910171151161
19.013929367065 -70.373550415039 -208.801422119141 1.090497970581
12.729872703552 -69.221206665039 -205.565368652344 0.707882285118
-9.854966163635 -70.324630737305 -219.258255004883 1.726289749146
-94.489555358887 -68.986122131348 -217.236450195313 1.012129545212
-6.748187065125 -70.121688842773 -212.808746337891 1.871732592583
91.748413085938 -69.342773437500 -211.489013671875 1.431856274605
-91.216003417969 -69.546333312988 -219.950942993164 1.374909639359
-102.174644470215 -69.921226501465 -220.503021240234 1.690996050835
-90.683082580566 -71.989837646484 -220.636810302734 1.692909479141
87.686271667480 -69.457168579102 -218.248458862305 2.332565307617
-133.372055053711 -68.932746887207 -226.298171997070 1.114227652550
-133.402252197266 -68.387992858887 -226.301757812500 0.928531646729
-115.864418029785 -68.737258911133 -225.891220092773 0.534622728825
-111.599449157715 -67.914527893066 -226.743682861328 1.471268892288
-133.254653930664 -69.954681396484 -227.269042968750 2.008151054382
-108.130050659180 -71.464996337891 -227.051940917969 1.601338624954
-112.602859497070 -70.495864868164 -228.322860717773 1.814074635506
-5.493669033051 -70.131790161133 -224.674316406250 1.105854988098
-16.162170410156 -69.747314453125 -222.233154296875 1.261347055435
-0.077303998172 -69.870903015137 -230.222213745117 2.678267478943
-9.395030975342 -69.125953674316 -226.199279785156 0.971208572388
16.027959823608 -69.921401977539 -231.116256713867 1.653802275658
-15.413692474365 -69.564361572266 -227.665817260742 1.790087103844
-165.788009643555 -68.203811645508 -226.656692504883 1.402036547661
-0.897302985191 -68.490486145020 -231.691192626953 1.719958305359
81.496627807617 -69.789421081543 -226.828048706055 1.294727444649
10.498497009277 -70.338050842285 -232.894119262695 1.693723201752
-5.550687789917 -69.276794433594 -232.692733764648 1.010951638222
-155.195938110352 -68.122520446777 -239.163742065430 2.472674131393
-139.485900878906 -69.059402465820 -234.781875610352 2.170885801315
66.313369750977 -68.873832702637 -232.378631591797 1.636164903641
-4.572656154633 -70.704505920410 -234.498413085938 1.299348592758
7.657010078430 -70.635841369629 -231.866897583008 1.239848852158
70.437866210938 -69.996109008789 -232.446609497070 1.311112523079
78.265693664551 -71.586875915527 -231.167846679688 1.589859843254
71.310325622559 -70.625267028809 -237.180831909180 1.454605460167
0.225953996181 -70.317672729492 -236.025604248047 1.908144116402
58.469635009766 -70.154258728027 -237.732131958008 3.149428844452
-17.246662139893 -70.384666442871 -238.095825195313 1.300510168076
-15.442592620850 -70.045074462891 -240.454620361328 1.297204017639
10.206178665161 -70.012107849121 -239.384658813477 1.565260529518
67.332328796387 -70.774665832520 -237.460403442383 1.248651385307
63.450290679932 -69.904296875000 -237.055175781250 1.387372970581
52.520412445068 -69.740676879883 -244.671066284180 1.185509085655
62.749351501465 -71.097152709961 -240.644683837891 1.533147811890
-14.428466796875 -70.384979248047 -249.824127197266 1.011159420013
-81.651397705078 -69.511581420898 -250.522140502930 2.032464981079
-75.233932495117 -68.986297607422 -251.947723388672 1.772018313408
46.070549011230 -70.870353698730 -247.079818725586 1.432722091675
-143.223922729492 -69.087432861328 -253.399810791016 1.575714826584
38.692474365234 -70.856796264648 -253.051376342773 2.212882995605
-90.035308837891 -69.575988769531 -252.351455688477 1.114528775215
-153.127090454102 -68.631172180176 -257.374237060547 2.411070346832
-139.545562744141 -69.150596618652 -256.688476562500 2.359140872955
49.670272827148 -70.942131042480 -250.540908813477 1.626329064369
-122.477203369141 -67.168411254883 -257.891296386719 1.758575558662
-113.967864990234 -68.193038940430 -257.413848876953 0.350870817900
-91.932479858398 -68.143554687500 -258.305236816406 1.577952980995
-13.163057327271 -70.026519775391 -253.431732177734 1.576204180717
33.120361328125 -70.312408447266 -256.912750244141 1.558739304543
26.512786865234 -69.390769958496 -258.697784423828 1.293055295944
-155.448211669922 -69.080726623535 -260.908111572266 1.178712129593
-113.348381042480 -71.336044311523 -263.523071289063 1.446877598763
-12.987752914429 -69.388854980469 -260.707794189453 2.033619403839
-132.441329956055 -69.897880554199 -265.980377197266 2.040933847427
-11.652596473694 -69.310897827148 -269.478546142578 1.330145716667
-165.018692016602 -68.657325744629 -276.443267822266 1.340289831161
-7.360167980194 -70.842231750488 -280.228546142578 2.408327579498
-160.179275512695 -68.822425842285 -289.919952392578 1.393701672554
-160.311920166016 -68.374389648438 -279.282073974609 2.853450059891
-141.051788330078 -69.174888610840 -286.900268554688 2.152979612350
-165.661605834961 -69.872146606445 -286.802551269531 0.628512144089
15.388687133789 -70.154655456543 -285.325500488281 2.514351606369
-101.155113220215 -69.982917785645 -287.541168212891 1.096781253815
-84.358604431152 -69.692123413086 -287.345062255859 2.315824031830
-164.301696777344 -68.619895935059 -287.343933105469 2.179692268372
-88.777046203613 -68.653099060059 -288.183258056641 1.292580246925
-148.273803710938 -69.190010070801 -289.163146972656 1.039009332657
-70.775428771973 -69.065162658691 -288.754547119141 2.571009397507
-66.143241882324 -69.609031677246 -288.780670166016 2.296768903732
-79.119712829590 -69.090332031250 -290.758972167969 2.018436431885
-1.975456953049 -66.979759216309 -289.405548095703 2.238585233688
-82.320213317871 -69.872200012207 -291.365264892578 1.370264649391
-96.515151977539 -69.382293701172 -292.479614257813 2.455090761185
-111.559944152832 -70.234642028809 -293.270782470703 2.798485279083
-114.257156372070 -69.598594665527 -293.552093505859 1.851811766624
-132.027893066406 -67.434097290039 -295.127716064453 2.005155563354
-141.309371948242 -70.968849182129 -302.521331787109 2.995684623718
-141.295715332031 -71.171112060547 -312.778259277344 3.184274911880
20.784944534302 -69.504341125488 -14.861707687378 3.984798669815
28.185514450073 -68.206336975098 -15.731713294983 3.220345497131
26.064023971558 -69.432495117188 -17.264417648315 2.620176315308
40.624580383301 -69.537643432617 -20.355096817017 1.282429575920
24.223279953003 -69.590179443359 -30.033380508423 2.922477960587
-77.244873046875 -66.095863342285 -48.168300628662 1.988743543625
88.056159973145 -67.186172485352 -61.188903808594 1.661058902740
-16.956661224365 -69.764198303223 -67.698043823242 2.779207468033
98.420272827148 -66.885627746582 -68.788276672363 1.361587882042
95.466506958008 -71.196800231934 -72.601699829102 0.849315345287
67.293907165527 -70.862030029297 -75.439918518066 1.823685765266
65.971801757813 -69.923484802246 -81.072265625000 2.530658960342
-46.692905426025 -70.556358337402 -83.012779235840 2.428078413010
60.397827148438 -68.541992187500 -82.003959655762 2.482050895691
-97.356956481934 -68.685287475586 -87.983726501465 2.876157999039
-53.158626556396 -67.265388488770 -86.499183654785 2.410435438156
-56.563255310059 -74.461570739746 -91.313621520996 2.637843132019
97.317123413086 -71.040679931641 -93.020675659180 2.795517206192
56.496402740479 -70.728042602539 -92.762947082520 1.968988180161
62.216548919678 -68.311058044434 -89.000328063965 1.317090034485
-98.812210083008 -66.282577514648 -97.180953979492 2.527122020721
106.189193725586 -69.234733581543 -92.953300476074 3.893033266068
45.254337310791 -68.405227661133 -96.512931823730 1.589135050774
98.763916015625 -69.016853332520 -94.797325134277 2.957164287567
104.778419494629 -68.918388366699 -102.190635681152 0.938845217228
101.790481567383 -69.278007507324 -102.865516662598 2.390809059143
72.058990478516 -68.544456481934 -100.719116210938 1.375324249268
86.606750488281 -70.154243469238 -101.689926147461 2.087229013443
48.293762207031 -70.653213500977 -109.239234924316 0.760611176491
109.482124328613 -70.368972778320 -102.400802612305 1.937450885773
42.909793853760 -68.414764404297 -105.226341247559 1.476088643074
42.336936950684 -67.010215759277 -98.967750549316 2.698939561844
110.537712097168 -68.641510009766 -106.896667480469 2.280657291412
-80.156051635742 -68.368629455566 -111.303787231445 1.965153217316
45.760368347168 -69.059631347656 -111.081848144531 1.731494784355
36.010982513428 -68.631767272949 -111.775039672852 3.068054437637
103.458786010742 -67.802612304688 -106.208030700684 1.786527991295
41.226390838623 -66.691619873047 -109.529014587402 1.656264901161
-90.424636840820 -67.595146179199 -116.124511718750 1.140300750732
-97.255989074707 -67.857101440430 -116.312980651855 2.216978788376
105.982383728027 -68.352119445801 -114.794609069824 1.045579314232
-95.609924316406 -70.369018554688 -119.052040100098 1.666808247566
37.246448516846 -67.875732421875 -120.026313781738 1.088771939278
36.537677764893 -67.732742309570 -116.208450317383 2.509436130524
-81.945587158203 -67.490470886230 -125.247383117676 1.608009338379
30.355716705322 -67.751136779785 -134.060516357422 2.442697763443
108.058280944824 -70.194786071777 -127.839149475098 1.107024788857
-52.471286773682 -67.804306030273 -132.366088867188 0.786494195461
-89.524642944336 -68.109939575195 -130.030090332031 1.826157927513
36.670982360840 -69.288223266602 -131.734741210938 0.936428189278
-93.147918701172 -66.083503723145 -135.559432983398 1.428155899048
-90.704010009766 -68.074981689453 -138.430557250977 1.386497735977
-49.523040771484 -70.809730529785 -137.442794799805 1.142858624458
-71.071151733398 -68.091590881348 -140.734649658203 0.400370061398
-51.370101928711 -67.150291442871 -134.849807739258 1.480583429337
112.151153564453 -68.117034912109 -135.632186889648 2.005305051804
-75.771789550781 -68.211349487305 -140.480773925781 1.584886193275
34.255638122559 -67.754280090332 -130.642562866211 2.273612976074
-79.517951965332 -68.958953857422 -139.132369995117 1.532102346420
-75.471672058105 -67.103637695313 -136.801528930664 1.533833742142
-88.198738098145 -66.996650695801 -137.850433349609 1.877291798592
-52.269557952881 -69.186561584473 -149.084320068359 1.307977318764
30.832853317261 -67.727088928223 -143.799362182617 1.672635674477
27.463222503662 -67.077453613281 -148.728942871094 1.419559121132
16.987092971802 -67.359512329102 -142.725494384766 1.640671968460
112.881599426270 -68.733810424805 -143.227569580078 0.304375857115
-97.243446350098 -67.396705627441 -154.549499511719 1.896704912186
15.611089706421 -69.989494323730 -151.033798217773 2.329345703125
-72.670516967773 -67.928482055664 -151.209823608398 2.062611103058
22.690418243408 -69.068176269531 -149.180297851563 2.020500421524
-49.100917816162 -68.021789550781 -155.276473999023 1.357800602913
8.837789535522 -67.835906982422 -151.021896362305 1.784175276756
12.376639366150 -69.317573547363 -155.976501464844 1.252832651138
18.807170867920 -69.980041503906 -162.480575561523 2.620589971542
-46.156219482422 -68.852165222168 -160.908843994141 1.145942926407
-40.391544342041 -68.620651245117 -153.614654541016 1.301746129990
-44.978683471680 -67.444259643555 -158.995758056641 1.540653109550
-104.283912658691 -67.794593811035 -171.180419921875 1.383650898933
21.643840789795 -68.318450927734 -171.240905761719 0.777764558792
-36.226455688477 -67.551597595215 -172.375320434570 2.018974781036
15.525873184204 -69.342460632324 -176.835159301758 1.667328715324
-145.274505615234 -69.055877685547 -176.635147094727 2.065606594086
-33.175544738770 -67.455841064453 -172.799331665039 1.115226745605
-152.855438232422 -67.774780273438 -178.732452392578 1.579937100410
21.723180770874 -68.284698486328 -180.529510498047 0.870588064194
-31.105937957764 -67.780769348145 -172.539566040039 1.617385268211
-108.677383422852 -68.467628479004 -181.154281616211 2.204327344894
-107.129165649414 -68.432022094727 -183.171051025391 1.467025876045
-28.808101654053 -67.505050659180 -183.736679077148 1.415805816650
-22.445672988892 -69.429870605469 -181.264297485352 1.796737670898
16.575187683105 -68.283088684082 -188.183959960938 1.778160214424
18.854942321777 -68.398307800293 -193.281494140625 2.000467777252
15.091021537781 -67.492218017578 -184.806823730469 1.746907711029
-142.947723388672 -69.003807067871 -189.791076660156 2.065676212311
18.285198211670 -67.946174621582 -188.767227172852 1.438760399818
10.701384544373 -69.646697998047 -195.323715209961 1.566169619560
-139.587402343750 -67.650444030762 -197.259490966797 1.912286520004
-116.190788269043 -68.379447937012 -196.470809936523 1.601958751678
15.304379463196 -68.415313720703 -195.965988159180 0.703653395176
-112.574310302734 -68.637886047363 -197.439086914063 1.567672729492
-107.589286804199 -68.073234558105 -192.426956176758 1.919899821281
-162.693664550781 -68.808746337891 -199.441345214844 2.028766393661
-23.614463806152 -68.990005493164 -199.421234130859 1.609502434731
16.575454711914 -68.512702941895 -199.617218017578 0.564564526081
-139.383834838867 -67.653999328613 -204.864273071289 1.951153516769
-132.271820068359 -67.164329528809 -206.162796020508 1.899563550949
-16.988815307617 -68.329650878906 -205.503143310547 1.318356871605
-10.522873878479 -69.868072509766 -202.314331054688 1.734143137932
-15.532076835632 -67.965644836426 -205.172439575195 1.507367968559
-143.182662963867 -68.267402648926 -208.212936401367 2.091831207275
-14.533321380615 -69.950294494629 -212.003112792969 1.672779440880
-11.651499748230 -68.426109313965 -212.866516113281 1.442183971405
17.575031280518 -68.481826782227 -209.160797119141 0.904595673084
-10.854288101196 -68.349578857422 -210.048828125000 1.431055784225
11.572116851807 -67.492332458496 -210.076293945313 1.363865733147
-8.379793167114 -68.397949218750 -215.186584472656 1.784529924393
-16.665664672852 -68.782295227051 -211.638732910156 1.504957079887
15.129110336304 -68.784950256348 -219.981246948242 2.246004343033
0.738878011703 -70.395690917969 -219.514892578125 1.830097436905
12.339283943176 -68.102684020996 -220.930938720703 2.446550130844
-4.220039844513 -68.538215637207 -223.645782470703 1.909304261208
-155.260391235352 -67.420257568359 -224.767639160156 1.698409795761
82.292274475098 -69.535377502441 -218.270782470703 1.663928627968
-133.400741577148 -67.979347229004 -226.274963378906 0.989603281021
-133.485122680664 -67.979080200195 -226.305648803711 0.938077688217
-7.878276824951 -69.175430297852 -224.417083740234 1.601727485657
12.625242233276 -69.333160400391 -230.207122802734 1.205371141434
-153.677383422852 -67.648368835449 -228.449615478516 1.516733288765
86.883819580078 -68.977668762207 -217.279418945313 1.556937813759
-1.891967058182 -68.551109313965 -223.600723266602 1.404457211494
1.615007996559 -69.585243225098 -224.254852294922 1.952863812447
75.264801025391 -69.814949035645 -224.552810668945 1.727082967758
2.483232021332 -68.661430358887 -231.547439575195 1.130065560341
-14.864175796509 -70.884674072266 -229.543441772461 1.533311486244
-123.606246948242 -70.057838439941 -236.029907226563 1.954901814461
-1.395156025887 -68.943870544434 -234.192459106445 1.345540642738
3.682415962219 -68.006660461426 -233.352661132813 1.083795666695
67.289535522461 -69.686576843262 -236.358825683594 2.056078910828
-157.002868652344 -67.108078002930 -241.211669921875 2.208476781845
-9.731863021851 -70.537994384766 -242.513473510742 0.906281828880
-165.849090576172 -68.426780700684 -240.097488403320 1.175427317619
10.359533309937 -70.302520751953 -241.749801635742 0.843069911003
-164.537597656250 -67.044914245605 -240.943008422852 1.710910201073
-160.198318481445 -67.894157409668 -246.200744628906 1.840343952179
57.083225250244 -68.074943542480 -243.749221801758 1.925604939461
65.661132812500 -68.702690124512 -241.257156372070 1.401363372803
58.614410400391 -68.790275573730 -240.542465209961 1.870628476143
53.881404876709 -68.988906860352 -246.323715209961 1.221326231956
-157.234283447266 -67.254371643066 -247.186203002930 2.579017639160
-155.147888183594 -68.664260864258 -252.533645629883 1.879452228546
-12.808502197266 -68.198585510254 -248.530105590820 1.717931985855
-150.686065673828 -68.272689819336 -247.178741455078 1.594592094421
23.624952316284 -71.841804504395 -249.958068847656 2.194107294083
-165.818771362305 -68.841728210449 -252.231155395508 1.207434058189
-164.046981811523 -67.065765380859 -247.105194091797 1.830656170845
-80.323165893555 -68.307144165039 -251.643371582031 1.734289884567
-165.674392700195 -68.770362854004 -264.137451171875 0.887179851532
-83.962638854980 -68.010894775391 -254.989166259766 1.560694456100
43.657390594482 -69.028396606445 -250.870025634766 1.193698287010
24.796312332153 -71.730361938477 -253.471038818359 1.967478513718
-157.793426513672 -67.809326171875 -261.424804687500 2.539866209030
-98.364936828613 -67.063209533691 -259.635162353516 1.788038492203
40.206050872803 -70.279258728027 -255.568634033203 1.295414447784
-99.728218078613 -69.666618347168 -260.779266357422 1.622991442680
-152.919052124023 -63.643943786621 -264.954101562500 1.364277601242
-105.100975036621 -67.341766357422 -261.759399414063 1.632727861404
-163.736953735352 -67.619049072266 -261.643188476563 1.828187465668
-111.047393798828 -69.518379211426 -263.218688964844 1.598517060280
-150.792343139648 -69.199211120605 -266.425628662109 1.797651171684
-155.310867309570 -69.196289062500 -266.251342773438 2.595041275024
-164.584518432617 -68.103958129883 -265.357147216797 1.886157870293
-160.230377197266 -67.020431518555 -263.981140136719 2.414480686188
-163.532852172852 -68.025718688965 -269.209686279297 3.279430150986
-159.356002807617 -68.175514221191 -268.337005615234 2.616437435150
26.447452545166 -70.103813171387 -263.301605224609 1.390376567841
-150.369934082031 -68.086135864258 -266.640411376953 1.417470455170
-144.904281616211 -67.490547180176 -284.068511962891 2.090962886810
22.179977416992 -71.499961853027 -276.249694824219 1.362818479538
-8.486754417419 -68.417701721191 -273.357757568359 3.019357681274
-124.281990051270 -69.645492553711 -284.829833984375 1.163171291351
-133.885086059570 -70.454872131348 -286.686706542969 1.874038457870
-133.333618164063 -67.154846191406 -288.282165527344 1.675220131874
-122.613601684570 -69.619255065918 -287.005035400391 2.591314792633
-114.044548034668 -68.103355407715 -287.781127929688 0.952776372433
-104.748878479004 -67.861763000488 -288.445617675781 1.265965819359
13.911862373352 -70.026557922363 -287.537139892578 0.938269495964
-83.600967407227 -68.571990966797 -289.124633789063 1.557459712029
-147.238189697266 -69.106643676758 -292.405883789063 2.541497945786
-98.256668090820 -67.731178283691 -290.834930419922 1.257251858711
-122.129859924316 -66.886093139648 -291.994628906250 3.050357341766
11.309963226318 -71.920074462891 -287.952270507813 2.239864587784
-111.148239135742 -67.968078613281 -292.709991455078 2.730180978775
3.148869037628 -69.419738769531 -291.004791259766 1.394442558289
-140.699981689453 -68.009727478027 -293.265319824219 2.976438999176
-151.294952392578 -69.651443481445 -298.596221923828 1.908543109894
-153.191986083984 -69.631042480469 -311.933532714844 1.843505263329
-151.372253417969 -70.055168151855 -314.353790283203 1.492740392685
47.284610748291 -68.603805541992 -22.215911865234 2.435193061829
18.649419784546 -69.554168701172 -31.555402755737 2.485846281052
31.201700210571 -69.569015502930 -35.046886444092 1.626063585281
-50.869472503662 -68.079101562500 -47.542949676514 2.389180183411
-17.290884017944 -67.839927673340 -60.107944488525 2.373026609421
91.598365783691 -70.233863830566 -66.310508728027 1.303751707077
67.381034851074 -67.763267517090 -68.342742919922 2.788879871368
-24.277065277100 -69.599967956543 -73.848884582520 1.904343128204
-96.230972290039 -70.020492553711 -83.899261474609 2.396703004837
-43.769046783447 -68.799720764160 -78.004089355469 1.491548180580
64.684593200684 -67.216484069824 -80.902832031250 0.960787951946
56.959136962891 -68.805999755859 -85.490501403809 1.486071825027
54.706512451172 -67.435409545898 -85.163818359375 2.066522598267
-59.593627929688 -66.738800048828 -89.318550109863 1.995491027832
64.334243774414 -67.297378540039 -87.078948974609 0.457220792770
43.499183654785 -69.337738037109 -94.842285156250 3.053904533386
65.920104980469 -68.005615234375 -91.708396911621 1.437557935715
-66.276077270508 -66.443031311035 -95.032417297363 1.729623079300
47.104240417480 -69.630470275879 -93.266990661621 1.431539654732
42.823104858398 -67.833572387695 -96.808845520020 2.655287027359
102.098533630371 -67.980384826660 -94.520835876465 0.565166115761
-69.819900512695 -67.738212585449 -99.638519287109 1.254194617271
107.790573120117 -68.074035644531 -98.090133666992 1.647558927536
-80.290092468262 -66.974662780762 -100.339965820313 2.172888040543
54.376136779785 -69.761741638184 -100.204948425293 0.809324920177
46.430576324463 -66.699821472168 -97.779113769531 1.357659697533
91.888679504395 -70.547195434570 -100.235054016113 3.337469100952
85.131622314453 -64.312026977539 -104.743003845215 2.121109724045
51.000972747803 -66.353645324707 -101.578109741211 1.336417198181
-76.335220336914 -67.833221435547 -109.177551269531 1.590044617653
-75.595367431641 -66.528228759766 -111.822242736816 2.046018362045
-80.162620544434 -68.917762756348 -119.124908447266 1.851149797440
-92.831649780273 -69.105857849121 -120.069786071777 1.541585803032
106.714363098145 -66.916275024414 -111.702217102051 1.449684500694
-86.162277221680 -67.906944274902 -120.034187316895 1.085055112839
-79.676879882813 -66.631385803223 -120.611434936523 1.318610310555
109.392425537109 -66.874053955078 -111.691635131836 1.877065420151
-65.025665283203 -64.147590637207 -119.050476074219 1.436977863312
113.592132568359 -68.386642456055 -127.789672851563 0.492189407349
109.481246948242 -68.055137634277 -125.605537414551 0.576631844044
109.349006652832 -67.285812377930 -119.469848632813 2.423321962357
-93.408653259277 -67.447669982910 -139.337768554688 1.500972628593
-49.669914245605 -67.460906982422 -141.091171264648 1.427724480629
-76.425964355469 -67.927040100098 -145.835510253906 1.915683984756
-69.586036682129 -67.915611267090 -149.678741455078 1.502998113632
-72.939140319824 -66.075607299805 -145.435745239258 2.266490221024
-55.795097351074 -67.034927368164 -142.918014526367 1.418501377106
-48.760894775391 -68.127395629883 -148.035018920898 1.054339408875
20.127294540405 -67.775329589844 -143.024215698242 1.990193724632
-95.047660827637 -67.573158264160 -145.716445922852 1.593595504761
-44.931419372559 -67.206611633301 -148.033874511719 1.296269774437
-54.046531677246 -67.199241638184 -148.698715209961 1.178997516632
-41.676128387451 -67.396514892578 -155.172653198242 1.234738469124
28.532032012939 -68.419548034668 -162.036575317383 2.013006448746
-48.865413665771 -66.126289367676 -149.367416381836 1.110699295998
-97.774978637695 -67.288856506348 -151.520050048828 1.396741151810
-42.140213012695 -67.116775512695 -158.961059570313 1.173515915871
26.197341918945 -67.092178344727 -149.807281494141 1.877822995186
-102.355812072754 -67.482231140137 -162.353652954102 1.187757253647
22.118209838867 -67.958000183105 -155.268920898438 1.942849636078
-106.641036987305 -67.575180053711 -172.074264526367 1.516565203667
-100.214591979980 -67.318038940430 -163.542434692383 2.698747158051
22.479362487793 -66.866004943848 -161.023544311523 2.000958919525
25.774095535278 -66.937065124512 -166.625564575195 1.770742177963
-104.354713439941 -67.606140136719 -174.959655761719 1.933825850487
-141.206024169922 -67.916137695313 -177.735794067383 2.183597803116
-21.750247955322 -67.769058227539 -186.442001342773 1.194245815277
-26.660076141357 -67.383537292480 -182.785827636719 1.311253786087
-112.195938110352 -67.303039550781 -188.029281616211 1.418035864830
-143.338027954102 -64.167671203613 -189.903701782227 2.088539123535
-105.784698486328 -67.005996704102 -182.874099731445 1.365582108498
-154.851211547852 -67.358703613281 -194.744445800781 1.446078062057
-130.795867919922 -68.591583251953 -195.966415405273 2.000031709671
-132.962951660156 -67.466606140137 -197.128204345703 1.299547433853
-19.982114791870 -66.720237731934 -191.625213623047 2.561779737473
-121.833854675293 -67.486618041992 -196.998931884766 0.870045542717
-113.807159423828 -66.682479858398 -197.731796264648 0.809718787670
-23.600038528442 -67.477485656738 -196.290206909180 2.059200286865
-153.499664306641 -66.475784301758 -203.110671997070 1.514525890350
-130.596282958984 -69.772613525391 -205.767990112305 2.034198999405
-124.022323608398 -67.121810913086 -206.778335571289 1.761426091194
18.180299758911 -67.058654785156 -200.307998657227 1.831339478493
-160.255676269531 -65.231414794922 -206.969696044922 2.485143899918
9.262020111084 -68.888626098633 -211.403076171875 2.452405691147
14.192894935608 -67.619201660156 -212.065521240234 2.229067087173
-18.586116790771 -66.981124877930 -206.004348754883 1.299218058586
-4.162906169891 -68.365531921387 -214.561401367188 1.996708631516
-165.454498291016 -66.542366027832 -211.304092407227 1.151915550232
-157.644882202148 -67.108512878418 -215.667236328125 1.656158328056
-93.332405090332 -68.267005920410 -218.160888671875 1.417106032372
-100.291381835938 -67.388481140137 -225.569015502930 2.049643039703
-159.790420532227 -66.107490539551 -224.445312500000 1.915013194084
-101.624015808105 -67.862686157227 -220.605209350586 2.053840637207
-11.574773788452 -67.344863891602 -217.004058837891 1.892458796501
-124.931884765625 -67.972000122070 -225.168045043945 1.872818946838
-139.320251464844 -68.566741943359 -227.183197021484 2.115686655045
-1.918156981468 -67.262542724609 -220.169555664063 1.680572986603
-133.188232421875 -67.242584228516 -227.182617187500 2.023236989975
-122.695075988770 -68.739204406738 -226.233428955078 0.783385872841
-113.153450012207 -66.874206542969 -227.348297119141 0.691833436489
4.508069992065 -67.929656982422 -225.154495239258 1.915770292282
-105.402603149414 -68.249481201172 -229.699645996094 1.461655259132
-157.320449829102 -66.207580566406 -225.360107421875 2.003388166428
-146.813430786133 -66.404319763184 -229.321411132813 0.831783533096
-164.955383300781 -66.764480590820 -226.038681030273 1.016931653023
-6.136350154877 -69.998535156250 -227.525039672852 1.733053207397
-7.572935104370 -67.463523864746 -229.866836547852 2.102139234543
79.686485290527 -68.231857299805 -223.510437011719 2.511818170547
3.151770114899 -67.910514831543 -229.163925170898 1.479738950729
-141.076416015625 -67.168090820313 -234.742263793945 2.264586448669
-12.399002075195 -68.356712341309 -227.762420654297 1.491854071617
75.566619873047 -68.258895874023 -226.188171386719 1.476828336716
76.942222595215 -68.478775024414 -230.297821044922 0.961832284927
-133.434722900391 -67.352294921875 -234.720428466797 0.712574899197
-157.810348510742 -66.330993652344 -230.246124267578 1.855397462845
-113.367424011230 -68.044281005859 -234.077606201172 1.834150910378
-122.257217407227 -66.363250732422 -235.379058837891 2.148113965988
-163.792266845703 -66.627136230469 -236.385604858398 2.121204137802
-157.343612670898 -66.866493225098 -238.004943847656 2.177147626877
-143.274093627930 -68.051925659180 -237.888229370117 2.402579069138
-7.889774799347 -69.852378845215 -235.699600219727 1.619582533836
-2.639352083206 -68.790023803711 -236.857421875000 1.470765352249
-159.809188842773 -65.951591491699 -239.667282104492 2.407618522644
6.690028190613 -69.299819946289 -238.627029418945 1.712656617165
7.398213863373 -67.472694396973 -233.028259277344 1.512836575508
-159.917282104492 -67.195747375488 -242.988464355469 1.507762074471
15.940341949463 -69.411697387695 -243.246398925781 1.391109466553
52.139907836914 -69.356857299805 -241.899291992188 2.290725469589
54.461635589600 -68.017776489258 -243.334457397461 1.658922314644
-12.471203804016 -69.069068908691 -245.589004516602 1.079944372177
51.149906158447 -67.334144592285 -246.021926879883 1.791998028755
-162.097915649414 -67.349014282227 -253.934875488281 2.719621658325
-160.880065917969 -66.939437866211 -250.646560668945 1.919982671738
-157.781585693359 -67.241600036621 -251.885223388672 1.992121696472
54.652217864990 -69.200973510742 -248.359405517578 1.748755455017
-88.072326660156 -67.565483093262 -253.375900268555 1.773261427879
-124.108825683594 -68.363906860352 -255.137603759766 1.005000829697
-103.475418090820 -68.700546264648 -256.026947021484 2.607351779938
30.908821105957 -69.263427734375 -255.345474243164 0.848067522049
45.271038055420 -68.195579528809 -248.513717651367 1.717929363251
-99.488029479980 -66.736221313477 -256.188751220703 1.629189729691
-92.744781494141 -66.619972229004 -255.829757690430 1.694095134735
46.699268341064 -68.745429992676 -250.809143066406 1.112690925598
45.793476104736 -68.220573425293 -253.952743530273 1.536127209663
-154.132919311523 -69.012756347656 -260.571044921875 1.667756915092
34.790473937988 -68.213424682617 -256.084594726563 1.804883122444
-140.017883300781 -70.023971557617 -264.759216308594 2.541512250900
-112.881774902344 -66.829101562500 -262.891723632813 2.112613677979
-133.473999023438 -69.466979980469 -264.711395263672 1.828785061836
30.470094680786 -69.293533325195 -260.730010986328 1.154069423676
-124.294738769531 -66.844123840332 -265.875061035156 2.316216707230
-9.188076019287 -68.055175781250 -259.514068603516 2.190174341202
25.437631607056 -70.213439941406 -269.089782714844 1.639055132866
-6.499650955200 -67.809860229492 -265.950561523438 1.539728283882
22.786880493164 -69.129211425781 -277.382110595703 1.728994250298
-149.301956176758 -67.186370849609 -284.149688720703 2.698890447617
-7.798443794250 -69.030265808105 -279.193908691406 1.621031165123
-151.895553588867 -70.022987365723 -285.651611328125 2.306077957153
-123.854095458984 -66.667053222656 -286.261749267578 1.831885695457
-153.724441528320 -70.217384338379 -288.270294189453 2.973587512970
-112.084175109863 -68.270874023438 -288.318389892578 2.068485975266
-103.657478332520 -67.396751403809 -289.250671386719 2.408581495285
-4.827645778656 -67.778434753418 -285.398071289063 1.677234530449
-107.086067199707 -67.500457763672 -291.434295654297 1.171388506889
-113.575416564941 -66.493820190430 -289.241485595703 1.543166756630
-114.203605651855 -66.823852539063 -292.114624023438 1.858480095863
-133.445510864258 -66.558738708496 -290.681884765625 0.993384957314
-122.536491394043 -68.881851196289 -293.484313964844 2.738874435425
-154.084274291992 -69.121543884277 -292.423004150391 1.161362171173
-143.940292358398 -68.944633483887 -296.491455078125 2.976472377777
-149.385238647461 -67.553855895996 -301.552124023438 1.952216982841
-150.967025756836 -66.924575805664 -313.101379394531 0.740536272526
-152.587722778320 -68.624732971191 -302.509857177734 2.295256137848
-142.592376708984 -68.388114929199 -312.826538085938 3.194175243378
-148.044265747070 -65.986282348633 -313.958129882813 2.438483953476
33.164974212646 -69.041664123535 -9.769863128662 3.121333837509
41.501953125000 -69.117774963379 -12.918768882751 0.815017700195
22.699726104736 -63.107330322266 -24.089618682861 2.561384201050
47.289749145508 -68.618751525879 -27.221605300903 3.101151227951
26.872520446777 -69.824501037598 -32.786254882813 1.528788208961
32.689846038818 -69.629684448242 -34.699363708496 2.472106695175
-59.926963806152 -65.213470458984 -45.042621612549 2.771691083908
82.490219116211 -66.932106018066 -60.726142883301 1.980977773666
77.188758850098 -68.157341003418 -62.632438659668 1.670002460480
-92.950531005859 -65.838806152344 -61.262344360352 1.147672176361
-13.566705703735 -65.944862365723 -62.780941009521 2.407040119171
-93.824005126953 -68.748970031738 -67.574172973633 1.475026011467
94.663764953613 -68.072868347168 -67.739250183105 2.609203338623
-17.713150024414 -64.998184204102 -67.829261779785 2.851145505905
66.343345642090 -68.530334472656 -72.127891540527 2.806059360504
-39.887214660645 -70.337326049805 -75.592643737793 1.341840267181
-29.948276519775 -71.365791320801 -77.238235473633 1.123388648033
55.858058929443 -68.291938781738 -82.941642761230 2.896212816238
-46.699081420898 -75.972358703613 -84.740943908691 1.875254034996
63.523479461670 -65.782653808594 -83.484992980957 1.285060286522
52.726375579834 -68.934150695801 -84.835304260254 2.585708379745
50.026252746582 -69.522727966309 -89.863044738770 1.117948412895
60.816852569580 -67.364227294922 -88.474380493164 2.363220930099
56.963535308838 -68.642234802246 -93.184890747070 3.229732275009
100.108650207520 -67.405006408691 -93.296142578125 2.796503543854
103.335685729980 -67.219001770020 -93.362480163574 2.055955410004
57.454296112061 -69.176651000977 -95.888832092285 1.412542104721
104.728103637695 -65.844459533691 -94.312065124512 1.446902871132
-76.357810974121 -67.019546508789 -99.631393432617 2.117036104202
-72.370407104492 -65.191856384277 -99.797172546387 1.226914286613
99.490722656250 -66.638412475586 -95.235298156738 2.951817989349
52.309040069580 -67.295021057129 -97.923568725586 2.289454936981
69.776741027832 -67.767036437988 -97.870872497559 2.277905464172
-75.026397705078 -66.607406616211 -104.595260620117 1.335533022881
-84.962852478027 -65.877944946289 -105.585121154785 1.514678597450
91.881370544434 -67.852706909180 -102.794807434082 3.166655302048
41.418743133545 -66.561408996582 -104.149330139160 2.534954786301
102.165229797363 -66.345199584961 -99.813545227051 1.931892514229
43.400451660156 -67.470184326172 -110.750625610352 1.114758133888
108.049499511719 -66.848320007324 -102.098144531250 1.993324756622
-80.783126831055 -65.153121948242 -108.953842163086 2.252278089523
106.100662231445 -65.943450927734 -104.607192993164 0.779253900051
-86.445983886719 -65.475280761719 -120.155838012695 1.900163412094
-59.345344543457 -68.067192077637 -128.522720336914 1.513859987259
-54.635951995850 -65.065971374512 -125.491539001465 1.602313876152
-74.716453552246 -66.191413879395 -128.512725830078 1.778637170792
-52.115821838379 -67.655357360840 -129.605621337891 1.566396117210
-84.707168579102 -67.590507507324 -130.659347534180 1.169534206390
-77.733276367188 -66.196487426758 -134.519393920898 1.841137766838
-83.099746704102 -65.413467407227 -127.844406127930 1.321186423302
-58.931354522705 -68.988334655762 -139.485412597656 1.518591403961
-73.330741882324 -65.352630615234 -138.874801635742 1.359002947807
-59.556156158447 -65.489974975586 -137.421096801758 1.210623860359
-61.126747131348 -67.737701416016 -139.578033447266 1.514860153198
22.349771499634 -66.165145874023 -139.112701416016 2.037447929382
-90.751251220703 -65.905838012695 -144.304916381836 1.485332131386
-46.766559600830 -66.773559570313 -142.325073242188 2.007297754288
-99.345329284668 -64.691047668457 -149.389862060547 1.663352847099
-99.608634948730 -66.088554382324 -151.828369140625 0.901580572128
17.365850448608 -67.377799987793 -150.114196777344 1.653345108032
12.771408081055 -68.009841918945 -154.868194580078 1.144979119301
-96.914428710938 -66.035621643066 -158.241683959961 1.346061825752
-102.548057556152 -65.587966918945 -158.177673339844 0.957342267036
-101.326522827148 -66.087715148926 -169.598663330078 0.801852405071
22.931297302246 -66.363410949707 -166.829956054688 1.602574229240
-108.001312255859 -66.139785766602 -171.883148193359 1.799906253815
19.560651779175 -67.766204833984 -166.790939331055 2.110379934311
-146.842071533203 -65.921379089355 -177.067947387695 1.814099431038
17.599693298340 -67.514228820801 -174.905029296875 1.590629696846
23.249330520630 -67.093322753906 -183.486724853516 3.014590501785
-152.752944946289 -65.873001098633 -188.708648681641 1.772886753082
22.202787399292 -66.037506103516 -176.545166015625 1.679537296295
19.315523147583 -66.129577636719 -177.026611328125 1.818410634995
-140.781661987305 -67.949279785156 -188.832946777344 2.032059192657
-151.359558105469 -66.473373413086 -190.057388305664 1.827830672264
20.525083541870 -66.150131225586 -187.297485351563 1.630898118019
18.621868133545 -65.967208862305 -187.153930664063 1.802459478378
-142.522674560547 -66.868179321289 -194.019927978516 1.100457191467
-107.566917419434 -66.867179870605 -198.265106201172 1.617912888527
21.016038894653 -67.812225341797 -194.990890502930 1.435391545296
-123.335548400879 -64.956947326660 -195.729858398438 1.477114319801
12.997385978699 -67.050003051758 -196.258300781250 1.857918620110
-131.784729003906 -65.625366210938 -195.977462768555 1.792756199837
-154.599029541016 -65.042167663574 -195.489685058594 1.951897025108
-162.568176269531 -67.375900268555 -198.925216674805 1.592496752739
-161.311798095703 -65.075386047363 -199.798629760742 2.427703380585
-17.782098770142 -65.806579589844 -199.095825195313 2.049515485764
-164.941223144531 -67.262191772461 -202.093536376953 1.246204614639
-23.806451797485 -66.627944946289 -191.140319824219 1.572175145149
-14.408279418945 -67.551307678223 -198.093109130859 2.404915332794
15.092164993286 -66.271606445313 -193.175476074219 2.387779474258
-158.662918090820 -64.981277465820 -201.417984008789 2.380140066147
-109.766586303711 -66.430122375488 -201.993835449219 1.520316481590
-18.022962570190 -65.976509094238 -203.717987060547 0.796853303909
-157.596115112305 -66.712463378906 -204.311386108398 1.899633765221
16.293092727661 -66.155044555664 -198.294357299805 0.522487521172
-164.509719848633 -65.247024536133 -205.166961669922 2.943276882172
-121.589378356934 -68.050758361816 -204.339096069336 0.838822841644
-113.751091003418 -64.985931396484 -205.405609130859 2.426799774170
-122.610359191895 -64.668441772461 -206.091613769531 1.535942077637
-12.360019683838 -67.016792297363 -203.888244628906 1.199007391930
-13.808706283569 -66.075714111328 -204.724563598633 1.098483562469
-163.800170898438 -65.377456665039 -211.108566284180 1.569585323334
-159.650482177734 -65.851249694824 -215.547271728516 2.549546003342
-163.904602050781 -66.003257751465 -221.553802490234 2.152653217316
-143.416610717773 -66.600250244141 -216.310562133789 2.156747102737
-142.866928100586 -67.962844848633 -223.679916381836 1.411510348320
-4.818220138550 -66.229400634766 -220.104904174805 2.246886253357
-9.727177619934 -66.265060424805 -215.396697998047 1.102206230164
-97.417549133301 -66.978919982910 -221.995422363281 1.613444805145
-4.325605869293 -66.928314208984 -226.014541625977 1.613996267319
-163.012344360352 -66.068542480469 -228.323333740234 2.641890287399
-108.521011352539 -65.327720642090 -230.386047363281 1.698058962822
1.153471946716 -66.381698608398 -225.257583618164 1.732895016670
5.328372955322 -65.583129882813 -229.004135131836 1.624910354614
-110.359016418457 -68.108741760254 -232.585800170898 1.614789724350
-0.101465001702 -66.513725280762 -229.722793579102 1.487547397614
-114.955841064453 -66.029151916504 -235.648254394531 1.739937424660
-5.785107135773 -66.415565490723 -234.186828613281 1.515516281128
-1.673694014549 -66.506484985352 -233.297897338867 2.253471612930
1.260874032974 -67.878334045410 -234.098678588867 1.380462884903
71.667655944824 -67.219161987305 -233.057205200195 1.005625128746
-11.351370811462 -68.727226257324 -236.213287353516 1.656260609627
4.434978961945 -67.295791625977 -237.639175415039 1.259883284569
12.361404418945 -66.387351989746 -239.490020751953 1.938182830811
7.347901821136 -66.295356750488 -237.393646240234 1.793247699738
1.369003057480 -67.230224609375 -238.668319702148 1.230990529060
67.194580078125 -66.934799194336 -233.972045898438 1.331073641777
70.579010009766 -68.132453918457 -236.518402099609 1.921334981918
12.660924911499 -67.936347961426 -242.361053466797 1.132363319397
59.135150909424 -66.565925598145 -238.847747802734 2.820883989334
57.562393188477 -68.321624755859 -238.477447509766 2.289957761765
48.652637481689 -67.182685852051 -244.066848754883 2.236561059952
41.272804260254 -68.251152038574 -248.315017700195 1.590059638023
42.289920806885 -66.992691040039 -250.276489257813 2.128207683563
-132.994232177734 -67.272987365723 -255.904403686523 1.987822532654
-11.103626251221 -67.673728942871 -252.449584960938 1.862600326538
26.764415740967 -68.266273498535 -256.784179687500 1.097787976265
48.887699127197 -67.869155883789 -249.485137939453 1.513221502304
25.836294174194 -67.885528564453 -253.639572143555 1.819554448128
-99.211105346680 -66.294639587402 -257.879913330078 1.938902854919
34.904624938965 -67.140953063965 -254.402191162109 2.113890409470
-148.545989990234 -67.835281372070 -260.897064208984 0.848256826401
-114.217834472656 -65.577430725098 -259.081665039063 1.724161505699
-103.830047607422 -66.217895507813 -257.520416259766 1.915909528732
-4.694338798523 -66.606735229492 -257.950347900391 1.434450268745
-146.140426635742 -67.616729736328 -259.220336914063 1.795279979706
34.207244873047 -66.105758666992 -257.704528808594 1.580170512199
-110.877906799316 -66.063591003418 -259.011474609375 0.988026082516
28.602479934692 -67.072288513184 -257.892852783203 1.682936191559
-133.632278442383 -65.182975769043 -260.938079833984 0.707428634167
-114.419586181641 -65.441307067871 -261.162658691406 1.473768115044
-105.360588073730 -65.825241088867 -260.015014648438 1.950515151024
-114.938819885254 -65.225555419922 -262.987396240234 2.244172334671
-135.519363403320 -66.720527648926 -263.541351318359 1.590110063553
29.598165512085 -67.299263000488 -260.048217773438 1.298421025276
-116.286689758301 -66.874328613281 -264.837463378906 1.478923916817
-141.874252319336 -67.882774353027 -264.882354736328 2.560620784760
-3.365736007690 -66.806938171387 -269.712951660156 0.842493593693
-150.098052978516 -68.314384460449 -284.446014404297 2.419717073441
-5.369264125824 -67.177070617676 -280.372894287109 2.389271259308
-2.966110944748 -65.981925964355 -284.138031005859 0.934161245823
-132.098937988281 -67.254730224609 -286.286285400391 1.514622092247
-122.460960388184 -67.021049499512 -288.693542480469 2.005525112152
-133.639404296875 -68.083381652832 -293.580963134766 1.791322708130
-123.989585876465 -68.696357727051 -295.872283935547 2.856271266937
-150.864013671875 -68.510910034180 -296.434265136719 1.341994524002
-150.919219970703 -66.695945739746 -302.435699462891 1.525663018227
-144.502929687500 -68.018386840820 -301.492919921875 1.153136610985
-148.156768798828 -65.430671691895 -302.686981201172 1.980520248413
-142.873382568359 -67.653137207031 -302.441467285156 3.063161849976
-145.005935668945 -65.891723632813 -302.908599853516 3.258093833923
-144.641510009766 -66.723457336426 -313.707916259766 2.899088144302
17.372674942017 -69.552246093750 -28.169300079346 3.302490949631
45.097087860107 -68.824928283691 -32.510875701904 2.897742748260
24.897115707397 -69.938537597656 -37.770477294922 0.939997255802
31.027833938599 -69.451828002930 -38.450790405273 2.733412504196
-45.993759155273 -64.821311950684 -46.225185394287 2.210028886795
-81.373123168945 -67.039299011230 -51.185260772705 1.262914419174
78.965881347656 -64.585800170898 -58.797878265381 1.770174741745
74.141822814941 -66.151306152344 -60.513000488281 2.779675483704
68.350227355957 -65.925392150879 -65.892845153809 1.970045328140
-98.464103698730 -65.291465759277 -74.915412902832 2.089656114578
98.987899780273 -66.891555786133 -73.016212463379 2.068029880524
-35.791728973389 -64.631591796875 -77.727035522461 2.805000305176
63.942745208740 -66.225532531738 -76.112152099609 1.463202357292
-46.291160583496 -64.792404174805 -80.328521728516 2.438222646713
-52.306877136230 -63.748958587646 -84.136734008789 1.738032817841
48.322734832764 -68.235145568848 -88.138031005859 3.767872810364
100.839004516602 -68.314201354980 -86.846977233887 2.250374078751
64.447296142578 -64.421676635742 -92.976249694824 0.746688365936
56.516437530518 -65.406082153320 -92.855720520020 2.025891065598
48.606468200684 -66.000816345215 -98.154220581055 1.156169056892
56.016502380371 -64.320228576660 -95.281852722168 1.214353084564
102.769912719727 -65.160003662109 -94.873558044434 1.215952396393
69.935783386230 -65.692024230957 -101.200035095215 2.182790040970
46.264190673828 -65.358680725098 -103.126983642578 2.121233463287
76.901969909668 -67.700889587402 -103.159683227539 2.525627136230
89.594551086426 -64.440551757813 -105.452651977539 3.439538717270
-78.173538208008 -65.735290527344 -105.804496765137 0.782703340054
-88.134399414063 -67.047340393066 -110.598747253418 1.213753700256
-83.527343750000 -66.834999084473 -114.032043457031 2.204042911530
-60.355827331543 -63.683639526367 -117.999252319336 1.180244922638
-57.664295196533 -67.798484802246 -125.011795043945 1.193283200264
-95.207183837891 -65.796691894531 -122.658592224121 1.613736033440
-77.704948425293 -64.784339904785 -120.354125976563 1.788691878319
-76.838729858398 -67.566589355469 -131.416061401367 1.370164871216
-62.105419158936 -65.839385986328 -129.073059082031 1.188125848770
-90.006721496582 -63.581180572510 -130.358245849609 1.425804376602
-90.346908569336 -66.196609497070 -129.205261230469 1.969524502754
-48.164474487305 -69.375213623047 -135.203750610352 2.083409547806
-53.128921508789 -64.556709289551 -134.933288574219 1.469972491264
