13.561190605164 -72.867790222168 -240.404052734375 0.346364438534
64.629707336426 -73.385345458984 -236.235305786133 0.638709008694
14.701391220093 -72.452293395996 -237.066543579102 0.931850492954
7.458435058594 -74.152374267578 -241.690536499023 0.566186249256
-5.278678894043 -73.577636718750 -241.373092651367 0.897288203239
-19.060400009155 -72.753303527832 -242.679748535156 1.317144036293
0.475695997477 -72.658592224121 -243.740325927734 0.590063989162
3.355566024780 -74.070968627930 -242.856292724609 0.772120773792
58.412685394287 -73.103225708008 -241.906646728516 1.304271936417
-55.561725616455 -72.473220825195 -244.981079101563 1.172122955322
19.388704299927 -72.395339965820 -245.788925170898 0.833884239197
-60.635288238525 -74.034500122070 -244.742980957031 0.674733638763
-7.668334007263 -72.788825988770 -247.357818603516 0.470467299223
-63.729042053223 -71.532127380371 -250.166244506836 1.838583469391
-85.477073669434 -73.881607055664 -252.159866333008 1.335121035576
-82.032707214355 -72.266166687012 -249.978622436523 0.913424313068
-11.432881355286 -72.567306518555 -252.041168212891 0.458892256021
-123.472564697266 -71.898460388184 -256.109436035156 1.083472609520
-13.221809387207 -73.921028137207 -255.212356567383 0.719449460506
-116.034584045410 -73.010299682617 -258.110809326172 1.122980833054
-113.450569152832 -72.447021484375 -259.052978515625 1.107607126236
-102.099060058594 -72.345397949219 -260.097229003906 0.417286843061
-143.827972412109 -72.622741699219 -265.349975585938 1.273020505905
-144.626968383789 -71.706123352051 -266.724853515625 1.394099831581
-166.852478027344 -72.351943969727 -265.620117187500 2.887030124664
17.601873397827 -74.225852966309 -279.414215087891 1.581722974777
-53.268955230713 -72.170097351074 -286.185821533203 0.990653336048
-64.466796875000 -71.942581176758 -286.386077880859 1.045714139938
-40.839500427246 -73.602409362793 -286.228515625000 1.537736535072
-28.761787414551 -73.964546203613 -285.232055664063 0.733337104321
-96.033958435059 -72.263046264648 -287.473266601563 2.265849113464
-28.219261169434 -71.642066955566 -287.466766357422 0.913241088390
-3.671247005463 -73.481513977051 -287.009368896484 0.852611303329
-166.305816650391 -71.808624267578 -289.939788818359 1.811881899834
-10.358130455017 -73.358398437500 -286.734039306641 0.879267752171
9.003458976746 -73.449234008789 -287.869415283203 0.803722083569
15.549629211426 -74.030090332031 -288.523742675781 1.380074024200
-55.610553741455 -72.226303100586 -291.208770751953 1.056071996689
-28.908868789673 -71.487800598145 -290.691040039063 1.850765824318
15.197106361389 -71.631652832031 -291.562103271484 1.352608919144
-68.512474060059 -72.523971557617 -291.609222412109 1.172010421753
-35.736209869385 -72.042106628418 -291.060119628906 0.975930511951
-16.276685714722 -71.465782165527 -290.921478271484 0.922015488148
17.443336486816 -73.588027954102 -289.809844970703 1.296016097069
-9.413393020630 -72.476242065430 -291.811492919922 0.783563315868
4.324286937714 -71.442642211914 -291.871856689453 0.886639475822
15.170609474182 -72.260368347168 -293.233093261719 0.919945240021
-133.617645263672 -71.315277099609 -295.481567382813 1.546087026596
-143.420639038086 -73.726600646973 -302.135803222656 1.902175784111
-145.844131469727 -73.928344726563 -313.933258056641 1.325428724289
39.794445037842 -73.381408691406 -12.662285804749 1.738371491432
30.156198501587 -73.494155883789 -11.819942474365 2.659500837326
37.425228118896 -73.556472778320 -15.794430732727 2.526350021362
20.058610916138 -73.220527648926 -19.644233703613 2.778693675995
43.409111022949 -73.535453796387 -20.648950576782 1.946748256683
23.993902206421 -74.241409301758 -22.109033584595 2.114608764648
23.592052459717 -74.134246826172 -28.800352096558 2.219323635101
21.563528060913 -74.232604980469 -34.063247680664 2.937681198120
42.493358612061 -73.195167541504 -30.232837677002 2.711147308350
26.387620925903 -74.100158691406 -34.282485961914 2.457881927490
41.416950225830 -73.494064331055 -34.232421875000 2.460359096527
30.986850738525 -73.959632873535 -36.546451568604 2.151340007782
35.606101989746 -73.793754577637 -36.498996734619 2.166103839874
30.927192687988 -74.097480773926 -39.490501403809 2.117381334305
40.800327301025 -73.448196411133 -39.411201477051 1.475765347481
35.218372344971 -73.741737365723 -40.954162597656 2.192345380783
-39.186584472656 -70.759262084961 -49.805770874023 1.003417611122
-31.468744277954 -70.307464599609 -51.690620422363 2.731968641281
-88.337921142578 -69.033630371094 -57.297542572021 2.003329038620
-87.728088378906 -74.291076660156 -65.260650634766 1.711917161942
78.941055297852 -74.658493041992 -69.281959533691 2.018014669418
83.865440368652 -75.010566711426 -71.122009277344 1.363167285919
-18.091972351074 -72.009468078613 -71.370758056641 1.266976833344
-88.899765014648 -75.924613952637 -71.722862243652 2.167606353760
-25.709466934204 -73.931449890137 -76.895851135254 0.754356324673
-50.200462341309 -73.452590942383 -85.702995300293 1.448679566383
65.542289733887 -70.007553100586 -85.073226928711 1.691301822662
53.525482177734 -73.560668945313 -91.444992065430 1.610509872437
99.320602416992 -72.917106628418 -89.987373352051 2.017958402634
70.026100158691 -73.017127990723 -95.058670043945 1.684115767479
-65.672592163086 -76.131118774414 -94.378280639648 1.697278857231
-66.139930725098 -74.513702392578 -96.831024169922 1.827407002449
44.987567901611 -75.130165100098 -96.525764465332 2.289592266083
77.283027648926 -73.337287902832 -101.610885620117 2.035329818726
53.265457153320 -76.140449523926 -103.636810302734 1.340304374695
100.308494567871 -73.032089233398 -97.071777343750 1.793421506882
-96.164886474609 -72.315269470215 -107.526916503906 2.776397228241
37.254131317139 -74.805999755859 -111.788261413574 1.716198921204
106.207359313965 -73.154235839844 -105.900268554688 1.564610719681
47.181449890137 -72.743896484375 -110.003524780273 2.127097845078
102.939346313477 -73.086822509766 -106.353981018066 1.717180967331
-86.703498840332 -74.428993225098 -112.866218566895 0.629617571831
36.166927337646 -74.989959716797 -109.669845581055 1.081126809120
105.400428771973 -73.761955261230 -115.397842407227 1.375275015831
104.600173950195 -72.016563415527 -113.607536315918 1.233834385872
107.904769897461 -73.321922302246 -113.508621215820 1.453933954239
109.441535949707 -73.431373596191 -113.997138977051 1.465871334076
37.894359588623 -72.223182678223 -112.563484191895 2.386975765228
31.439880371094 -74.646163940430 -119.203216552734 1.442355871201
43.537025451660 -73.111892700195 -115.939193725586 1.301410794258
109.367958068848 -73.067665100098 -121.550735473633 1.468988180161
38.493377685547 -72.806236267090 -125.201301574707 2.477464199066
107.971549987793 -73.330688476563 -129.857147216797 1.234460949898
112.461738586426 -72.633338928223 -129.348937988281 1.290964126587
33.466739654541 -72.863113403320 -123.172439575195 1.178273320198
-77.267486572266 -71.692779541016 -129.462188720703 1.393852472305
116.078979492188 -73.187797546387 -133.601547241211 1.315565705299
-56.617225646973 -73.130729675293 -136.574859619141 1.601326107979
36.539199829102 -73.647407531738 -135.014099121094 1.338863134384
-72.886299133301 -73.419296264648 -138.530014038086 0.652972102165
29.048698425293 -72.986068725586 -133.831344604492 1.524986147881
-77.647239685059 -72.787696838379 -141.612625122070 2.109199047089
-45.252445220947 -75.058570861816 -142.034942626953 1.085382342339
-71.786529541016 -71.143638610840 -137.832931518555 1.827261686325
111.739646911621 -72.689926147461 -137.022460937500 1.164131522179
112.966949462891 -72.734031677246 -140.662689208984 1.181320786476
116.493881225586 -74.724166870117 -142.860870361328 0.760353207588
-72.459747314453 -70.808380126953 -144.630065917969 0.920920252800
10.011322975159 -70.948020935059 -150.591537475586 0.923618018627
-54.182540893555 -73.675903320313 -152.035980224609 1.322369337082
-49.112262725830 -73.152862548828 -156.150497436523 0.897269189358
108.364807128906 -72.652046203613 -157.691284179688 1.303583979607
-42.546165466309 -73.114898681641 -150.947814941406 0.994654417038
13.146577835083 -72.922866821289 -156.268417358398 1.052082538605
22.089712142944 -73.181129455566 -157.698837280273 1.903156518936
115.198463439941 -74.301261901855 -162.366943359375 1.364054679871
29.025329589844 -73.571304321289 -162.869659423828 0.739630818367
-1.005903959274 -73.514495849609 -162.782943725586 0.562190234661
31.700241088867 -73.858009338379 -161.104553222656 0.759617567062
-67.993339538574 -71.278938293457 -160.445159912109 0.682717859745
-64.565780639648 -71.946105957031 -159.560653686523 0.865853369236
-67.511512756348 -73.401252746582 -165.016845703125 1.523361325264
115.144050598145 -71.842018127441 -159.495407104492 2.271643400192
-44.252723693848 -72.502571105957 -163.086410522461 0.585870206356
20.197570800781 -73.475570678711 -165.868392944336 0.651773333549
-63.959461212158 -73.148124694824 -169.562728881836 1.596177697182
-60.463439941406 -72.985046386719 -171.404983520508 0.605945765972
-38.503669738770 -72.328964233398 -159.490280151367 0.612507581711
-31.593482971191 -72.487243652344 -170.141952514648 1.304924845695
113.841369628906 -73.462913513184 -169.577758789063 1.592754602432
-36.359989166260 -72.437774658203 -176.664260864258 1.345737814903
16.084005355835 -73.716735839844 -174.040817260742 2.096440553665
111.220497131348 -74.197120666504 -180.166427612305 1.473670125008
-148.111511230469 -73.610527038574 -177.069000244141 0.746537029743
-145.012451171875 -73.298851013184 -177.078979492188 0.416458249092
-151.164184570313 -72.186836242676 -178.450195312500 1.164210200310
-142.721664428711 -71.894943237305 -181.477661132813 0.796042382717
-30.120012283325 -72.581451416016 -186.612197875977 0.510339379311
-22.449552536011 -72.068183898926 -186.213241577148 1.457647323608
23.028381347656 -72.680130004883 -188.659011840820 2.351876020432
-142.286392211914 -71.989799499512 -187.950393676758 1.080330729485
-145.967788696289 -72.468269348145 -189.130569458008 1.113983154297
-19.789943695068 -70.265045166016 -188.104461669922 1.322556614876
13.830241203308 -74.224685668945 -182.102340698242 1.352398395538
-147.613235473633 -72.754302978516 -193.321273803711 1.035588264465
-31.204601287842 -74.618453979492 -185.932434082031 1.665625214577
100.979530334473 -72.495429992676 -187.279129028320 2.603979349136
108.223983764648 -73.882598876953 -188.632675170898 1.593822240829
23.344404220581 -71.498641967773 -193.082138061523 1.725888490677
-17.980501174927 -73.581962585449 -188.532028198242 1.588530302048
-25.905149459839 -74.041625976563 -194.346160888672 1.267555952072
-153.365600585938 -71.564506530762 -196.892333984375 1.168620705605
-131.764099121094 -72.938148498535 -197.907012939453 0.686753809452
-123.930305480957 -71.692199707031 -196.516342163086 0.923497438431
-121.941085815430 -70.966651916504 -198.767089843750 0.848333835602
-22.943235397339 -70.428215026855 -197.919418334961 0.564067661762
10.707123756409 -73.052871704102 -192.751632690430 1.608853220940
94.930480957031 -72.303108215332 -199.994400024414 1.259338855743
-147.567062377930 -71.327903747559 -198.325012207031 1.171234011650
-145.847824096680 -71.711013793945 -199.532241821289 0.565363407135
-149.021774291992 -70.948684692383 -199.727569580078 1.129297852516
-154.618988037109 -71.327941894531 -200.293884277344 0.666518807411
-25.556343078613 -73.497207641602 -199.600128173828 0.803314387798
-13.954779624939 -75.184295654297 -196.225967407227 1.028900623322
-148.138732910156 -71.758552551270 -201.992034912109 1.009095072746
-15.322750091553 -72.334892272949 -199.257125854492 1.205311298370
-162.117065429688 -71.558753967285 -199.855819702148 1.244518518448
-133.442260742188 -72.474517822266 -200.747817993164 0.161846160889
17.422706604004 -71.673782348633 -206.971130371094 1.001270651817
-163.454650878906 -71.634155273438 -204.912002563477 1.263208746910
-145.164306640625 -72.068267822266 -207.162384033203 1.188402295113
10.980813980103 -72.320877075195 -200.158203125000 1.584008455276
-153.165527343750 -71.397079467773 -204.343460083008 0.884688675404
-22.743379592896 -73.236602783203 -200.377243041992 1.288166522980
103.070617675781 -72.465499877930 -198.905502319336 1.422023296356
-155.450134277344 -71.753067016602 -216.586135864258 0.519154846668
-164.175918579102 -72.074066162109 -211.033569335938 0.646906614304
-78.068641662598 -71.678779602051 -211.577301025391 0.078785665333
88.548942565918 -72.349555969238 -209.710861206055 0.855004847050
-3.121710062027 -71.127151489258 -216.075729370117 0.218582406640
-150.709243774414 -71.544799804688 -214.168426513672 1.596666216850
-87.671546936035 -71.215454101563 -215.376510620117 1.218463301659
-7.788166046143 -72.952125549316 -211.907302856445 1.884233832359
15.457194328308 -72.952903747559 -222.557952880859 0.219868749380
-145.592254638672 -72.647430419922 -219.711837768555 1.045240879059
-2.311410903931 -72.846046447754 -220.943740844727 1.726992249489
-21.700832366943 -71.013908386230 -221.219299316406 0.565723478794
-14.112405776978 -70.389533996582 -218.964859008789 1.403139233589
88.818923950195 -72.541854858398 -215.077926635742 0.842808663845
-21.377836227417 -71.833389282227 -218.204788208008 0.871056377888
-28.253227233887 -72.257499694824 -215.965850830078 1.675530433655
-106.605789184570 -71.799179077148 -224.186065673828 0.756158232689
-14.861587524414 -71.777793884277 -222.296005249023 1.360259294510
90.543128967285 -71.326530456543 -218.366912841797 0.910309553146
81.882347106934 -72.430747985840 -217.970199584961 0.780085086823
5.769896030426 -73.216629028320 -220.434509277344 0.834489643574
-9.992918968201 -73.197898864746 -225.245727539063 0.637210190296
78.505828857422 -73.835571289063 -222.032333374023 0.854696750641
-123.256805419922 -71.893898010254 -225.800720214844 0.855802416801
-22.837268829346 -71.613433837891 -222.664901733398 0.163322553039
-99.097106933594 -71.234291076660 -224.827545166016 0.769367277622
-104.664741516113 -72.038154602051 -227.085266113281 0.818359017372
-134.230758666992 -72.887817382813 -228.634674072266 1.094871282578
82.299201965332 -71.778404235840 -223.734909057617 1.861924290657
-123.333862304688 -71.694496154785 -227.985183715820 0.992560386658
6.237112998962 -72.766769409180 -227.885589599609 0.651184856892
80.736007690430 -71.915168762207 -223.419952392578 2.475985288620
-13.852339744568 -72.516181945801 -225.746078491211 0.310081988573
-11.486938476563 -72.621978759766 -230.857940673828 1.094481110573
-4.279940128326 -73.237930297852 -229.781158447266 0.193944841623
8.852025032043 -72.341171264648 -226.789489746094 0.854125738144
86.520248413086 -72.907402038574 -223.959442138672 0.606077313423
11.739972114563 -71.792343139648 -231.927963256836 0.271998256445
3.992811918259 -73.556007385254 -228.917648315430 1.541290998459
-8.298934936523 -72.654930114746 -230.172912597656 0.593251943588
-6.131490230560 -71.834304809570 -233.474426269531 0.240229636431
17.270938873291 -71.611358642578 -231.475601196289 0.717881381512
-11.613244056702 -72.132759094238 -233.950988769531 0.249506026506
72.033897399902 -72.849891662598 -237.465530395508 0.703572869301
-7.366277217865 -70.882003784180 -237.709686279297 0.291926354170
19.181329727173 -73.481758117676 -235.695281982422 0.433747947216
-165.713272094727 -72.406120300293 -242.903808593750 1.418943524361
-4.165299892426 -71.928543090820 -239.132659912109 0.304347008467
-8.678962707520 -70.813926696777 -241.966644287109 0.457192122936
-167.215606689453 -70.916229248047 -252.803192138672 0.898514568806
-9.706134796143 -72.474700927734 -245.275039672852 0.377638608217
17.586378097534 -71.588356018066 -246.351333618164 1.262671589851
-145.833236694336 -73.392425537109 -253.032196044922 0.821456551552
-68.169570922852 -70.385765075684 -248.378707885742 1.152253508568
-59.938171386719 -71.443534851074 -247.053070068359 1.667514920235
54.754596710205 -72.658660888672 -246.326660156250 2.556959629059
-76.551345825195 -72.011589050293 -248.612258911133 1.800814509392
19.090187072754 -73.294967651367 -248.929489135742 1.076351284981
-72.781898498535 -70.564620971680 -252.780670166016 1.819538831711
-13.712198257446 -72.657279968262 -251.053619384766 1.013850212097
-145.048217773438 -72.423820495605 -254.036560058594 1.091205716133
49.546138763428 -72.248939514160 -248.127029418945 0.674801707268
-77.741111755371 -70.781700134277 -254.374343872070 1.414365649223
-101.209571838379 -71.122360229492 -255.322708129883 1.664052367210
-96.885566711426 -73.096427917480 -255.750839233398 0.827946901321
-116.673210144043 -72.878097534180 -256.316101074219 1.245122790337
-104.533912658691 -72.740165710449 -257.659545898438 1.339515805244
-106.209930419922 -72.693817138672 -260.078033447266 1.077568769455
23.318443298340 -73.838111877441 -260.194915771484 1.040750861168
-126.648185729980 -71.036369323730 -265.825103759766 1.005228757858
-10.385190963745 -72.782661437988 -276.550750732422 1.574425816536
-144.835784912109 -71.528572082520 -282.868408203125 1.202257752419
-167.721603393555 -71.741950988770 -284.771636962891 0.921602606773
-123.871810913086 -71.994155883789 -286.969360351563 1.510903120041
-113.268547058105 -70.384979248047 -287.801513671875 1.413913726807
-74.431823730469 -69.424118041992 -287.719116210938 0.798134028912
-55.955451965332 -70.428909301758 -287.065643310547 1.635923743248
-42.122142791748 -71.538986206055 -286.962066650391 0.952276408672
-14.107687950134 -71.475524902344 -287.739288330078 0.840105354786
-13.065452575684 -70.725921630859 -289.113647460938 1.006633639336
-36.809581756592 -70.790084838867 -289.166564941406 1.702319741249
-33.264301300049 -70.969627380371 -289.063293457031 2.385122299194
-17.557067871094 -70.912025451660 -289.200592041016 1.053093671799
-68.442909240723 -70.932586669922 -291.408996582031 1.116804242134
-53.228462219238 -71.246818542480 -290.961456298828 1.520937681198
-14.612330436707 -70.657806396484 -290.988128662109 0.920805573463
-12.618909835815 -71.679115295410 -291.057769775391 0.916389524937
-3.054658889771 -70.667480468750 -290.571655273438 0.899924993515
3.119398117065 -71.184715270996 -291.020172119141 0.703431785107
-88.709457397461 -71.795806884766 -292.504730224609 0.821021258831
-141.446228027344 -70.403060913086 -293.795501708984 1.801084756851
-116.830917358398 -72.081085205078 -293.275390625000 1.266026020050
-152.934219360352 -73.053642272949 -298.155761718750 1.512065291405
-153.534729003906 -71.216056823730 -300.691314697266 1.726105809212
-144.814743041992 -72.491432189941 -300.677429199219 1.310782313347
45.457702636719 -73.333374023438 -18.232212066650 1.855097413063
18.774557113647 -73.072792053223 -23.162975311279 2.611922502518
47.945087432861 -73.299911499023 -26.187665939331 2.014349222183
46.292221069336 -73.367317199707 -33.407546997070 2.598061800003
85.957191467285 -73.047401428223 -66.670707702637 2.032645940781
94.335205078125 -73.461547851563 -71.852661132813 1.721597075462
100.308845520020 -71.312393188477 -79.504493713379 1.975937962532
97.827774047852 -74.479797363281 -81.124977111816 1.094278812408
57.927364349365 -73.375289916992 -87.456550598145 1.740341663361
48.138477325439 -74.452560424805 -93.148719787598 1.853452920914
62.687870025635 -71.775833129883 -89.884887695313 2.236667871475
-65.069587707520 -69.257492065430 -92.092254638672 1.368504524231
68.577987670898 -74.177276611328 -87.914062500000 1.632651448250
101.898185729980 -71.661972045898 -96.665107727051 1.478312492371
74.275695800781 -74.470230102539 -98.877944946289 1.709302425385
95.544929504395 -72.555778503418 -100.101387023926 0.834935188293
-81.238189697266 -73.160964965820 -101.261589050293 1.312297463417
43.552860260010 -73.082092285156 -101.162033081055 2.164017200470
-84.394790649414 -72.825241088867 -106.379104614258 1.264874696732
49.955368041992 -74.316551208496 -110.152412414551 1.327621221542
39.346923828125 -72.747734069824 -104.041831970215 1.414943456650
105.935363769531 -72.471969604492 -102.171531677246 1.347430825233
37.805217742920 -71.659088134766 -107.903045654297 1.616655945778
38.743568420410 -71.378746032715 -114.252250671387 1.483249902725
43.008422851563 -71.075485229492 -112.530731201172 2.018670797348
107.369895935059 -71.989532470703 -112.943031311035 1.019566774368
-82.828247070313 -71.648307800293 -121.354873657227 1.103380680084
110.810462951660 -71.853027343750 -125.212394714355 0.319274514914
37.030174255371 -71.822662353516 -123.370239257813 1.052310109138
41.212738037109 -70.767066955566 -120.306518554688 1.437849044800
35.797508239746 -71.847976684570 -122.146781921387 1.200776219368
-57.231208801270 -72.734497070313 -130.247924804688 0.658677279949
30.698095321655 -72.184120178223 -123.524681091309 1.338707923889
-76.680549621582 -73.705795288086 -137.234924316406 1.684647798538
-56.177455902100 -72.174705505371 -133.308975219727 0.920892834663
-79.735786437988 -71.310493469238 -135.385726928711 2.247355937958
33.237209320068 -71.505638122559 -128.304809570313 1.492520332336
-59.273143768311 -71.079887390137 -134.376663208008 1.786445260048
34.613918304443 -71.522140502930 -133.723236083984 1.724773168564
-73.444946289063 -71.176040649414 -140.110382080078 0.402857482433
-59.430614471436 -73.601806640625 -138.506698608398 1.578299164772
28.723981857300 -71.666854858398 -139.195648193359 0.982982635498
108.940040588379 -73.745330810547 -142.530151367188 1.750443339348
115.587364196777 -71.192825317383 -135.316619873047 1.646648049355
31.026628494263 -71.238128662109 -139.012786865234 0.996100783348
-45.676742553711 -70.760864257813 -141.428009033203 0.811474740505
109.481643676758 -71.660057067871 -150.464706420898 1.372844815254
-74.254226684570 -71.666740417480 -144.760299682617 1.335304737091
-59.043941497803 -72.177642822266 -143.124176025391 1.324456214905
31.164144515991 -72.497734069824 -149.480895996094 1.631688594818
-76.506858825684 -71.849128723145 -147.192611694336 1.596504449844
-71.377334594727 -72.568115234375 -151.652023315430 2.376553773880
116.363845825195 -72.441398620605 -149.007354736328 1.756066083908
-65.130470275879 -73.108375549316 -154.722290039063 1.846979975700
-39.199657440186 -71.919471740723 -153.596786499023 1.338149666786
27.484418869019 -70.740562438965 -148.120178222656 1.197212457657
-75.303512573242 -71.559394836426 -150.050277709961 0.806017100811
12.105415344238 -72.959693908691 -151.270141601563 1.704460501671
31.568191528320 -71.197311401367 -154.197982788086 1.019680619240
30.130485534668 -71.363296508789 -147.282379150391 2.198096036911
11.579840660095 -74.178604125977 -154.942047119141 0.425043374300
-48.727066040039 -71.081916809082 -154.151489257813 0.490020185709
27.398641586304 -70.408432006836 -152.957260131836 0.830463886261
-45.079589843750 -71.264457702637 -148.995697021484 1.165734052658
6.737711906433 -72.162139892578 -153.701385498047 0.594245791435
22.049442291260 -71.650680541992 -149.763763427734 1.474110364914
-71.970535278320 -72.132179260254 -156.230514526367 1.791177868843
-45.726978302002 -70.278480529785 -154.452209472656 0.668038070202
-67.724159240723 -70.449234008789 -157.390029907227 1.592013597488
14.436247825623 -71.344047546387 -158.058166503906 1.238197684288
24.972425460815 -71.422851562500 -149.881011962891 2.600365400314
2.387053966522 -71.598793029785 -161.168472290039 0.632862091064
20.133058547974 -73.349327087402 -155.952713012695 1.180744647980
30.718416213989 -72.799774169922 -164.215393066406 1.353454709053
-47.712436676025 -73.339286804199 -162.147842407227 0.632790625095
-34.139053344727 -72.216308593750 -161.467071533203 0.700389087200
-39.702816009521 -71.129119873047 -160.656967163086 0.595962822437
27.761709213257 -71.294647216797 -160.380081176758 1.069624185562
-43.905284881592 -72.228950500488 -168.048477172852 1.056000590324
-40.823417663574 -70.959495544434 -162.662536621094 2.090552330017
20.397565841675 -71.754226684570 -166.320083618164 1.289221048355
-40.363822937012 -71.790931701660 -173.472106933594 0.466371715069
28.699365615845 -71.638061523438 -169.891220092773 1.017341375351
113.673324584961 -71.450531005859 -166.475479125977 0.944001734257
-32.430557250977 -71.080200195313 -171.953002929688 0.463189929724
106.912727355957 -71.113395690918 -171.968627929688 1.200351357460
-34.702922821045 -71.156097412109 -176.837417602539 0.415001899004
-36.606933593750 -72.282928466797 -180.496414184570 0.605467975140
18.182922363281 -73.105850219727 -174.684356689453 0.865454554558
104.490837097168 -71.048622131348 -181.192733764648 1.626687169075
-28.912443161011 -71.029144287109 -184.888397216797 0.318274587393
-33.896934509277 -70.643516540527 -174.214370727539 1.421573519707
-24.061084747314 -70.930221557617 -185.891235351563 0.896282434464
-148.904479980469 -72.324546813965 -188.988296508789 1.174698829651
15.763849258423 -71.803192138672 -183.156188964844 1.806867957115
106.444145202637 -70.877342224121 -188.234481811523 1.613295197487
-155.762832641602 -70.921195983887 -195.528366088867 1.042217135429
-26.529369354248 -71.514953613281 -192.046142578125 0.241228416562
-115.605682373047 -71.406303405762 -197.224304199219 0.852827608585
-133.995330810547 -71.488937377930 -198.306747436523 1.009252905846
-110.053283691406 -70.487121582031 -200.002365112305 0.799487709999
-111.631278991699 -71.451080322266 -201.145660400391 1.231276750565
-14.334220886230 -71.208091735840 -196.489196777344 0.180812180042
20.555519104004 -72.502159118652 -196.258636474609 0.828332066536
-15.649753570557 -69.805198669434 -201.623840332031 0.757772862911
-123.945579528809 -71.388702392578 -205.414779663086 0.716647386551
-21.561904907227 -70.261810302734 -206.253173828125 1.684754252434
-131.654083251953 -72.407653808594 -203.975814819336 1.189021706581
-13.302337646484 -72.153602600098 -203.004516601563 0.284788340330
-144.212890625000 -70.802513122559 -206.220077514648 1.096113920212
91.948921203613 -70.894035339355 -206.504821777344 3.018810749054
-165.106399536133 -71.243682861328 -203.344894409180 0.717467188835
-4.031724929810 -73.834213256836 -213.637954711914 1.501408338547
10.236100196838 -71.049797058105 -209.036575317383 1.357072949409
10.656299591064 -70.510078430176 -216.471679687500 2.540848493576
83.367279052734 -70.982849121094 -217.177871704102 0.805726528168
6.966437816620 -71.593307495117 -212.431365966797 0.827037692070
14.867145538330 -71.038536071777 -214.098480224609 0.232223585248
-15.741729736328 -73.774085998535 -216.939010620117 1.323759198189
-90.466064453125 -70.173751831055 -218.010940551758 1.031416654587
-96.943107604980 -71.387344360352 -217.121307373047 1.379072308540
-3.772424936295 -70.102592468262 -220.895584106445 1.047710537910
-166.060394287109 -71.184242248535 -224.555480957031 0.966406881809
13.424167633057 -71.057685852051 -222.157791137695 1.115803241730
-144.205017089844 -70.661972045898 -224.358459472656 1.309077978134
11.989297866821 -70.972854614258 -224.917419433594 1.020162105560
-133.309204101563 -71.046424865723 -225.710723876953 0.970789730549
-116.623168945313 -71.639617919922 -226.070404052734 0.748140871525
16.011579513550 -70.478096008301 -221.920028686523 0.654378652573
76.671409606934 -71.085700988770 -223.955245971680 0.742303967476
7.851142883301 -69.930023193359 -223.044631958008 0.999356210232
-111.428146362305 -71.472038269043 -230.856689453125 1.285020470619
77.166618347168 -71.132942199707 -227.791564941406 0.746221542358
81.556999206543 -71.250999450684 -228.987350463867 0.781759202480
-123.008613586426 -71.193962097168 -233.040145874023 1.010042548180
-113.749275207520 -71.604164123535 -232.171768188477 0.856167316437
-11.064823150635 -70.918144226074 -230.932907104492 0.702475726604
72.127738952637 -72.011413574219 -228.200927734375 0.697590827942
65.039268493652 -71.768409729004 -234.342300415039 0.651421308517
75.459228515625 -70.906700134277 -230.725234985352 0.560511648655
-132.930160522461 -70.219207763672 -235.630920410156 1.074358224869
72.188690185547 -71.462783813477 -234.798889160156 0.989014208317
67.204467773438 -70.935630798340 -235.431503295898 2.160977840424
-166.231414794922 -71.441352844238 -230.201278686523 0.975091397762
0.628257989883 -73.586830139160 -238.829528808594 0.296895593405
17.393775939941 -71.349273681641 -240.165481567383 0.369357168674
-5.574738979340 -70.495300292969 -239.268798828125 0.226732432842
13.889353752136 -70.202209472656 -239.270935058594 0.354832619429
64.871231079102 -71.811248779297 -238.414443969727 0.556249558926
11.664409637451 -71.102592468262 -241.077957153320 1.127209663391
-9.518818855286 -67.565986633301 -241.909149169922 0.351008951664
1.870260953903 -69.712219238281 -240.837844848633 0.286147981882
65.424575805664 -72.007820129395 -242.596679687500 1.528125166893
6.086711883545 -72.608695983887 -242.848251342773 1.091216921806
-8.292727470398 -71.601676940918 -243.286315917969 0.354865759611
13.931036949158 -71.234542846680 -244.568923950195 1.169294238091
-167.039382934570 -70.339065551758 -242.461914062500 0.447923243046
59.337234497070 -69.754135131836 -247.096817016602 1.458685040474
52.395626068115 -69.969253540039 -247.080932617188 0.851083159447
55.949172973633 -71.872184753418 -241.955459594727 0.322283953428
-11.678338050842 -71.366935729980 -248.055816650391 1.159368872643
57.772960662842 -72.113128662109 -246.630203247070 1.293406128883
-72.437728881836 -70.335517883301 -248.662933349609 0.338317096233
52.045486450195 -71.427207946777 -249.308929443359 0.623083412647
-90.458404541016 -71.916381835938 -252.502517700195 0.899628102779
-125.186523437500 -72.181343078613 -255.218078613281 1.167200684547
-132.820297241211 -70.340782165527 -255.124481201172 1.214565753937
44.354228973389 -71.516304016113 -252.362792968750 0.568865358829
-135.402633666992 -71.752563476563 -256.733398437500 1.273810863495
-110.118553161621 -71.507789611816 -257.786254882813 1.154747605324
-113.268722534180 -69.401107788086 -257.609069824219 0.765808284283
-82.273551940918 -71.610168457031 -255.768325805664 1.227187514305
-111.370468139648 -72.210258483887 -261.715759277344 1.684929847717
-123.459625244141 -72.185409545898 -262.925292968750 1.235705375671
-144.727386474609 -69.309989929199 -267.072784423828 1.383925914764
-14.995036125183 -70.961494445801 -262.191802978516 0.797158598900
-167.361938476563 -70.514076232910 -265.026489257813 1.607616186142
-13.592768669128 -71.650802612305 -272.017028808594 0.759262621403
-159.218460083008 -69.582084655762 -268.649078369141 1.891602516174
-152.153671264648 -69.576530456543 -276.359527587891 2.139602899551
-167.752441406250 -70.742057800293 -278.502929687500 1.373779892921
-12.134916305542 -69.802032470703 -275.099151611328 0.967713832855
-133.183090209961 -71.601745605469 -284.812225341797 1.084714531898
-159.248825073242 -70.315490722656 -287.200286865234 1.692007184029
-144.879516601563 -70.348312377930 -282.840393066406 1.177234649658
-134.367462158203 -73.203315734863 -285.739532470703 1.203216433525
-7.655597209930 -69.097717285156 -285.135833740234 2.021869897842
-124.855827331543 -73.466949462891 -285.333312988281 1.408571362495
-141.023880004883 -71.342926025391 -286.227264404297 1.312095403671
-115.921836853027 -70.595535278320 -286.934020996094 0.748435854912
-75.111259460449 -70.984214782715 -286.921386718750 0.890874683857
-61.882755279541 -69.688865661621 -287.836303710938 1.485529422760
-4.876416206360 -70.791206359863 -288.175476074219 0.916213989258
-52.249462127686 -70.220176696777 -289.694061279297 0.903339862823
-57.412216186523 -69.713645935059 -289.063934326172 1.037307977676
-68.338966369629 -69.598930358887 -290.917388916016 1.316316843033
-85.961540222168 -71.206108093262 -291.977020263672 1.307862520218
-97.562149047852 -68.299530029297 -291.598785400391 2.048678874969
-161.550308227539 -68.978988647461 -292.439849853516 1.737873435020
-161.980758666992 -71.516479492188 -293.316558837891 1.800737977028
-124.989936828613 -71.684219360352 -295.662536621094 2.024435997009
-144.598342895508 -71.556663513184 -297.081207275391 1.570684194565
-155.016265869141 -71.836967468262 -302.073913574219 1.904770016670
-146.657638549805 -70.373611450195 -314.216583251953 2.202862739563
45.945323944092 -71.785552978516 -17.255990982056 0.570025563240
18.611053466797 -73.568771362305 -26.806926727295 2.596821308136
39.976570129395 -72.495666503906 -33.542465209961 2.178279638290
-17.892004013062 -74.583526611328 -67.036804199219 1.886484146118
81.223335266113 -71.704635620117 -64.822669982910 2.614594221115
84.745445251465 -70.711311340332 -65.383079528809 2.044777393341
75.662734985352 -71.664924621582 -65.659683227539 1.996966123581
72.942611694336 -71.976921081543 -67.725715637207 2.053219318390
90.720359802246 -75.111358642578 -72.506767272949 1.188753843307
-94.575515747070 -70.880699157715 -70.900489807129 2.336434602737
69.789810180664 -73.399177551270 -75.429130554199 1.872587919235
-37.722839355469 -70.307838439941 -77.009399414063 1.446248650551
99.324089050293 -72.760856628418 -86.023719787598 1.381769657135
58.983966827393 -72.041366577148 -89.808868408203 1.352573037148
105.408714294434 -73.509140014648 -95.282424926758 2.207788705826
104.154922485352 -71.958580017090 -96.947059631348 1.170239806175
69.743041992188 -71.235572814941 -98.769393920898 1.563329100609
-78.093261718750 -74.156021118164 -99.815856933594 1.543496251106
53.457946777344 -73.343383789063 -101.174346923828 0.814250469208
104.560684204102 -71.688751220703 -104.078796386719 1.319136857986
48.216243743896 -73.921775817871 -109.352821350098 1.143925547600
79.692985534668 -71.395240783691 -103.425399780273 1.435245275497
41.350307464600 -71.660034179688 -106.095008850098 1.401697754860
106.224723815918 -71.053871154785 -102.679679870605 0.550321757793
47.132545471191 -70.715446472168 -107.265174865723 1.896662473679
108.679100036621 -72.053161621094 -110.343299865723 1.705186843872
108.452178955078 -71.380905151367 -112.839950561523 0.870103657246
-78.883049011230 -71.358139038086 -114.353172302246 1.262672543526
-82.956230163574 -71.535850524902 -117.891273498535 1.381410360336
43.706558227539 -73.188034057617 -120.373649597168 1.983997821808
113.515441894531 -72.152198791504 -117.671218872070 1.621949076653
113.727333068848 -70.323448181152 -122.930046081543 2.037677049637
-84.863731384277 -71.222618103027 -127.884384155273 1.219438314438
106.930427551270 -71.340888977051 -122.689605712891 1.594287037849
-59.295047760010 -72.698814392090 -131.818649291992 1.428790092468
-86.601623535156 -71.247810363770 -126.654953002930 1.996543765068
-75.959152221680 -70.364273071289 -128.273559570313 1.271045565605
-58.085094451904 -68.630363464355 -126.902618408203 0.995259106159
30.503946304321 -70.554199218750 -128.684158325195 2.875671148300
38.963710784912 -72.965782165527 -132.403366088867 1.136576771736
-76.273620605469 -71.009849548340 -137.608657836914 1.998414993286
28.166889190674 -71.470008850098 -132.425277709961 1.487351536751
109.471321105957 -71.203132629395 -138.911911010742 1.594818830490
-43.680561065674 -70.645423889160 -146.344512939453 0.754779815674
25.276723861694 -69.160820007324 -147.424255371094 1.420823335648
114.852600097656 -70.328575134277 -144.621353149414 1.383186221123
34.356506347656 -70.952217102051 -143.004104614258 1.749956250191
110.978553771973 -70.181732177734 -141.867813110352 1.248334765434
-53.644203186035 -72.420509338379 -149.095794677734 1.624387502670
-68.028060913086 -70.698516845703 -150.274536132813 1.466630339622
-51.488704681396 -71.457466125488 -155.245162963867 2.270168066025
-41.373424530029 -71.250526428223 -164.955383300781 2.582743883133
6.345565795898 -69.902130126953 -155.889236450195 0.882883667946
111.217788696289 -70.128395080566 -153.445968627930 1.370464205742
109.660713195801 -70.862564086914 -156.788848876953 0.525788784027
8.314502716064 -69.584281921387 -158.255355834961 1.879800915718
5.231620788574 -72.374610900879 -162.445800781250 0.581048429012
15.707821846008 -72.390274047852 -156.793045043945 0.587940156460
24.784830093384 -70.358085632324 -155.362976074219 0.940313816071
110.899040222168 -69.994590759277 -165.173553466797 1.792430639267
107.239830017090 -71.917861938477 -167.148818969727 1.491941690445
23.621761322021 -69.378906250000 -171.266433715820 1.063300490379
26.045915603638 -70.429344177246 -161.390365600586 0.614092409611
113.175048828125 -70.194595336914 -160.840606689453 1.781863808632
-27.943073272705 -70.468856811523 -174.374298095703 1.286450505257
109.449829101563 -70.272483825684 -167.482421875000 1.119757175446
16.869218826294 -71.472694396973 -171.546005249023 0.578770339489
21.891067504883 -70.423141479492 -165.084732055664 0.674620509148
109.335624694824 -70.127639770508 -172.521209716797 2.170623064041
25.447608947754 -70.357032775879 -170.674087524414 0.636806011200
109.950233459473 -71.416793823242 -180.667907714844 1.451903343201
-37.818706512451 -69.928176879883 -174.866867065430 2.432040452957
26.801828384399 -69.753761291504 -173.493072509766 1.341416954994
106.886024475098 -70.216926574707 -181.609283447266 0.773377895355
23.890340805054 -71.055915832520 -180.700683593750 0.474058151245
-152.736236572266 -70.273628234863 -188.038070678711 1.116528630257
-28.654106140137 -69.079528808594 -188.257324218750 1.506510853767
25.280918121338 -70.360900878906 -184.038177490234 2.069095373154
-110.981140136719 -70.336700439453 -191.752532958984 1.480036735535
-109.191566467285 -70.019981384277 -189.630142211914 0.793428421021
21.931077957153 -70.506927490234 -189.400497436523 1.002094507217
13.113932609558 -71.215736389160 -185.348129272461 0.417011886835
-26.602378845215 -70.563941955566 -189.738296508789 0.725191891193
-30.697441101074 -71.417884826660 -189.069229125977 0.648598313332
-26.519775390625 -70.430923461914 -185.468139648438 0.621926307678
17.788837432861 -70.272369384766 -179.471435546875 2.476719856262
-150.912628173828 -70.545783996582 -194.514877319336 1.138367772102
-143.703186035156 -70.812469482422 -194.630676269531 1.027867317200
-140.923645019531 -70.745986938477 -197.365463256836 1.013422369957
-21.703586578369 -69.978439331055 -191.224273681641 0.506094932556
12.513789176941 -70.247291564941 -199.032852172852 1.502013802528
99.608734130859 -70.824310302734 -193.799057006836 1.725108265877
-113.909111022949 -70.543281555176 -198.833496093750 0.821320474148
21.474870681763 -70.793617248535 -198.956756591797 1.115870356560
-17.789447784424 -70.210708618164 -196.674194335938 0.173663333058
-18.385669708252 -69.094871520996 -199.010269165039 1.243865013123
100.122154235840 -70.272911071777 -197.692230224609 1.010619044304
9.385551452637 -70.246208190918 -200.775619506836 1.397471308708
-21.536779403687 -69.293090820313 -196.041290283203 0.178832039237
-122.440689086914 -71.730590820313 -201.805740356445 0.833759129047
-133.585128784180 -69.847213745117 -204.217376708984 0.995500445366
-113.608314514160 -69.597335815430 -203.797348022461 0.725290894508
-141.968917846680 -70.821891784668 -204.559860229492 1.074711918831
18.770778656006 -70.029968261719 -197.239105224609 1.639386773109
95.804809570313 -69.946662902832 -204.206085205078 1.315820336342
-166.592971801758 -68.903808593750 -204.670791625977 1.286358475685
99.861526489258 -70.872962951660 -202.535156250000 2.295086383820
-18.776952743530 -70.579498291016 -207.270492553711 0.064080610871
94.611816406250 -71.088272094727 -211.907913208008 0.910529434681
87.953811645508 -69.763893127441 -214.066131591797 0.691585004330
14.726770401001 -69.961875915527 -210.118515014648 2.348991632462
18.335754394531 -70.886108398438 -210.271759033203 1.251906991005
12.087916374207 -69.796394348145 -206.945159912109 1.878380060196
-10.656622886658 -70.775970458984 -220.380706787109 1.029957056046
-95.264129638672 -69.707717895508 -217.327911376953 1.083122014999
-7.473196983337 -70.652893066406 -213.966659545898 1.523044109344
91.029678344727 -69.610221862793 -213.815124511719 1.414280891418
-92.021903991699 -70.221145629883 -220.088867187500 1.074677586555
-102.985328674316 -70.619789123535 -220.514877319336 0.930144429207
-91.490669250488 -72.653450012207 -220.814697265625 1.858925104141
86.886993408203 -69.643234252930 -220.526412963867 0.842163801193
-134.252624511719 -69.640983581543 -225.922073364258 0.991193532944
-134.284332275391 -69.096328735352 -225.917785644531 0.752151846886
-116.741950988770 -69.401000976563 -225.722015380859 0.753853619099
-112.489761352539 -68.554405212402 -226.614028930664 0.856364667416
-134.144119262695 -70.649124145508 -226.908294677734 1.070473432541
-109.014747619629 -72.090347290039 -227.012725830078 1.205507636070
-113.505081176758 -71.116638183594 -228.216537475586 1.104699015617
-6.361199855804 -70.496147155762 -225.845382690430 0.692075669765
-17.000621795654 -70.175834655762 -223.271652221680 0.515743434429
-1.012555956841 -70.143447875977 -231.453582763672 1.864243149757
-10.283288002014 -69.480598449707 -227.309539794922 0.178044527769
15.080889701843 -70.135536193848 -232.540908813477 0.616975545883
-16.317916870117 -69.916015625000 -228.709854125977 0.480457037687
-166.672378540039 -68.999992370605 -225.882568359375 2.197354316711
-1.853852987289 -68.745307922363 -232.893478393555 0.252121746540
80.595710754395 -69.875129699707 -229.035079956055 1.697287559509
9.531624794006 -70.543510437012 -234.258041381836 0.518498539925
-6.516788005829 -69.531074523926 -233.850006103516 0.252767801285
-156.231475830078 -68.716308593750 -238.513153076172 1.293255805969
-140.467498779297 -69.668411254883 -234.332962036133 1.155624866486
65.344505310059 -68.926734924316 -234.390411376953 2.043924331665
-5.556655883789 -70.931007385254 -235.686767578125 1.188946008682
6.703488826752 -70.863540649414 -233.201110839844 1.267695069313
69.470901489258 -70.036155700684 -234.523208618164 0.701581716537
77.317771911621 -71.621948242188 -233.360275268555 0.898134291172
70.288146972656 -70.597618103027 -239.275756835938 0.714399278164
-0.777788996696 -70.509452819824 -237.265792846680 0.838544845581
57.440544128418 -70.155830383301 -239.666809082031 1.646267652512
-18.273752212524 -70.597984313965 -239.127502441406 1.205063819885
-16.499055862427 -70.220802307129 -241.502792358398 1.010241866112
9.160527229309 -70.129135131836 -240.739517211914 0.749338805676
66.307495117188 -70.754547119141 -239.509735107422 0.396369516850
62.428276062012 -69.900955200195 -239.046112060547 0.946006715298
51.407352447510 -69.663856506348 -246.527679443359 1.748174428940
61.687515258789 -71.046310424805 -242.643081665039 0.536667227745
-15.596576690674 -70.428863525391 -250.887573242188 0.504873514175
-82.825141906738 -69.738403320313 -250.768951416016 1.113647222519
-76.426696777344 -69.175186157227 -252.263839721680 2.328246831894
44.932106018066 -70.778747558594 -248.874420166016 1.438831210136
-144.428680419922 -69.450988769531 -252.903427124023 0.968494534492
37.482864379883 -70.704147338867 -254.756500244141 0.694376349449
-91.230209350586 -69.801635742188 -252.498504638672 1.554774761200
-154.380050659180 -68.968437194824 -256.752380371094 1.052528619766
-140.789916992188 -69.458366394043 -256.236450195313 1.075922966003
48.490196228027 -70.792587280273 -252.378997802734 0.626378238201
-123.742645263672 -67.410957336426 -257.615966796875 0.674624502659
-115.225456237793 -68.417686462402 -257.254608154297 1.046073198318
-93.202575683594 -68.292861938477 -258.408843994141 1.306447267532
-14.375541687012 -70.017181396484 -254.504776000977 0.441561937332
31.863348007202 -70.122642517090 -258.543029785156 0.598975479603
25.232355117798 -69.195449829102 -260.235992431641 0.852877914906
-156.742202758789 -69.375968933105 -260.264099121094 1.606433033943
-114.670883178711 -71.474555969238 -263.413543701172 0.986230790615
-14.289323806763 -69.278968811035 -261.772949218750 0.582613468170
-133.795776367188 -70.057395935059 -265.622100830078 1.583100914955
-13.059775352478 -69.076522827148 -270.557098388672 0.734726369381
-166.499618530273 -68.766273498535 -275.676269531250 0.899706006050
-8.892603874207 -70.447517395020 -281.377807617188 0.800326108932
-161.821914672852 -68.732078552246 -289.210937500000 1.477402091026
-161.828048706055 -68.430831909180 -278.567047119141 2.588646888733
-142.658676147461 -69.071296691895 -286.425506591797 1.062771677971
-167.263565063477 -69.840278625488 -286.042907714844 1.697267532349
13.791480064392 -69.624748229980 -286.736663818359 0.856351435184
-102.770545959473 -69.756202697754 -287.554901123047 2.472433805466
-85.973739624023 -69.420051574707 -287.555816650391 1.166983127594
-165.913635253906 -68.576812744141 -286.583190917969 1.643672704697
-90.404708862305 -68.382240295410 -288.326690673828 0.699439227581
-149.907272338867 -69.075950622559 -288.601776123047 1.588937997818
-72.410209655762 -68.734870910645 -289.118988037109 2.187841415405
-67.777221679688 -69.265068054199 -289.208038330078 1.086902618408
-80.777854919434 -68.756347656250 -291.023559570313 1.862797856331
-3.628895998001 -66.443740844727 -290.564453125000 0.378842055798
-83.983283996582 -69.538955688477 -291.602233886719 1.512017130852
-98.191848754883 -69.074401855469 -292.539764404297 1.286259889603
-113.242698669434 -69.958854675293 -293.162506103516 1.566944956779
-115.944793701172 -69.326728820801 -293.402709960938 1.306034922600
-133.738937377930 -67.191635131836 -294.735565185547 2.495478630066
-143.098937988281 -70.650886535645 -302.065612792969 1.441387772560
-143.207885742188 -70.711975097656 -312.323791503906 1.758866906166
22.432653427124 -72.680252075195 -16.373609542847 2.358755826950
29.818714141846 -71.349227905273 -17.314134597778 1.306678771973
27.682292938232 -72.560241699219 -18.838106155396 1.834259510040
42.204921722412 -72.581169128418 -22.103969573975 2.218884468079
25.688814163208 -72.547500610352 -31.585084915161 1.233787894249
-75.998794555664 -69.094512939453 -48.454486846924 1.542618274689
89.136329650879 -69.532325744629 -63.466159820557 2.221191883087
-15.939721107483 -72.321182250977 -68.753051757813 1.665971994400
99.407608032227 -69.097579956055 -71.184150695801 1.014361262321
96.419914245605 -73.364311218262 -75.021049499512 1.996572971344
68.214469909668 -73.071189880371 -77.517028808594 1.831877946854
66.822319030762 -72.059028625488 -83.119667053223 1.891337752342
-45.855434417725 -72.987693786621 -83.720298767090 0.706040441990
61.233848571777 -70.680809020996 -83.965454101563 1.706671595573
-96.580368041992 -71.193458557129 -88.058296203613 2.033427476883
-52.371398925781 -69.667579650879 -87.083358764648 1.839061498642
-55.814155578613 -76.806564331055 -91.955490112305 1.163781285286
98.024826049805 -72.921974182129 -95.456611633301 1.085826873779
57.209453582764 -72.729782104492 -94.706100463867 1.595209360123
62.967819213867 -70.348426818848 -90.979232788086 1.476407647133
-98.152412414551 -68.668609619141 -97.203437805176 1.613920450211
106.892166137695 -71.091735839844 -95.470512390137 1.463779091835
45.916950225830 -70.387794494629 -98.288887023926 1.631917238235
99.444717407227 -70.869766235352 -97.222366333008 1.831955909729
105.369743347168 -70.652366638184 -104.685066223145 1.768676996231
102.374893188477 -71.011215209961 -105.329032897949 1.730572700500
72.669448852539 -70.392395019531 -102.817070007324 1.195401430130
87.208793640137 -71.947013854980 -103.984016418457 0.814212381840
48.809425354004 -72.451759338379 -111.080444335938 1.754557251930
110.074470520020 -72.086456298828 -104.971488952637 1.140168666840
43.468006134033 -70.284149169922 -106.972915649414 1.376269340515
42.966541290283 -68.967491149902 -100.689140319824 1.699360489845
111.071342468262 -70.294273376465 -109.455413818359 1.747256755829
-79.661598205566 -70.506736755371 -111.575950622559 1.204384207726
46.249801635742 -70.840232849121 -112.870452880859 1.350475192070
36.491680145264 -70.430778503418 -113.440956115723 1.406917333603
