-11.057364463806 -67.031875610352 -215.709320068359 1.171178340912
-98.830894470215 -67.709449768066 -221.094345092773 1.233853101730
-5.803596973419 -67.664176940918 -226.402938842773 1.324646830559
-164.506866455078 -66.767738342285 -226.509887695313 0.707794725895
-110.049186706543 -66.030914306641 -229.325286865234 0.545024752617
-0.314431995153 -67.120864868164 -225.720336914063 1.040426850319
3.808334112167 -66.311805725098 -229.521972656250 1.470683813095
-111.918136596680 -68.804954528809 -231.507720947266 0.948983728886
-1.631152987480 -67.239212036133 -230.168121337891 1.022969841957
-116.556472778320 -66.715293884277 -234.499893188477 0.539835095406
-7.376083850861 -67.126548767090 -234.552642822266 1.548240900040
-3.252768993378 -67.220909118652 -233.721038818359 0.535147190094
-0.329894989729 -68.590896606445 -234.566543579102 0.993550360203
70.084693908691 -67.948051452637 -234.498870849609 1.448217153549
-12.970422744751 -69.431053161621 -236.508712768555 0.947660446167
2.794976949692 -67.998291015625 -238.148910522461 0.452883630991
10.695199966431 -67.085762023926 -240.106674194336 0.905721247196
5.711250782013 -66.999137878418 -237.940780639648 1.589564442635
-0.284949988127 -67.929054260254 -239.135269165039 1.190939545631
65.599433898926 -67.660087585449 -235.350769042969 1.644060850143
68.947982788086 -68.850715637207 -237.947372436523 1.470406532288
10.954552650452 -68.626167297363 -242.986236572266 1.270398616791
57.473304748535 -67.275032043457 -240.113189697266 1.449149727821
55.905426025391 -69.031539916992 -239.726425170898 1.291986346245
46.919334411621 -67.874114990234 -245.188354492188 1.335805177689
39.481098175049 -68.928398132324 -249.337051391602 2.394939184189
40.471229553223 -67.664230346680 -251.308624267578 1.313813447952
-134.874114990234 -67.894752502441 -254.507781982422 0.414980024099
-12.947448730469 -68.328720092773 -252.743637084961 0.777097940445
24.856748580933 -68.915306091309 -257.604339599609 1.218116760254
47.079135894775 -68.544311523438 -250.611434936523 1.356690883636
23.972377777100 -68.543861389160 -254.446044921875 1.751307249069
-101.121376037598 -66.916786193848 -256.948303222656 0.395123600960
33.029438018799 -67.798690795898 -255.332015991211 1.255052208900
-150.493667602539 -68.439102172852 -259.286102294922 1.060874223709
-116.143150329590 -66.193153381348 -257.939819335938 0.374917924404
-105.734878540039 -66.840263366699 -256.524627685547 0.884209930897
-6.614758968353 -67.246368408203 -258.329467773438 1.166431188583
-148.065063476563 -68.226051330566 -257.642242431641 0.592688739300
32.286602020264 -66.753417968750 -258.621215820313 1.417728781700
-112.802680969238 -66.680152893066 -257.917388916016 0.744699597359
26.679544448853 -67.718338012695 -258.734802246094 1.204385280609
-135.581359863281 -65.789474487305 -259.525817871094 0.928849637508
-116.373687744141 -66.050727844238 -260.017425537109 0.703588485718
-107.299751281738 -66.439811706543 -258.996551513672 0.455537945032
-116.918106079102 -65.829391479492 -261.834106445313 0.695243775845
-137.504684448242 -67.318832397461 -262.107299804688 1.985527276993
27.645215988159 -67.939002990723 -260.904418945313 1.155564069748
-118.291862487793 -67.472335815430 -263.670257568359 0.406559586525
-143.877822875977 -68.475845336914 -263.363586425781 0.971477210522
-5.449325084686 -67.411415100098 -270.109893798828 1.339131236076
-152.372024536133 -68.847015380859 -282.812622070313 0.382921695709
-7.600461006165 -67.749069213867 -280.742095947266 1.116095662117
-5.249440193176 -66.543045043945 -284.536590576172 0.960181474686
-134.399887084961 -67.785194396973 -284.898925781250 1.084140658379
-124.796150207520 -67.546066284180 -287.438812255859 0.292660653591
-136.041488647461 -68.591590881348 -292.174041748047 0.405924558640
-126.424484252930 -69.199470520020 -294.600708007813 0.403985232115
-153.304077148438 -69.007293701172 -294.789642333984 0.418584197760
-153.442031860352 -67.174263000488 -300.784240722656 0.329491227865
-147.013595581055 -68.500732421875 -299.934448242188 1.431644916534
-150.683029174805 -65.908760070801 -301.069976806641 0.311655491590
-145.397262573242 -68.132942199707 -300.904388427734 0.278273582458
-147.535690307617 -66.369728088379 -301.336608886719 0.347882002592
-147.321121215820 -67.169013977051 -312.142425537109 0.273487657309
18.633558273315 -70.887840270996 -28.886219024658 1.854911923409
46.295307159424 -70.152648925781 -33.609363555908 2.140787839890
26.024141311646 -71.246627807617 -38.591861724854 0.311393052340
32.144954681396 -70.759025573730 -39.355598449707 1.686871528625
-44.975894927979 -66.090698242188 -46.047939300537 0.869782447815
-80.421089172363 -68.287117004395 -50.523906707764 1.044987082481
79.797546386719 -65.840736389160 -60.350315093994 1.639085888863
74.949829101563 -67.400161743164 -62.003120422363 2.164444923401
69.084289550781 -67.156967163086 -67.301483154297 2.311547279358
-97.838867187500 -66.464645385742 -74.009567260742 2.449366331100
99.620086669922 -68.107421875000 -74.851608276367 1.402919173241
-35.211326599121 -65.808044433594 -77.687423706055 2.260744810104
64.535560607910 -67.425514221191 -77.459587097168 1.951282739639
-45.745834350586 -65.959053039551 -80.143630981445 1.520000338554
-51.813503265381 -64.903022766113 -83.864952087402 1.635884523392
48.749946594238 -69.395980834961 -89.273841857910 2.226379871368
101.279029846191 -69.488761901855 -88.710906982422 1.845107674599
64.806785583496 -65.570991516113 -94.323554992676 1.840539574623
56.878135681152 -66.554260253906 -94.096092224121 1.774023056030
48.895370483398 -67.131561279297 -99.286231994629 0.702043354511
56.344879150391 -65.461021423340 -96.511787414551 1.230394959450
103.099250793457 -66.310775756836 -96.753952026367 1.220974564552
70.180496215820 -66.817596435547 -102.626388549805 1.119608044624
46.484554290771 -66.474014282227 -104.224105834961 0.886548936367
77.118392944336 -68.821853637695 -104.688415527344 0.688571155071
89.778724670410 -65.557006835938 -107.147239685059 1.724335670471
-77.978385925293 -66.819259643555 -105.178062438965 1.377075195313
-88.005020141602 -68.115005493164 -109.837738037109 1.815408945084
-83.445938110352 -67.893188476563 -113.333892822266 1.479950547218
-60.330902099609 -64.734237670898 -117.612327575684 1.263968348503
-57.737747192383 -68.828460693359 -124.673835754395 0.752927482128
-95.243949890137 -66.826728820801 -121.794593811035 1.450482845306
-77.711235046387 -65.824600219727 -119.729858398438 0.908313095570
-76.999023437500 -68.573692321777 -130.811035156250 1.007856249809
-62.234272003174 -66.856307983398 -128.667266845703 1.091589689255
-90.150184631348 -64.589019775391 -129.558868408203 1.294587492943
-90.474960327148 -67.207847595215 -128.409149169922 2.144727945328
-48.380432128906 -70.376274108887 -135.001159667969 1.837091088295
-53.339550018311 -65.557670593262 -134.647430419922 1.177969336510
-77.344062805176 -65.125267028809 -138.205841064453 1.055387496948
-53.509834289551 -66.949989318848 -141.126556396484 1.244915962219
-76.275421142578 -66.272346496582 -141.265289306641 0.446634739637
22.975025177002 -65.722640991211 -136.642791748047 1.974822640419
-57.355270385742 -68.311027526855 -145.075531005859 1.504702687263
-54.498661041260 -65.619750976563 -143.976547241211 2.325710058212
8.958355903625 -67.657775878906 -153.904373168945 1.711386919022
15.008125305176 -65.601745605469 -150.547836303711 1.357773542404
-144.122009277344 -65.740509033203 -175.290603637695 1.376430630684
-111.236671447754 -67.336753845215 -178.323471069336 1.819309711456
-107.699806213379 -65.519523620605 -188.431350708008 1.302964687347
-152.165191650391 -66.985450744629 -193.293395996094 0.961598396301
-113.134948730469 -65.932144165039 -184.645828247070 1.855983614922
-153.553741455078 -65.410568237305 -195.347915649414 0.871448040009
-114.393188476563 -64.956588745117 -197.384368896484 0.503153443336
-149.581954956055 -66.068458557129 -198.984085083008 1.012565732002
-152.246444702148 -67.515342712402 -205.485275268555 0.885943710804
-151.940582275391 -67.636108398438 -211.648986816406 3.145977020264
-146.091262817383 -66.139190673828 -222.612091064453 0.174151226878
-152.202621459961 -68.041114807129 -223.442031860352 0.686772584915
-104.919479370117 -66.763175964355 -222.073272705078 1.592060685158
-105.010017395020 -66.204681396484 -224.622634887695 1.250944018364
-124.043106079102 -65.123847961426 -227.482360839844 0.860524833202
-109.753494262695 -65.179824829102 -226.693832397461 0.556918740273
-155.499923706055 -68.545249938965 -230.373428344727 0.676564753056
-2.582982063293 -66.866554260254 -227.148956298828 0.816054224968
-135.178146362305 -65.250701904297 -231.756256103516 0.652160823345
-153.258255004883 -68.693534851074 -234.372085571289 1.008363842964
-134.185180664063 -66.534332275391 -234.231643676758 0.560134410858
-12.588883399963 -67.856437683105 -238.107177734375 0.934516191483
8.541568756104 -67.984359741211 -240.272338867188 0.969397783279
62.768260955811 -66.943229675293 -240.156829833984 1.656444191933
18.736045837402 -67.626121520996 -246.014801025391 1.277258396149
58.602661132813 -66.842300415039 -244.408142089844 1.651282191277
42.225948333740 -66.743347167969 -248.090087890625 1.672631144524
54.300006866455 -67.869331359863 -248.622009277344 1.166689515114
-151.197891235352 -66.460502624512 -252.329315185547 0.720458328724
-152.973861694336 -69.279556274414 -253.647628784180 0.532352924347
41.273826599121 -66.636489868164 -256.122100830078 1.484967350960
31.781494140625 -66.333015441895 -256.666809082031 1.792764186859
46.454437255859 -67.678085327148 -249.740509033203 1.176736354828
-144.153671264648 -68.614837646484 -254.265930175781 0.918430507183
-134.371307373047 -65.346870422363 -256.265869140625 0.422897070646
-126.310409545898 -65.422058105469 -255.528060913086 1.132399320602
-135.191329956055 -67.588127136230 -256.020812988281 0.819090127945
-142.249633789063 -66.404663085938 -257.402191162109 0.451561987400
-124.701484680176 -66.277328491211 -258.427795410156 0.385947346687
-142.218261718750 -66.078002929688 -260.292388916016 0.737145125866
-124.711036682129 -66.417419433594 -261.372192382813 0.369385212660
-125.940307617188 -65.301643371582 -262.962127685547 1.149554491043
-125.159759521484 -67.409797668457 -263.631042480469 0.603503823280
-117.672157287598 -65.613174438477 -263.422485351563 0.887930274010
-5.434025764465 -67.361900329590 -264.121826171875 1.364525318146
25.734216690063 -67.877098083496 -262.033599853516 0.148693338037
-147.101486206055 -67.291702270508 -265.885314941406 0.431053191423
26.091003417969 -65.597305297852 -264.727661132813 1.660276532173
-3.071002960205 -66.599296569824 -270.297607421875 1.052858233452
16.390098571777 -70.528221130371 -283.024139404297 0.672727644444
-142.434036254883 -67.046157836914 -288.426574707031 0.548576831818
-126.636054992676 -65.343132019043 -287.311614990234 0.662977099419
-134.519699096680 -65.612037658691 -289.468505859375 0.901727974415
-156.651077270508 -64.506408691406 -290.321441650391 1.218057036400
-124.986679077148 -65.146919250488 -288.769500732422 0.827059924603
-118.196464538574 -64.934364318848 -289.282836914063 0.800426006317
-127.146308898926 -66.097854614258 -292.376434326172 0.979465246201
-148.543518066406 -67.626747131348 -296.049591064453 1.189507246017
25.582792282104 -70.612396240234 -12.855636596680 2.117875099182
33.559803009033 -70.778938293457 -15.618271827698 1.679285883904
37.586105346680 -70.997901916504 -16.668521881104 0.752090275288
47.793407440186 -62.723827362061 -22.779443740845 2.472126960754
24.142841339111 -70.824012756348 -26.596220016479 1.848176002502
21.469898223877 -70.813743591309 -34.754161834717 0.795274794102
-36.405250549316 -64.656028747559 -46.696983337402 1.860372900963
-85.539146423340 -65.776473999023 -51.688022613525 1.054825663567
-16.362941741943 -65.767662048340 -56.328910827637 1.662997007370
69.592773437500 -65.837417602539 -63.619369506836 2.019387483597
97.448089599609 -66.119834899902 -66.876037597656 1.239399552345
63.971153259277 -67.265510559082 -80.154121398926 1.704019069672
60.753818511963 -64.190383911133 -80.019683837891 2.433772087097
102.944145202637 -65.098335266113 -82.438789367676 1.539603233337
-64.372077941895 -64.388961791992 -88.983825683594 1.577270030975
-65.200515747070 -65.079742431641 -92.887741088867 1.414934277534
46.511318206787 -66.146675109863 -94.224548339844 2.852556228638
-67.067428588867 -64.314300537109 -95.237739562988 1.394525170326
-70.091972351074 -65.733894348145 -98.488311767578 1.380055785179
-100.072746276855 -62.873989105225 -95.599258422852 1.252583980560
-76.000114440918 -65.055061340332 -100.584312438965 1.436086297035
45.849029541016 -65.686279296875 -99.359039306641 1.358641147614
-71.350540161133 -66.148559570313 -102.575141906738 1.496288537979
51.013877868652 -65.123298645020 -99.763847351074 1.465365529060
96.350936889648 -67.185241699219 -102.651519775391 1.998291373253
91.702499389648 -65.442298889160 -105.875694274902 1.951048612595
-75.687507629395 -65.636604309082 -111.904075622559 2.015289783478
-82.020965576172 -64.975395202637 -112.314506530762 1.603829383850
-62.609375000000 -65.866577148438 -118.719337463379 0.871877193451
-97.757888793945 -65.112838745117 -119.570678710938 1.374917984009
-78.190200805664 -65.843215942383 -126.581611633301 1.212201714516
-93.375137329102 -63.196285247803 -122.577621459961 1.187933683395
-62.897487640381 -63.561115264893 -118.796882629395 0.867163836956
-61.018833160400 -62.511447906494 -117.822257995605 0.937269628048
-87.445854187012 -63.886337280273 -127.508026123047 1.795030713081
-63.327724456787 -68.401123046875 -128.013687133789 1.000118136406
-85.307441711426 -64.742424011230 -130.296493530273 1.166157603264
-74.222572326660 -66.531471252441 -131.590591430664 0.942351400852
-64.414825439453 -65.595092773438 -130.312805175781 0.810512959957
-62.465995788574 -62.639854431152 -134.779693603516 1.513556480408
-54.725376129150 -65.140052795410 -137.312088012695 0.515256702900
-92.756820678711 -64.909667968750 -133.645187377930 1.542443990707
-97.051345825195 -66.461555480957 -142.556076049805 1.698701262474
-85.533515930176 -66.009796142578 -132.347503662109 1.145936131477
21.989522933960 -66.899925231934 -143.988906860352 1.662231802940
-50.080657958984 -65.927787780762 -143.206329345703 2.595773696899
14.649624824524 -64.422096252441 -146.988006591797 0.793819785118
-99.000938415527 -65.486381530762 -162.346359252930 0.965007364750
-102.855644226074 -66.130828857422 -171.755706787109 1.263631582260
-102.948242187500 -64.225914001465 -170.921432495117 1.628538489342
-107.500968933105 -65.455070495605 -166.494689941406 0.943324387074
-105.693840026855 -66.213890075684 -180.357879638672 1.988365769386
-111.080604553223 -65.189125061035 -176.809356689453 0.878175854683
-141.936218261719 -66.023712158203 -187.566482543945 0.724382102489
-112.892211914063 -64.542533874512 -187.070404052734 1.164641261101
-133.394256591797 -63.491119384766 -196.076126098633 0.788125395775
-147.333892822266 -65.872406005859 -198.021759033203 0.831793189049
-123.278884887695 -65.449317932129 -196.970748901367 0.766532063484
-154.907516479492 -66.102836608887 -197.988876342773 0.835671961308
-147.548782348633 -66.267684936523 -201.132629394531 0.557161152363
-123.143730163574 -64.145179748535 -200.984603881836 0.963276505470
-134.475601196289 -66.483238220215 -203.535736083984 0.293671250343
-144.714553833008 -66.505020141602 -205.870697021484 1.169102072716
-134.125747680664 -67.808921813965 -224.227996826172 0.728508114815
-113.306678771973 -65.290718078613 -227.480987548828 0.776060700417
-147.003631591797 -66.720474243164 -229.525054931641 0.637437939644
-116.596076965332 -64.457954406738 -228.874313354492 0.852680027485
-114.221473693848 -65.111099243164 -230.847549438477 1.089402437210
-124.772674560547 -65.238372802734 -233.980590820313 0.511129856110
-126.831031799316 -66.636291503906 -234.772430419922 0.536863505840
-116.790695190430 -64.736328125000 -233.084808349609 1.358795404434
2.836447000504 -65.730255126953 -233.354766845703 0.980254471302
-151.161499023438 -66.556663513184 -235.559783935547 0.720721304417
7.241141796112 -68.066909790039 -231.290802001953 0.569986939430
7.745067119598 -65.273445129395 -237.271621704102 1.085742354393
1.091197013855 -66.392204284668 -238.102371215820 1.024930953979
15.451416969299 -63.547370910645 -238.892868041992 0.954649925232
-146.274368286133 -66.690238952637 -235.672698974609 0.441984713078
-3.633502006531 -64.896186828613 -243.839416503906 0.976527690887
19.551864624023 -65.422447204590 -242.675964355469 1.713497042656
46.941963195801 -65.573989868164 -246.747879028320 0.600283503532
50.710014343262 -65.253120422363 -246.569091796875 1.887746095657
-146.851989746094 -66.617202758789 -252.297454833984 0.413792192936
-6.812703132629 -65.463973999023 -251.176834106445 1.073946475983
25.588083267212 -66.094299316406 -256.599060058594 1.052305579185
-134.253997802734 -64.307006835938 -259.012481689453 0.691401302814
-127.156555175781 -64.213691711426 -261.119689941406 0.368007063866
-126.516868591309 -64.120300292969 -257.686096191406 0.859038412571
25.467189788818 -66.381393432617 -259.074188232422 1.239797592163
-134.940078735352 -66.694969177246 -263.745330810547 1.713256716728
26.523563385010 -65.573242187500 -261.133972167969 0.957416296005
29.912801742554 -66.981475830078 -262.579437255859 1.695326209068
-151.540618896484 -67.469673156738 -265.331085205078 0.708451390266
-148.185073852539 -69.627136230469 -287.921844482422 0.511166870594
-151.433914184570 -65.915473937988 -289.007202148438 0.350794762373
-143.826736450195 -63.434631347656 -291.758392333984 0.583530426025
8.185222625732 -68.356613159180 -291.037414550781 1.731135010719
-154.613021850586 -64.391418457031 -294.053375244141 0.355715990067
42.868404388428 -70.657455444336 -24.959226608276 2.426889896393
33.301574707031 -70.879867553711 -39.694648742676 0.499477088451
-66.149284362793 -65.433158874512 -44.287742614746 2.455389022827
-74.868217468262 -63.975059509277 -44.838775634766 1.317636013031
-29.120130538940 -65.383056640625 -49.091365814209 1.872648835182
-22.326112747192 -66.658958435059 -53.335689544678 1.457985877991
-15.652763366699 -62.715850830078 -65.322731018066 1.646963119507
-25.453739166260 -64.284423828125 -68.200408935547 1.588961601257
64.173377990723 -64.789237976074 -71.163917541504 1.927788019180
-99.631675720215 -63.147842407227 -77.228027343750 1.418850898743
-48.698951721191 -64.868896484375 -82.948143005371 1.321066498756
53.449558258057 -65.689582824707 -84.636611938477 1.823007702827
54.156444549561 -64.803672790527 -86.699150085449 1.231659412384
63.815624237061 -65.582969665527 -88.194618225098 1.859721183777
103.307334899902 -65.114173889160 -89.656738281250 1.990014314651
50.659076690674 -62.562496185303 -92.505348205566 1.522811770439
98.862274169922 -66.521072387695 -99.515914916992 1.823682308197
-80.764480590820 -65.910316467285 -101.324577331543 1.929084897041
-98.898620605469 -66.082962036133 -102.735092163086 1.177290558815
75.474525451660 -63.977756500244 -107.955223083496 1.488856911659
-76.904670715332 -62.840724945068 -102.773696899414 1.273354530334
-78.919860839844 -66.772163391113 -117.470130920410 1.284265279770
-84.475715637207 -64.653038024902 -117.612991333008 1.661402225494
-56.451183319092 -65.800209045410 -126.365188598633 1.096299648285
-80.194854736328 -66.634300231934 -127.289604187012 1.989205598831
-62.199584960938 -65.397796630859 -131.070846557617 1.872797250748
-81.166122436523 -65.853858947754 -133.095504760742 2.396132946014
-76.156196594238 -64.296615600586 -132.543441772461 0.970182955265
-81.423751831055 -60.580860137939 -125.103752136230 0.829563617706
-87.856979370117 -63.272010803223 -130.962509155273 1.153742074966
-64.006103515625 -63.668903350830 -132.065231323242 0.860179007053
-91.546974182129 -63.312309265137 -134.257507324219 1.937409639359
-50.337081909180 -65.431556701660 -134.157577514648 1.051238894463
-57.562168121338 -65.685646057129 -138.553237915039 0.657875537872
26.562726974487 -65.292556762695 -135.184341430664 1.534279465675
-59.063278198242 -62.396656036377 -137.610839843750 1.131666660309
13.987851142883 -66.129104614258 -145.109024047852 1.968912124634
18.993894577026 -66.051712036133 -148.223968505859 2.306048393250
17.350318908691 -63.858375549316 -151.103378295898 0.579979777336
-97.516578674316 -63.850578308105 -144.497955322266 1.642350196838
-94.327491760254 -65.309600830078 -151.675582885742 1.558233499527
-96.306327819824 -62.237636566162 -152.400604248047 0.688415288925
-103.443237304688 -64.560920715332 -157.266296386719 1.563564538956
-96.972961425781 -64.597480773926 -157.606643676758 1.046577095985
-151.783370971680 -69.208297729492 -175.013977050781 1.396471381187
-153.956085205078 -65.269355773926 -176.626724243164 1.261795878410
-106.726135253906 -64.053466796875 -180.947326660156 0.841256916523
-143.623168945313 -62.532409667969 -178.559066772461 1.151409268379
-110.823005676270 -63.404720306396 -179.654251098633 1.316766262054
-152.608886718750 -63.734359741211 -187.070373535156 0.913422703743
-112.163490295410 -63.727199554443 -194.332168579102 1.873938441277
-109.914199829102 -63.258441925049 -187.481323242188 1.288955450058
-141.696517944336 -65.009071350098 -196.664993286133 1.088421583176
-134.188873291016 -65.038108825684 -196.609481811523 0.793677806854
-109.820648193359 -64.680351257324 -197.526550292969 0.354431629181
-116.101280212402 -63.663722991943 -199.682189941406 0.911457896233
-112.373313903809 -63.486591339111 -200.297927856445 1.106956720352
-115.382408142090 -64.100776672363 -202.546783447266 0.704141736031
-134.529067993164 -63.381820678711 -199.029968261719 0.900038182735
-134.354171752930 -64.099021911621 -201.817306518555 0.756449699402
-133.085266113281 -64.292800903320 -203.988449096680 0.739589631557
-125.716064453125 -62.449588775635 -202.881210327148 0.719418168068
-127.831192016602 -65.272987365723 -204.952163696289 1.719849348068
-117.199195861816 -63.435123443604 -203.836166381836 0.701483130455
-146.350814819336 -64.896827697754 -216.076416015625 2.747620582581
-150.792800903320 -65.506240844727 -223.081329345703 0.928838670254
-152.953048706055 -62.090332031250 -224.286926269531 0.680208384991
-142.471450805664 -67.554885864258 -225.879119873047 0.644867777824
-132.948608398438 -63.903415679932 -226.372268676758 0.642890214920
-125.188858032227 -65.686347961426 -224.749542236328 0.892403721809
-141.705459594727 -65.105079650879 -227.616989135742 0.869575083256
-150.229843139648 -66.947418212891 -228.960693359375 0.655584692955
-135.255477905273 -65.130149841309 -227.171707153320 0.951957702637
-133.748535156250 -63.238178253174 -229.069351196289 0.843573093414
-148.717987060547 -67.364891052246 -230.983474731445 0.537916243076
-133.629974365234 -64.046882629395 -232.358901977539 0.601203083992
-125.757858276367 -62.750251770020 -228.476715087891 0.636135935783
-7.664111137390 -67.676246643066 -236.005767822266 0.752445697784
4.018873214722 -64.592285156250 -237.939773559570 1.038975358009
12.573518753052 -64.511436462402 -241.237854003906 1.097313165665
9.517734527588 -66.456108093262 -243.100204467773 0.714164733887
-9.992261886597 -65.561782836914 -242.998779296875 1.281360983849
-10.869313240051 -65.175018310547 -246.498031616211 1.322718143463
41.500320434570 -64.461357116699 -251.108703613281 1.189221143723
49.223690032959 -65.788002014160 -250.318756103516 1.484093904495
-144.278839111328 -62.649162292480 -254.696716308594 0.965680897236
41.028675079346 -65.002601623535 -254.856582641602 1.828027963638
35.706809997559 -65.060089111328 -252.212188720703 2.334298610687
-156.449645996094 -64.328025817871 -259.383544921875 0.872332692146
-151.709533691406 -62.635265350342 -259.003906250000 0.518563032150
-148.178451538086 -68.317825317383 -260.639282226563 0.545122683048
1.875169992447 -64.747840881348 -263.546386718750 1.621033906937
-151.415863037109 -63.870689392090 -265.775177001953 0.447622716427
0.017180999741 -65.227622985840 -274.096008300781 1.493835806847
-147.400863647461 -64.735183715820 -274.149841308594 0.716851532459
-147.789001464844 -63.688774108887 -282.808074951172 1.027620077133
-151.541473388672 -64.194992065430 -282.579315185547 0.374075919390
-149.879226684570 -64.235946655273 -284.688293457031 0.355684608221
-144.413635253906 -64.132232666016 -284.885894775391 1.122007966042
-156.076354980469 -63.713104248047 -286.288299560547 0.625375092030
-151.146362304688 -62.906749725342 -286.284301757813 0.357100456953
-149.774307250977 -64.554656982422 -286.857421875000 1.081795215607
-146.739669799805 -63.764396667480 -285.935638427734 0.572633028030
-143.731781005859 -63.185028076172 -287.906677246094 1.002096533775
13.125365257263 -65.585296630859 -288.172760009766 0.690258026123
-147.739288330078 -64.398628234863 -289.840850830078 1.114518046379
-155.485855102539 -63.715549468994 -289.921844482422 1.511583685875
-152.624176025391 -63.503726959229 -289.770355224609 1.426204442978
-152.126205444336 -63.566310882568 -294.113250732422 0.535964369774
-150.614074707031 -63.194820404053 -291.731964111328 0.949433922768
-146.338287353516 -63.626007080078 -291.670074462891 0.840702772141
0.186272993684 -65.466644287109 -291.871398925781 1.009125351906
-144.879089355469 -64.600471496582 -293.895935058594 0.660807669163
-147.539169311523 -63.178813934326 -294.613586425781 0.902639150620
27.078567504883 -60.107444763184 -18.750789642334 2.039672374725
39.750049591064 -68.551948547363 -18.224431991577 2.686622619629
41.217823028564 -62.787986755371 -21.147562026978 0.952314853668
19.200435638428 -70.881141662598 -30.123983383179 1.221049189568
28.396272659302 -60.616271972656 -34.252380371094 1.446381449699
37.856227874756 -70.582534790039 -34.235736846924 1.697620153427
-59.570262908936 -62.132541656494 -42.421955108643 1.722664237022
-52.758068084717 -63.711685180664 -43.472415924072 1.295897603035
87.384757995605 -65.357650756836 -60.087261199951 1.930873632431
-97.819854736328 -62.571529388428 -65.066726684570 2.575025796890
93.444572448730 -67.477157592773 -64.296432495117 1.897488474846
65.922447204590 -63.706218719482 -66.128341674805 2.454838752747
101.763359069824 -66.107467651367 -74.779563903809 0.898331820965
63.694416046143 -64.967933654785 -74.426689147949 1.914464831352
-42.532405853271 -65.866500854492 -77.401115417480 1.537330627441
59.657428741455 -61.188934326172 -80.350524902344 1.846879005432
-59.557952880859 -61.811553955078 -80.267425537109 1.882034540176
62.684566497803 -63.454498291016 -84.369316101074 1.677971482277
59.952220916748 -64.345771789551 -82.314208984375 1.754561543465
-99.379264831543 -64.577117919922 -82.037841796875 2.381128072739
50.417484283447 -64.295028686523 -88.439582824707 2.108151912689
51.086734771729 -65.490058898926 -91.548812866211 1.295602798462
62.602718353271 -65.977577209473 -91.411529541016 1.029425501823
51.477317810059 -62.676593780518 -94.617805480957 2.146528720856
-82.964263916016 -62.985538482666 -105.839164733887 1.630732893944
82.287666320801 -66.496879577637 -103.972816467285 1.692401885986
-78.447776794434 -63.792064666748 -113.141036987305 0.577592551708
-77.064872741699 -62.611953735352 -108.670669555664 1.391456961632
-80.809455871582 -64.779548645020 -120.004653930664 0.990784168243
-88.368850708008 -64.140869140625 -112.135742187500 1.682876467705
-92.195968627930 -66.116775512695 -119.396255493164 1.914222478867
-79.788131713867 -64.275337219238 -125.352462768555 0.795602798462
-56.602619171143 -61.251651763916 -127.043876647949 1.120666623116
-78.734779357910 -63.755229949951 -132.910797119141 1.476157665253
-57.440586090088 -61.000595092773 -132.564376831055 1.156566739082
-88.579811096191 -63.269584655762 -135.776931762695 1.676698565483
28.377849578857 -63.601047515869 -136.509429931641 1.472359418869
19.002939224243 -64.818382263184 -139.133499145508 1.370005607605
-92.063980102539 -62.288875579834 -138.539886474609 1.348128795624
17.958322525024 -64.037879943848 -147.482131958008 1.323229908943
-91.581596374512 -63.921997070313 -144.472839355469 1.282723069191
-94.404624938965 -62.173568725586 -146.903396606445 1.517992019653
19.001798629761 -64.024963378906 -151.471664428711 1.205379128456
-96.530456542969 -62.640422821045 -144.361709594727 1.826534032822
-97.468910217285 -62.113384246826 -148.744827270508 1.488631963730
-102.581504821777 -62.586688995361 -158.141357421875 2.597975492477
-99.329895019531 -62.373703002930 -158.826736450195 0.843893229961
-106.109710693359 -62.580982208252 -174.114059448242 0.881279349327
-107.320968627930 -63.790027618408 -167.412979125977 1.651262760162
-103.296005249023 -62.149616241455 -164.573410034180 2.858690261841
-107.223152160645 -62.439178466797 -171.468582153320 1.579071998596
-142.021591186523 -64.886421203613 -176.616104125977 0.426371216774
-108.288848876953 -62.649806976318 -178.402252197266 1.090842843056
-143.855224609375 -62.952991485596 -187.310577392578 0.875879883766
-149.325225830078 -63.359737396240 -188.445312500000 1.267286896706
-150.509399414063 -64.142608642578 -193.092468261719 0.980173230171
-124.933380126953 -63.028293609619 -195.948898315430 1.125863194466
-132.843994140625 -62.176387786865 -198.483642578125 0.765970051289
-123.221397399902 -63.876884460449 -198.811004638672 0.907285034657
-141.601058959961 -65.001892089844 -202.466705322266 1.047046780586
-124.597923278809 -63.774139404297 -203.947952270508 0.391414046288
-145.751861572266 -65.179298400879 -205.993698120117 0.559804320335
-150.377029418945 -64.308990478516 -206.262939453125 0.768907964230
-155.691711425781 -62.539680480957 -229.056793212891 0.666923522949
-141.735015869141 -65.315864562988 -231.367309570313 0.910850286484
-126.374618530273 -63.702220916748 -232.799423217773 0.603575766087
-155.197906494141 -61.560939788818 -232.117599487305 1.316774129868
-3.324398040771 -66.725013732910 -236.350814819336 1.041274428368
13.166631698608 -63.153976440430 -239.329986572266 1.098605036736
-4.377973079681 -65.231842041016 -241.896957397461 1.644173741341
-147.253204345703 -63.072032928467 -244.905441284180 0.535728812218
-6.534239768982 -63.247520446777 -245.504104614258 0.946692466736
-147.242324829102 -63.086196899414 -253.044967651367 0.490012884140
-5.851504802704 -62.899578094482 -247.429565429688 0.947978019714
-151.132522583008 -63.154094696045 -252.736892700195 0.511934757233
23.928613662720 -67.534927368164 -252.655029296875 1.024269819260
-153.111953735352 -62.590896606445 -255.287780761719 1.270545721054
-148.242324829102 -62.971118927002 -254.891571044922 0.484716534615
-154.308319091797 -62.976074218750 -254.597061157227 1.446807622910
-149.696624755859 -62.051033020020 -256.729187011719 0.636990308762
35.919055938721 -63.725582122803 -254.846115112305 0.792107880116
29.238710403442 -63.134292602539 -260.343170166016 1.206532359123
-147.139587402344 -62.468936920166 -258.599212646484 0.855566918850
-150.391708374023 -62.517406463623 -261.470306396484 0.723004400730
-155.111648559570 -62.648979187012 -260.286621093750 1.632352828979
-148.159362792969 -62.018154144287 -261.664306640625 0.961889326572
26.265380859375 -63.412425994873 -261.141998291016 1.186894893646
28.477424621582 -64.524765014648 -262.546508789063 1.280717849731
-150.279815673828 -63.191005706787 -263.679138183594 1.166397929192
-143.124130249023 -62.969139099121 -262.669921875000 0.542496383190
-151.888687133789 -62.274650573730 -264.439270019531 1.445217490196
-145.356338500977 -62.627513885498 -262.634674072266 0.799889087677
-147.282669067383 -63.830543518066 -265.733581542969 0.535119175911
-150.966461181641 -62.714340209961 -265.810028076172 0.442700058222
-148.840072631836 -62.074806213379 -265.255981445313 0.432132184505
-149.853103637695 -62.594913482666 -283.737030029297 0.357889831066
-150.877639770508 -62.992752075195 -282.686279296875 0.368542671204
-148.703399658203 -62.873794555664 -281.305816650391 0.360389590263
18.449647903442 -65.808601379395 -282.307250976563 1.137404561043
-153.980438232422 -63.447185516357 -284.017150878906 0.763243317604
-147.107009887695 -62.664085388184 -284.335052490234 0.338850140572
-3.229739904404 -65.227844238281 -287.841400146484 1.571083426476
5.263011932373 -65.269950866699 -292.135375976563 1.786915063858
-150.123062133789 -64.728317260742 -296.014495849609 1.277300357819
25.283441543579 -70.833343505859 -21.085407257080 2.337706565857
42.294956207275 -63.864292144775 -27.954679489136 1.754843950272
47.634849548340 -70.147750854492 -31.132324218750 1.830743670464
41.282817840576 -62.478126525879 -30.727334976196 2.897236585617
22.993101119995 -70.605392456055 -36.295616149902 0.455798000097
42.528762817383 -71.081665039063 -37.469718933105 2.273934841156
80.404632568359 -63.937919616699 -58.661026000977 1.650415301323
74.730026245117 -64.530944824219 -59.295639038086 2.040026426315
-13.631408691406 -65.222190856934 -65.427001953125 1.558025479317
64.192481994629 -61.749103546143 -69.151634216309 2.429230928421
-29.852827072144 -67.488914489746 -75.129295349121 1.481923937798
-32.631374359131 -65.858024597168 -77.019821166992 1.539833664894
-56.494602203369 -61.422893524170 -77.851867675781 1.601189732552
-53.391548156738 -62.223617553711 -79.189582824707 0.933699786663
64.048583984375 -65.686782836914 -81.584449768066 1.151563644409
102.557533264160 -67.997184753418 -85.592224121094 1.754078269005
-63.217170715332 -63.034637451172 -87.029090881348 1.669983744621
53.782138824463 -64.564872741699 -93.728775024414 0.688744068146
59.807601928711 -61.876464843750 -89.979904174805 1.505137205124
102.109535217285 -66.044654846191 -94.177124023438 1.988832473755
-67.533897399902 -62.523815155029 -94.328323364258 0.563344538212
54.329158782959 -62.334945678711 -94.543914794922 1.267919421196
-71.608726501465 -64.945533752441 -105.058616638184 1.544720411301
66.461402893066 -66.786621093750 -96.872901916504 1.454529166222
67.749557495117 -63.258148193359 -101.090011596680 1.377500057220
-73.681694030762 -63.154689788818 -107.233238220215 1.049635887146
-99.386322021484 -60.506282806396 -109.915580749512 1.388805747032
-70.822219848633 -60.574398040771 -107.892417907715 1.874896287918
-84.631401062012 -63.292060852051 -111.376060485840 1.622958540916
-66.499725341797 -63.024703979492 -112.935005187988 1.333068966866
-85.618415832520 -61.348960876465 -111.583160400391 1.268468022346
-80.695037841797 -63.008750915527 -116.441223144531 1.246318936348
-77.384315490723 -63.032409667969 -118.198005676270 1.442990183830
-66.951560974121 -64.099044799805 -120.177963256836 1.165549039841
-84.198471069336 -64.225524902344 -124.242332458496 1.126255035400
33.361976623535 -62.577232360840 -125.165695190430 2.109177827835
-53.696517944336 -63.590335845947 -127.116096496582 0.899745643139
28.186895370483 -63.370071411133 -129.903839111328 2.537540197372
29.733285903931 -64.141662597656 -132.223556518555 1.622237920761
31.427337646484 -61.858093261719 -133.205429077148 1.320310711861
-53.002063751221 -62.840702056885 -136.278121948242 0.952737689018
18.544330596924 -62.593925476074 -144.507446289063 1.897482872009
24.115470886230 -63.655319213867 -142.361389160156 1.382091760635
-145.888305664063 -61.020839691162 -176.864379882813 0.978894054890
-150.039505004883 -61.078685760498 -175.994201660156 1.050737977028
-152.401901245117 -62.766902923584 -178.919494628906 1.081612586975
-149.536041259766 -61.724967956543 -187.153320312500 0.857720851898
-146.664352416992 -61.691474914551 -187.283493041992 0.882297277451
-147.358215332031 -63.613311767578 -192.737579345703 0.856638967991
-144.984939575195 -64.835212707520 -193.453201293945 0.256940454245
-146.339981079102 -59.641441345215 -198.041091918945 1.269276142120
-124.897048950195 -61.576091766357 -199.847457885742 0.922154784203
-132.894195556641 -62.213756561279 -201.258499145508 0.747658491135
-146.463989257813 -62.297218322754 -210.187057495117 0.738394439220
-148.825408935547 -61.959751129150 -224.839721679688 0.657456636429
-152.445678710938 -61.091213226318 -225.214996337891 1.377993226051
-147.016296386719 -60.662239074707 -227.871749877930 1.217946290970
-154.647583007813 -61.294239044189 -226.334381103516 1.356778621674
-150.484573364258 -61.405483245850 -231.379867553711 0.637066066265
-150.704757690430 -61.620323181152 -228.380401611328 1.055663347244
-147.237792968750 -61.040538787842 -231.374786376953 0.852188289165
-143.332321166992 -62.069782257080 -233.662719726563 0.973974883556
-147.997070312500 -62.146945953369 -233.591339111328 0.987402975559
-153.665695190430 -61.868442535400 -234.040039062500 1.034498810768
7.116073131561 -64.800010681152 -239.055496215820 1.334348201752
-10.887092590332 -67.012794494629 -239.853927612305 1.714178681374
-146.970489501953 -62.638267517090 -236.114608764648 0.296045601368
-150.868194580078 -62.281803131104 -236.089050292969 0.601562142372
-149.949127197266 -61.122497558594 -236.045196533203 0.593879818916
9.207441329956 -63.774581909180 -244.028854370117 1.066510081291
-150.825912475586 -62.348831176758 -240.810287475586 1.156005024910
-148.232070922852 -61.767127990723 -254.029571533203 0.282273352146
-1.959957003593 -62.464183807373 -250.156738281250 0.972286880016
-150.061386108398 -61.529945373535 -252.468780517578 0.770399808884
-149.093841552734 -61.383834838867 -253.070892333984 0.494960814714
-145.272979736328 -62.286613464355 -256.246826171875 0.915537357330
-143.007705688477 -61.988933563232 -257.367431640625 0.996778249741
26.070259094238 -63.078712463379 -258.726165771484 0.866643846035
-149.769104003906 -62.047657012939 -265.843322753906 0.434435516596
25.052078247070 -65.742439270020 -268.187072753906 1.882571578026
15.893976211548 -66.370368957520 -285.892852783203 1.495617628098
0.745846986771 -62.990280151367 -289.771148681641 0.994177579880
7.290956020355 -61.495380401611 -290.924011230469 1.044311642647
29.907503128052 -61.043834686279 -16.855365753174 2.033794879913
44.518676757813 -69.888275146484 -35.747657775879 2.018575191498
32.272083282471 -70.604660034180 -38.174816131592 1.904992938042
-44.378822326660 -61.137447357178 -45.499118804932 1.001654744148
-90.515167236328 -60.271038055420 -51.706226348877 1.734390258789
-95.299011230469 -60.715618133545 -58.202133178711 1.953137636185
-21.952625274658 -62.039867401123 -65.358306884766 1.628523468971
100.201599121094 -63.967864990234 -69.057678222656 2.261686563492
103.001777648926 -60.217128753662 -75.190567016602 1.961814999580
102.384315490723 -65.949531555176 -77.354080200195 1.008067369461
-52.514041900635 -63.694984436035 -82.649284362793 1.219264864922
-63.264133453369 -60.932674407959 -83.751052856445 1.450722813606
57.507263183594 -60.223102569580 -86.772819519043 1.804099082947
53.079177856445 -61.163917541504 -87.732994079590 2.446835756302
-66.093788146973 -62.693798065186 -95.823402404785 1.400235414505
-100.154289245605 -60.025352478027 -104.611351013184 2.851507186890
79.767898559570 -65.018043518066 -106.715156555176 1.646448254585
-79.934288024902 -63.333583831787 -111.855216979980 1.433207035065
-67.829620361328 -60.349994659424 -111.456146240234 1.107290267944
-82.845596313477 -61.735321044922 -111.827400207520 1.007804512978
-86.294982910156 -61.007228851318 -113.125595092773 1.435814380646
-82.752975463867 -62.271644592285 -116.421722412109 1.044945240021
-69.663177490234 -61.947795867920 -114.930465698242 1.834917426109
-65.394058227539 -62.715351104736 -119.265312194824 1.097868084908
-82.244285583496 -61.856212615967 -118.488868713379 1.226588010788
-80.868446350098 -61.428909301758 -117.031700134277 1.070693373680
-66.514488220215 -61.523128509521 -120.488021850586 0.706058323383
-85.514663696289 -61.631679534912 -118.086517333984 1.227874636650
-77.328086853027 -62.137786865234 -121.315284729004 2.224402904510
-76.469474792480 -63.505947113037 -127.109306335449 1.526246070862
-79.257392883301 -61.585639953613 -128.269226074219 1.174952149391
28.699411392212 -60.153030395508 -127.244873046875 1.492000341415
-55.944351196289 -61.861381530762 -130.979949951172 0.979943215847
25.325876235962 -63.146938323975 -132.122116088867 1.597805023193
22.458383560181 -62.142219543457 -135.022735595703 1.612482547760
-144.824707031250 -60.584899902344 -193.822540283203 0.828431606293
-140.639709472656 -63.595203399658 -199.668045043945 0.994924962521
-154.971481323242 -59.971492767334 -200.076095581055 1.580138921738
-150.048706054688 -60.289360046387 -201.253753662109 0.816035509109
-154.221221923828 -62.761100769043 -203.139221191406 0.714021563530
-149.963119506836 -60.853282928467 -203.620574951172 1.486278653145
-142.854736328125 -61.442272186279 -204.041503906250 1.010114192963
-150.165039062500 -61.107051849365 -206.066925048828 0.730490982533
-150.709609985352 -61.797565460205 -223.106185913086 0.976895272732
-149.139663696289 -60.266895294189 -224.095993041992 0.657750844955
-147.135284423828 -61.103160858154 -223.170455932617 0.606163561344
-146.569747924805 -62.543483734131 -223.313079833984 0.979837536812
-148.844345092773 -60.823589324951 -226.924240112305 0.992967307568
-143.644149780273 -61.621082305908 -225.213745117188 1.432466506958
-144.962600708008 -61.345371246338 -226.952728271484 0.625746548176
-144.409149169922 -60.391983032227 -225.518966674805 1.150048375130
-142.161056518555 -61.356319427490 -229.557250976563 0.914819777012
-144.422012329102 -61.308643341064 -232.425704956055 1.183124423027
-148.013671875000 -61.009750366211 -235.082778930664 0.589893221855
-149.223144531250 -60.805934906006 -234.945571899414 0.933817505836
1.813490986824 -63.173568725586 -237.691513061523 1.359096527100
17.755542755127 -63.759960174561 -240.187484741211 1.126090049744
23.507581710815 -61.656326293945 -252.198577880859 1.267573118210
25.458274841309 -60.363594055176 -257.432769775391 1.029149174690
6.381900787354 -62.015785217285 -263.413421630859 1.026916742325
22.276119232178 -64.939956665039 -276.262512207031 1.661513805389
2.208370923996 -63.519432067871 -279.615478515625 1.000505089760
6.203692913055 -60.208335876465 -289.022644042969 1.989858269691
11.122430801392 -63.511398315430 -290.308349609375 0.944587588310
47.038448333740 -70.080490112305 -18.937965393066 1.347752213478
31.950702667236 -60.283740997314 -36.511383056641 1.931790590286
-30.389976501465 -61.854446411133 -47.615680694580 1.717455387115
-20.222290039063 -61.082176208496 -50.276393890381 1.715193271637
-12.476264953613 -62.981960296631 -56.760490417480 2.972046613693
92.793441772461 -63.234672546387 -61.003589630127 2.277794837952
-99.823600769043 -59.676101684570 -68.559928894043 2.026077032089
102.024063110352 -62.700191497803 -71.027511596680 1.205432295799
56.014404296875 -60.992492675781 -83.726074218750 1.813568353653
63.369846343994 -62.467758178711 -89.116508483887 2.018066406250
-65.552940368652 -61.725288391113 -88.657913208008 1.744085669518
52.895736694336 -63.827384948730 -92.334533691406 1.752960562706
60.723442077637 -60.901165008545 -91.336227416992 0.451681494713
102.369636535645 -62.269611358643 -96.130828857422 1.961451172829
-67.001678466797 -59.879409790039 -96.348625183105 0.993112623692
-70.261604309082 -59.682037353516 -99.160980224609 1.142042636871
73.117607116699 -63.060337066650 -106.411125183105 1.279676914215
-78.763450622559 -60.813644409180 -106.059028625488 1.984384179115
-63.732826232910 -62.129489898682 -111.269561767578 1.496198058128
39.219139099121 -60.434669494629 -116.629676818848 1.675364375114
-83.523597717285 -61.047340393066 -122.936111450195 1.252741456032
39.427444458008 -61.370185852051 -118.931884765625 1.618340134621
-90.884414672852 -63.793140411377 -117.381652832031 2.348642349243
-97.139144897461 -62.772644042969 -122.083831787109 1.457046985626
-67.870391845703 -62.415069580078 -122.589065551758 1.211527943611
36.969249725342 -61.722839355469 -124.053062438965 1.565126776695
-63.640972137451 -61.040336608887 -127.820793151855 1.255657911301
-60.194904327393 -61.478744506836 -133.110763549805 1.641857147217
-56.476615905762 -62.199943542480 -137.811386108398 1.370113968849
-143.919799804688 -60.037700653076 -197.522857666016 1.280730962753
-147.829269409180 -59.552360534668 -193.615127563477 1.358766317368
-149.297836303711 -60.320308685303 -194.952362060547 1.469304680824
-154.167373657227 -60.997474670410 -196.128433227539 1.107940435410
-150.054016113281 -60.354991912842 -198.034790039063 1.452505588531
-142.563858032227 -59.724739074707 -196.111282348633 0.795989155769
-141.884933471680 -59.719799041748 -200.193237304688 1.401313066483
-146.073074340820 -60.282451629639 -200.315750122070 1.272511005402
-147.579544067383 -59.918273925781 -202.201736450195 1.043413400650
-153.005050659180 -60.037227630615 -204.225845336914 1.298507452011
-144.777008056641 -60.043407440186 -204.136001586914 0.575622975826
-146.568496704102 -60.937736511230 -206.366744995117 0.515353083611
-148.239028930664 -59.437000274658 -205.329666137695 0.765405654907
-149.287780761719 -59.769119262695 -205.076080322266 0.681401193142
-148.224975585938 -60.393295288086 -224.313140869141 0.651128530502
-6.110603809357 -63.793273925781 -236.959701538086 1.780242800713
4.781815052032 -60.642879486084 -239.895141601563 0.427301883698
12.008582115173 -60.932514190674 -242.215438842773 1.625910997391
6.071963787079 -61.685523986816 -243.594619750977 1.456519007683
20.023414611816 -62.982337951660 -248.269119262695 0.933208286762
0.495541006327 -63.927722930908 -256.545379638672 2.011290788651
6.158555984497 -62.067684173584 -270.746917724609 2.395843267441
26.168205261230 -60.467166900635 -266.982635498047 1.177663803101
18.575988769531 -62.630828857422 -282.628204345703 1.195652127266
28.270526885986 -64.901550292969 -11.856126785278 2.078354120255
-68.438247680664 -60.837062835693 -42.623939514160 1.712238669395
-38.787582397461 -61.865119934082 -45.747249603271 2.064491748810
68.540588378906 -61.292407989502 -61.350479125977 1.971711635590
-29.291555404663 -64.079635620117 -70.241027832031 1.916113138199
-35.878871917725 -60.403934478760 -75.836318969727 1.844760775566
-44.954936981201 -61.264255523682 -79.620483398438 1.454240322113
63.812286376953 -60.099449157715 -88.369049072266 1.103026747704
103.601951599121 -60.528942108154 -87.244140625000 1.761753320694
64.976631164551 -65.366523742676 -90.492691040039 1.033426284790
-73.221557617188 -59.865425109863 -99.685012817383 1.391691088676
100.517860412598 -63.433414459229 -100.740295410156 1.927341103554
97.849731445313 -62.733989715576 -104.132087707520 2.034233331680
-67.907051086426 -59.781326293945 -104.699592590332 1.713546276093
79.543289184570 -61.967269897461 -107.309394836426 1.709313035011
93.522125244141 -60.463722229004 -107.236228942871 1.970742464066
-61.875717163086 -60.847743988037 -110.855697631836 2.346891164780
45.982269287109 -60.208515167236 -111.655464172363 2.438035011292
-62.416053771973 -61.729526519775 -115.141571044922 0.491865098476
-81.360107421875 -60.332942962646 -112.662170410156 1.147285342216
-57.094089508057 -63.505065917969 -119.673027038574 1.120585799217
-78.219970703125 -60.681758880615 -115.142578125000 1.119484663010
34.467071533203 -61.331302642822 -121.900070190430 1.784566164017
-94.860382080078 -61.029129028320 -123.561630249023 1.810154080391
-53.579486846924 -61.571319580078 -130.268905639648 0.991820156574
21.174304962158 -61.067386627197 -138.065658569336 1.075217127800
8.259892463684 -61.108840942383 -241.429687500000 1.775920271873
-1.985419988632 -61.167095184326 -243.664169311523 1.543733000755
4.348166942596 -61.302471160889 -286.151245117188 1.621076583862
21.710464477539 -64.812347412109 -16.396255493164 2.330513477325
37.106452941895 -62.038948059082 -16.912376403809 1.990636467934
19.422285079956 -59.984699249268 -20.112342834473 2.458178997040
