# This PCD file was generated using the MATLAB® pcwrite function
# from Computer Vision Toolbox®.
# .PCD v.7 - Point Cloud Data file format
VERSION .7
FIELDS x y z
SIZE 4 4 4
TYPE F F F
COUNT 1 1 1
WIDTH 1414
HEIGHT 1
VIEWPOINT 0 0 0 1 0 0 0
POINTS 1414
DATA ascii
20.857304 -77.222519 -192.900955
-39.284664 -77.329254 -202.527969
-30.066696 -78.357925 -201.659760
-34.757694 -77.353577 -203.504211
-40.581215 -77.729073 -194.313919
101.837646 -76.384636 -202.528580
-17.106419 -77.383278 -201.377380
-147.862747 -79.645248 -200.573715
18.546221 -76.705269 -205.337128
-73.697678 -80.806450 -205.911194
-148.257675 -79.466133 -204.875046
98.839096 -74.607529 -210.368347
-30.286592 -77.213997 -205.296371
-26.817575 -77.079315 -212.820328
9.623047 -77.990997 -210.378403
-68.835823 -78.683968 -209.905655
-27.416788 -77.856606 -208.604050
-2.423010 -76.674049 -212.945938
-72.924271 -80.090347 -211.492218
-12.683390 -77.082069 -215.600250
10.364148 -75.890488 -212.864761
19.223495 -77.286186 -218.400299
-145.523132 -79.070053 -211.139572
-5.131979 -76.784775 -213.472336
-92.479477 -75.549675 -217.038803
-19.635445 -76.335388 -218.440781
94.177345 -76.156769 -212.580048
7.651638 -76.797913 -226.249496
17.994297 -75.530365 -215.921097
83.904076 -75.011505 -222.222412
2.739385 -75.812050 -225.208786
88.395218 -75.618454 -218.415634
-14.577043 -77.171379 -220.123901
16.807779 -77.359261 -219.361694
-143.398361 -80.060272 -218.905411
-16.976826 -77.897263 -222.469467
3.301546 -78.194054 -225.622086
-152.881561 -80.614975 -223.302628
-134.334930 -77.447807 -223.885117
9.874766 -76.556358 -225.205429
-2.516086 -76.895821 -231.177261
-134.069611 -77.935249 -226.980026
-143.748138 -79.625854 -230.301895
-144.896545 -78.103050 -231.540375
-31.650536 -76.845261 -236.610016
-145.125961 -77.756386 -237.092407
22.280066 -75.401527 -241.034912
6.050437 -76.308365 -241.511841
-148.305145 -77.946068 -230.817734
-147.272583 -78.963348 -237.851898
-46.193680 -77.154968 -239.073273
-29.875942 -77.550865 -241.761795
6.810277 -78.127312 -245.399658
-37.806656 -76.846146 -243.105576
24.308025 -76.406181 -246.759262
-3.600588 -78.168213 -247.260956
-149.118546 -78.016701 -247.633682
-6.000559 -77.857239 -249.536423
-145.621246 -78.277954 -247.403366
-66.706123 -77.216858 -246.301727
-148.858368 -83.845795 -255.374557
-124.761642 -76.721527 -254.810959
-148.021698 -74.638115 -256.116730
-12.413046 -74.382408 -263.720978
-145.553619 -79.112831 -260.431213
-149.523453 -78.138702 -260.647980
-9.125869 -77.485100 -268.289398
-146.440887 -78.176826 -266.532867
-3.056810 -76.043388 -278.073059
-46.141289 -75.704842 -284.589630
-133.449829 -76.873718 -283.990845
-132.476334 -75.777817 -281.628296
-126.155907 -76.277092 -282.564331
-53.163490 -75.209267 -284.123260
-115.221764 -74.163101 -284.437622
15.727345 -74.803818 -288.402161
-60.001865 -75.399803 -286.162018
-141.722977 -75.920815 -285.582947
-61.814320 -75.034096 -287.213898
-142.387634 -78.271019 -286.325256
-117.435280 -76.114532 -285.896759
-47.284462 -75.003021 -288.034698
-35.214840 -75.715370 -288.577087
-133.368317 -76.703773 -286.426331
-10.502633 -75.219765 -289.363190
0.906709 -75.074104 -289.894897
6.460419 -74.914833 -290.691742
15.073013 -74.984192 -292.403961
-149.577057 -76.660194 -290.894928
-148.228851 -76.264603 -294.995361
-64.302887 -82.531975 -57.010338
92.251381 -77.972809 -75.608437
83.696121 -78.785950 -76.427277
-21.200994 -81.014015 -75.080360
89.778519 -77.836250 -77.375504
-30.224285 -80.629066 -78.212189
93.063179 -79.416840 -79.163322
97.666527 -78.677589 -82.914642
-60.543789 -75.415962 -90.052216
80.411095 -78.196960 -93.772102
85.424911 -78.187347 -97.345810
96.378998 -78.209396 -94.724236
59.786495 -78.403458 -98.250778
-71.553978 -83.529831 -98.587814
-70.571243 -76.322426 -98.656761
53.291023 -79.103905 -105.416115
-86.724991 -82.209908 -102.184425
48.903740 -78.687904 -116.558464
114.676056 -76.532509 -119.104416
115.892204 -77.006531 -133.203613
30.882509 -77.582520 -137.967087
114.266945 -76.588028 -127.667099
30.441217 -78.568802 -133.997742
117.771111 -76.204659 -130.072876
42.559376 -78.417091 -134.097443
-47.295723 -80.581963 -141.540894
38.355766 -76.253838 -140.951447
113.457405 -75.551201 -139.436340
-47.088856 -79.139565 -142.333511
35.728607 -78.238747 -147.230438
-52.225380 -78.379967 -136.597488
-49.228252 -80.081070 -145.381729
-46.734104 -79.330536 -147.140945
-61.597527 -79.717079 -153.630524
118.619087 -76.370209 -150.067276
-47.169262 -79.200729 -152.939041
24.917528 -78.096664 -153.763504
113.334297 -76.369431 -157.896057
-63.622917 -77.977180 -153.927917
-44.445423 -79.215744 -153.452179
11.476110 -76.156082 -153.949646
-63.809677 -77.848297 -157.173508
-57.810097 -78.573402 -158.989258
1.872430 -77.875366 -160.740753
-38.105450 -78.609673 -164.881393
34.191242 -76.137871 -163.431091
-58.719540 -78.680695 -162.783859
-54.368099 -78.490494 -165.949707
23.160872 -77.477112 -160.370972
-28.288395 -78.416336 -167.531418
-27.382401 -79.132530 -165.456146
20.036423 -77.287277 -173.636200
-37.174431 -78.641129 -170.659958
-9.187528 -77.294182 -171.509323
-56.888252 -77.519218 -170.034195
-2.099942 -76.058365 -169.621033
-20.458508 -78.219299 -177.790344
26.708143 -76.514183 -180.077332
-36.052574 -77.299911 -169.838104
20.982321 -76.258141 -177.495560
-20.230999 -75.263214 -181.104080
-29.641462 -78.111595 -180.011948
-144.368866 -79.462540 -181.392242
-19.451229 -77.858139 -184.495514
-141.809021 -78.883919 -183.399414
-146.966721 -78.032700 -182.471359
-44.586315 -76.912689 -184.193237
100.718750 -75.011673 -195.346863
-142.002029 -78.993835 -188.584946
-150.736893 -79.940353 -191.856186
23.375938 -76.394814 -197.163010
-133.133682 -77.281342 -193.615402
21.386730 -75.817520 -197.208054
-138.371109 -77.357277 -193.189056
15.416987 -76.069656 -195.303619
-133.034714 -77.428215 -196.855225
9.880825 -76.628304 -205.853516
-147.005157 -77.995331 -201.520157
95.462669 -74.827919 -204.465164
-12.470298 -77.616783 -200.551880
-28.060013 -76.366333 -204.697540
-7.546735 -77.001907 -204.300171
-147.280426 -78.308784 -207.208542
-33.160347 -76.858551 -203.969086
-79.252235 -78.723564 -207.376450
-24.617716 -77.266159 -208.086243
20.728848 -75.758896 -208.375549
-145.791092 -78.911156 -208.080688
-89.175392 -76.689621 -210.871964
-27.945934 -75.739388 -210.803146
-23.630739 -75.059525 -216.230270
-12.394667 -76.597786 -212.016022
-25.452393 -76.030014 -210.828262
-78.969505 -76.759918 -213.149033
-84.221947 -77.735039 -214.362076
-22.174814 -76.433731 -217.179108
-0.352621 -75.773712 -219.881271
-147.402145 -77.594131 -212.277237
-0.438706 -77.135277 -216.928329
86.060043 -74.874725 -223.942932
-140.843079 -79.227844 -220.440536
-7.986170 -76.997444 -222.369370
-139.884094 -78.432953 -222.133072
-145.238739 -83.776634 -222.661514
-5.295992 -74.517998 -228.439484
17.636780 -75.180443 -221.032135
-139.457520 -77.431068 -224.898651
-13.711476 -75.607323 -227.687988
80.001831 -74.663071 -228.029419
78.558838 -73.881889 -231.478256
9.641595 -75.492355 -230.225876
-25.164181 -77.134598 -236.065582
-16.871696 -76.980682 -238.434525
7.199782 -74.077187 -241.860443
-46.628109 -75.322380 -239.353409
-22.075739 -75.746750 -240.980911
9.219875 -75.146255 -242.569534
-62.297039 -76.095947 -242.507721
-29.531700 -75.430748 -241.519653
-41.922310 -74.108368 -242.610519
-148.975311 -77.501640 -241.513748
-45.823051 -76.630951 -244.474503
-52.484337 -76.215523 -245.776306
-65.792618 -76.369324 -247.859085
-9.814076 -75.040771 -249.567902
-80.157265 -75.624054 -249.174423
-153.807877 -79.920563 -251.916977
-141.039169 -78.268143 -252.269196
-124.680931 -76.407112 -257.196869
-152.647720 -74.405937 -259.332428
22.071037 -75.248337 -262.225616
-11.701028 -75.495125 -266.415649
-149.755127 -78.156990 -266.507782
-150.049088 -78.655952 -272.685944
-143.654114 -79.946007 -279.983795
-57.314114 -73.576904 -283.080231
-38.030499 -74.557991 -284.185974
-25.309513 -72.818420 -284.475433
-12.378955 -74.331726 -285.139374
-65.019966 -75.114609 -284.418365
-78.726906 -74.222107 -283.925934
-3.580529 -74.602654 -286.248566
8.648291 -73.861816 -286.885315
-135.411407 -75.500717 -285.936066
-77.451424 -74.940254 -285.911682
-147.234802 -76.276199 -284.052917
-93.707474 -74.578407 -285.298431
-78.017593 -74.704254 -286.345642
-83.328552 -74.047882 -287.494965
-59.512093 -74.333267 -287.808807
-25.953234 -73.309082 -289.747345
-3.373482 -73.493546 -290.732056
-153.500229 -74.660500 -289.494049
-151.808426 -75.788139 -295.021790
-146.004135 -76.855667 -296.469788
-154.864624 -75.719116 -302.420502
-51.812134 -80.863167 -52.246857
-39.502529 -79.244926 -50.823044
-33.018635 -79.610039 -53.428242
-69.999702 -80.912811 -55.662540
-22.997414 -79.906113 -60.097443
-25.266676 -80.027916 -77.105263
80.845451 -78.567146 -80.254585
80.629425 -79.672295 -82.255844
80.240494 -79.006844 -84.581665
100.931816 -77.182625 -90.366211
78.309677 -78.678810 -89.970154
58.409111 -77.786446 -92.830154
52.167721 -79.809929 -98.963150
-62.893867 -80.220200 -96.707420
-67.259628 -74.130005 -98.267487
49.640728 -78.602570 -103.034531
-77.975197 -82.317757 -105.230453
-89.361923 -78.681374 -109.003372
55.261375 -77.331894 -105.177399
111.931206 -76.115150 -110.754379
36.429905 -79.068565 -118.969055
50.084908 -77.725784 -118.488602
46.714039 -78.706238 -125.454079
33.627071 -78.185898 -124.750954
112.914894 -76.378792 -119.719139
43.451244 -77.496315 -127.698120
33.764221 -76.439888 -129.665070
-43.477314 -78.595993 -142.113617
-68.905479 -78.226097 -142.973526
-51.280991 -76.932037 -141.113495
-67.009209 -78.066032 -143.128036
-38.364033 -76.353294 -144.438721
112.327805 -73.630959 -150.976303
-68.534416 -78.421593 -151.849899
27.633022 -76.553337 -148.736969
36.791157 -77.532501 -152.556580
118.116379 -75.680534 -159.800278
12.035925 -76.276260 -157.967163
34.571499 -76.329796 -154.559052
-62.049076 -77.157280 -155.877686
-40.854771 -77.631401 -165.760544
21.745226 -74.884842 -162.195526
-60.579468 -76.757942 -161.159103
-64.874382 -78.308754 -162.019424
110.466301 -75.315773 -166.854202
-4.186891 -76.262337 -167.109818
-58.649185 -77.884697 -173.889496
-25.007885 -76.994698 -168.657425
-52.740749 -76.400009 -171.232224
30.697180 -76.538101 -167.837265
112.764687 -74.712776 -173.749313
105.528824 -75.146111 -184.339951
109.897171 -75.118073 -190.090118
110.224358 -74.447357 -179.056229
-51.156822 -76.977310 -184.729019
-49.020947 -75.869408 -179.648712
28.224432 -77.000839 -181.892975
-47.604012 -75.414871 -186.272903
-17.307041 -77.365150 -182.904495
-48.195244 -76.746323 -188.969910
-147.437195 -78.445518 -188.556335
104.134689 -74.174919 -194.193283
-42.765209 -75.507225 -189.993576
-14.931942 -77.191238 -195.291656
-138.445587 -79.583832 -192.437469
-43.333950 -75.365730 -193.410583
105.817307 -74.875870 -198.642654
108.413536 -74.268768 -187.488953
-44.113373 -76.648689 -195.062134
-21.872463 -77.483131 -193.977234
-146.707031 -83.198639 -194.618851
-22.611609 -77.769989 -196.811829
-151.661362 -79.668266 -194.605530
-150.535889 -80.430664 -197.459244
-138.721893 -79.373909 -197.237900
-35.930271 -76.493294 -195.827820
102.595741 -73.898666 -200.031998
-37.046146 -75.166763 -196.959534
-142.324738 -80.448074 -200.417267
-36.380970 -74.908379 -203.824799
-16.620358 -76.984314 -207.959549
98.057358 -73.833839 -204.943375
94.801170 -73.646034 -211.532074
-28.677156 -75.311646 -214.764084
-84.293152 -76.830467 -208.846436
-73.588242 -76.180840 -208.498566
-15.877229 -75.705215 -217.254822
-147.573135 -76.591446 -206.693924
90.155373 -74.991493 -213.102585
91.409492 -74.800758 -219.019608
92.511726 -72.987114 -219.463364
-99.803085 -74.984802 -218.810760
-148.928040 -79.553520 -218.721985
-17.755514 -75.660118 -218.806351
80.469955 -73.865685 -224.175140
-146.946732 -79.134430 -222.424042
-24.554165 -75.866554 -219.373825
-130.721817 -76.347160 -224.461838
-11.053388 -76.478592 -225.787994
19.689091 -75.185814 -220.548294
20.517918 -75.309280 -230.536209
-152.181778 -80.181007 -227.719223
-123.364975 -75.342987 -228.554321
-6.613178 -73.848976 -232.809601
1.377445 -74.551720 -234.840027
70.785858 -73.446014 -235.333801
74.110718 -72.745384 -236.105515
0.830152 -75.056824 -238.654068
18.336121 -73.016624 -237.855637
-27.048512 -73.821808 -237.056137
-34.177547 -74.904327 -237.882614
-42.738178 -73.859306 -240.063324
-36.090618 -73.951591 -240.044693
-17.661247 -75.783440 -240.313522
-51.915398 -74.456284 -240.354416
3.331447 -74.093178 -243.158401
-66.621681 -73.368286 -243.055542
20.696217 -73.836662 -245.659195
-145.472183 -77.834778 -242.068359
-70.890724 -76.594154 -245.630905
14.867197 -76.316765 -246.585724
-160.490784 -75.871979 -244.624695
19.130491 -75.113747 -250.019928
-78.151131 -75.627708 -247.283569
-73.122940 -76.027184 -248.273361
22.324272 -74.042015 -255.056549
-87.642586 -74.734268 -250.656982
-124.483070 -75.521042 -251.828705
-134.354294 -75.153687 -253.617950
-132.371246 -76.430092 -253.763397
-146.574738 -74.308525 -255.135376
-140.725876 -75.651917 -254.703415
-134.970322 -74.590820 -257.318542
-160.670410 -75.686089 -256.461395
-124.682671 -73.347092 -260.246948
-132.827820 -75.933540 -257.672699
-164.864395 -75.158379 -258.197296
-157.638519 -74.690239 -258.577820
-150.492813 -74.963066 -260.448792
-146.090836 -75.340530 -260.912201
16.337751 -75.366104 -276.459839
-164.928131 -75.234848 -264.052368
-152.006439 -74.639107 -268.696777
-6.200994 -77.832893 -271.936646
-160.020844 -75.018913 -263.685181
12.981688 -76.436569 -278.297607
-151.207520 -75.042900 -277.711456
-161.944901 -74.981125 -281.425171
-153.710815 -74.733772 -279.035736
-165.709808 -75.274536 -280.587341
2.833262 -73.139000 -286.253571
7.687719 -74.946136 -283.731079
-96.854889 -73.896225 -284.276428
-150.319473 -74.607094 -282.846466
-148.466232 -74.527214 -282.532562
-109.251358 -73.795982 -284.782898
-150.490799 -74.521492 -285.298798
-148.569321 -74.479851 -285.726593
-67.566322 -73.523148 -287.987701
-162.321304 -75.155685 -285.422424
-123.910858 -73.844231 -287.041046
-43.559742 -74.081787 -288.541565
-156.372833 -74.833679 -284.910553
-135.793915 -72.617371 -288.587067
-16.353342 -72.109406 -290.118011
-126.289642 -74.546234 -289.712799
5.194606 -72.876717 -291.514221
15.688110 -72.113823 -291.207001
-133.923355 -75.033607 -288.771149
-145.973297 -74.520927 -290.265137
-156.379135 -73.294586 -306.666748
-67.151871 -77.688751 -48.684509
-17.712912 -77.321754 -58.507965
-16.237391 -78.836754 -63.082558
79.766724 -76.597801 -74.366753
97.016548 -77.647293 -75.731491
-33.267395 -77.964828 -75.097313
78.911652 -77.623177 -77.230965
93.295830 -79.111107 -81.291039
75.313652 -76.593948 -82.001106
76.463921 -77.557327 -85.543129
-44.580326 -81.118797 -85.741821
-87.143837 -80.121658 -83.229408
62.252205 -76.937279 -93.080879
54.080814 -76.845703 -96.514290
99.649948 -76.903618 -95.931519
-90.015213 -78.033966 -98.417267
89.136490 -77.307808 -97.385513
79.560722 -76.459412 -97.754295
96.695908 -76.200966 -98.757347
86.737480 -75.252029 -100.239853
91.094803 -78.260078 -97.837746
-76.243996 -80.013741 -98.959084
44.160255 -78.147224 -108.872444
110.494225 -75.780060 -111.131317
114.116341 -75.632446 -111.391449
49.543495 -76.810646 -115.489967
111.910995 -75.183678 -123.883270
119.105232 -75.477966 -135.273163
-48.977444 -77.227028 -131.682816
30.397640 -76.014343 -132.795517
43.548176 -76.137337 -132.437851
29.386066 -74.252090 -142.755585
116.775261 -74.553658 -141.175339
115.919182 -74.272263 -134.919998
-70.249001 -77.771248 -145.200226
-41.103458 -77.282127 -144.165680
-67.668037 -76.296425 -146.352676
24.748899 -76.049271 -151.053040
116.578026 -74.530006 -152.297256
-49.491714 -76.977356 -146.457504
-66.178047 -75.934189 -146.109741
-35.070797 -79.097237 -151.923065
36.697838 -73.497635 -151.183746
115.300461 -74.211906 -153.200699
116.218086 -73.794212 -159.268860
-64.914688 -75.200294 -150.594009
-65.980507 -76.638496 -159.751953
24.521507 -76.025307 -161.915085
-56.727341 -75.723656 -163.747025
-30.176016 -76.967743 -158.748581
9.846123 -75.652122 -161.046127
114.082260 -74.405609 -162.775391
7.496994 -76.027115 -163.303055
-30.431717 -76.609261 -163.137894
3.460557 -75.429123 -165.880783
112.023682 -73.727119 -170.838684
-37.851677 -74.245186 -166.312180
30.289400 -73.036476 -169.200867
113.502289 -73.472656 -173.296188
-54.611130 -74.858322 -174.385025
-25.855516 -76.281952 -170.991196
107.906631 -73.011063 -174.308624
31.625717 -74.854370 -171.731171
115.294426 -75.306702 -174.976868
-34.151249 -75.635643 -174.182846
108.906883 -73.359604 -181.224945
-56.840553 -76.172096 -174.997025
-22.358948 -77.445526 -178.617218
-142.012039 -76.567909 -177.755371
-51.706554 -75.555023 -180.884293
-144.016403 -77.248718 -182.484894
-30.014820 -74.598877 -185.384674
25.932610 -74.805763 -185.539551
110.241562 -73.150558 -183.660248
-27.592674 -77.216461 -184.932343
14.351147 -75.465149 -189.377594
21.490025 -74.221596 -199.409485
-143.839264 -77.546486 -188.129593
105.095284 -72.907333 -195.629791
-15.610125 -73.050339 -191.854279
105.062492 -73.082863 -190.773270
17.003790 -74.047501 -186.716599
-129.544373 -76.002136 -196.428329
-138.185074 -77.438881 -196.474762
99.366180 -72.880791 -201.538895
-9.711616 -76.563835 -199.607483
-12.463924 -76.256729 -199.127823
11.444752 -75.097008 -205.967361
-147.892838 -74.086563 -200.963058
-143.534515 -77.884659 -201.503067
100.763252 -72.741455 -203.612961
-76.073898 -74.983063 -206.305908
-35.020275 -74.460976 -201.303268
18.881636 -74.516380 -209.442566
-24.052999 -74.865501 -209.666077
-76.871147 -74.819855 -208.284775
93.113533 -72.826416 -211.295822
-80.266563 -74.492592 -209.662964
-144.250885 -77.561043 -213.435974
-77.299324 -75.440865 -211.457977
-13.649710 -73.122330 -211.834152
-18.948324 -73.370697 -215.181732
20.814520 -72.821838 -210.141571
-3.946492 -75.068451 -214.086304
-86.031006 -74.009636 -215.085968
94.021812 -72.582855 -213.841614
-93.632774 -76.020920 -212.813232
-147.703735 -77.621452 -217.828064
-17.308054 -73.219780 -220.466919
17.891497 -73.170753 -215.489014
-99.792015 -74.658150 -216.551697
9.439343 -74.277725 -219.814392
-21.269464 -74.916313 -215.340424
85.445183 -72.533333 -223.547028
-144.617081 -77.170036 -217.743561
6.096740 -71.945251 -224.358063
-7.605601 -75.535248 -220.761383
19.024853 -72.068214 -219.848434
85.008568 -72.606125 -221.920944
-10.486311 -73.625214 -225.811417
-128.885422 -75.268303 -221.822357
-10.214184 -75.051239 -223.328323
18.470596 -74.969887 -233.062408
-123.283485 -75.896255 -223.619049
-146.976028 -74.072914 -222.758652
-139.500076 -75.304764 -224.282318
-132.936386 -74.995407 -226.160095
-13.996365 -74.197624 -225.201309
73.423752 -72.368690 -229.924637
-139.773636 -74.776031 -227.152573
75.875175 -73.875618 -229.824799
-17.523565 -75.502663 -225.435059
-140.045135 -79.179970 -227.019547
80.230064 -72.000046 -228.473495
10.516342 -74.645584 -234.584015
-142.266479 -80.007278 -229.707153
-149.196442 -74.913231 -230.592148
17.135599 -72.509323 -231.690979
-1.527330 -73.425919 -233.974014
-23.184692 -74.174736 -235.968094
-0.406886 -71.543747 -238.247833
-159.608795 -75.526711 -232.757706
12.609968 -74.233994 -243.754517
-162.984421 -75.041267 -230.710007
-12.666138 -74.706566 -236.409332
67.203102 -72.874954 -239.263626
-10.924944 -73.869675 -238.943359
-23.275394 -72.441025 -237.965729
-24.597658 -73.276039 -239.932983
-14.597509 -72.628395 -240.539505
-144.629868 -74.997566 -230.904099
9.810990 -73.539139 -242.535889
65.812630 -71.822067 -241.957474
14.547881 -72.782669 -243.940857
-159.971771 -74.854500 -234.989105
-47.438633 -73.204025 -241.513763
3.568100 -78.654144 -245.715134
17.819157 -72.459229 -244.770523
-53.558308 -72.719131 -244.319977
-2.866950 -72.340149 -243.994537
22.671366 -73.361504 -245.709595
-163.584961 -75.101585 -243.477982
-69.684525 -75.157738 -243.880753
-48.998932 -74.205231 -244.546921
-77.381454 -74.770264 -245.969116
-158.258636 -74.759224 -243.198059
-149.656464 -75.031151 -247.662918
-58.083424 -74.659500 -246.822174
-67.719391 -74.200768 -248.861084
-152.380661 -74.497818 -249.068268
-150.691071 -74.505157 -248.075577
-76.450836 -74.100563 -250.587814
-92.116508 -73.719826 -249.826019
-164.871567 -74.818733 -245.422928
-154.854858 -74.555862 -252.801559
-132.710144 -74.690788 -251.160492
-81.680267 -74.820503 -250.696945
-161.604935 -74.878021 -247.188751
-141.019760 -74.832771 -252.074966
-84.944633 -73.576851 -252.177063
-94.470528 -71.806000 -254.778809
-146.918976 -74.783028 -252.806702
-93.972038 -73.613739 -253.395508
-148.418762 -74.487961 -252.648804
-98.926109 -73.675430 -253.678452
-163.910995 -75.093788 -254.489777
-159.353928 -74.713860 -254.417206
-122.981415 -74.194504 -253.448883
-149.354019 -74.100998 -254.786972
-113.916801 -73.899376 -256.901459
-13.971926 -73.448509 -260.080444
-141.794266 -74.427902 -257.441559
-123.154762 -74.329933 -256.301361
-154.430084 -74.517433 -257.115906
22.596731 -72.580605 -267.717896
-146.457840 -75.258469 -273.172241
-166.614594 -74.597549 -272.154236
-6.399724 -74.630981 -277.577179
-146.552734 -75.163834 -277.858459
-7.154065 -72.048981 -281.032501
13.278550 -71.136780 -283.986877
-135.398590 -74.590546 -282.081116
-71.108986 -73.122566 -283.364044
-32.881237 -72.871651 -284.101227
-113.210884 -72.893318 -283.463409
-92.214073 -73.811569 -287.406555
-90.872208 -72.819908 -287.948364
-47.698875 -73.241341 -288.440430
-115.490753 -73.736984 -287.079041
-110.381569 -73.631462 -286.681641
-31.702675 -71.977654 -289.254089
-112.979630 -72.192833 -288.015167
-124.636932 -72.295959 -288.313812
-143.274826 -73.891045 -287.903107
7.702578 -70.858620 -291.412567
14.524126 -72.763184 -292.992676
-156.889008 -74.395760 -289.300934
-154.600418 -75.500099 -296.053619
-144.620621 -73.993744 -307.089935
-150.353668 -71.808510 -307.343933
-152.291626 -76.477509 -307.765106
36.362255 -77.567520 -15.985378
31.403893 -77.616142 -15.686469
28.059746 -77.690910 -21.658838
34.316677 -76.950172 -38.700508
-51.136467 -76.763725 -46.432613
-60.091064 -77.066559 -46.739429
-32.637451 -77.417412 -50.365707
-75.426849 -78.985977 -55.562450
87.844048 -77.515564 -72.681503
-13.935210 -78.861458 -68.886490
94.003258 -76.924690 -71.913551
102.393188 -75.174660 -79.716637
-88.313622 -77.638268 -75.447739
75.353630 -75.595863 -80.361015
-37.857380 -80.451332 -81.760780
104.768852 -73.264183 -84.722801
-47.959091 -78.585312 -86.871651
57.667809 -75.763451 -90.049263
77.143829 -76.535507 -92.086243
62.528206 -75.975990 -97.149170
57.710308 -77.427849 -97.882469
77.599632 -76.972893 -95.092392
50.028770 -76.569054 -99.953308
108.809326 -75.502823 -99.573425
111.505814 -75.837494 -105.323807
88.110184 -72.222969 -103.053963
93.314583 -75.993858 -101.624496
106.667480 -74.921219 -98.456406
113.277390 -73.969864 -103.636734
43.791046 -77.188988 -104.944458
115.120491 -72.534859 -120.812302
116.932022 -74.971878 -118.793190
37.461926 -75.659721 -121.242699
49.291924 -75.804214 -119.508690
119.221603 -73.744286 -127.935928
43.780460 -75.537628 -125.865440
116.492020 -73.937553 -129.702576
114.368904 -74.090050 -122.923401
29.224983 -73.761642 -137.275620
-45.561958 -76.408005 -132.958191
-48.234745 -75.601875 -133.417374
115.025833 -72.929413 -134.976517
-67.743996 -77.189346 -139.296204
-71.016151 -77.460175 -137.391083
-53.406189 -77.035759 -141.649780
37.624886 -73.657654 -140.707199
115.413254 -73.321648 -144.842560
-64.353523 -75.336502 -143.274734
-42.109253 -74.646553 -142.307465
38.166241 -75.700569 -148.165329
-63.979458 -76.895813 -145.279877
117.417496 -73.334435 -144.630264
116.285400 -72.709717 -157.876083
119.955467 -74.149414 -151.679504
-34.403297 -76.232559 -151.935974
-62.481567 -76.684570 -159.860168
-68.817665 -76.483330 -153.450058
35.859112 -75.396339 -149.106079
1.414078 -76.158798 -160.985352
111.389069 -74.498436 -160.697021
114.876015 -72.954674 -154.856491
115.246651 -72.472191 -157.360352
-61.654232 -73.584541 -160.368591
-42.476345 -76.615799 -159.247589
3.132066 -73.779808 -163.481323
-23.185978 -74.086304 -172.677094
109.938225 -73.268898 -166.800156
-33.395157 -75.736847 -158.239182
113.734985 -72.529709 -170.520615
-38.381157 -76.055229 -170.277267
113.095665 -72.514938 -167.291779
-145.531570 -76.895737 -177.358627
-25.596394 -73.613205 -173.593246
-18.475368 -74.038818 -180.405899
28.422453 -74.871689 -176.540146
19.380541 -75.297531 -180.776291
29.085756 -73.820328 -182.437744
109.932396 -72.296570 -182.853439
-148.031326 -75.942558 -182.448196
-17.592367 -75.956108 -187.058548
106.860680 -71.834122 -179.132278
106.441025 -72.101158 -191.156860
109.692749 -72.266243 -180.425705
100.028427 -73.575226 -195.118408
-149.130478 -79.376793 -189.622284
103.222954 -73.019806 -204.489655
-25.550896 -72.716530 -192.501648
102.020859 -71.906509 -198.163895
-121.959770 -75.700211 -193.737534
-26.320969 -77.195953 -190.784454
-138.197159 -75.018028 -193.960373
96.927628 -72.622673 -200.403183
11.832111 -75.209579 -196.790588
25.544878 -74.102577 -193.119934
-144.273773 -73.832283 -196.202606
-138.399551 -74.750481 -196.857635
-8.365982 -73.532211 -201.899277
-121.851646 -75.874260 -197.033340
-140.387466 -79.070030 -199.607498
10.555828 -73.344078 -199.658829
-19.054983 -75.527687 -200.619202
22.552362 -73.843483 -202.732513
10.781624 -73.473549 -208.487183
92.094376 -73.094177 -208.019058
-16.937868 -72.337624 -209.806152
94.837761 -71.598312 -209.040680
97.787514 -71.681526 -207.342239
-147.941910 -74.953979 -211.282043
98.408974 -71.746307 -211.877335
8.739090 -74.348770 -207.883102
7.672596 -74.874878 -212.944656
-32.120670 -73.761101 -206.640335
-87.092430 -74.132324 -210.246094
-25.878208 -73.268738 -210.219238
86.729591 -72.702515 -215.379745
89.353111 -71.459724 -219.433258
-30.269466 -73.867096 -211.114380
-83.166252 -73.716667 -213.182541
-0.350245 -74.932182 -215.944260
89.636452 -71.587891 -215.633499
-148.761536 -74.509735 -218.129517
-162.600616 -74.772690 -209.484634
-157.467010 -74.435989 -218.358322
-18.984619 -72.426323 -224.694473
-150.396774 -74.240074 -218.827591
-5.687469 -75.131981 -223.759262
9.878167 -72.429802 -216.786209
-161.731171 -74.706337 -219.659927
-159.500961 -75.454834 -221.267471
82.028481 -72.618660 -230.276932
4.902040 -71.022575 -226.305817
-152.571564 -74.243248 -221.092239
-139.931793 -74.120956 -221.996353
-17.784136 -73.997963 -222.340164
4.367424 -76.246979 -223.886292
82.579834 -71.627396 -223.655884
-159.585648 -74.612923 -223.185806
-145.163635 -74.421257 -223.427628
-121.936874 -74.092186 -225.633820
82.053802 -70.843376 -227.533844
-113.219009 -73.638206 -224.950394
-148.060593 -74.747017 -224.501511
-147.390106 -74.047615 -225.990509
-145.551331 -74.878998 -225.857315
-153.842072 -74.353249 -224.384186
-163.320572 -74.675957 -225.106461
-133.293335 -73.021538 -228.442154
-131.329330 -75.309242 -228.310272
-153.001724 -74.220451 -227.118958
-143.193604 -72.753098 -230.639740
-150.648849 -74.188942 -230.136581
75.899155 -71.491325 -230.658920
69.550858 -70.712868 -237.607056
-157.672974 -74.450554 -230.714554
72.007721 -70.517197 -233.293411
-16.595821 -73.423416 -235.076660
11.652747 -72.252235 -233.846024
7.561653 -73.278816 -234.746902
-150.671951 -74.282761 -240.239792
14.466640 -72.068604 -239.377975
65.636620 -71.838333 -236.691116
15.696765 -71.701241 -236.066849
8.349951 -73.426384 -240.514343
-4.379989 -73.065369 -239.819046
-18.205112 -72.439453 -240.711716
1.287983 -72.005821 -242.331573
4.214142 -73.388512 -241.559723
59.253632 -71.544365 -242.174377
-54.757824 -72.707375 -241.956116
20.126955 -71.394135 -244.917465
-59.797207 -74.355423 -241.604111
-6.954762 -72.196373 -245.715240
-63.086239 -71.796074 -246.883972
-84.843521 -74.458817 -248.298813
-81.362938 -72.831367 -246.185013
-10.856932 -71.942787 -250.282883
-122.964226 -73.015678 -251.112717
-12.715877 -73.261932 -253.428284
-115.571075 -73.966248 -253.349442
-113.024712 -73.342331 -254.353821
-101.711365 -73.035263 -255.721832
-143.565887 -73.886612 -259.776855
-144.418823 -72.955887 -261.109192
-166.589935 -73.985077 -259.379089
17.391901 -72.582680 -278.507782
-53.669399 -71.545494 -283.195007
-64.870522 -71.496231 -283.068451
-41.225510 -72.774284 -283.624359
-29.119734 -72.959686 -282.983246
-96.447029 -72.308434 -283.253632
-28.678921 -70.584602 -285.184814
-4.102162 -72.033218 -285.471222
-166.759369 -72.948151 -283.688293
-10.779316 -72.024406 -285.001221
8.540103 -71.777611 -286.694611
15.072780 -72.238731 -287.548645
-56.154915 -71.539627 -288.148621
-29.464342 -70.377312 -288.384094
14.594469 -69.786247 -290.526062
-69.056763 -72.039101 -288.183838
-36.289993 -71.035149 -288.567902
-16.846106 -70.145218 -288.977264
16.921116 -71.740372 -288.879395
-9.996595 -71.025940 -290.084717
3.715615 -69.767998 -290.519043
14.529251 -70.381874 -292.208069
-134.257965 -71.812706 -290.156708
-144.211304 -74.250031 -296.574066
-146.973404 -74.255905 -308.298584
47.316933 -76.696114 -12.542721
37.710217 -76.982407 -11.426003
44.860664 -76.847206 -15.608351
27.386301 -76.717125 -18.949440
50.699768 -76.632065 -20.631523
31.263771 -77.624512 -21.546715
30.665859 -77.390511 -28.220129
28.486929 -77.416901 -33.423420
49.500454 -76.115692 -30.176172
33.299934 -77.201645 -33.778561
48.313004 -76.352264 -34.148411
37.828606 -76.941208 -36.170528
42.444111 -76.701187 -36.252571
37.685520 -77.021278 -39.113842
47.545387 -76.213181 -39.305302
41.926212 -76.566666 -40.692757
-32.742317 -74.619087 -47.338112
-25.090593 -74.004311 -49.434544
-82.111755 -73.544243 -53.376423
-81.651382 -78.631248 -61.459381
84.815552 -76.207039 -70.279121
89.689255 -76.442200 -72.266830
-12.266781 -75.095749 -69.521889
-82.984734 -80.154457 -67.917198
-20.010654 -77.030853 -74.863678
-44.751919 -76.774963 -82.951210
70.891907 -71.460747 -85.580330
58.752083 -75.081131 -91.675018
104.554482 -73.721863 -91.522255
75.130066 -74.197296 -95.749924
-60.425888 -79.531326 -91.230766
-60.989666 -77.873146 -93.635551
50.095684 -76.687698 -96.539108
82.197495 -74.268646 -102.513306
58.178093 -77.421204 -103.904411
105.337608 -73.679489 -98.633011
-91.343773 -75.950623 -103.416412
41.917515 -76.185135 -111.563080
110.978416 -73.529602 -107.628159
51.858974 -73.997810 -110.022903
107.697937 -73.506332 -107.986229
-82.009682 -77.803268 -109.067635
40.895397 -76.428955 -109.418472
109.905243 -73.960884 -117.109016
109.130112 -72.264786 -115.261200
112.456261 -73.517921 -115.284019
113.979691 -73.592598 -115.818665
42.494339 -73.577309 -112.303551
35.888287 -75.972092 -118.802956
48.049686 -74.306625 -115.857574
113.680771 -73.079597 -123.358032
42.734634 -73.898438 -124.962624
112.047684 -73.199638 -131.624481
116.539261 -72.439606 -131.231506
37.770638 -74.077522 -122.791626
-73.104385 -74.583565 -125.868858
120.039551 -72.850243 -135.596817
-52.649708 -75.543289 -133.600342
40.509338 -74.575470 -134.730286
-68.962234 -76.057434 -135.092255
33.046951 -74.059784 -133.319336
-73.820129 -75.442032 -138.023148
-41.419689 -77.176743 -139.423218
-67.878479 -73.778542 -134.380829
115.595291 -72.354919 -138.880646
116.716743 -72.306465 -142.554810
120.209038 -74.194740 -144.893661
-68.754265 -73.318825 -141.147537
13.500578 -71.997932 -149.480011
-50.657452 -75.740402 -149.132996
-45.717808 -75.053017 -153.380096
111.620598 -71.959854 -159.438782
-39.004585 -75.011986 -148.368713
16.499996 -73.807938 -155.283829
25.400696 -73.892105 -156.975845
118.340401 -73.404129 -164.341721
32.188267 -74.066231 -162.350891
2.175063 -74.499702 -161.399368
34.917545 -74.344521 -160.669647
-64.742867 -73.401237 -157.090836
-61.280987 -74.030060 -156.319077
-64.360962 -75.423859 -161.716843
118.330963 -71.003845 -161.420227
-41.072834 -74.185593 -160.438202
23.276615 -74.054344 -165.091904
-60.947033 -75.022392 -166.356888
-57.509056 -74.765762 -168.295227
-35.225060 -73.990227 -157.006104
-28.625940 -73.823662 -167.853134
116.761192 -72.444359 -171.491928
-33.580303 -73.721703 -174.233276
18.931402 -74.199409 -173.145874
113.845322 -73.009842 -182.013611
-145.264175 -76.703941 -171.447708
-142.171982 -76.341759 -171.540451
-148.377670 -75.302841 -172.711197
-140.032394 -74.813339 -175.973633
-27.630793 -73.565475 -184.357437
-19.960970 -72.935555 -184.168854
25.430593 -72.758713 -187.933548
-139.784119 -74.772026 -182.456802
-143.490326 -75.286697 -183.540115
-17.386097 -71.052040 -186.098602
16.452387 -74.583115 -181.147919
-145.252258 -75.515854 -187.686737
-28.663071 -75.633003 -183.688461
103.376404 -71.333496 -188.792633
110.599297 -72.575363 -190.381989
25.599279 -71.484283 -192.338898
-15.538054 -74.329895 -186.645615
-23.620255 -74.802391 -192.237595
-151.123993 -74.348824 -191.065872
-129.542267 -75.350372 -192.729202
-121.691833 -74.005127 -191.539276
-119.780540 -73.202583 -193.831024
-20.820551 -71.070747 -195.820099
13.002888 -73.250168 -191.676880
96.957855 -70.986122 -201.322128
-145.374008 -73.989403 -192.659592
-143.684799 -74.320351 -193.923325
-146.874664 -73.606018 -194.011703
-152.479340 -74.064911 -194.424423
-23.432976 -74.147728 -197.487213
-11.713159 -75.712799 -194.483231
-146.045242 -74.356094 -196.316681
-13.213226 -72.826164 -197.415039
-159.956955 -74.426353 -193.775696
-131.309402 -74.857559 -195.510513
19.279634 -71.478775 -206.052536
-161.439682 -74.422676 -198.791809
-143.217957 -74.514229 -201.575684
13.049546 -72.366280 -199.071777
-151.143356 -74.029633 -198.514694
-20.648235 -73.825958 -198.339432
105.127754 -71.037743 -200.471313
-153.777176 -74.178574 -210.691315
-162.331680 -74.752113 -204.897812
-76.293442 -72.945358 -207.909592
90.297951 -70.942627 -210.849960
-1.526920 -71.084999 -214.549469
-148.971832 -73.941452 -208.407227
-86.008858 -72.562645 -211.420807
-6.040976 -73.068390 -210.286652
16.881952 -72.478661 -221.599228
-144.001572 -74.849953 -214.116837
-0.831678 -72.693085 -219.472809
-20.247261 -71.171478 -219.153183
-12.607206 -70.468819 -217.105652
90.414711 -71.023460 -216.225372
-19.823917 -72.045540 -216.166565
-26.623787 -72.625999 -213.739914
-105.179810 -73.278549 -219.692230
-13.431082 -71.802383 -220.441498
92.023254 -69.714920 -219.537109
83.396057 -70.967567 -218.914078
7.265837 -72.942238 -219.203888
-8.628585 -73.084007 -223.558380
79.925285 -72.345863 -222.905243
-121.867203 -73.611923 -220.828934
-21.415714 -71.760468 -220.577438
-97.702751 -72.578903 -220.537750
-103.320396 -73.428062 -222.650345
-132.902008 -74.727524 -223.365799
83.634804 -70.193718 -224.673874
-122.010880 -73.370277 -223.005768
7.509047 -72.336357 -226.654587
82.083763 -70.362152 -224.316956
-12.511142 -72.455322 -223.933517
-10.294040 -72.420685 -229.112396
-3.050001 -72.940659 -228.256119
10.147733 -71.890213 -225.625702
87.864723 -71.249207 -225.042709
12.876056 -71.192139 -230.832840
5.248335 -73.141266 -227.637558
-7.087337 -72.415421 -228.520142
-5.029964 -71.493980 -231.865204
18.414318 -70.930260 -230.536133
-10.517902 -71.872009 -232.189911
72.992592 -71.158081 -238.122604
-6.402184 -70.477638 -236.042892
20.230284 -72.684830 -234.846298
-164.789856 -74.473625 -236.710785
-3.227926 -71.443390 -237.578400
-7.839024 -70.346054 -240.258057
-166.602646 -72.811295 -246.530426
-8.935804 -71.957024 -243.568741
18.296600 -70.605530 -245.411224
-145.199768 -74.934258 -247.424759
-67.490334 -70.757973 -244.946457
-59.208290 -71.707909 -243.879944
55.462025 -71.071327 -246.477371
-75.848831 -72.514954 -244.971970
19.751377 -72.235703 -248.065842
-72.225357 -70.924034 -249.216675
-13.104872 -72.089500 -249.232224
-144.459579 -73.933182 -248.431305
50.197624 -70.710571 -248.118469
-77.224808 -71.189934 -250.671143
-100.702690 -71.893356 -250.950912
-96.362534 -73.787888 -251.543427
-116.159233 -73.880264 -251.534775
-104.067802 -73.518105 -253.223679
-105.813965 -73.450821 -255.591522
23.658215 -72.485275 -259.456940
-126.434189 -72.011818 -260.713409
-10.519236 -71.652344 -274.811737
-145.099808 -72.459915 -277.233093
-168.025131 -73.007576 -278.481293
-124.259239 -72.502541 -281.943909
-113.711212 -70.704811 -283.047699
-74.908371 -69.114128 -284.062683
-56.407326 -69.831047 -283.961487
-42.561150 -70.717789 -284.278473
-14.585592 -70.183113 -285.859619
-13.595654 -69.389397 -287.247803
-37.327347 -69.838753 -286.619110
-33.778183 -69.962624 -286.621521
-18.084425 -69.646774 -287.209320
-69.006378 -70.451096 -287.953278
-53.782295 -70.526642 -287.949982
-15.197269 -69.309097 -289.075226
-13.190944 -70.296257 -289.223022
-3.633646 -69.139053 -288.991608
2.532107 -69.546738 -289.627991
-89.280190 -71.621880 -288.483093
-142.047531 -71.061768 -288.227905
-117.404228 -72.349167 -288.450287
-153.614487 -73.811417 -292.309143
-154.317230 -71.933647 -294.788361
-145.581604 -73.067032 -295.051300
52.814358 -76.444908 -18.271082
25.998297 -76.520172 -22.426052
55.068493 -76.212372 -26.292444
53.207611 -76.162697 -33.461678
91.878525 -74.534401 -67.838402
100.107758 -74.708809 -73.266541
105.821892 -72.310616 -81.041573
103.344727 -75.485023 -82.654312
63.264645 -74.903732 -87.811874
53.332458 -76.026390 -93.240952
67.926842 -73.178947 -90.342987
-59.864536 -72.695747 -88.823280
73.908722 -75.523064 -88.591774
106.916771 -72.292068 -98.244362
79.289055 -75.504631 -99.718681
100.481064 -73.220413 -101.514023
-76.229752 -76.678131 -97.601532
48.494804 -74.571205 -101.089447
-79.538727 -76.291840 -102.618233
54.651714 -75.521843 -110.283562
44.202168 -74.247955 -103.839668
110.804306 -72.926331 -103.879997
42.531933 -73.107765 -107.631935
43.280727 -72.685661 -113.998459
47.588562 -72.347443 -112.394478
111.917229 -72.205948 -114.676224
-78.427025 -74.791214 -117.605736
114.996948 -71.768898 -127.034119
41.310055 -72.975502 -123.070564
45.562878 -71.913300 -120.107498
40.114040 -73.045258 -121.812920
-53.085564 -75.283325 -127.251587
34.982613 -73.436775 -123.050171
-72.712257 -76.431381 -133.694702
-52.130192 -74.645546 -130.329620
-75.749611 -74.123451 -131.709915
37.370678 -72.621902 -127.886505
-55.272415 -73.580162 -131.285278
38.589314 -72.507965 -133.341492
-69.601715 -73.792503 -136.609818
-55.510357 -76.021461 -135.459686
32.545712 -72.639343 -138.644058
112.653587 -73.345711 -144.325928
119.467026 -70.829735 -137.255981
34.845695 -72.176941 -138.518799
-41.893509 -72.899467 -138.716782
112.931435 -71.094109 -152.228577
-70.538094 -74.203491 -141.243591
-55.280518 -74.499413 -140.056351
34.698452 -73.225174 -149.010056
-72.857368 -74.373970 -143.613312
-67.849060 -74.920364 -148.232147
119.864510 -71.792290 -150.986008
-61.686428 -75.297600 -151.491196
-35.755692 -73.709702 -151.087906
31.032751 -71.555573 -147.508499
-71.742332 -74.007782 -146.497910
15.605342 -73.961342 -150.259460
34.944698 -71.824562 -153.709290
33.711506 -72.151764 -146.760025
14.992384 -75.115196 -153.938843
-45.307163 -73.016350 -151.351166
30.801136 -71.128502 -152.333328
-41.508873 -73.242287 -146.307205
10.157354 -73.202904 -152.518570
25.567217 -72.521034 -149.013321
-68.581932 -74.402931 -152.781845
-42.330063 -72.158379 -151.721588
-64.397987 -72.628349 -154.028427
17.712149 -72.172981 -157.077347
28.481619 -72.243393 -149.209900
5.583076 -72.561630 -159.844376
23.498531 -74.126892 -155.177963
33.829189 -73.240578 -163.728729
-44.490238 -75.097031 -159.417786
-30.922083 -73.767189 -159.104904
-36.476295 -72.787025 -158.113098
30.962030 -71.860519 -159.780060
-40.874187 -73.807480 -165.401596
-37.657276 -72.595695 -160.081741
23.436367 -72.321312 -165.513947
-37.499260 -73.203857 -170.914780
31.627953 -71.998932 -169.319260
116.651901 -70.497238 -168.345688
-29.537296 -72.394592 -169.610275
109.729950 -70.160667 -173.634094
-31.949284 -72.410042 -174.427841
-33.940990 -73.494522 -178.052795
21.000877 -73.541748 -173.836899
107.040108 -69.951401 -182.781494
-26.398098 -72.028404 -182.637772
-31.075489 -71.936821 -171.819153
-21.580107 -71.830605 -183.777496
-146.423523 -75.193642 -183.310547
18.316313 -72.109955 -182.207321
108.784874 -69.608002 -189.871552
-153.490341 -73.771919 -189.620682
-24.216873 -72.332581 -189.869507
-113.396835 -73.569786 -192.480392
-131.806625 -73.929962 -193.034958
-107.942673 -72.505188 -195.397659
-109.537949 -73.471710 -196.514526
-12.162413 -71.738838 -194.654282
22.735275 -72.469498 -195.453690
-13.648558 -70.255432 -199.719269
-121.970657 -73.524559 -200.425552
-19.684952 -70.715767 -204.185013
-129.617126 -74.697258 -198.786575
-11.305745 -72.537346 -201.214508
-142.259521 -73.252213 -200.635498
93.766479 -69.496208 -207.714005
-163.051071 -74.090446 -197.170197
-2.323083 -73.854568 -212.142242
12.027098 -70.930717 -207.897278
12.222371 -70.236099 -215.328827
84.880516 -69.511795 -218.135406
8.669017 -71.459549 -211.207001
16.508224 -70.743202 -213.088989
-14.123639 -73.919144 -215.103241
-88.894806 -71.514229 -213.951965
-95.323402 -72.850525 -212.901367
-2.333523 -69.975266 -219.326706
-164.622345 -73.623642 -218.338959
14.831949 -70.625130 -221.102173
-142.781357 -72.749931 -218.759964
13.316276 -70.508636 -223.817093
-131.924789 -72.930046 -220.432602
-115.249023 -73.244431 -221.284058
17.415773 -70.008377 -220.927155
77.992813 -69.588402 -224.718094
9.218491 -69.570816 -221.805191
-110.198662 -72.896957 -226.213364
78.376923 -69.551086 -228.567245
82.731987 -69.573837 -229.890945
-121.840668 -72.763824 -228.056717
-112.554695 -73.040581 -227.463547
-9.901057 -70.709045 -229.164688
73.342674 -70.503075 -228.849350
66.075653 -70.253014 -234.778076
76.581596 -69.294197 -231.445358
-131.847443 -71.899147 -230.340652
73.203094 -69.822083 -235.433762
68.194931 -69.363571 -235.911896
-164.953430 -73.770882 -223.981583
1.597840 -73.029182 -237.447128
18.280254 -70.492996 -239.218796
-4.663033 -70.030830 -237.644669
14.785770 -69.421158 -238.200623
65.789948 -70.217384 -238.843719
12.523611 -70.321404 -239.960907
-8.727692 -67.113998 -240.110199
2.719987 -69.095604 -239.410873
66.224442 -70.321495 -243.043289
6.921097 -71.882454 -241.600403
-7.479024 -71.100952 -241.604095
14.689544 -70.346832 -243.517578
-166.134811 -72.437637 -236.188858
59.974205 -68.077858 -247.319595
53.040226 -68.406143 -247.108444
56.770737 -70.352837 -242.127182
-11.005177 -70.826263 -246.268478
58.461357 -70.470825 -246.856400
-71.765213 -70.771500 -245.106705
52.648350 -69.824898 -249.354736
-89.862923 -72.568443 -248.457886
-124.646889 -73.344124 -250.178375
-132.302643 -71.630219 -249.827728
44.873875 -69.978195 -252.187332
-134.908218 -73.051460 -251.390198
-109.672409 -72.374466 -253.164566
-112.848747 -70.323265 -252.853928
-81.782318 -72.064064 -251.950821
-111.026901 -73.018715 -257.069946
-123.145020 -73.166428 -257.930542
-144.566879 -70.555237 -261.405121
-14.737533 -70.193069 -260.291992
-167.110672 -72.167938 -258.733704
-13.610963 -70.663437 -270.165527
-159.091614 -71.031548 -262.569244
-152.255005 -70.757339 -270.477966
-167.889328 -72.133499 -272.195190
-12.272538 -68.730110 -273.249908
-133.508850 -72.304741 -279.512329
-159.649994 -71.395332 -281.123016
-145.161209 -71.281311 -277.179749
-134.694427 -73.906555 -280.437653
-8.098604 -67.753044 -283.394836
-125.172043 -74.023468 -280.310638
-141.390579 -72.145348 -280.695709
-116.334518 -70.975761 -282.108704
-75.539772 -70.700661 -283.277740
-62.365414 -69.172310 -284.546112
-5.382782 -69.340149 -286.547089
-52.783073 -69.509689 -286.690582
-57.932629 -69.099876 -285.902069
-68.909111 -69.125999 -287.437775
-86.527672 -70.998199 -288.022705
-98.156532 -68.288834 -287.251770
-162.123550 -69.992233 -286.265869
-162.539459 -72.518410 -287.181396
-125.634438 -72.037567 -290.593201
-145.275391 -72.200752 -291.444458
-155.828430 -72.550888 -296.140137
-147.850464 -70.709938 -308.485809
53.305824 -74.909126 -17.277914
25.736687 -76.945992 -26.073153
46.877819 -75.391380 -33.397091
-11.900505 -77.752113 -65.248894
87.179939 -73.305939 -65.827980
90.668251 -72.244476 -66.469070
81.597412 -73.340012 -66.503738
78.823586 -73.654961 -68.496613
96.501740 -76.403831 -73.849937
-88.712578 -75.220940 -66.829208
75.470779 -74.974442 -76.133583
-32.077602 -73.601608 -74.557716
104.670799 -73.644638 -87.557983
64.231339 -73.506165 -90.165901
110.494568 -74.109085 -97.001190
109.168732 -72.546249 -98.597099
74.711304 -72.346947 -99.413857
-73.028893 -77.650520 -96.267448
58.398220 -74.671028 -101.391953
109.362625 -72.127708 -105.730568
52.930603 -75.171432 -109.426392
84.522911 -72.251862 -104.356392
46.127686 -73.087090 -105.926994
111.056488 -71.493874 -104.367218
51.857922 -72.025421 -107.243462
113.302322 -72.300102 -112.117050
112.992371 -71.581978 -114.591911
-74.284912 -74.576561 -110.715927
-78.455978 -74.749939 -114.138313
48.091358 -74.291565 -120.295692
117.924461 -72.174316 -119.581535
117.954613 -70.237869 -124.805878
-80.657974 -74.268593 -124.063965
111.184372 -71.370346 -124.390862
-55.194519 -75.249908 -128.761261
-82.358765 -74.346558 -122.785828
-71.783035 -73.257912 -124.691490
-53.906067 -71.261147 -123.800087
34.612953 -71.707672 -128.167603
42.997761 -73.906677 -132.177002
-72.358696 -73.722267 -134.024902
32.182735 -72.586609 -131.857864
113.249931 -70.867851 -140.673355
-40.043213 -72.653564 -143.685272
28.821722 -70.026146 -146.717285
118.448509 -69.792198 -146.516174
38.053192 -71.757370 -142.597565
114.654358 -69.763329 -143.649933
-50.053589 -74.535294 -146.184509
-64.490883 -73.024361 -146.913696
-48.093212 -73.414894 -152.372406
-38.269096 -72.849861 -162.363281
9.666348 -70.906403 -154.647675
114.555901 -69.475273 -155.226669
112.913971 -70.167870 -158.537674
11.560411 -70.509453 -157.062454
8.401109 -73.265450 -161.218552
19.036230 -73.223396 -155.870941
28.117998 -71.072731 -154.661346
113.894165 -69.112862 -166.935074
110.209663 -71.055641 -168.843109
26.477694 -69.795708 -170.501495
29.204222 -71.003273 -160.722717
116.298080 -69.362167 -162.674362
-25.132269 -71.662178 -172.146637
112.382950 -69.368210 -169.206497
19.753548 -71.993080 -170.629410
24.944103 -70.991005 -164.295166
112.119995 -69.124809 -174.235916
28.335112 -70.755615 -169.981979
112.517563 -70.241096 -182.421539
-35.025314 -71.272507 -172.343857
29.597147 -70.074310 -172.825851
109.408829 -69.072708 -183.249710
26.498056 -71.279686 -179.971817
-150.257706 -73.224678 -182.208878
-26.268457 -70.008064 -185.972260
27.779911 -70.495735 -183.333054
-108.632462 -72.534409 -187.123184
-106.787102 -72.230995 -185.047134
24.278242 -70.589287 -188.598679
15.594882 -71.522095 -184.309708
-24.237640 -71.429077 -187.541595
-28.297613 -72.362694 -186.772598
-24.032980 -71.379898 -183.273758
20.423347 -70.620163 -178.551880
-148.619202 -73.337936 -188.739639
-141.412872 -73.484947 -189.068161
-138.715439 -73.318741 -191.879837
-19.393921 -70.734451 -189.155594
14.581890 -70.290886 -197.948898
101.790527 -69.555229 -195.235001
-111.761528 -72.647369 -194.119766
23.548859 -70.692772 -198.141724
-15.636774 -70.794304 -194.719437
-16.318111 -69.641960 -197.014160
102.181801 -68.918037 -199.129272
11.404659 -70.305946 -199.600601
-19.378046 -69.950577 -193.960434
-120.356262 -73.913811 -196.869003
-131.594284 -72.164261 -198.920212
-111.620094 -71.597870 -199.069885
-139.968170 -73.268173 -199.041245
20.884220 -70.007607 -196.331787
97.672256 -68.532257 -205.508255
-164.612091 -71.749092 -198.404785
101.789879 -69.425568 -203.973938
-16.926123 -70.967766 -205.288269
96.273827 -69.539330 -213.194275
89.535927 -68.280670 -215.132645
16.466787 -69.748535 -209.085495
20.083839 -70.610695 -209.361298
13.919067 -69.689308 -205.834854
-9.188426 -70.770676 -218.627884
-93.677696 -71.140015 -213.121872
-5.822132 -70.723740 -212.306870
92.614998 -68.082016 -214.967117
-90.509483 -71.545486 -215.984833
-101.473061 -72.113846 -216.103409
-89.961502 -73.953873 -216.775101
88.279915 -68.048599 -221.555771
-132.895874 -71.536209 -220.588013
-132.935989 -70.992332 -220.571701
-115.392723 -71.015427 -220.886795
-111.182068 -70.082161 -221.883286
-132.800308 -72.522583 -221.597305
-107.665092 -73.552452 -222.453812
-112.203262 -72.628105 -223.507858
-5.058665 -70.312111 -224.207001
-15.622448 -70.216301 -221.322342
0.118427 -69.760704 -229.958344
-9.037119 -69.331512 -225.536713
16.171335 -69.469307 -231.507690
