-9.182968139648 -68.909584045410 -279.979888916016 0.848008096218
-153.354019165039 -69.797538757324 -284.516174316406 1.564345240593
-125.322143554688 -66.439117431641 -285.460754394531 1.460544228554
-155.217926025391 -69.959175109863 -287.112304687500 1.488189458847
-113.581390380859 -68.019355773926 -287.694763183594 1.220350265503
-105.167663574219 -67.135200500488 -288.729064941406 1.211922049522
-6.295206069946 -67.581512451172 -286.207366943359 0.686536490917
-108.625259399414 -67.211265563965 -290.867645263672 2.044811964035
-115.084281921387 -66.230751037598 -288.575683593750 1.443470835686
-115.751052856445 -66.525062561035 -291.444030761719 1.292219400406
-134.971923828125 -66.274421691895 -289.750183105469 0.996051371098
-124.102249145508 -68.564514160156 -292.727203369141 1.273667216301
-155.633041381836 -68.811920166016 -291.245941162109 0.941797912121
-145.544464111328 -68.586372375488 -295.447540283203 1.496602177620
-151.056304931641 -67.132087707520 -300.417114257813 1.149227738380
-152.792602539063 -66.359542846680 -311.935455322266 1.890063881874
-154.271697998047 -68.190475463867 -301.345001220703 1.255183815956
-144.415527343750 -67.827804565430 -311.791107177734 1.349088072777
-149.881286621094 -65.411209106445 -312.819641113281 2.286187887192
35.389450073242 -72.264999389648 -11.150250434875 1.816422700882
43.683425903320 -72.303535461426 -14.411390304565 1.656783103943
24.735134124756 -66.151969909668 -25.253780364990 1.686274051666
49.279087066650 -71.628387451172 -28.783292770386 2.153587341309
28.788673400879 -72.761619567871 -34.088108062744 1.057779550552
34.579887390137 -72.544128417969 -36.076511383057 2.015417575836
-58.165779113770 -67.984260559082 -45.121177673340 2.031931400299
84.027694702148 -69.532928466797 -62.733478546143 2.196199417114
78.700736999512 -70.733551025391 -64.583526611328 2.364717721939
-91.404075622559 -68.402999877930 -60.903026580811 2.430787324905
-12.047798156738 -68.503845214844 -63.487384796143 1.817592620850
-92.363082885742 -71.234611511230 -67.238128662109 1.879398941994
96.105712890625 -70.588836669922 -69.922813415527 2.153143405914
-16.261241912842 -67.494003295898 -68.467536926270 1.312487840652
67.728851318359 -70.987052917480 -73.936553955078 1.861333370209
-38.539211273193 -72.732772827148 -75.998329162598 1.036587834358
-28.623579025269 -73.742485046387 -77.789688110352 0.970232844353
57.099586486816 -70.612945556641 -84.604919433594 1.679730772972
-45.475032806396 -78.252906799316 -85.123527526855 1.148021459579
64.757881164551 -68.098434448242 -85.219917297363 1.233557939529
53.942573547363 -71.231109619141 -86.464218139648 1.564269781113
51.175083160400 -71.756912231445 -91.462196350098 1.119186639786
61.984058380127 -69.617630004883 -90.191764831543 1.564220428467
58.067493438721 -70.836532592773 -94.865631103516 0.858166813850
101.207649230957 -69.605415344238 -95.540214538574 1.709649324417
104.433570861816 -69.419158935547 -95.647514343262 2.028030157089
58.521774291992 -71.337501525879 -97.582321166992 1.225119590759
105.813591003418 -68.033195495605 -96.598602294922 0.891766965389
-75.327735900879 -69.111267089844 -99.502853393555 0.781146645546
-71.342300415039 -67.282348632813 -99.699447631836 1.004441857338
100.564033508301 -68.814758300781 -97.461257934570 0.711396515369
53.350330352783 -69.429931640625 -99.524406433105 1.351021409035
70.817008972168 -69.905555725098 -99.711845397949 0.765179216862
-74.062866210938 -68.637908935547 -104.478645324707 0.985593974590
-84.011451721191 -67.894538879395 -105.326042175293 0.817041099072
92.853591918945 -69.934020996094 -104.932495117188 0.927341759205
42.377784729004 -68.617401123047 -105.593986511230 1.225074768066
103.177009582520 -68.465316772461 -102.070983886719 2.325618505478
44.270488739014 -69.444679260254 -112.232017517090 0.730182945728
109.029945373535 -68.941116333008 -104.440353393555 1.567603588104
-79.877029418945 -67.128761291504 -108.741287231445 1.060222268105
107.047943115234 -68.004905700684 -106.911651611328 2.555254697800
-85.689689636230 -67.311180114746 -119.869453430176 1.015097618103
-58.704555511475 -69.803909301758 -128.630523681641 0.551513135433
-53.953929901123 -66.841270446777 -125.625839233398 1.114824295044
-74.073509216309 -67.925765991211 -128.391128540039 2.058038711548
-51.490066528320 -69.379936218262 -129.805099487305 0.602103829384
-84.092590332031 -69.296447753906 -130.420730590820 1.526923656464
-77.170608520508 -67.855918884277 -134.356399536133 1.185976386070
-82.446830749512 -67.154716491699 -127.600860595703 0.337355017662
-58.437911987305 -70.589271545410 -139.608337402344 1.154251575470
-72.826583862305 -66.958938598633 -138.759674072266 0.505692899227
-59.033798217773 -67.116645812988 -137.492675781250 0.484683603048
-60.633930206299 -69.337211608887 -139.656005859375 0.770775198936
22.841840744019 -67.784851074219 -140.290878295898 1.412949800491
-90.318527221680 -67.441864013672 -143.962097167969 1.199720382690
-46.311546325684 -68.341575622559 -142.583267211914 0.618563055992
-98.979606628418 -66.162712097168 -148.915893554688 1.742632150650
-99.276062011719 -67.529861450195 -151.367767333984 0.279570668936
17.710441589355 -68.860298156738 -151.238708496094 1.303673505783
13.052453041077 -69.432617187500 -155.938125610352 0.654896438122
-96.668075561523 -67.397964477539 -157.815490722656 0.969951808453
-102.300178527832 -66.950172424316 -157.670379638672 0.409373015165
-101.232070922852 -67.308639526367 -169.112045288086 0.226993471384
23.051586151123 -67.639907836914 -168.013778686523 1.391788840294
-107.936912536621 -67.331260681152 -171.307281494141 1.764528989792
19.681295394897 -69.042495727539 -167.946929931641 0.750139772892
-146.843612670898 -67.041992187500 -175.967559814453 0.507489979267
17.611799240112 -68.689704895020 -176.030242919922 0.517197906971
23.145996093750 -68.163505554199 -184.681076049805 1.964426517487
-152.910034179688 -66.848426818848 -187.526458740234 0.722608864307
22.192981719971 -67.193565368652 -177.713562011719 1.498989105225
19.299491882324 -67.279174804688 -178.157348632813 0.806505143642
-140.942199707031 -68.925064086914 -187.837005615234 0.631781816483
-151.535064697266 -67.432289123535 -188.901092529297 1.005682706833
20.371215820313 -67.172721862793 -188.442977905273 2.140981197357
18.470157623291 -66.991264343262 -188.271652221680 0.759540975094
-142.752227783203 -67.779502868652 -192.986389160156 0.228041127324
-107.856552124023 -67.731918334961 -197.699676513672 0.547240972519
20.758403778076 -68.739486694336 -196.162261962891 0.695837914944
-123.589118957520 -65.850532531738 -194.929702758789 0.345915853977
12.723736763000 -67.960250854492 -197.312484741211 2.718705177307
-132.041076660156 -66.514381408691 -195.072235107422 0.904690206051
-154.846603393555 -65.933357238770 -194.271316528320 1.251728773117
-162.861877441406 -68.222991943359 -197.628295898438 0.397003829479
-161.616546630859 -65.912055969238 -198.489929199219 0.852936148643
-18.090604782104 -66.676506042480 -199.721328735352 2.188219785690
-165.277160644531 -68.069641113281 -200.762847900391 0.247427642345
-24.008016586304 -67.595298767090 -191.696517944336 1.346212625504
-14.704232215881 -68.434089660645 -198.785629272461 2.213878631592
14.859927177429 -67.220451354980 -194.248626708984 1.760761737823
-158.989593505859 -65.798347473145 -200.143371582031 0.840294718742
-110.105880737305 -67.248329162598 -201.392868041992 0.452357918024
-18.393482208252 -66.789123535156 -204.341598510742 1.348269104958
-157.962265014648 -67.493743896484 -203.072036743164 1.033525228500
15.992147445679 -67.040710449219 -199.381332397461 1.128261446953
-164.886230468750 -66.016639709473 -203.816604614258 1.500496745110
-121.959594726563 -68.837768554688 -203.599227905273 0.814325690269
-114.135276794434 -65.761314392090 -204.732757568359 1.687985658646
-123.002845764160 -65.433830261230 -205.295883178711 1.108331322670
-12.733682632446 -67.828186035156 -204.600646972656 0.391930222511
-14.193135261536 -66.876579284668 -205.405761718750 0.465731322765
-164.256454467773 -66.073585510254 -209.768341064453 1.369391560555
-160.166809082031 -66.493087768555 -214.267822265625 1.753137230873
-164.501144409180 -66.569953918457 -220.218185424805 2.755950450897
-143.944900512695 -67.235359191895 -215.258010864258 1.428844451904
-143.494537353516 -68.506668090820 -222.650375366211 1.164711475372
-5.409745216370 -66.841300964355 -220.906005859375 1.412157058716
-10.255140304565 -66.934425354004 -216.133193969727 1.817072272301
-98.026336669922 -67.551475524902 -221.563552856445 1.129819631577
-4.996654033661 -67.467048645020 -226.829925537109 1.092623353004
-163.699768066406 -66.551544189453 -226.999374389648 1.301277995110
-109.240753173828 -65.794570922852 -229.783416748047 0.678295969963
0.492264986038 -66.930793762207 -226.139801025391 0.588025927544
4.616821765900 -66.086593627930 -229.931854248047 0.772002458572
-111.109031677246 -68.547813415527 -231.992584228516 1.053893089294
-0.822476983070 -67.007286071777 -230.589096069336 0.592054903507
-115.745796203613 -66.429672241211 -234.967117309570 0.699311971664
-6.565432071686 -66.852867126465 -234.974929809570 1.395391702652
-2.442500114441 -66.955497741699 -234.142410278320 1.324317336082
0.480603009462 -68.317825317383 -234.999420166016 0.600344955921
70.895233154297 -67.683677673340 -234.894256591797 1.635863661766
-12.159147262573 -69.138305664063 -236.955032348633 0.661618888378
3.607144117355 -67.692016601563 -238.574676513672 0.794450700283
11.508344650269 -66.762084960938 -240.520263671875 1.002373576164
6.523435115814 -66.695198059082 -238.355880737305 0.813781023026
0.527665972710 -67.613189697266 -239.561706542969 1.362303137779
66.410385131836 -67.387229919434 -235.745422363281 1.013565659523
69.759963989258 -68.553840637207 -238.351577758789 1.283154249191
11.768816947937 -68.275451660156 -243.414016723633 0.765236496925
58.286430358887 -66.956619262695 -240.507659912109 1.011758446693
56.718185424805 -68.716499328613 -240.138061523438 0.478329777718
47.734668731689 -67.506896972656 -245.592926025391 0.538450360298
40.298175811768 -68.521392822266 -249.754638671875 1.763646364212
41.289325714111 -67.238914489746 -251.713851928711 0.908858776093
-134.054611206055 -67.419433593750 -254.993362426758 1.063390731812
-12.128781318665 -67.883827209473 -253.178894042969 1.733481168747
25.677528381348 -68.429130554199 -258.027984619141 1.015747547150
47.896827697754 -68.126243591309 -251.021972656250 0.474139690399
24.791784286499 -68.087211608887 -254.866744995117 1.321143031120
-100.300674438477 -66.422477722168 -257.409545898438 0.874893903732
33.849323272705 -67.334800720215 -255.741653442383 0.874444901943
-149.672088623047 -67.917175292969 -259.783569335938 0.945872366428
-115.321922302246 -65.687866210938 -258.400939941406 0.992978513241
-104.914352416992 -66.349403381348 -256.987213134766 0.922352433205
-5.793470859528 -66.749885559082 -258.751495361328 0.191197052598
-147.244186401367 -67.719825744629 -258.136688232422 0.848542988300
33.108074188232 -66.258659362793 -259.021240234375 1.408841967583
-111.981513977051 -66.175437927246 -258.381561279297 0.653876483440
27.500963211060 -67.221824645996 -259.146362304688 0.852932095528
-134.759368896484 -65.267120361328 -259.991760253906 1.425246834755
-115.551513671875 -65.525947570801 -260.477203369141 0.782653033733
-106.478073120117 -65.925621032715 -259.455993652344 0.880955457687
-116.095092773438 -65.287521362305 -262.291992187500 1.355542182922
-136.681716918945 -66.771987915039 -262.588317871094 1.395698070526
28.467580795288 -67.422256469727 -261.317535400391 1.366414785385
-117.468200683594 -66.913024902344 -264.144073486328 0.879112780094
-143.054412841797 -67.916450500488 -263.858245849609 1.184854865074
-4.622777938843 -66.804618835449 -270.532440185547 0.262250244617
-151.539947509766 -68.104309082031 -283.313720703125 0.859069466591
-6.769188880920 -67.042343139648 -281.168304443359 1.885203242302
-4.416337013245 -65.801071166992 -284.950256347656 1.476032853127
-133.566757202148 -67.025032043457 -285.381958007813 1.371702194214
-123.961853027344 -66.763198852539 -287.915191650391 0.942408502102
-135.205184936523 -67.763008117676 -292.665008544922 1.121577620506
-125.587165832520 -68.349205017090 -295.092987060547 1.629820466042
-152.466644287109 -68.152206420898 -295.292144775391 0.891734778881
-152.601715087891 -66.263038635254 -301.269348144531 1.595513582230
-146.173812866211 -67.598152160645 -300.429168701172 1.210332989693
-149.842453002930 -64.995223999023 -301.541992187500 1.580794572830
-144.557006835938 -67.221466064453 -301.394866943359 1.544157981873
-146.695037841797 -65.454032897949 -301.811523437500 1.669712185860
-146.475723266602 -66.152015686035 -312.624237060547 1.658373475075
19.351682662964 -72.544944763184 -29.341138839722 1.847064733505
47.015628814697 -71.768661499023 -34.044826507568 1.338822960854
26.746574401855 -72.813575744629 -39.046421051025 1.721420049667
32.867782592773 -72.319534301758 -39.802814483643 0.582154572010
-44.249553680420 -67.579872131348 -46.485561370850 1.121167659760
-79.692985534668 -69.730201721191 -50.997760772705 1.679724693298
80.530319213867 -67.210083007813 -60.729213714600 2.031665325165
75.683174133301 -68.753402709961 -62.398735046387 1.998924732208
69.820030212402 -68.459877014160 -67.697204589844 2.616176128387
-97.100044250488 -67.685653686523 -74.473091125488 2.019952535629
100.359107971191 -69.342994689941 -75.242263793945 1.322916984558
-34.470787048340 -67.001747131348 -78.116645812988 1.578639626503
65.275817871094 -68.632667541504 -77.859413146973 1.610505700111
-45.004207611084 -67.128524780273 -80.578872680664 1.093983888626
-51.070095062256 -66.036964416504 -84.292846679688 0.707630217075
49.495281219482 -70.490493774414 -89.698677062988 1.316539764404
102.024101257324 -70.594543457031 -89.113174438477 1.926698565483
65.554801940918 -66.620162963867 -94.705139160156 1.733611583710
57.625942230225 -67.604621887207 -94.490447998047 1.668228149414
49.645439147949 -68.132331848145 -99.689338684082 1.698689937592
57.093887329102 -66.488723754883 -96.896026611328 1.189445734024
103.848274230957 -67.341506958008 -97.125259399414 1.265933394432
70.932090759277 -67.789497375488 -103.016891479492 1.183598160744
47.236907958984 -67.428253173828 -104.621910095215 1.404097914696
77.870697021484 -69.775131225586 -105.094520568848 0.946379363537
90.532485961914 -66.488822937012 -107.516975402832 0.674633979797
-77.225639343262 -67.750335693359 -105.634674072266 0.908219039440
-87.250335693359 -69.001205444336 -110.310775756836 1.874024510384
-82.689659118652 -68.747138977051 -113.802658081055 0.957584917545
-59.572360992432 -65.550857543945 -118.040962219238 0.660838365555
-56.976493835449 -69.579002380371 -125.139389038086 1.279267907143
-94.483764648438 -67.600067138672 -122.258262634277 1.022864580154
-76.951866149902 -66.619338989258 -120.176391601563 1.253916740417
-76.234992980957 -69.264511108398 -131.282546997070 0.610549271107
-61.471012115479 -67.568984985352 -129.116165161133 1.472946166992
-89.386276245117 -65.290252685547 -129.998947143555 0.703564226627
-89.711853027344 -67.919700622559 -128.873977661133 1.807383418083
-47.614723205566 -71.030998229980 -135.476577758789 1.659750223160
-52.573471069336 -66.215362548828 -135.079910278320 0.542696893215
-76.576339721680 -65.746879577637 -138.644851684570 1.614748358727
-52.741004943848 -67.546859741211 -141.571884155273 0.863740921021
-75.506454467773 -66.865348815918 -141.714431762695 0.903508424759
23.741981506348 -66.370323181152 -137.042648315430 1.639806032181
-56.584823608398 -68.870384216309 -145.535156250000 0.657658994198
-53.728412628174 -66.189857482910 -144.409729003906 1.415809988976
9.732830047607 -68.141960144043 -154.327880859375 1.661129117012
15.781320571899 -66.118179321289 -150.949508666992 0.933975219727
-143.337753295898 -66.006828308105 -175.763595581055 1.340169906616
-110.451217651367 -67.578323364258 -178.796585083008 1.277925372124
-106.909637451172 -65.666824340820 -188.885421752930 1.197440981865
-151.373001098633 -67.082038879395 -193.780868530273 0.395803421736
-112.346519470215 -66.114288330078 -185.106353759766 1.741623520851
-152.760452270508 -65.487808227539 -195.821151733398 0.760886907578
-113.598937988281 -65.019226074219 -197.835754394531 0.873876333237
-148.787124633789 -66.112030029297 -199.461547851563 0.953807055950
-151.448852539063 -67.497604370117 -205.977218627930 0.988507032394
-151.140243530273 -67.560623168945 -212.141647338867 2.630269050598
-145.285858154297 -65.961662292480 -223.087631225586 0.809671938419
-151.397048950195 -67.855026245117 -223.938095092773 1.054635286331
-104.114372253418 -66.595367431641 -222.536285400391 1.332264661789
-104.203712463379 -66.012985229492 -225.080352783203 1.252762198448
-123.235397338867 -64.903228759766 -227.938308715820 0.802799642086
-108.946144104004 -64.968223571777 -227.143951416016 0.653407990932
-154.691299438477 -68.293792724609 -230.875381469727 1.023229837418
-1.775617003441 -66.662834167480 -227.566986083984 0.812289178371
-134.368530273438 -64.988739013672 -232.218185424805 0.892241239548
-152.447860717773 -68.404830932617 -234.874252319336 0.799084484577
-133.374603271484 -66.249214172363 -234.705047607422 0.888834536076
-11.776719093323 -67.548812866211 -238.538482666016 0.566524207592
9.354687690735 -67.658843994141 -240.695297241211 0.646803081036
63.581439971924 -66.625022888184 -240.545806884766 1.218132734299
19.551776885986 -67.247955322266 -246.429595947266 0.711246669292
59.417758941650 -66.483772277832 -244.797851562500 0.958230853081
43.042705535889 -66.348434448242 -248.486022949219 1.775586485863
55.116878509521 -67.470764160156 -249.023086547852 0.602647662163
-150.379211425781 -66.003799438477 -252.808853149414 1.306977868080
-152.154891967773 -68.810173034668 -254.154312133789 1.188019514084
42.094192504883 -66.166183471680 -256.517120361328 1.405969858170
32.602138519287 -65.856536865234 -257.063171386719 1.681360840797
47.271831512451 -67.268150329590 -250.143264770508 0.498254746199
-143.334350585938 -68.140686035156 -254.762420654297 0.657623648643
-133.550735473633 -64.855232238770 -256.727264404297 1.076877713203
-125.490173339844 -64.938255310059 -255.986587524414 0.984286010265
-134.371109008789 -67.098594665527 -256.503601074219 0.936117887497
-141.428665161133 -65.901435852051 -257.876983642578 1.140793919563
-123.880043029785 -65.766487121582 -258.893493652344 1.031897664070
-141.395965576172 -65.547691345215 -260.763977050781 1.220826029778
-123.888290405273 -65.878974914551 -261.839080810547 1.058206439018
-125.116729736328 -64.748199462891 -263.419036865234 1.400807023048
-124.336112976074 -66.850082397461 -264.107330322266 1.275195002556
-116.848403930664 -65.056343078613 -263.878601074219 1.775308489799
-4.610157012939 -66.811248779297 -264.544158935547 0.432988405228
26.557094573975 -67.349548339844 -262.446929931641 0.892608940601
-146.276824951172 -66.708351135254 -266.370239257813 1.247427821159
26.915338516235 -65.044639587402 -265.119323730469 1.348082065582
-2.244282960892 -65.991043090820 -270.711456298828 1.541271448135
17.222085952759 -69.802719116211 -283.465576171875 0.686234831810
-141.599243164063 -66.252044677734 -288.906097412109 1.456311464310
-125.801574707031 -64.561347961426 -287.768157958984 1.715734720230
-133.684280395508 -64.809120178223 -289.931030273438 1.421537041664
-155.815170288086 -63.693023681641 -290.783416748047 0.878928661346
-124.151527404785 -64.351661682129 -289.223419189453 1.468106746674
-117.361061096191 -64.135078430176 -289.731719970703 1.465805768967
-126.309646606445 -65.268501281738 -292.840057373047 1.660541057587
-147.705383300781 -66.760452270508 -296.536956787109 1.833166003227
26.293767929077 -72.420585632324 -13.305569648743 2.159358024597
34.271999359131 -72.562133789063 -16.066082000732 1.472358822823
38.298748016357 -72.771697998047 -17.116539001465 1.947087407112
48.509693145752 -64.441864013672 -23.145069122314 2.291730403900
24.859949111938 -72.503219604492 -27.048179626465 2.050062417984
22.190660476685 -72.416168212891 -35.206863403320 1.546743750572
-35.678462982178 -66.140159606934 -47.117298126221 1.639069676399
-84.810241699219 -67.208168029785 -52.140575408936 2.191561698914
-15.631961822510 -67.163742065430 -56.750270843506 1.500748157501
70.327011108398 -67.174964904785 -64.002655029297 2.454281091690
98.183753967285 -67.430015563965 -67.249382019043 2.195125818253
64.712638854980 -68.447349548340 -80.552581787109 1.999325156212
61.495582580566 -65.373252868652 -80.390762329102 2.187606096268
103.686889648438 -66.263298034668 -82.799423217773 1.617010951042
-63.626316070557 -65.473510742188 -89.412284851074 0.713307619095
-64.453086853027 -66.127563476563 -93.322875976563 0.873891949654
47.259227752686 -67.194671630859 -94.619705200195 1.948387742043
-66.318862915039 -65.339912414551 -95.666427612305 0.840634286404
-69.342102050781 -66.728630065918 -98.931518554688 0.800833225250
-99.323860168457 -63.892513275146 -96.029174804688 1.601601243019
-75.249237060547 -66.029502868652 -101.023704528809 0.969013154507
46.599292755127 -66.686080932617 -99.749954223633 1.496837854385
-70.598884582520 -67.104827880859 -103.022621154785 0.746028959751
51.764381408691 -66.119918823242 -100.147163391113 1.176207900047
97.102508544922 -68.159873962402 -103.033775329590 1.919515967369
92.455703735352 -66.386253356934 -106.243545532227 1.864024996758
-74.931617736816 -66.504943847656 -112.348281860352 1.904087543488
-81.264823913574 -65.839195251465 -112.755325317383 1.232367038727
-61.850460052490 -66.672508239746 -119.159561157227 1.637892127037
-96.998512268066 -65.906814575195 -120.019500732422 1.436877012253
-77.427757263184 -66.573669433594 -127.028236389160 0.931513011456
-92.614204406738 -63.962654113770 -123.006393432617 0.708094537258
-62.138286590576 -64.366386413574 -119.215621948242 0.665299475193
-60.259952545166 -63.326118469238 -118.230354309082 0.903425097466
-86.682785034180 -64.607131958008 -127.940399169922 1.170595288277
-62.564926147461 -69.119735717773 -128.477584838867 1.391344666481
-84.543220520020 -65.437286376953 -130.735809326172 0.438657611609
-73.457969665527 -67.215393066406 -132.041671752930 0.850459218025
-63.650691986084 -66.292152404785 -130.750778198242 1.339967846870
-61.699535369873 -63.295387268066 -135.188903808594 1.961856603622
-53.958057403564 -65.772621154785 -137.741165161133 0.912079215050
-91.991119384766 -65.572280883789 -134.089248657227 1.038318514824
-96.281822204590 -67.040077209473 -143.016220092773 0.733585774899
-84.768516540527 -66.685348510742 -132.798706054688 0.479577273130
22.759639739990 -67.478576660156 -144.399917602539 1.446587562561
-49.310783386230 -66.505592346191 -143.640457153320 1.806384205818
15.421356201172 -64.971908569336 -147.378921508789 0.718626677990
-98.222442626953 -65.879203796387 -162.797378540039 0.205481320620
-102.073005676270 -66.434982299805 -172.214065551758 1.068361759186
-102.165763854980 -64.537956237793 -171.362014770508 1.688760757446
-106.720611572266 -65.808036804199 -166.949020385742 0.256229579449
-104.907356262207 -66.437072753906 -180.817916870117 2.107788085938
-110.295600891113 -65.445007324219 -177.262359619141 0.304847866297
-141.146484375000 -66.175193786621 -188.040603637695 0.516412973404
-112.102539062500 -64.702041625977 -187.517684936523 1.162232637405
-132.600433349609 -63.563911437988 -196.522338867188 0.590006709099
-146.539474487305 -65.925262451172 -198.496429443359 0.726403415203
-122.484878540039 -65.514793395996 -197.430740356445 0.519197165966
-154.113128662109 -66.155128479004 -198.469085693359 0.767199635506
-146.753005981445 -66.291336059570 -201.610961914063 0.774505198002
-122.347785949707 -64.173103332520 -201.432144165039 0.737525939941
-133.678756713867 -66.485847473145 -204.010147094727 0.997785031796
-143.916687011719 -66.484573364258 -206.349777221680 0.922007143497
-133.319793701172 -67.617538452148 -224.713760375977 0.369144737720
-112.498992919922 -65.071327209473 -227.933700561523 0.417091250420
-146.195190429688 -66.478012084961 -230.006134033203 0.947489082813
-115.787673950195 -64.225166320801 -229.320648193359 0.818460345268
-113.412261962891 -64.860046386719 -231.298858642578 0.901193022728
-123.962074279785 -64.956741333008 -234.437652587891 1.220256567001
-126.020225524902 -66.346946716309 -235.243499755859 0.840533792973
-115.980430603027 -64.464035034180 -233.533645629883 1.381011843681
3.646716117859 -65.469032287598 -233.759460449219 1.246763229370
-150.350326538086 -66.257164001465 -236.040939331055 0.428514122963
8.050230026245 -67.825439453125 -231.715515136719 0.624568998814
8.557140350342 -64.976089477539 -237.669662475586 0.685645103455
1.903519034386 -66.086242675781 -238.513839721680 0.644131720066
16.264406204224 -63.235767364502 -239.271209716797 0.726492941380
-145.463165283203 -66.390228271484 -236.152923583984 0.911022841930
-2.818445920944 -64.535980224609 -244.238708496094 0.660720288754
20.366342544556 -65.075767517090 -243.069885253906 1.620775222778
47.758247375488 -65.192260742188 -247.130813598633 1.240915775299
51.526252746582 -64.873504638672 -246.947341918945 1.147786855698
-146.033325195313 -66.161285400391 -252.776519775391 1.129833221436
-5.994422912598 -65.034591674805 -251.582565307617 0.409607499838
26.408721923828 -65.617759704590 -256.995971679688 1.059158325195
-133.432083129883 -63.789684295654 -259.463958740234 1.363452792168
-126.333679199219 -63.677425384521 -261.567016601563 1.072863459587
-125.695518493652 -63.616302490234 -258.132446289063 1.798111200333
26.288906097412 -65.881622314453 -259.473724365234 0.904193043709
-134.116302490234 -66.133094787598 -264.219299316406 1.483511209488
27.346292495728 -65.054321289063 -261.525390625000 0.850894510746
30.736022949219 -66.449325561523 -262.982482910156 1.779579401016
-150.716217041016 -66.891006469727 -265.819671630859 0.988408803940
-147.350784301758 -68.836982727051 -288.428161621094 1.257620215416
-150.598739624023 -65.114936828613 -289.480102539063 1.478313326836
-142.990066528320 -62.609283447266 -292.204528808594 1.743312358856
9.021038055420 -67.555152893066 -291.461791992188 0.684788107872
-153.775421142578 -63.543277740479 -294.513214111328 1.233440041542
43.584796905518 -72.354141235352 -25.401329040527 2.178103923798
34.024543762207 -72.437316894531 -40.142467498779 1.468299388885
-65.423660278320 -66.936447143555 -44.728736877441 1.226782202721
-74.142189025879 -65.472251892090 -45.269973754883 1.624057769775
-28.392349243164 -66.845542907715 -49.515136718750 2.584039688110
-21.596570968628 -68.082382202148 -53.768196105957 1.042668342590
-14.917419433594 -64.027839660645 -65.714775085449 1.402347683907
-24.717279434204 -65.568244934082 -68.611404418945 1.683045983315
64.911109924316 -66.055480957031 -71.539466857910 1.909930109978
-98.891044616699 -64.338623046875 -77.661117553711 1.489670038223
-47.955947875977 -66.011787414551 -83.374366760254 0.848179638386
54.193222045898 -66.828269958496 -85.024803161621 1.720894217491
54.901130676270 -65.923141479492 -87.078636169434 1.322925329208
64.560897827148 -66.689483642578 -88.577026367188 1.694653034210
104.053314208984 -66.211509704590 -90.017044067383 1.478262066841
51.406608581543 -63.627235412598 -92.865135192871 1.674290299416
99.612510681152 -67.525413513184 -99.890960693359 1.314608216286
-80.013359069824 -66.877235412598 -101.774085998535 2.055595636368
-98.146896362305 -67.034584045410 -103.194259643555 0.889839887619
76.228820800781 -64.900428771973 -108.316513061523 0.860570669174
-76.152572631836 -63.794635772705 -103.192642211914 0.691401004791
-78.161605834961 -67.587905883789 -117.926185607910 0.481927543879
-83.717163085938 -65.466896057129 -118.051658630371 1.264909625053
-55.688838958740 -66.535171508789 -126.801704406738 1.564531803131
-79.432189941406 -67.357856750488 -127.744506835938 1.021527051926
-61.435089111328 -66.088005065918 -131.505950927734 1.297470092773
-80.400772094727 -66.522903442383 -133.543273925781 1.494541645050
-75.390914916992 -64.971481323242 -132.974395751953 1.549821734428
-80.661399841309 -61.325031280518 -125.502548217773 1.025088429451
-87.092300415039 -63.960403442383 -131.389144897461 0.418894886971
-63.240966796875 -64.349662780762 -132.484893798828 0.776115417480
-90.780822753906 -63.969390869141 -134.686035156250 1.673257589340
-49.571208953857 -66.094184875488 -134.587570190430 0.544185996056
-56.794353485107 -66.306228637695 -138.988632202148 0.635134935379
27.329076766968 -65.954345703125 -135.578628540039 1.279545426369
-58.295524597168 -63.026050567627 -138.016113281250 0.477859139442
14.758554458618 -66.696380615234 -145.516326904297 1.666002035141
19.765998840332 -66.590362548828 -148.628173828125 1.952332377434
18.123954772949 -64.369941711426 -151.487640380859 1.140068531036
-96.745895385742 -64.410957336426 -144.933746337891 1.309754371643
-93.553756713867 -65.802993774414 -152.123321533203 1.032622814178
-95.531929016113 -62.724143981934 -152.820388793945 0.539256095886
-102.666915893555 -65.000900268555 -157.710845947266 1.111264586449
-96.196495056152 -65.035003662109 -158.048629760742 0.183725371957
-150.999618530273 -69.476188659668 -175.522903442383 0.960132777691
-153.171173095703 -65.522048950195 -177.099639892578 0.898867130280
-105.939155578613 -64.271102905273 -181.387542724609 0.280446380377
-142.837081909180 -62.768291473389 -179.001617431641 1.207704663277
-110.036529541016 -63.634037017822 -180.090270996094 1.433435201645
-151.819137573242 -63.889373779297 -187.527832031250 0.699644982815
-111.370475769043 -63.818756103516 -194.771163940430 1.379039049149
-109.124206542969 -63.414493560791 -187.915222167969 0.575563788414
-140.902603149414 -65.075332641602 -197.129119873047 0.224458515644
-133.394989013672 -65.105751037598 -197.070510864258 0.605180680752
-109.026306152344 -64.742179870605 -197.973297119141 0.879401504993
-115.305862426758 -63.704677581787 -200.122116088867 1.428064346313
-111.577606201172 -63.522205352783 -200.734512329102 1.363179445267
-114.585754394531 -64.114944458008 -202.990371704102 0.486618727446
-133.733917236328 -63.426799774170 -199.475509643555 0.866196572781
-133.557846069336 -64.117858886719 -202.269378662109 0.638048231602
-132.287994384766 -64.291419982910 -204.441680908203 0.643419265747
-124.919082641602 -62.459510803223 -203.313919067383 0.572418212891
-127.033592224121 -65.263130187988 -205.412200927734 1.391642689705
-116.401893615723 -63.437023162842 -204.274261474609 0.515484869480
-145.548187255859 -64.780593872070 -216.540710449219 2.319869995117
-149.987106323242 -65.323806762695 -223.553009033203 1.298564314842
-152.146438598633 -61.896499633789 -224.727508544922 0.944781780243
-141.664718627930 -67.347084045410 -226.366165161133 0.886044979095
-132.141265869141 -63.692237854004 -226.820816040039 1.384371042252
-124.382431030273 -65.491188049316 -225.211395263672 0.547214865685
-140.897689819336 -64.881179809570 -228.080657958984 0.842212259769
-149.421676635742 -66.709869384766 -229.445388793945 0.968397319317
-134.447906494141 -64.911155700684 -227.632736206055 1.173829197884
-132.939910888672 -63.001655578613 -229.511886596680 1.165611267090
-147.908950805664 -67.108535766602 -231.471298217773 0.539043486118
-132.819961547852 -63.779499053955 -232.808822631836 1.115149259567
-124.949447631836 -62.520217895508 -228.911148071289 1.199371218681
-6.852869033813 -67.388885498047 -236.433273315430 0.957613945007
4.831319808960 -64.288269042969 -238.333068847656 0.675025939941
13.387452125549 -64.177474975586 -241.626419067383 0.736010849476
10.332289695740 -66.104263305664 -243.508285522461 1.099547386169
-9.177654266357 -65.208702087402 -243.407211303711 0.424332559109
-10.053095817566 -64.789047241211 -246.903060913086 0.428515702486
42.318679809570 -64.038169860840 -251.483444213867 0.489418089390
50.041549682617 -65.373046875000 -250.702514648438 1.671676754951
-143.458679199219 -62.171226501465 -255.137329101563 1.004635453224
41.848655700684 -64.544204711914 -255.236450195313 0.907954394817
36.525600433350 -64.625869750977 -252.595092773438 1.558115959167
-155.627563476563 -63.804691314697 -259.845123291016 0.943432509899
-150.887435913086 -62.116100311279 -259.447509765625 1.079714775085
-147.356246948242 -67.783485412598 -261.134521484375 1.257857918739
2.699069023132 -64.203521728516 -263.940979003906 1.287553071976
-150.590866088867 -63.288032531738 -266.229949951172 0.556599020958
0.845752000809 -64.584175109863 -274.495452880859 1.922664999962
-146.572204589844 -64.074432373047 -274.610534667969 1.483131289482
-146.956359863281 -62.946865081787 -283.258758544922 1.030485630035
-150.708984375000 -63.454780578613 -283.036437988281 0.444303423166
-149.045791625977 -63.476150512695 -285.144958496094 1.430337905884
-143.580108642578 -63.371212005615 -285.339141845703 1.658238291740
-155.242156982422 -62.937622070313 -286.742767333984 0.922056615353
-150.312072753906 -62.131904602051 -286.729003906250 1.453264117241
-148.939941406250 -63.774524688721 -287.316925048828 0.568535387516
-145.905624389648 -62.993286132813 -286.386413574219 1.371593713760
-142.896804809570 -62.395809173584 -288.350616455078 2.129136800766
13.960201263428 -64.811378479004 -288.569122314453 0.831686973572
-146.903564453125 -63.590766906738 -290.297882080078 0.896619319916
-154.650024414063 -62.906074523926 -290.375915527344 1.493125915527
-151.788391113281 -62.696010589600 -290.221191406250 1.447804450989
-151.288482666016 -62.717933654785 -294.564239501953 1.593475341797
-149.777374267578 -62.368953704834 -292.178894042969 0.938216507435
-145.501678466797 -62.801189422607 -292.119140625000 1.791395545006
1.022778987885 -64.656578063965 -292.272247314453 1.506060957909
-144.041580200195 -63.754917144775 -294.353393554688 1.518379569054
-146.701187133789 -62.326290130615 -295.058898925781 1.538686633110
27.793338775635 -61.860996246338 -19.101320266724 2.452520608902
40.463657379150 -70.311515808105 -18.648485183716 0.838244199753
41.933372497559 -64.520568847656 -21.516799926758 1.064937472343
19.919116973877 -72.526710510254 -30.578533172607 1.766125202179
29.117931365967 -62.224636077881 -34.606414794922 1.164574980736
38.576786041260 -72.191696166992 -34.678974151611 1.930654883385
-58.845111846924 -63.654220581055 -42.829151153564 1.374978542328
-52.032619476318 -65.224227905273 -43.891326904297 2.325739145279
88.117462158203 -66.730354309082 -60.458255767822 1.849831342697
-97.084609985352 -63.876544952393 -65.494132995605 2.241882801056
94.178932189941 -68.810997009277 -64.684402465820 2.196949958801
66.658042907715 -65.019912719727 -66.493179321289 2.119089126587
102.502563476563 -67.344047546387 -75.150520324707 1.226194620132
64.433586120605 -66.203529357910 -74.803993225098 1.773821830750
-41.791999816895 -67.062049865723 -77.834175109863 0.996032476425
60.399669647217 -62.368701934814 -80.693946838379 1.808889269829
-58.815814971924 -62.978473663330 -80.669952392578 1.543572068214
63.428359985352 -64.596839904785 -84.732437133789 1.797145247459
60.694992065430 -65.507026672363 -82.687004089355 1.485852122307
-98.636642456055 -65.722778320313 -82.484008789063 1.709630250931
51.163005828857 -65.397773742676 -88.815887451172 1.614428400993
51.833518981934 -66.563682556152 -91.935890197754 0.855534493923
63.349388122559 -67.053787231445 -91.798042297363 1.154083848000
52.225784301758 -63.721614837646 -94.978202819824 1.858826994896
-82.210800170898 -63.910018920898 -106.262039184570 1.223923444748
83.039901733398 -67.457557678223 -104.354850769043 1.371744632721
-77.691131591797 -64.648574829102 -113.569129943848 0.716815829277
-76.310104370117 -63.510578155518 -109.087280273438 1.039892673492
-80.049850463867 -65.571403503418 -120.442756652832 0.888896286488
-87.612701416016 -65.005653381348 -112.571586608887 1.251151561737
-91.436775207520 -66.912971496582 -119.852012634277 1.884288072586
-79.026069641113 -65.017196655273 -125.785156250000 1.001021862030
-55.839473724365 -61.980434417725 -127.437789916992 1.827959179878
-77.969276428223 -64.426376342773 -133.337799072266 1.655317783356
-56.674938201904 -61.677543640137 -132.956069946289 0.532095849514
-87.812973022461 -63.912761688232 -136.203659057617 1.643329381943
29.144977569580 -64.250694274902 -136.886978149414 1.143202900887
19.771110534668 -65.442298889160 -139.526535034180 1.031709074974
-91.295799255371 -62.905799865723 -138.958862304688 1.094811558723
18.730318069458 -64.583450317383 -147.867965698242 1.112846970558
-90.810935974121 -64.483283996582 -144.906661987305 1.173646926880
-93.632682800293 -62.711830139160 -147.321975708008 1.093630313873
19.775581359863 -64.533256530762 -151.856719970703 1.105213165283
-95.759704589844 -63.202247619629 -144.785736083984 1.540311932564
-96.696144104004 -62.634037017822 -149.164123535156 1.103454828262
-101.804573059082 -63.018650054932 -158.566970825195 2.440894365311
-98.552635192871 -62.799621582031 -159.248870849609 0.151920184493
-105.325622558594 -62.862808227539 -174.540496826172 0.163775101304
-106.540016174316 -64.134483337402 -167.851593017578 1.476514220238
-102.516151428223 -62.521217346191 -164.994964599609 2.768321514130
-106.440238952637 -62.745685577393 -171.894302368164 1.157030582428
-141.236633300781 -65.140594482422 -177.080078125000 0.472743511200
-107.502853393555 -62.891181945801 -178.830123901367 0.916842758656
-143.065277099609 -63.106788635254 -187.756790161133 0.623047173023
-148.534805297852 -63.502254486084 -188.897735595703 1.615078568459
-149.716979980469 -64.241394042969 -193.552551269531 0.505880177021
-124.139564514160 -63.103267669678 -196.386993408203 0.657717645168
-132.048950195313 -62.226734161377 -198.917160034180 0.588338792324
-122.426391601563 -63.925186157227 -199.256164550781 0.764877915382
-140.804534912109 -65.013778686523 -202.930450439453 1.139238238335
-123.800605773926 -63.774131774902 -204.392532348633 0.574695527554
-144.953781127930 -65.157630920410 -206.460800170898 0.692826509476
-149.578735351563 -64.284317016602 -206.723953247070 0.589403867722
-154.883010864258 -62.300800323486 -229.502593994141 1.003348827362
-140.925598144531 -65.056800842285 -231.832794189453 1.210706830025
-125.564376831055 -63.431549072266 -233.242858886719 1.229967236519
-154.387725830078 -61.293464660645 -232.553878784180 1.174115896225
-2.512897014618 -66.434959411621 -236.767456054688 0.668189883232
13.979860305786 -62.838031768799 -239.705642700195 0.744862496853
-3.563822984695 -64.889739990234 -242.299819946289 0.751190304756
-146.437469482422 -62.685523986816 -245.351776123047 1.068842291832
-5.718256950378 -62.871444702148 -245.889175415039 0.671542704105
-146.422943115234 -62.623386383057 -253.491058349609 1.137278676033
-5.034620761871 -62.505546569824 -247.810974121094 0.688052475452
-150.313278198242 -62.693725585938 -253.185379028320 0.705017924309
24.747327804565 -67.095100402832 -253.066375732422 0.705157041550
-152.291519165039 -62.106410980225 -255.731765747070 1.250244617462
-147.422103881836 -62.490886688232 -255.336959838867 1.159948468208
-153.488220214844 -62.497909545898 -255.045211791992 1.406868100166
-148.875488281250 -61.553447723389 -257.166503906250 1.428586125374
36.739170074463 -63.266757965088 -255.216293334961 1.233452677727
30.061351776123 -62.623195648193 -260.710540771484 0.444342911243
-146.317642211914 -61.954097747803 -259.039245605469 0.789062142372
-149.568496704102 -61.975276947021 -261.912109375000 0.579224944115
-154.288970947266 -62.117404937744 -260.731811523438 1.368459105492
-147.335998535156 -61.474483489990 -262.100433349609 1.646201491356
27.088350296021 -62.893493652344 -261.513275146484 0.898738563061
29.300901412964 -63.992866516113 -262.927154541016 0.967217087746
-149.455673217773 -62.628154754639 -264.127136230469 0.636494994164
-142.300430297852 -62.416572570801 -263.112670898438 1.410135269165
-151.064117431641 -61.704528808594 -264.879333496094 1.438936471939
-144.532623291016 -62.075042724609 -263.075195312500 0.963598608971
-146.457687377930 -63.248748779297 -266.186126708984 1.266735076904
-150.141311645508 -62.131454467773 -266.253723144531 0.795743584633
-148.015106201172 -61.497386932373 -265.692779541016 1.253091812134
-149.019927978516 -61.844108581543 -284.178344726563 1.422282218933
-150.044982910156 -62.251663208008 -283.131835937500 0.912997543812
-147.871337890625 -62.145900726318 -281.749328613281 1.393082022667
19.281833648682 -65.090263366699 -282.703552246094 0.960838198662
-153.147232055664 -62.693244934082 -284.468292236328 0.976043999195
-146.273574829102 -61.907985687256 -284.775756835938 1.409721732140
-2.395011901855 -64.455177307129 -288.241729736328 1.610930681229
6.099658012390 -64.457992553711 -292.532073974609 1.736413598061
-149.284622192383 -63.862297058105 -296.475402832031 1.624747037888
25.998079299927 -72.564338684082 -21.537187576294 1.360765337944
43.013435363770 -65.533134460449 -28.333227157593 2.304006338120
48.354061126709 -71.787147521973 -31.567249298096 0.214006349444
42.002693176270 -64.120925903320 -31.093219757080 1.565796256065
23.714576721191 -72.193550109863 -36.745616912842 1.271777987480
43.250713348389 -72.661018371582 -37.915401458740 2.227290391922
81.136856079102 -65.323257446289 -59.021888732910 2.021722078323
75.462471008301 -65.909660339355 -59.664569854736 2.431770801544
-12.896293640137 -66.533317565918 -65.841629028320 1.782678961754
64.929641723633 -63.034347534180 -69.498771667480 1.729690313339
-29.113616943359 -68.707138061523 -75.571998596191 1.289045095444
-31.891138076782 -67.058280944824 -77.448394775391 1.196119070053
-55.753505706787 -62.612823486328 -78.249488830566 1.715141534805
-52.649936676025 -63.401325225830 -79.593269348145 1.054775118828
64.790878295898 -66.855293273926 -81.968017578125 0.912269949913
103.301368713379 -69.132408142090 -85.980072021484 1.316287875175
-62.472141265869 -64.137695312500 -87.444419860840 1.005170464516
54.530002593994 -65.618408203125 -94.105880737305 1.898180246353
60.554080963135 -62.965953826904 -90.329277038574 1.706421494484
102.857437133789 -67.099441528320 -94.546485900879 1.521893620491
-66.785545349121 -63.557983398438 -94.740478515625 0.996466100216
55.077629089355 -63.381004333496 -94.899841308594 1.741409540176
-70.855834960938 -65.878540039063 -105.494827270508 1.557621479034
67.210426330566 -67.812034606934 -97.265037536621 1.457759380341
68.500862121582 -64.244331359863 -101.448303222656 0.592275023460
-72.927627563477 -64.067153930664 -107.653488159180 0.693097114563
-98.630767822266 -61.390781402588 -110.322372436523 1.525481343269
-70.067581176758 -61.481121063232 -108.287170410156 1.406294941902
-83.875488281250 -64.164428710938 -111.802314758301 0.694801747799
-65.743087768555 -63.884540557861 -113.350578308105 0.679373323917
-84.862205505371 -62.219364166260 -111.991622924805 0.600052714348
-79.936836242676 -63.834102630615 -116.862831115723 0.577027320862
-76.625328063965 -63.841667175293 -118.618278503418 1.183126926422
-66.191795349121 -64.890884399414 -120.603492736816 0.638190805912
-83.436904907227 -64.977287292480 -124.676574707031 1.246585130692
34.124137878418 -63.333827972412 -125.531913757324 2.109940052032
-52.933593750000 -64.318672180176 -127.530632019043 1.587198019028
28.951091766357 -64.081626892090 -130.279602050781 2.550711154938
30.498434066772 -64.831611633301 -132.605758666992 1.675644159317
32.193176269531 -62.539131164551 -133.565414428711 0.557522833347
-52.234954833984 -63.483261108398 -136.684921264648 0.551001191139
19.315153121948 -63.167514801025 -144.879592895508 1.855219721794
24.885213851929 -64.249618530273 -142.741088867188 0.456437677145
-145.102813720703 -61.272415161133 -177.293853759766 0.643573522568
-149.254409790039 -61.337940216064 -176.426101684570 0.899714112282
-151.615692138672 -62.998390197754 -179.368148803711 1.119122982025
-148.746017456055 -61.879642486572 -187.590560913086 0.670235753059
-145.874282836914 -61.845260620117 -187.719131469727 0.530560076237
-146.565902709961 -63.715805053711 -193.191299438477 0.686241984367
-144.192443847656 -64.931213378906 -193.917297363281 0.897456228733
-145.544845581055 -59.694507598877 -198.456893920898 0.998657345772
-124.101325988770 -61.614585876465 -200.271743774414 1.054252862930
-132.097915649414 -62.238082885742 -201.692276000977 0.617200911045
-145.663711547852 -62.236293792725 -210.627273559570 0.789463520050
-148.018539428711 -61.761211395264 -225.277206420898 0.917125582695
-151.638549804688 -60.888778686523 -225.645935058594 1.105375528336
-146.207931518555 -60.435543060303 -228.296127319336 1.200229883194
-153.839965820313 -61.081054687500 -226.768157958984 1.043714523315
-149.674713134766 -61.145469665527 -231.812606811523 0.787714064121
-149.896270751953 -61.388393402100 -228.815383911133 1.213394641876
-146.427886962891 -60.780960083008 -231.802642822266 1.521516442299
-142.521499633789 -61.789154052734 -234.098388671875 1.522831201553
-147.186294555664 -61.866451263428 -234.029830932617 1.165461421013
-152.854690551758 -61.583106994629 -234.478424072266 0.999940395355
7.928997039795 -64.485877990723 -239.449295043945 1.152342677116
-10.074053764343 -66.689025878906 -240.276489257813 2.051900148392
-146.158645629883 -62.334217071533 -236.557128906250 0.984813988209
-150.056320190430 -61.977561950684 -236.529968261719 0.831693589687
-149.137145996094 -60.818820953369 -236.474838256836 0.727366745472
10.022706031799 -63.414112091064 -244.411895751953 0.734298467636
-150.011932373047 -62.000331878662 -241.251602172852 1.652426242828
-147.412094116211 -61.295032501221 -254.463714599609 1.168979763985
-1.141803979874 -62.045051574707 -250.532226562500 0.722631752491
-149.242095947266 -61.072280883789 -252.901580810547 0.840778946877
-148.274261474609 -60.920642852783 -253.501861572266 1.149768829346
-144.452072143555 -61.794048309326 -256.684417724609 0.880046427250
-142.186264038086 -61.486133575439 -257.801147460938 1.500773310661
26.892181396484 -62.582420349121 -259.094512939453 0.898614883423
-148.943878173828 -61.464626312256 -266.280242919922 1.264506101608
25.877946853638 -65.157226562500 -268.580413818359 1.217780590057
16.727705001831 -65.618095397949 -286.295410156250 0.821884691715
1.581683993340 -62.200073242188 -290.148620605469 0.993287444115
8.127473831177 -60.695178985596 -291.284515380859 1.025892972946
30.621322631836 -62.815437316895 -17.213493347168 2.128713130951
45.239982604980 -71.484054565430 -36.181339263916 1.072592854500
32.994400024414 -72.176254272461 -38.620582580566 1.431994318962
-43.652183532715 -62.632057189941 -45.890060424805 1.418442130089
-89.785652160645 -61.702232360840 -52.109390258789 1.517292141914
-94.566635131836 -62.085353851318 -58.611320495605 1.035307884216
-21.217191696167 -63.350830078125 -65.746826171875 1.362447738647
100.938476562500 -65.257995605469 -69.409523010254 1.848153829575
103.741813659668 -61.450256347656 -75.505729675293 0.902536392212
103.124687194824 -67.162055969238 -77.723167419434 1.676126599312
-51.771045684814 -64.840293884277 -83.066215515137 1.219109535217
-62.520339965820 -62.066551208496 -84.146842956543 0.958691895008
58.252487182617 -61.342464447021 -87.107864379883 1.681960940361
53.824729919434 -62.273727416992 -88.078796386719 1.780903339386
-65.344779968262 -63.714107513428 -96.236434936523 1.195328712463
-99.401046752930 -60.959510803223 -105.014213562012 2.111520290375
80.521522521973 -65.952789306641 -107.084335327148 1.797309756279
-79.178176879883 -64.201995849609 -112.279739379883 0.687975168228
-67.073348999023 -61.223659515381 -111.847305297852 1.562876820564
-82.089317321777 -62.603733062744 -112.238235473633 0.930559575558
-85.538040161133 -61.863109588623 -113.531089782715 0.856918931007
-81.994697570801 -63.096973419189 -116.837341308594 1.235399365425
