-144.399017333984 -72.716842651367 -311.994049072266 1.187860608101
-150.067504882813 -70.398429870605 -312.442199707031 1.740744829178
-152.109527587891 -75.026603698730 -312.820068359375 1.427159428596
28.891365051270 -74.652877807617 -16.230455398560 2.730520248413
23.927280426025 -74.574569702148 -16.060764312744 2.766106367111
20.737033843994 -74.691841125488 -22.116064071655 2.678232669830
27.446723937988 -74.457481384277 -38.999237060547 2.580056905746
-57.748168945313 -72.351387023926 -48.971847534180 1.709517121315
-66.696670532227 -72.442443847656 -49.507240295410 1.901831746101
-39.176094055176 -73.536697387695 -52.404514312744 0.859748601913
-81.843437194824 -74.170669555664 -58.689002990723 2.416296005249
81.799789428711 -77.030876159668 -71.546554565430 3.124935626984
-20.045370101929 -75.819656372070 -70.395675659180 1.155032873154
87.949996948242 -76.574302673340 -70.629379272461 2.747435569763
96.578796386719 -75.191352844238 -78.243377685547 1.871486544609
-94.176948547363 -72.922645568848 -78.928482055664 1.944278836250
69.562652587891 -74.967483520508 -79.588035583496 2.624001026154
-43.660617828369 -77.093574523926 -83.858291625977 1.345365643501
99.129226684570 -73.443588256836 -83.222938537598 1.278533339500
-53.577983856201 -75.088668823242 -89.268821716309 1.455423474312
52.133190155029 -74.905517578125 -89.731430053711 2.673010349274
71.629928588867 -76.193572998047 -91.241012573242 2.540647745132
57.167808532715 -75.383628845215 -96.695716857910 2.335326910019
52.335742950439 -76.732673645020 -97.525756835938 1.510129451752
72.151885986328 -76.704216003418 -94.224769592285 2.519902944565
44.733753204346 -75.730308532715 -99.814186096191 1.353229522705
103.493408203125 -76.087654113770 -97.914459228516 2.904160022736
106.327751159668 -76.607139587402 -103.584251403809 2.923763990402
82.978637695313 -72.377822875977 -102.001892089844 1.365137696266
88.049133300781 -76.243812561035 -100.360870361328 1.962276697159
101.338676452637 -75.431022644043 -96.865913391113 2.855759143829
108.101257324219 -74.748580932617 -101.889205932617 1.692995309830
38.612983703613 -76.301658630371 -104.953720092773 2.655124187469
110.420654296875 -73.715637207031 -119.035911560059 1.628849864006
112.118476867676 -76.153602600098 -116.921379089355 1.868559598923
32.745170593262 -74.957359313965 -121.439796447754 1.542814135551
44.519397735596 -75.353775024414 -119.393592834473 1.953942894936
114.672294616699 -75.172126770020 -126.023773193359 2.459422826767
39.181602478027 -75.085090637207 -125.896766662598 2.095469474792
111.985092163086 -75.335517883301 -127.857147216797 1.393314123154
109.685165405273 -75.295547485352 -121.134284973145 2.377970218658
24.973114013672 -73.192489624023 -137.718139648438 2.160057067871
-49.942802429199 -73.927322387695 -135.311111450195 0.564137578011
-52.582015991211 -73.066070556641 -135.856338500977 1.058985114098
110.680572509766 -74.401657104492 -133.186935424805 1.575407147408
-71.967048645020 -74.299819946289 -142.211654663086 0.757257461548
-75.292846679688 -74.451309204102 -140.387939453125 1.569014430046
-57.574066162109 -74.544189453125 -144.191040039063 2.749731540680
33.458488464355 -73.364250183105 -140.929656982422 1.673966765404
111.311759948730 -75.007881164551 -143.029541015625 1.028619170189
-68.430320739746 -72.613029479980 -146.136367797852 0.943995177746
-46.208015441895 -72.444854736328 -144.600158691406 0.962734341621
34.140518188477 -75.574089050293 -148.328414916992 1.102158665657
-68.043708801270 -74.222259521484 -148.099243164063 0.955759704113
113.308937072754 -75.065048217773 -142.764541625977 2.547733783722
112.533805847168 -74.687995910645 -156.045379638672 1.003522872925
116.006332397461 -76.087692260742 -149.726974487305 2.385408639908
-38.298789978027 -74.417472839355 -153.989425659180 1.359604835510
-66.166496276855 -74.350189208984 -162.636535644531 1.355126500130
-72.658409118652 -73.861778259277 -156.400131225586 0.902328848839
31.866628646851 -75.233375549316 -149.335281372070 1.692732810974
-2.269754886627 -75.403480529785 -162.096038818359 1.641254663467
107.668678283691 -76.415153503418 -158.957199096680 2.498457193375
111.041564941406 -74.835845947266 -153.059478759766 1.700454831123
111.488372802734 -74.414604187012 -155.561950683594 1.766487002373
-65.249496459961 -71.282440185547 -163.185348510742 0.836138963699
-46.188133239746 -74.755737304688 -161.501037597656 1.352095961571
-0.429491013288 -73.119331359863 -164.593444824219 0.886934340000
-26.501771926880 -72.975852966309 -174.468215942383 2.176737546921
106.406333923340 -75.277587890625 -165.119781494141 1.709390044212
-37.116836547852 -74.077377319336 -160.272705078125 0.739126205444
110.314743041992 -74.708419799805 -168.753509521484 0.656238138676
-41.797920227051 -74.524055480957 -172.428573608398 1.277325034142
109.593154907227 -74.611083984375 -165.543502807617 1.675477862358
-148.718475341797 -72.902694702148 -182.299148559570 1.639135956764
-28.875308990479 -72.463325500488 -175.456588745117 1.330980896950
-21.594200134277 -73.203468322754 -182.070205688477 1.561877727509
25.153432846069 -75.097328186035 -176.959945678711 1.666976571083
16.215679168701 -75.390762329102 -181.422317504883 1.325363397598
25.994159698486 -74.185058593750 -182.858062744141 1.481567621231
106.837615966797 -74.638793945313 -181.184005737305 1.079559206963
-151.061996459961 -71.994781494141 -187.470657348633 1.356921315193
-20.588340759277 -75.279342651367 -188.657485961914 1.975255250931
103.683654785156 -74.024574279785 -177.554733276367 2.003321886063
103.566917419434 -74.530822753906 -189.578384399414 0.470936328173
106.536422729492 -74.552261352539 -178.764480590820 1.814448356628
97.223655700684 -75.930244445801 -193.676269531250 3.175203561783
-152.061340332031 -75.549400329590 -194.600585937500 1.511260867119
100.670997619629 -75.647369384766 -202.969802856445 2.012078285217
-28.321182250977 -71.960647583008 -194.371505737305 1.729660868645
99.334655761719 -74.374099731445 -196.701416015625 2.380939722061
-124.710739135742 -72.621528625488 -198.074981689453 1.214194655418
-29.246355056763 -76.383392333984 -192.585327148438 1.947675824165
-140.915023803711 -71.549049377441 -198.737258911133 1.378294944763
94.284469604492 -75.012382507324 -199.058639526367 1.810367226601
9.086185455322 -75.451469421387 -197.627593994141 1.270477652550
22.723289489746 -74.602668762207 -193.621582031250 2.048688888550
-146.900588989258 -70.262519836426 -201.161453247070 1.203163146973
-141.036117553711 -71.336845397949 -201.643615722656 0.518593549728
-10.925843238831 -73.389289855957 -203.296905517578 1.241813659668
-124.522239685059 -72.866523742676 -201.362655639648 1.100379347801
-143.059463500977 -75.662864685059 -204.357223510742 1.457077741623
7.930899143219 -73.615379333496 -200.565246582031 0.892501533031
-21.690561294556 -75.096977233887 -202.257705688477 1.072689890862
19.986387252808 -74.470359802246 -203.312606811523 1.414816737175
8.380409240723 -73.933502197266 -209.380264282227 1.974725246429
89.638473510742 -75.524040222168 -206.787628173828 1.595285296440
-19.259147644043 -72.150749206543 -211.448303222656 1.030914425850
92.443588256836 -74.116928100586 -207.766830444336 1.648564815521
95.345695495605 -74.236656188965 -205.990295410156 2.579910516739
-150.206405639648 -71.607307434082 -216.306304931641 1.568204641342
96.081794738770 -74.410659790039 -210.505310058594 0.929614365101
6.301875114441 -74.746017456055 -208.812469482422 1.268420219421
5.353168010712 -75.350944519043 -213.888641357422 1.300956249237
-34.549060821533 -73.138191223145 -208.653732299805 1.482450246811
-89.402107238770 -72.245864868164 -213.691680908203 1.850592255592
-28.206296920776 -72.872322082520 -212.076873779297 1.257634162903
84.476196289063 -75.154747009277 -214.292846679688 2.315645933151
87.233215332031 -74.060585021973 -218.300354003906 1.129315853119
-32.586601257324 -73.382049560547 -213.074661254883 1.082864046097
-85.392570495605 -71.986938476563 -216.531921386719 1.163889765739
-2.588804960251 -75.275177001953 -217.095840454102 1.456899046898
87.415451049805 -74.116729736328 -214.492660522461 2.000346899033
-150.838333129883 -71.285453796387 -223.180450439453 1.533639192581
-164.897430419922 -71.031974792480 -214.897933959961 2.004213333130
-159.530502319336 -71.004577636719 -223.638916015625 1.713312268257
-20.923841476440 -72.498573303223 -226.380371093750 0.832632362843
-152.447860717773 -70.990615844727 -223.926452636719 1.615337729454
-7.726565837860 -75.507141113281 -225.042541503906 1.239544391632
7.716958045959 -73.040542602539 -217.719436645508 1.039281964302
-163.765167236328 -71.197998046875 -225.046203613281 1.771952152252
-161.513671875000 -72.033760070801 -226.579330444336 1.759504199028
80.163368225098 -75.265678405762 -229.306869506836 1.956955075264
3.023880958557 -71.710472106934 -227.392654418945 1.315123915672
-154.563079833984 -70.987846374512 -226.246841430664 1.671066880226
-141.905105590820 -71.192070007324 -226.821441650391 1.000492691994
-19.823778152466 -74.049766540527 -223.964263916016 0.484894573689
2.297420978546 -76.868972778320 -224.883377075195 0.268368870020
80.568717956543 -74.150932312012 -222.694915771484 1.409618258476
-161.528015136719 -71.230033874512 -228.515762329102 1.640990495682
-147.104248046875 -71.394569396973 -228.383087158203 1.599733710289
-123.827430725098 -71.676864624023 -229.985580444336 1.322282552719
80.162277221680 -73.434989929199 -226.600326538086 0.640642642975
-115.121437072754 -71.421157836914 -229.083038330078 1.242517232895
-149.979827880859 -71.671920776367 -229.525817871094 1.367967367172
-149.254074096680 -71.020103454590 -231.010467529297 1.638174533844
-147.440582275391 -71.893066406250 -230.812408447266 0.835167467594
-155.750823974609 -71.135177612305 -229.568099975586 1.705522060394
-165.212707519531 -71.241973876953 -230.532058715820 1.560051560402
-135.077743530273 -70.388595581055 -233.111740112305 1.058726191521
-133.175292968750 -72.720207214355 -232.882415771484 0.878757774830
-154.837371826172 -71.079666137695 -232.281997680664 1.711104750633
-144.908477783203 -69.924903869629 -235.573150634766 1.015701770782
-152.407608032227 -71.168083190918 -235.236907958984 1.872576475143
74.075828552246 -73.997642517090 -229.872055053711 1.325137853622
67.929679870605 -73.209243774414 -236.998535156250 1.932644724846
-159.418869018555 -71.270561218262 -235.993515014648 1.838590979576
70.278884887695 -72.983947753906 -232.626770019531 1.261276125908
-18.294330596924 -73.768783569336 -236.674179077148 1.364318013191
9.933624267578 -73.260330200195 -234.726974487305 0.664369821548
5.842785835266 -74.205490112305 -235.713989257813 2.589524745941
-152.173156738281 -71.470977783203 -245.333312988281 1.899232387543
12.892573356628 -73.260101318359 -240.185791015625 0.649699687958
63.966396331787 -74.219841003418 -236.163131713867 1.163749933243
14.045880317688 -72.854148864746 -236.851608276367 1.468508720398
6.775257110596 -74.491874694824 -241.454635620117 1.317097544670
-5.955432891846 -73.806724548340 -241.100814819336 0.711517512798
-19.733171463013 -72.863098144531 -242.368148803711 1.200136661530
-0.200110003352 -72.937835693359 -243.484634399414 0.495118677616
2.669928073883 -74.375030517578 -242.608657836914 0.679407358170
57.735847473145 -73.884437561035 -241.816696166992 1.951270461082
-56.237129211426 -72.266891479492 -244.565063476563 0.836279392242
18.708524703979 -72.838737487793 -245.587387084961 0.910797476768
-61.323329925537 -73.784111022949 -244.312255859375 0.608753383160
-8.355282783508 -72.997856140137 -247.078796386719 0.819389760494
-64.410789489746 -71.255592346191 -249.726974487305 1.526466727257
-86.183975219727 -73.416687011719 -251.658050537109 0.604640007019
-82.719512939453 -71.830932617188 -249.486877441406 1.363703370094
-12.131157875061 -72.744209289551 -251.751373291016 0.505644917488
-124.171997070313 -71.104698181152 -255.499160766602 0.430443942547
-13.940819740295 -74.082710266113 -254.917266845703 0.345177173615
-116.749687194824 -72.281181335449 -257.521667480469 1.434199213982
-114.163597106934 -71.740409851074 -258.471252441406 1.408380031586
-102.814674377441 -71.737297058105 -259.548004150391 1.074079751968
-144.559265136719 -71.653488159180 -264.681304931641 1.366739511490
-145.354232788086 -70.730125427246 -266.054016113281 0.670318663120
-167.581237792969 -71.183166503906 -264.885589599609 1.890163302422
16.809656143188 -74.657234191895 -279.207183837891 0.959814071655
-54.059768676758 -71.987983703613 -285.776245117188 0.926348984241
-65.255744934082 -71.663444519043 -285.944519042969 0.808586359024
-41.643371582031 -73.527984619141 -285.854309082031 1.456809878349
-29.566452026367 -73.994682312012 -284.892364501953 0.765314698219
-96.827468872070 -71.710395812988 -286.941314697266 1.355921030045
-29.010215759277 -71.677230834961 -287.128906250000 1.545619010925
-4.477862834930 -73.729339599609 -286.741546630859 0.525968432426
-167.099517822266 -70.647163391113 -289.206817626953 1.549524307251
-11.162610054016 -73.548233032227 -286.447082519531 0.427424669266
8.194130897522 -73.806999206543 -287.637847900391 0.565273284912
14.733119964600 -74.444648742676 -288.310852050781 0.990405976772
-56.416133880615 -72.024421691895 -290.792480468750 0.903564512730
-29.707685470581 -71.517333984375 -290.351226806641 1.645491600037
14.392703056335 -72.043563842773 -291.348480224609 0.769805014133
-69.321235656738 -72.210296630859 -291.155944824219 0.572812020779
-36.540599822998 -72.012481689453 -290.700714111328 0.785090386868
-17.076499938965 -71.604827880859 -290.617828369141 0.619671106339
16.626897811890 -74.019149780273 -289.602416992188 0.875872015953
-10.224800109863 -72.674835205078 -291.527343750000 1.518458008766
3.521090984344 -71.760345458984 -291.627136230469 0.516711354256
14.355975151062 -72.672203063965 -293.019317626953 0.502112030983
-134.424301147461 -70.437744140625 -294.842163085938 1.316289305687
-144.266830444336 -72.764709472656 -301.468017578125 1.729328155518
-146.725738525391 -72.946678161621 -313.258483886719 1.465446829796
39.772148132324 -73.977142333984 -12.519924163818 2.351021051407
30.135742187500 -74.006248474121 -11.649991989136 3.062185764313
37.392551422119 -74.131988525391 -15.645255088806 2.933693885803
20.018552780151 -73.645935058594 -19.445396423340 3.049386501312
43.362468719482 -74.163352966309 -20.516880035400 2.497766256332
23.937776565552 -74.701141357422 -21.921312332153 2.592640876770
23.517719268799 -74.591209411621 -28.611467361450 2.642131328583
21.473363876343 -74.672531127930 -33.868526458740 3.084578275681
42.422271728516 -73.816139221191 -30.098154067993 3.304602622986
26.297773361206 -74.581924438477 -34.101585388184 2.683031797409
41.331871032715 -74.106124877930 -34.094604492188 2.935614109039
30.891548156738 -74.481513977051 -36.378719329834 2.638701915741
35.512180328369 -74.355667114258 -36.344505310059 2.683745145798
30.822271347046 -74.619148254395 -39.322566986084 2.610600709915
40.700847625732 -74.055450439453 -39.271602630615 2.090425491333
35.112167358398 -74.300765991211 -40.798549652100 2.630005121231
-39.289161682129 -70.674415588379 -49.437610626221 1.253287076950
-31.573123931885 -70.289733886719 -51.344596862793 2.662572383881
-88.444931030273 -68.523612976074 -56.788940429688 1.500696182251
-87.903480529785 -73.786987304688 -64.753082275391 1.487021684647
78.743988037109 -75.599433898926 -69.251220703125 2.696066617966
83.659851074219 -75.994377136230 -71.105308532715 2.101133823395
-18.267995834351 -72.109680175781 -71.062713623047 1.434572219849
-89.107765197754 -75.410980224609 -71.211700439453 1.965957045555
-25.917644500732 -73.966148376465 -76.565742492676 1.021078467369
-50.428672790527 -73.275955200195 -85.302833557129 1.491681218147
65.340896606445 -70.834190368652 -85.004684448242 2.342604637146
53.275558471680 -74.283683776855 -91.341583251953 1.355269074440
99.078506469727 -74.036933898926 -90.015090942383 1.651799201965
69.769851684570 -73.883575439453 -95.002532958984 2.517460823059
-65.948204040527 -75.821182250977 -93.933464050293 1.567525744438
-66.408523559570 -74.200035095215 -96.385070800781 1.770480155945
44.709854125977 -75.779655456543 -96.397705078125 2.613421201706
77.004943847656 -74.267303466797 -101.575439453125 2.250103473663
52.958286285400 -76.862403869629 -103.532272338867 1.954511284828
100.045082092285 -74.161216735840 -97.102272033691 2.691896915436
-96.443786621094 -71.742568969727 -106.995292663574 2.965371847153
36.935863494873 -75.390075683594 -111.638053894043 1.681954383850
105.917373657227 -74.335411071777 -105.947593688965 1.790606498718
46.885749816895 -73.413909912109 -109.881996154785 2.307636022568
102.648780822754 -74.239730834961 -106.391967773438 2.730951547623
-87.016395568848 -73.938781738281 -112.361373901367 0.969674944878
35.853176116943 -75.564384460449 -109.516510009766 1.604006528854
105.078025817871 -74.937118530273 -115.442741394043 2.448741197586
104.298049926758 -73.184669494629 -113.650382995605 1.949417829514
107.591484069824 -74.518608093262 -113.560752868652 0.992102205753
109.125831604004 -74.641426086426 -114.053649902344 1.270849585533
37.596233367920 -72.812988281250 -112.415443420410 2.336009025574
31.102018356323 -75.180625915527 -119.036369323730 1.925662636757
43.221298217773 -73.750930786133 -115.807167053223 2.007059812546
109.033790588379 -74.277885437012 -121.607055664063 2.046521902084
38.153999328613 -73.402534484863 -125.054840087891 2.869878292084
107.611389160156 -74.529678344727 -129.909408569336 1.601072907448
112.108886718750 -73.871215820313 -129.414138793945 2.363281250000
33.132884979248 -73.415634155273 -123.011604309082 1.628314018250
-77.604560852051 -71.286201477051 -128.984634399414 1.401375651360
115.708999633789 -74.457450866699 -133.677001953125 1.045931577682
-56.987987518311 -72.903831481934 -136.156173706055 1.282146215439
36.164524078369 -74.227767944336 -134.861892700195 1.997715830803
-73.264480590820 -73.051582336426 -138.064727783203 1.237903356552
28.683454513550 -73.501411437988 -133.657806396484 1.805031180382
-78.028572082520 -72.379058837891 -141.133789062500 1.679782390594
-45.656021118164 -74.930679321289 -141.648513793945 1.093972563744
-72.143035888672 -70.785469055176 -137.371093750000 1.945108652115
111.364372253418 -73.922348022461 -137.085540771484 1.442251801491
112.580825805664 -73.977470397949 -140.729263305664 1.090745210648
116.084068298340 -75.998329162598 -142.937286376953 1.429789662361
-72.832771301270 -70.445098876953 -144.166320800781 0.873932898045
9.616566658020 -71.300186157227 -150.363723754883 1.285575389862
-54.602386474609 -73.471717834473 -151.624130249023 1.409584283829
-49.539566040039 -72.993072509766 -155.753204345703 0.658982574940
107.930839538574 -73.857391357422 -157.744644165039 1.383687496185
-42.958522796631 -73.011474609375 -150.569335937500 0.835952103138
12.718324661255 -73.302734375000 -156.049301147461 1.483073592186
21.654750823975 -73.638648986816 -157.505264282227 1.394681096077
114.736534118652 -75.566268920898 -162.439620971680 0.587202191353
28.571897506714 -74.089469909668 -162.695877075195 1.403741836548
-1.457339048386 -73.772354125977 -162.523239135742 0.996079325676
31.249263763428 -74.399169921875 -160.938385009766 1.472791790962
-68.415901184082 -70.956016540527 -159.994064331055 0.849444746971
-64.991737365723 -71.652778625488 -159.119293212891 0.857846975327
-67.965568542480 -73.082908630371 -164.566833496094 1.083143949509
114.711654663086 -73.106346130371 -159.568252563477 1.978544354439
-44.694446563721 -72.385650634766 -162.703079223633 0.883862793446
19.736755371094 -73.917541503906 -165.669342041016 1.317232131958
-64.424491882324 -72.861053466797 -169.122894287109 1.551330447197
-60.932476043701 -72.728477478027 -170.975173950195 1.207434892654
-38.933834075928 -72.261505126953 -159.123443603516 0.931420981884
-32.055797576904 -72.480796813965 -169.794815063477 1.637682199478
113.366119384766 -74.716941833496 -169.646636962891 1.799485325813
-36.840343475342 -72.390701293945 -176.303466796875 1.930220961571
15.597878456116 -74.123901367188 -173.829925537109 2.218703746796
110.708686828613 -75.429519653320 -180.227676391602 2.249410867691
-148.598510742188 -72.594833374023 -176.388290405273 1.234987735748
-145.496902465820 -72.310028076172 -176.407196044922 1.253601312637
-151.642669677734 -71.144882202148 -177.760940551758 1.405014753342
-143.206634521484 -70.926490783691 -180.812576293945 1.759969472885
-30.630348205566 -72.589500427246 -186.269210815430 1.109902024269
-22.954618453979 -72.142700195313 -185.892257690430 1.378583788872
22.509105682373 -73.149070739746 -188.468078613281 2.605736017227
-142.790740966797 -71.025794982910 -187.286514282227 1.242622733116
-146.479507446289 -71.472465515137 -188.456100463867 1.394144892693
-20.284906387329 -70.362876892090 -187.791305541992 0.976737201214
13.316731452942 -74.613143920898 -181.884902954102 1.892147064209
-148.139358520508 -71.744667053223 -192.642044067383 0.958616554737
-31.730600357056 -74.616958618164 -185.586074829102 1.945706605911
100.462539672852 -73.639877319336 -187.311248779297 2.942995548248
107.690795898438 -75.089920043945 -188.685348510742 1.641979575157
22.822696685791 -71.970825195313 -192.892227172852 1.535934925079
-18.505512237549 -73.695404052734 -188.223632812500 1.220269918442
-26.450454711914 -74.086967468262 -194.015014648438 0.852961063385
-153.891387939453 -70.505432128906 -196.196792602539 1.500276327133
-132.305603027344 -72.066368103027 -197.273086547852 1.376475930214
-124.457351684570 -70.888214111328 -195.905014038086 1.298597455025
-122.468368530273 -70.180175781250 -198.161514282227 1.172029495239
-23.467573165894 -70.499740600586 -197.597198486328 0.773941516876
10.173418045044 -73.415428161621 -192.525375366211 1.584499478340
94.379020690918 -73.396469116211 -200.009201049805 0.614923059940
-148.095138549805 -70.319252014160 -197.646087646484 1.535547018051
-146.382751464844 -70.717369079590 -198.858169555664 1.271819829941
-149.550521850586 -69.927581787109 -199.044525146484 1.461774945259
-155.152404785156 -70.258369445801 -199.594772338867 1.993313193321
-26.111984252930 -73.546142578125 -199.270019531250 0.625049173832
-14.515870094299 -75.333374023438 -195.928848266602 0.550501227379
-148.681015014648 -70.745307922363 -201.311401367188 1.430136084557
-15.867762565613 -72.472541809082 -198.956451416016 1.055505275726
-162.650924682617 -70.424133300781 -199.135223388672 1.611315250397
-133.987808227539 -71.588500976563 -200.109130859375 1.240411281586
16.859973907471 -72.096092224121 -206.764205932617 1.360145807266
-164.003570556641 -70.488471984863 -204.187545776367 1.652962565422
-145.724197387695 -71.081336975098 -206.490188598633 1.363014221191
10.432241439819 -72.686607360840 -199.932785034180 1.723547101021
-153.711196899414 -70.340522766113 -203.648468017578 1.784059405327
-23.299102783203 -73.310012817383 -200.055206298828 1.340579628944
102.520515441895 -73.629287719727 -198.943572998047 2.364992141724
-156.033828735352 -70.677993774414 -215.884506225586 1.795252442360
-164.746154785156 -70.922752380371 -210.306976318359 1.278522372246
-78.640602111816 -71.273895263672 -211.097137451172 0.847664475441
87.969535827637 -73.388618469238 -209.707366943359 1.647825121880
-3.704905986786 -71.372367858887 -215.810058593750 0.668581664562
-151.284423828125 -70.510566711426 -213.480422973633 1.739074110985
-88.249961853027 -70.727745056152 -214.868911743164 1.623512983322
-8.375052452087 -73.156379699707 -211.628067016602 2.107760667801
14.838841438293 -73.359764099121 -222.345184326172 0.757368564606
-146.193069458008 -71.658088684082 -219.038299560547 1.270575881004
-2.923472881317 -73.098731994629 -220.680145263672 1.378860592842
-22.296993255615 -71.098632812500 -220.900451660156 1.234819650650
-14.697018623352 -70.539817810059 -218.667831420898 0.963707149029
88.222473144531 -73.583816528320 -215.075149536133 1.552967309952
-21.972482681274 -71.920562744141 -217.886779785156 0.700502932072
-28.844854354858 -72.284828186035 -215.628112792969 1.166934251785
-107.213691711426 -71.148262023926 -223.624160766602 1.141793131828
-15.467735290527 -71.921882629395 -221.996627807617 1.256255269051
89.947723388672 -72.383834838867 -218.369216918945 1.251212477684
81.278869628906 -73.412895202637 -217.947570800781 1.503457188606
5.155741214752 -73.539299011230 -220.193984985352 1.305782437325
-10.620022773743 -73.384445190430 -224.960083007813 0.392254173756
77.878684997559 -74.788825988770 -221.999847412109 1.626586318016
-123.869453430176 -71.098823547363 -225.191162109375 0.821440517902
-23.442714691162 -71.688430786133 -222.342727661133 0.580079793930
-99.702262878418 -70.648544311523 -224.287216186523 0.653668820858
-105.283096313477 -71.404357910156 -226.528884887695 0.856406986713
-134.859680175781 -71.997886657715 -227.993576049805 1.460821032524
81.684860229492 -72.764793395996 -223.713531494141 1.833870291710
-123.951026916504 -70.898986816406 -227.375427246094 1.328153967857
5.605510234833 -73.094284057617 -227.646438598633 0.252916783094
80.121444702148 -72.887977600098 -223.394088745117 1.965179920197
-14.474805831909 -72.669349670410 -225.449478149414 0.722515106201
-12.125052452087 -72.796188354492 -230.568084716797 1.801675319672
-4.920611858368 -73.474464416504 -229.511840820313 0.610733091831
8.227139472961 -72.691246032715 -226.557876586914 1.065679907799
85.895301818848 -73.930366516113 -223.950012207031 1.647001862526
11.105013847351 -72.168014526367 -231.704666137695 0.689858257771
3.351509094238 -73.864143371582 -228.671966552734 0.893084824085
-8.935507774353 -72.856697082520 -229.892166137695 0.173521012068
-6.770491123199 -72.055236816406 -233.199981689453 0.575833201408
16.638610839844 -72.034927368164 -231.268142700195 0.746935904026
-12.255966186523 -72.306213378906 -233.660812377930 0.556997239590
71.371398925781 -73.748710632324 -237.414596557617 1.235030412674
-8.009095191956 -71.092712402344 -237.431808471680 0.547209858894
18.520633697510 -73.922264099121 -235.493041992188 0.547459125519
-166.377532958984 -71.244819641113 -242.172637939453 1.591147422791
-4.821395874023 -72.167106628418 -238.863815307617 0.556171834469
-9.333319664001 -71.013702392578 -241.684997558594 0.803642153740
-167.895233154297 -69.743011474609 -252.067886352539 1.943191051483
-10.384313583374 -72.665863037109 -244.990234375000 0.520880162716
16.911657333374 -72.016227722168 -246.144729614258 0.844869732857
-146.535873413086 -72.404464721680 -252.357742309570 1.357983112335
-68.836074829102 -70.070594787598 -247.926879882813 1.642093300819
-60.610397338867 -71.199531555176 -246.624664306641 1.124221086502
54.069114685059 -73.408645629883 -246.226272583008 2.303105115891
-77.232261657715 -71.623733520508 -248.136245727539 1.622272253036
18.393234252930 -73.736076354980 -248.726959228516 0.996211290359
-73.462364196777 -70.209930419922 -252.315612792969 1.204434156418
-14.408331871033 -72.814315795898 -250.757293701172 0.910504758358
-145.745361328125 -71.442810058594 -253.364471435547 1.642795562744
48.859272003174 -72.953979492188 -248.011795043945 1.345163345337
-78.427810668945 -70.384178161621 -253.895050048828 0.595085620880
-101.900955200195 -70.521514892578 -254.776214599609 1.311188578606
-97.595466613770 -72.533027648926 -255.216476440430 1.132787704468
-117.382011413574 -72.143257141113 -255.725143432617 0.592247426510
-105.245872497559 -72.110687255859 -257.103302001953 0.765116333961
-106.928337097168 -72.050071716309 -259.516998291016 1.098191499710
22.584358215332 -74.317039489746 -260.004364013672 0.626223742962
-127.367820739746 -70.216133117676 -265.205810546875 1.365768432617
-11.155531883240 -72.971214294434 -276.263824462891 1.497860789299
-145.607711791992 -70.552467346191 -282.196929931641 0.462708562613
-168.499862670898 -70.567672729492 -284.034637451172 1.033160448074
-124.660385131836 -71.200172424316 -286.357788085938 0.992153227329
-114.046005249023 -69.683044433594 -287.220489501953 0.805609226227
-75.202346801758 -69.058837890625 -287.249359130859 1.111114025116
-56.733577728271 -70.223670959473 -286.648590087891 1.236582517624
-42.910175323486 -71.453598022461 -286.584472656250 0.818426609039
-14.898569107056 -71.633033752441 -287.441864013672 0.587685227394
-13.853814125061 -70.892639160156 -288.819274902344 0.875480055809
-37.597656250000 -70.750999450684 -288.804260253906 1.427389979362
-34.053787231445 -70.961257934570 -288.711090087891 3.195735216141
-18.347103118896 -71.039810180664 -288.893341064453 1.508121252060
-69.237312316895 -70.619544982910 -290.956146240234 0.535543322563
-54.024944305420 -71.065589904785 -290.552093505859 1.293997168541
-15.405402183533 -70.811317443848 -290.689331054688 0.608936190605
-13.421115875244 -71.849876403809 -290.764556884766 0.595004081726
-3.847105979919 -70.921119689941 -290.305938720703 0.540552377701
2.320924997330 -71.491897583008 -290.772064208984 1.145189523697
-89.513633728027 -71.307189941406 -291.993774414063 0.903505980968
-142.239822387695 -69.457527160645 -293.133819580078 1.260852456093
-117.638595581055 -71.348785400391 -292.683929443359 1.512755870819
-153.762771606445 -72.008895874023 -297.460845947266 0.840066015720
-154.354583740234 -70.166435241699 -299.994934082031 1.199939370155
-145.645996093750 -71.517349243164 -300.005828857422 1.216853737831
45.419647216797 -73.978782653809 -18.106040954590 2.408472061157
18.725761413574 -73.487449645996 -22.960468292236 3.010386705399
47.884441375732 -73.967720031738 -26.068582534790 2.573065280914
46.210395812988 -74.021553039551 -33.283699035645 3.110429286957
85.781272888184 -74.048942565918 -66.660263061523 2.914867639542
94.140510559082 -74.536239624023 -71.866119384766 2.610529422760
100.110626220703 -72.439743041992 -79.535285949707 2.836529016495
97.597564697266 -75.585693359375 -81.148254394531 1.929670691490
57.690277099609 -74.136047363281 -87.365776062012 2.536509037018
47.876171112061 -75.129028320313 -93.029777526855 2.318254470825
62.457496643066 -72.578170776367 -89.807929992676 2.766963243484
-65.279106140137 -68.952804565430 -91.650062561035 1.314818859100
68.332191467285 -75.030364990234 -87.853660583496 2.420309782028
101.647750854492 -72.804885864258 -96.700332641602 1.675718069077
73.995742797852 -75.373847961426 -98.833755493164 2.232570886612
95.277175903320 -73.643951416016 -100.118309020996 1.869057297707
-81.507110595703 -72.716949462891 -100.772590637207 1.223200440407
43.279685974121 -73.719711303711 -101.030113220215 2.559052944183
-84.675315856934 -72.354423522949 -105.881103515625 1.176754355431
49.645496368408 -75.010566711426 -110.038619995117 1.693708062172
39.068580627441 -73.349212646484 -103.897911071777 2.074838399887
105.661972045898 -73.650421142578 -102.218185424805 0.436689436436
37.525321960449 -72.247650146484 -107.754844665527 2.196000576019
38.447891235352 -71.976119995117 -114.106742858887 1.238403797150
42.720123291016 -71.709655761719 -112.397468566895 2.580946445465
107.069801330566 -73.181571960449 -112.993812561035 1.024293422699
-83.141502380371 -71.192680358887 -120.861442565918 1.068150877953
110.476280212402 -73.076187133789 -125.272979736328 1.018935441971
36.704620361328 -72.406127929688 -123.219734191895 1.583507537842
40.904930114746 -71.386505126953 -120.168128967285 1.809267878532
35.475292205811 -72.420631408691 -121.992744445801 1.865880846977
-57.580402374268 -72.501632690430 -129.827545166016 0.568151116371
30.369234085083 -72.712707519531 -123.356010437012 1.920280575752
-77.057350158691 -73.305046081543 -136.758758544922 1.079453229904
-56.530601501465 -71.951316833496 -132.891677856445 1.055236220360
-80.086402893066 -70.883163452148 -134.901138305664 1.667335033417
32.900440216064 -72.056762695313 -128.143463134766 1.937064886093
-59.619731903076 -70.829818725586 -133.950653076172 1.476298570633
34.261440277100 -72.085762023926 -133.565811157227 2.133003234863
-73.808181762695 -70.803733825684 -139.643798828125 0.943337976933
-59.810874938965 -73.350715637207 -138.079895019531 1.829885601997
28.354831695557 -72.180000305176 -139.021331787109 1.415938019753
108.539970397949 -74.954025268555 -142.585067749023 2.511289358139
115.229782104492 -72.458473205566 -135.390914916992 1.626183390617
30.661621093750 -71.771224975586 -138.845123291016 1.659078240395
-46.041313171387 -70.629394531250 -141.040924072266 1.023667931557
109.076919555664 -72.874359130859 -150.521408081055 0.486692458391
-74.634994506836 -71.287887573242 -144.291320800781 1.025886535645
-59.425086975098 -71.930442810059 -142.698638916016 1.129843473434
30.758249282837 -73.033081054688 -149.313415527344 2.094748497009
-76.896072387695 -71.451004028320 -146.717147827148 1.144566893578
-71.785758972168 -72.214889526367 -151.191116333008 1.874252080917
115.956230163574 -73.715171813965 -149.083663940430 1.095540404320
-65.552627563477 -72.809600830078 -154.279174804688 1.744635462761
-39.609375000000 -71.845382690430 -153.228027343750 1.249124407768
27.097803115845 -71.243927001953 -147.942398071289 0.861184477806
-75.698440551758 -71.172012329102 -149.578277587891 0.907315433025
11.691193580627 -73.330009460449 -151.048049926758 1.937773466110
31.160047531128 -71.736701965332 -154.031814575195 0.973973810673
29.740760803223 -71.889488220215 -147.112091064453 2.571976423264
11.144565582275 -74.544708251953 -154.718276977539 1.008081316948
-49.130710601807 -70.925331115723 -153.755569458008 0.926938652992
27.001064300537 -70.911575317383 -152.779251098633 1.491805791855
-45.470214843750 -71.138938903809 -148.610214233398 1.007445454597
6.323668003082 -72.486213684082 -153.464035034180 1.157027840614
21.650461196899 -72.107078552246 -149.570297241211 1.645308613777
-72.388259887695 -71.774307250977 -155.767944335938 1.739746332169
-46.124649047852 -70.147964477539 -154.064987182617 0.919616281986
-68.130798339844 -70.128356933594 -156.939834594727 1.803384423256
14.016502380371 -71.735343933105 -157.842926025391 1.039091944695
24.574960708618 -71.904609680176 -149.695938110352 2.190785884857
1.956701993942 -71.885963439941 -160.918716430664 0.978272438049
19.701721191406 -73.789703369141 -155.753540039063 1.692797064781
30.267747879028 -73.332786560059 -164.046539306641 1.095803618431
-48.158580780029 -73.192253112793 -161.754501342773 0.767566978931
-34.574081420898 -72.186897277832 -161.112731933594 0.899715006351
-40.125869750977 -71.051437377930 -160.286834716797 0.906541049480
27.335187911987 -71.801681518555 -160.202972412109 1.625805735588
-44.358852386475 -72.115577697754 -167.666168212891 1.387243032455
-41.250698089600 -70.872322082520 -162.289230346680 1.561872005463
19.950366973877 -72.198043823242 -166.121810913086 1.032598614693
-40.829265594482 -71.708847045898 -173.099960327148 0.818465113640
28.242605209351 -72.154220581055 -169.716720581055 1.602099299431
113.224403381348 -72.702857971191 -166.544143676758 2.270128011703
-32.885826110840 -71.066741943359 -171.603652954102 0.854797244072
106.451293945313 -72.307716369629 -172.017974853516 1.592360496521
-35.172737121582 -71.123451232910 -176.481536865234 0.810129225254
-37.096904754639 -72.234123229980 -180.134918212891 0.750047266483
17.700159072876 -73.531303405762 -174.479553222656 1.242739439011
104.003662109375 -72.222915649414 -181.235122680664 2.607052087784
-29.404441833496 -71.047538757324 -184.549072265625 0.776620924473
-34.354831695557 -70.617599487305 -173.860870361328 1.052403330803
-24.555299758911 -70.990776062012 -185.565795898438 1.489822506905
-149.414413452148 -71.303283691406 -188.305435180664 0.608518064022
15.268228530884 -72.208610534668 -182.944595336914 1.626434326172
105.938217163086 -72.069320678711 -188.282455444336 2.586059808731
-156.279037475586 -69.841224670410 -194.826049804688 1.395395874977
-27.046167373657 -71.554740905762 -191.713531494141 0.741210281849
-116.132629394531 -70.674560546875 -196.636825561523 1.107468366623
-134.525314331055 -70.597900390625 -197.666625976563 1.281144380569
-110.580444335938 -69.803825378418 -199.430877685547 1.055261015892
-112.170005798340 -70.754196166992 -200.569534301758 1.001500010490
-14.861586570740 -71.354057312012 -196.191513061523 0.768420934677
20.016136169434 -72.950462341309 -196.060607910156 1.250948309898
-16.179601669312 -69.940353393555 -201.322540283203 0.700886011124
-124.495468139648 -70.585533142090 -204.803405761719 0.709628999233
-22.108713150024 -70.346191406250 -205.934890747070 2.090174674988
-132.208374023438 -71.537475585938 -203.342254638672 1.260220289230
-13.856590270996 -72.309165954590 -202.709625244141 0.578801870346
-144.759155273438 -69.823776245117 -205.550781250000 1.439628362656
91.391159057617 -71.962287902832 -206.511245727539 2.794315099716
-165.647384643555 -70.083534240723 -202.615768432617 0.890166640282
-4.631368160248 -74.071182250977 -213.369338989258 1.920727252960
9.673163414001 -71.410057067871 -208.809158325195 1.198335886002
10.076741218567 -70.874778747559 -216.245498657227 2.605980873108
82.778556823730 -71.977836608887 -217.159683227539 1.527047991753
6.389210224152 -71.925559997559 -212.194503784180 1.393694758415
14.289623260498 -71.439468383789 -213.884292602539 0.845185697079
-16.349809646606 -73.909904479980 -216.636871337891 1.548072695732
-91.042877197266 -69.662139892578 -217.495452880859 0.650552928448
-97.527626037598 -70.819458007813 -216.587142944336 0.988086998463
-4.360509872437 -70.342712402344 -220.628158569336 1.393479108810
-166.661544799805 -70.018058776855 -223.823547363281 1.763230204582
12.823471069336 -71.446960449219 -221.939437866211 1.553141593933
-144.801971435547 -69.685218811035 -223.689132690430 1.669600486755
11.381498336792 -71.349975585938 -224.694961547852 1.060330271721
-133.913833618164 -70.164237976074 -225.072525024414 0.474708378315
-117.234657287598 -70.902076721191 -225.479873657227 1.060817718506
15.416479110718 -70.889785766602 -221.709167480469 0.931726336479
76.062675476074 -72.023361206055 -223.917861938477 1.396088480949
7.257915019989 -70.271125793457 -222.810485839844 0.372489750385
-112.052101135254 -70.780029296875 -230.281021118164 1.272382259369
76.546470642090 -72.075294494629 -227.755584716797 1.370444893837
80.932228088379 -72.231529235840 -228.963897705078 1.409978985786
-123.635925292969 -70.401817321777 -232.431350708008 1.349975228310
-114.378044128418 -70.892173767090 -231.589431762695 1.288247823715
-11.688401222229 -71.096076965332 -230.644470214844 1.381721973419
71.499023437500 -72.910102844238 -228.150405883789 1.310706019402
64.395370483398 -72.606315612793 -234.271499633789 1.183778882027
74.832717895508 -71.834571838379 -230.684371948242 1.214628815651
-133.556030273438 -69.341384887695 -234.993865966797 1.132311701775
71.545837402344 -72.362716674805 -234.748580932617 0.471562683582
66.564582824707 -71.792449951172 -235.367004394531 1.746729016304
-166.850936889648 -70.274269104004 -229.468811035156 0.438528031111
-0.041542999446 -73.866844177246 -238.574172973633 0.584583759308
16.738842010498 -71.774833679199 -239.958389282227 0.676509439945
-6.218742847443 -70.721710205078 -238.996093750000 0.624776482582
13.247069358826 -70.597343444824 -239.053955078125 0.653833329678
64.215316772461 -72.648124694824 -238.343139648438 1.259354829788
11.009242057800 -71.478591918945 -240.854507446289 0.913193643093
-10.144825935364 -67.758598327637 -241.625534057617 0.514008224010
1.228242039680 -70.003356933594 -240.586532592773 0.672057986259
64.754966735840 -72.849922180176 -242.526916503906 1.402925252914
5.413657188416 -72.936485290527 -242.608627319336 0.753632366657
-8.957706451416 -71.804908752441 -243.005676269531 0.525971770287
13.264638900757 -71.630554199219 -244.351928710938 0.537906289101
-167.684402465820 -69.166305541992 -241.727203369141 1.142252922058
58.674530029297 -70.544029235840 -247.009918212891 1.321119666100
51.731391906738 -70.698966979980 -246.974136352539 1.545790553093
55.282970428467 -72.632095336914 -241.858596801758 1.125376582146
-12.354791641235 -71.541336059570 -247.765502929688 1.000373959541
57.091209411621 -72.889335632324 -246.538528442383 1.880928874016
-73.104438781738 -69.983383178711 -248.198898315430 0.664515912533
51.362255096436 -72.154075622559 -249.200927734375 0.932141184807
-91.149055480957 -71.408393859863 -251.986709594727 1.322030425072
-125.885780334473 -71.372619628906 -254.602844238281 1.517017960548
-133.503021240234 -69.465950012207 -254.487640380859 1.597179174423
43.661804199219 -72.176826477051 -252.232772827148 1.248245596886
-136.102096557617 -70.855461120605 -256.088989257813 1.418327808380
-110.819953918457 -70.829963684082 -257.214202880859 0.953834831715
-113.951232910156 -68.696044921875 -257.028289794922 0.807776927948
-82.971229553223 -71.173477172852 -255.275955200195 1.760108709335
-112.089157104492 -71.521965026855 -261.140014648438 1.539692163467
-124.181053161621 -71.392463684082 -262.314971923828 1.185871839523
-145.434860229492 -68.333244323730 -266.401947021484 1.691851973534
-15.708299636841 -71.108650207520 -261.891998291016 0.745685100555
-168.073059082031 -69.340881347656 -264.290740966797 1.102383852005
-14.340188980103 -71.811119079590 -271.721099853516 0.910704195499
-159.932205200195 -68.479896545410 -267.936767578125 1.925317406654
-152.889739990234 -68.536384582520 -275.667388916016 2.124125242233
-168.504089355469 -69.566886901855 -277.765991210938 2.533946514130
-12.875194549561 -69.975379943848 -274.807617187500 0.773645162582
-133.961700439453 -70.726844787598 -284.174072265625 0.722953259945
-160.022033691406 -69.214965820313 -286.487701416016 1.714332938194
-145.641128540039 -69.371871948242 -282.168945312500 1.600360751152
-135.162551879883 -72.318183898926 -285.097778320313 1.440756440163
-8.418687820435 -69.310966491699 -284.857177734375 1.322948455811
-125.652442932129 -72.664207458496 -284.718750000000 1.270275473595
-141.803970336914 -70.400222778320 -285.566711425781 1.635665535927
-116.698524475098 -69.870506286621 -286.345397949219 0.999980688095
-75.892990112305 -70.612899780273 -286.449462890625 1.164177298546
-62.656429290771 -69.432357788086 -287.402404785156 1.067052006721
-5.663001060486 -71.028800964355 -287.904541015625 0.892264068127
-53.033458709717 -70.047340393066 -289.287628173828 0.963983952999
-58.189804077148 -69.496017456055 -288.642822265625 0.986328065395
-69.120407104492 -69.286788940430 -290.465026855469 1.089610338211
-86.759208679199 -70.741279602051 -291.474029541016 1.449047327042
-98.333053588867 -67.734214782715 -291.062957763672 1.442586183548
-162.326828002930 -67.859107971191 -291.720855712891 2.656831741333
-162.781768798828 -70.392868041992 -292.595977783203 1.450645923615
-125.800659179688 -70.881469726563 -295.047760009766 1.784977436066
-145.411209106445 -70.584114074707 -296.410339355469 1.950885295868
-155.845413208008 -70.774627685547 -301.373168945313 1.516441941261
-147.509201049805 -69.385055541992 -313.539916992188 1.816628694534
45.923454284668 -72.435134887695 -17.131418228149 0.957880675793
18.547534942627 -73.982368469238 -26.603872299194 2.949194908142
39.902179718018 -73.095199584961 -33.400657653809 2.723995208740
-18.077938079834 -74.684921264648 -66.729011535645 2.256482362747
81.064537048340 -72.665000915527 -64.798858642578 3.441366195679
84.593505859375 -71.702301025391 -65.369476318359 2.907223463058
75.502113342285 -72.577178955078 -65.619964599609 2.810128450394
72.773490905762 -72.865806579590 -67.678161621094 2.865191936493
90.509643554688 -76.154716491699 -72.509666442871 1.972141981125
-94.737205505371 -70.317977905273 -70.373748779297 1.766627788544
69.586448669434 -74.261489868164 -75.372344970703 2.677360773087
-37.899433135986 -70.238555908203 -76.645378112793 1.213718414307
99.094696044922 -73.880302429199 -86.051483154297 1.615987658501
58.751663208008 -72.811584472656 -89.721282958984 1.493510842323
105.146080017090 -74.682266235352 -95.327468872070 2.907411813736
103.901016235352 -73.121078491211 -96.988700866699 1.152932882309
69.491622924805 -72.100013732910 -98.712661743164 1.942131876945
-78.366798400879 -73.739074707031 -99.335731506348 1.745501279831
53.182056427002 -74.066848754883 -101.070739746094 0.889047920704
104.288681030273 -72.855522155762 -104.121612548828 0.789840579033
47.912155151367 -74.600646972656 -109.234100341797 1.809530019760
79.426437377930 -72.346412658691 -103.397102355957 1.298400521278
41.075431823730 -72.279129028320 -105.956954956055 1.805441021919
105.962158203125 -72.234947204590 -102.727340698242 1.063529968262
46.862266540527 -71.384826660156 -107.143775939941 2.470076084137
108.385833740234 -73.256278991699 -110.397819519043 1.986539363861
108.157608032227 -72.582336425781 -112.893905639648 0.867384850979
-79.173912048340 -70.935981750488 -113.871093750000 1.455295205116
-83.258590698242 -71.078758239746 -117.397499084473 1.407590746880
43.377471923828 -73.829002380371 -120.242073059082 2.202098369598
113.200141906738 -73.397994995117 -117.739540100098 2.108665704727
113.412826538086 -71.571701049805 -122.999191284180 2.605196714401
-85.191902160645 -70.750053405762 -127.385162353516 1.220595717430
106.608078002930 -72.530174255371 -122.739173889160 2.622832775116
-59.648342132568 -72.448226928711 -131.392379760742 1.553747057915
-86.926414489746 -70.760047912598 -126.150756835938 1.913595318794
-76.281364440918 -69.968963623047 -127.799926757813 1.068905949593
-58.389106750488 -68.389900207520 -126.480361938477 0.730716288090
30.174451828003 -71.081703186035 -128.515121459961 2.989316940308
38.602317810059 -73.566909790039 -132.258209228516 1.784327268600
-76.628135681152 -70.612770080566 -137.134002685547 1.743238806725
27.818847656250 -71.977615356445 -132.249420166016 1.784184455872
109.103622436523 -72.416145324707 -138.968704223633 0.880832016468
-44.058288574219 -70.531776428223 -145.963119506836 0.993541240692
24.905883789063 -69.645042419434 -147.240371704102 1.837429404259
114.475906372070 -71.588859558105 -144.693634033203 2.228007793427
33.982414245605 -71.514602661133 -142.845977783203 1.569894552231
110.611183166504 -71.408157348633 -141.929031372070 0.971343994141
-54.044773101807 -72.220726013184 -148.685668945313 1.353970766068
-68.416481018066 -70.374244689941 -149.823455810547 1.514364600182
-51.898620605469 -71.277046203613 -154.841293334961 1.748603224754
-41.809761047363 -71.158813476563 -164.580459594727 2.872564315796
5.944865226746 -70.223121643066 -155.651046752930 1.422069549561
110.817733764648 -71.358116149902 -153.507827758789 1.913855314255
109.244789123535 -72.079109191895 -156.846145629883 1.444889068604
7.909700870514 -69.922599792480 -158.022827148438 2.106498718262
4.790770053864 -72.686546325684 -162.204071044922 1.108648777008
15.282575607300 -72.792419433594 -156.581314086914 0.892852306366
24.380910873413 -70.838829040527 -155.177490234375 0.390604883432
110.466590881348 -71.222785949707 -165.234466552734 1.877231240273
106.785202026367 -73.114471435547 -167.199020385742 1.323936700821
23.180856704712 -69.851280212402 -171.077682495117 1.479856967926
25.624074935913 -70.921653747559 -161.208465576172 1.254841804504
112.753166198730 -71.442054748535 -160.908035278320 2.418397903442
-28.400161743164 -70.494575500488 -174.037841796875 0.899378478527
109.008415222168 -71.488349914551 -167.539154052734 1.843047618866
16.409648895264 -71.886489868164 -171.337661743164 1.226612687111
21.458879470825 -70.879821777344 -164.890930175781 0.781987607479
108.881050109863 -71.343055725098 -172.577621459961 1.883336663246
24.999845504761 -70.845130920410 -170.490432739258 1.312153458595
109.461143493652 -72.638336181641 -180.725875854492 1.872948050499
-38.272102355957 -69.868370056152 -174.502243041992 2.687750101089
26.351167678833 -70.253913879395 -173.313369750977 1.676335096359
106.404769897461 -71.412055969238 -181.658645629883 1.441584825516
