39.788349151611 -73.062057495117 -133.078521728516 1.163656830788
25.885946273804 -71.466377258301 -143.790756225586 2.361089944839
113.209945678711 -72.131713867188 -140.111450195313 1.321513891220
112.207221984863 -71.630409240723 -133.891769409180 1.376083970070
-73.681205749512 -74.590637207031 -148.495147705078 2.029057741165
-44.566143035889 -74.205680847168 -146.781265258789 1.985062241554
-71.065383911133 -73.168869018555 -149.635589599609 1.570398449898
21.437036514282 -73.526748657227 -152.130004882813 0.632367312908
113.276908874512 -72.491142272949 -151.229141235352 0.609754860401
-52.895790100098 -73.940048217773 -149.282180786133 1.196553111076
-69.579566955566 -72.805595397949 -149.369705200195 1.903325796127
-38.361320495605 -76.316413879395 -154.325103759766 0.847608625889
33.399837493896 -71.038398742676 -152.062591552734 2.495459318161
112.022956848145 -72.198318481445 -152.173278808594 1.519015073776
113.086692810059 -71.994781494141 -158.228530883789 0.857308924198
-68.206024169922 -72.233024597168 -153.845046997070 1.217265367508
-69.062202453613 -73.981452941895 -162.970962524414 0.549382328987
21.467683792114 -73.876739501953 -162.988769531250 1.380982160568
-59.711822509766 -73.249412536621 -166.772705078125 1.313351988792
-33.294021606445 -74.447326660156 -161.100814819336 1.058181166649
6.778131008148 -73.403503417969 -162.484405517578 0.838407218456
111.031303405762 -72.716651916504 -161.762023925781 0.487051725388
4.481171131134 -73.844940185547 -164.782623291016 0.938049852848
-33.443447113037 -74.239387512207 -165.504730224609 0.684823155403
0.510478973389 -73.316986083984 -167.475204467773 0.894464910030
109.168548583984 -72.307121276855 -169.890823364258 1.793706297874
-40.772586822510 -71.950813293457 -168.935012817383 1.482384204865
27.423578262329 -71.168907165527 -170.233032226563 1.919934868813
110.706481933594 -72.144744873047 -172.319549560547 2.462521076202
-57.338863372803 -72.762046813965 -177.380508422852 0.915387272835
-28.680353164673 -74.205345153809 -173.252929687500 1.615373492241
105.139114379883 -71.691589355469 -173.480804443359 1.058107256889
28.809362411499 -73.079460144043 -172.666610717773 1.469288706779
112.527694702148 -74.044288635254 -173.892807006836 1.380394697189
-36.894229888916 -73.629898071289 -176.662429809570 1.959285974503
106.301284790039 -72.283515930176 -180.355148315430 1.274226784706
-59.560466766357 -74.085479736328 -178.000091552734 2.081026554108
-25.010328292847 -75.648262023926 -180.748611450195 0.803413152695
-144.643371582031 -74.168388366699 -182.779434204102 0.524728178978
-54.284782409668 -73.696632385254 -183.780624389648 0.579244434834
-146.538681030273 -75.002487182617 -187.529312133789 1.158195137978
-32.487308502197 -73.000343322754 -187.791152954102 1.111541748047
23.445997238159 -73.480384826660 -186.600692749023 0.937221646309
107.694549560547 -72.165069580078 -182.763580322266 0.997479259968
-30.091306686401 -75.612319946289 -187.191238403320 1.408300757408
11.955384254456 -74.216430664063 -190.689666748047 1.585202336311
19.337249755859 -73.354187011719 -200.584777832031 0.901956439018
-146.229278564453 -75.495811462402 -193.154571533203 0.795658767223
102.835296630859 -72.310615539551 -194.854049682617 1.516705155373
-17.924636840820 -71.745109558105 -193.963821411133 1.304551005363
102.686248779297 -72.318199157715 -189.996536254883 1.767648220062
14.552027702332 -72.720466613770 -188.016342163086 1.588031530380
-131.732986450195 -74.307395935059 -201.157257080078 0.724436581135
-140.378082275391 -75.703491210938 -201.360870361328 0.779208421707
97.248321533203 -72.460685729980 -200.895904541016 1.432518839836
-11.863553047180 -75.552413940430 -201.448272705078 0.822035670280
-14.624705314636 -75.215751647949 -201.045425415039 1.730367183685
9.445720672607 -74.407394409180 -207.347045898438 1.195857763290
-149.957611083984 -72.461692810059 -206.192749023438 0.512639820576
-145.609069824219 -76.296989440918 -206.497375488281 0.834055960178
98.694992065430 -72.399734497070 -202.939529418945 0.993750631809
-78.038223266602 -73.886070251465 -209.782379150391 0.752072036266
-37.112632751465 -73.388175964355 -203.820220947266 1.371931791306
16.966142654419 -73.982719421387 -210.661300659180 2.229681968689
-25.952375411987 -74.133728027344 -211.899475097656 1.580241918564
-78.787353515625 -73.787467956543 -211.784179687500 0.479974895716
91.229431152344 -72.713272094727 -210.795684814453 1.320531368256
-82.147201538086 -73.491722106934 -213.253631591797 0.783248782158
-146.040145874023 -76.382156372070 -218.448059082031 0.885267853737
-79.143554687500 -74.515609741211 -214.943481445313 0.380339950323
-15.490935325623 -72.516296386719 -213.876785278320 1.238983869553
-20.709903717041 -72.854721069336 -217.339599609375 0.457205981016
18.924552917480 -72.322593688965 -211.371749877930 0.748360812664
-5.748062133789 -74.585464477539 -215.827941894531 2.483497142792
-87.778488159180 -73.168693542480 -218.826354980469 0.490382641554
92.199249267578 -72.562110900879 -213.325881958008 2.800859212875
-95.443229675293 -75.063880920410 -216.668228149414 0.638914883137
-149.388046264648 -76.577644348145 -222.916793823242 0.930411159992
-18.943817138672 -72.894233703613 -222.586120605469 0.642979145050
16.127376556396 -72.841941833496 -216.772415161133 0.692459940910
-101.504257202148 -73.801521301270 -220.597610473633 0.575652897358
7.774199962616 -74.057098388672 -221.258041381836 0.601673126221
-23.035259246826 -74.393760681152 -217.500503540039 0.464409977198
83.855827331543 -72.806648254395 -223.229598999023 1.181964039803
-146.301788330078 -76.138366699219 -222.774078369141 0.645929694176
4.553533077240 -71.866920471191 -225.957916259766 0.986599206924
-9.250251770020 -75.264923095703 -222.568603515625 2.379998207092
17.370063781738 -71.896018981934 -221.138824462891 1.813010931015
83.380332946777 -72.821159362793 -221.612884521484 0.584105551243
-11.999512672424 -73.516616821289 -227.748809814453 1.103244066238
-130.467315673828 -74.453956604004 -226.538467407227 1.954622149467
-11.794409751892 -74.857353210449 -225.212341308594 0.449889093637
17.113359451294 -75.249511718750 -234.254623413086 1.495971322060
-124.827926635742 -75.170387268066 -228.177993774414 0.590667545795
-148.523620605469 -73.204986572266 -227.947738647461 0.960978209972
-141.020614624023 -74.524490356445 -229.248886108398 0.900520622730
-134.412582397461 -74.311592102051 -230.978668212891 0.856357038021
-15.526217460632 -74.050811767578 -227.203506469727 1.263493299484
71.990287780762 -72.804733276367 -229.894775390625 1.302280783653
-141.223007202148 -74.093872070313 -232.141357421875 1.130053520203
74.430152893066 -74.319046020508 -229.684570312500 1.169846057892
-19.054141998291 -75.346229553223 -227.476501464844 1.812334656715
-141.522293090820 -78.489242553711 -231.863418579102 0.599717855453
78.762191772461 -72.418807983398 -228.294815063477 1.546128392220
9.199408531189 -74.939849853516 -235.976287841797 2.412130594254
-143.683822631836 -79.398200988770 -234.573333740234 0.852254211903
-150.562133789063 -74.304626464844 -235.798538208008 1.008188843727
15.760009765625 -72.736701965332 -233.000976562500 1.774903535843
-2.848316907883 -73.642181396484 -235.696838378906 1.211870193481
-24.456106185913 -74.355674743652 -238.181365966797 0.962304770947
-1.616196036339 -71.914085388184 -240.004837036133 0.609790742397
-160.923431396484 -74.942634582520 -238.190124511719 1.102091908455
11.512407302856 -74.855163574219 -245.102813720703 0.754038333893
-164.343933105469 -74.370613098145 -236.241653442383 1.401892423630
-13.933189392090 -74.952789306641 -238.352355957031 0.610906124115
65.990325927734 -73.603347778320 -239.356918334961 1.953769087791
-12.127666473389 -74.212242126465 -240.871292114258 0.365450233221
-24.489633560181 -72.691558837891 -240.239059448242 0.441253095865
-25.769493103027 -73.587661743164 -242.207489013672 1.810953855515
-15.754286766052 -73.009239196777 -242.596572875977 0.347124934196
-145.989974975586 -74.421546936035 -235.998092651367 0.934948623180
8.689232826233 -74.105255126953 -243.976104736328 0.918334305286
64.670127868652 -72.637451171875 -242.117889404297 1.666000366211
13.462309837341 -73.420440673828 -245.292572021484 0.496275305748
-161.229568481445 -74.346138000488 -240.451370239258 1.599035620689
-48.565746307373 -73.460876464844 -244.335647583008 1.086651921272
2.494968891144 -79.297019958496 -247.125885009766 0.517145037651
16.754121780396 -73.141510009766 -246.054397583008 0.515227496624
-54.614269256592 -73.043869018555 -247.302429199219 1.244657874107
-3.943583965302 -72.896644592285 -245.777938842773 1.179348111153
21.622117996216 -74.098899841309 -246.845550537109 0.861386060715
-164.641540527344 -74.868865966797 -249.010696411133 1.186600804329
-70.759796142578 -75.388587951660 -247.165390014648 0.849886357784
-50.059196472168 -74.558731079102 -247.369003295898 0.593345642090
-78.402694702148 -75.036598205566 -249.449340820313 0.499078184366
-159.321533203125 -74.542556762695 -248.615417480469 1.680564165115
-150.617462158203 -75.009674072266 -252.861267089844 0.986569702625
-59.089530944824 -75.047775268555 -249.843902587891 0.527186572552
-68.671653747559 -74.613571166992 -252.127273559570 0.442776143551
-153.304504394531 -74.512138366699 -254.348876953125 1.120094656944
-151.639007568359 -74.493293762207 -253.316390991211 1.101094961166
-77.358955383301 -74.531234741211 -254.064758300781 0.499515831470
-93.035919189453 -74.049400329590 -253.691406250000 1.509298443794
-165.880020141602 -74.647186279297 -250.994430541992 1.259395122528
-155.689666748047 -74.687202453613 -258.136077880859 1.225561141968
-133.591247558594 -74.871437072754 -255.962173461914 0.963279128075
-82.588279724121 -75.229461669922 -254.274093627930 0.884928524494
-162.572769165039 -74.783050537109 -252.678558349609 2.012588500977
-141.877487182617 -75.005111694336 -257.069702148438 0.674795508385
-85.809562683105 -74.022033691406 -255.873779296875 0.883127272129
-95.260925292969 -72.296470642090 -258.761993408203 0.837789297104
-147.757293701172 -74.952415466309 -257.943603515625 1.052568793297
-94.805564880371 -74.057731628418 -257.305786132813 1.037093639374
-149.258728027344 -74.644889831543 -257.831848144531 1.092619299889
-99.751792907715 -74.105430603027 -257.704833984375 0.768967807293
-164.706054687500 -75.239715576172 -260.020874023438 1.242340564728
-160.149932861328 -74.879341125488 -259.852447509766 1.204287767410
-123.808303833008 -74.501060485840 -258.032958984375 0.894179642200
-150.140792846680 -74.327514648438 -260.003814697266 0.966179072857
-114.662773132324 -74.368728637695 -261.275848388672 0.926156878471
-14.669635772705 -74.506553649902 -262.077178955078 0.302666664124
-142.522094726563 -74.782073974609 -262.464019775391 1.219386935234
-123.914649963379 -74.734069824219 -260.882385253906 0.908222913742
-155.162399291992 -74.799797058105 -262.437805175781 1.176085710526
22.074308395386 -74.078002929688 -268.863159179688 0.550719022751
-146.815536499023 -76.132942199707 -278.263854980469 1.354697346687
-166.986755371094 -75.340736389160 -277.751556396484 1.188922643661
-6.690990924835 -76.328681945801 -279.336730957031 0.457737147808
-146.798629760742 -76.199714660645 -282.951477050781 1.045996785164
-7.348598957062 -73.863945007324 -282.895904541016 1.195510625839
13.153186798096 -73.152153015137 -285.390411376953 0.410209387541
-135.544357299805 -75.825988769531 -286.923370361328 0.608988523483
-71.235176086426 -74.711090087891 -286.718078613281 0.740555942059
-32.999893188477 -74.668853759766 -286.548950195313 0.738908767700
-113.320907592773 -74.283775329590 -287.832183837891 1.243049979210
-92.241889953613 -75.438171386719 -291.238098144531 0.916572272778
-90.882003784180 -74.472244262695 -291.781463623047 1.390876054764
-47.712196350098 -75.117179870605 -291.226013183594 1.670356631279
-115.519004821777 -75.240852355957 -291.470123291016 1.005281925201
-110.420181274414 -75.146141052246 -290.954528808594 1.540461063385
-31.694347381592 -73.958953857422 -291.699829101563 0.337256073952
-112.977745056152 -73.741989135742 -292.398498535156 1.056075453758
-124.625076293945 -73.799537658691 -292.972137451172 1.138159990311
-143.276123046875 -75.290206909180 -292.952697753906 1.238488197327
7.756700992584 -73.103851318359 -292.952484130859 0.232841968536
14.603041648865 -75.094482421875 -294.302520751953 0.252171635628
-156.855895996094 -75.777679443359 -294.657531738281 1.334676027298
-154.413894653320 -77.125457763672 -301.311584472656 1.490979909897
-144.166641235352 -76.048873901367 -312.151306152344 1.353083610535
-149.879699707031 -73.846275329590 -312.617401123047 1.343985080719
-151.833282470703 -78.517700195313 -312.923919677734 1.496838569641
29.832242965698 -70.436172485352 -16.851020812988 1.745941877365
24.867986679077 -70.450691223145 -16.669290542603 0.986793816090
21.666183471680 -70.715614318848 -22.713821411133 1.440997362137
28.329938888550 -70.593688964844 -39.616355895996 0.481587439775
-56.913204193115 -70.265083312988 -49.391853332520 0.973554134369
-65.859550476074 -70.535438537598 -49.902149200439 1.705752730370
-38.329994201660 -71.142761230469 -52.856563568115 1.790659904480
-80.992111206055 -72.684883117676 -59.018165588379 1.783558607101
82.644836425781 -72.588363647461 -72.267845153809 1.770829558372
-19.201780319214 -73.314971923828 -70.864097595215 1.752181887627
88.787307739258 -72.000823974609 -71.373580932617 2.090480566025
97.369789123535 -70.561462402344 -79.029357910156 2.496590375900
-93.395462036133 -71.962860107422 -79.240554809570 1.393348097801
70.351203918457 -70.875160217285 -80.305381774902 1.997840404510
-42.820152282715 -75.233833312988 -84.244522094727 1.170433640480
99.874298095703 -68.836372375488 -84.040039062500 2.278574943542
-52.787071228027 -73.497024536133 -89.656700134277 1.046547770500
52.899677276611 -71.292449951172 -90.402343750000 1.428851246834
72.413925170898 -72.227645874023 -91.945167541504 1.935155153275
57.925968170166 -71.773284912109 -97.372451782227 1.694141030312
53.118766784668 -73.226509094238 -98.170387268066 1.757778525352
72.938499450684 -72.770744323730 -94.922729492188 1.782245874405
45.493488311768 -72.402946472168 -100.452667236328 0.867031395435
104.253524780273 -71.605758666992 -98.703964233398 1.459314465523
107.083831787109 -72.151679992676 -104.373283386230 1.782879233360
83.661567687988 -68.348937988281 -102.789337158203 1.108318090439
88.809326171875 -72.093101501465 -101.106918334961 1.658990144730
102.089073181152 -70.975677490234 -97.659156799316 0.927713811398
108.825317382813 -70.235420227051 -102.709571838379 2.116464376450
39.372619628906 -73.164962768555 -105.567291259766 0.584495007992
111.083625793457 -69.403137207031 -119.875335693359 1.808814406395
112.833015441895 -71.777641296387 -117.730827331543 1.714737176895
33.440841674805 -72.169052124023 -122.055198669434 1.563424110413
45.225349426270 -72.310234069824 -120.034812927246 1.743193149567
115.345832824707 -70.877426147461 -126.853012084961 1.547001600266
39.867916107178 -72.236900329590 -126.526962280273 2.385651350021
112.657913208008 -71.118507385254 -128.676742553711 0.552680730820
110.373649597168 -71.026672363281 -121.949050903320 1.226362347603
25.597581863403 -70.786247253418 -138.336334228516 0.927493274212
-49.284450531006 -72.923767089844 -135.720336914063 1.307844042778
-51.941020965576 -72.121185302734 -136.270767211914 0.774106919765
111.323013305664 -70.286056518555 -134.015792846680 2.362898111343
-71.313827514648 -73.817237854004 -142.556411743164 0.622447788715
-74.631752014160 -74.006454467773 -140.721908569336 1.198979020119
-56.923553466797 -73.813674926758 -144.570297241211 2.051707029343
34.077026367188 -70.841026306152 -141.567581176758 1.316804289818
111.942314147949 -71.020553588867 -143.850418090820 1.917755603790
-67.819526672363 -72.119125366211 -146.514099121094 0.648573100567
-45.600959777832 -71.502731323242 -145.039413452148 0.877830922604
34.783798217773 -73.142814636230 -148.935928344727 1.586681485176
-67.406723022461 -73.748504638672 -148.454879760742 1.351549506187
113.940841674805 -71.035598754883 -143.589920043945 2.111823797226
113.127006530762 -70.863182067871 -156.872680664063 1.904566287994
116.640823364258 -72.105628967285 -150.544235229492 0.665805220604
-37.677639007568 -73.457122802734 -154.420593261719 1.216425180435
-65.561996459961 -74.047988891602 -162.993820190430 0.811925709248
-72.047233581543 -73.595207214355 -156.747802734375 0.573846638203
32.501392364502 -72.860198974609 -149.941497802734 2.235899925232
-1.655691027641 -73.867385864258 -162.607910156250 1.084908723831
108.289062500000 -72.724761962891 -159.746704101563 1.447267293930
111.644989013672 -70.996978759766 -153.881027221680 1.611868262291
112.077659606934 -70.603019714355 -156.390426635742 2.329190015793
-64.705436706543 -70.971359252930 -163.588668823242 0.582243502140
-45.576873779297 -74.053916931152 -161.905670166016 0.903744339943
0.134381994605 -71.584251403809 -165.142456054688 1.275330543518
-25.959268569946 -72.082023620605 -174.949050903320 1.536525726318
106.990417480469 -71.699752807617 -165.921478271484 2.407880544662
-36.517395019531 -73.184173583984 -160.711196899414 1.044097781181
110.878517150879 -71.107650756836 -169.573303222656 1.967693090439
-41.217941284180 -73.894126892090 -172.847000122070 1.137619495392
110.162826538086 -70.978347778320 -166.363098144531 1.982798695564
-148.173110961914 -74.465469360352 -182.455932617188 0.686781167984
-28.344564437866 -71.629302978516 -175.938323974609 0.492486685514
-21.066331863403 -72.323982238770 -182.560028076172 0.748366951942
25.721105575562 -73.247474670410 -177.547378540039 1.944055676460
16.780048370361 -73.776016235352 -181.981399536133 1.168584585190
26.530105590820 -72.403556823730 -183.460098266602 1.894895553589
107.371116638184 -71.282257080078 -181.994247436523 1.622222065926
-150.545959472656 -73.676620483398 -187.633605957031 0.796220600605
-20.036432266235 -74.474037170410 -189.119750976563 1.412474513054
104.214576721191 -70.676902770996 -178.365737915039 1.592623829842
104.078987121582 -71.356941223145 -190.380615234375 1.555965065956
107.074081420898 -71.166984558105 -179.575424194336 1.802208304405
97.754058837891 -72.936187744141 -194.441314697266 2.502232074738
-151.493759155273 -77.351211547852 -194.709533691406 0.828933238983
101.173210144043 -72.719970703125 -203.747039794922 1.223686814308
-27.845211029053 -71.386245727539 -194.859878540039 2.164846658707
99.827560424805 -71.383178710938 -197.493896484375 1.762318253517
-124.212814331055 -73.949073791504 -198.297821044922 0.666826188564
-28.680950164795 -75.799972534180 -193.008483886719 1.824233889580
-140.436264038086 -73.197235107422 -198.932281494141 0.786776065826
94.784973144531 -72.151832580566 -199.828399658203 1.419305086136
9.614499092102 -74.204895019531 -198.165191650391 0.604353308678
23.242265701294 -73.037506103516 -194.207870483398 2.272966384888
-146.451187133789 -72.060531616211 -201.358657836914 0.807018280029
-140.568328857422 -73.028923034668 -201.841033935547 1.089564085007
-10.446907997131 -72.608207702637 -203.810165405273 0.764437556267
-124.027465820313 -74.237327575684 -201.582153320313 0.789019048214
-142.514602661133 -77.431266784668 -204.487426757813 0.796619594097
8.417146682739 -72.433448791504 -201.125610351563 1.121559023857
-21.174312591553 -74.507087707520 -202.718215942383 1.606444954872
20.480274200439 -73.096138000488 -203.892501831055 1.850926280022
8.851713180542 -72.868743896484 -209.936355590820 1.277437329292
90.131294250488 -72.862854003906 -207.536956787109 1.310764074326
-18.821853637695 -71.646301269531 -211.956207275391 0.365500777960
92.906509399414 -71.416313171387 -208.543518066406 1.349372386932
95.814598083496 -71.454956054688 -206.773162841797 2.098976373672
-149.766586303711 -73.684623718262 -216.473999023438 0.919732630253
96.543167114258 -71.679260253906 -211.287185668945 1.135391354561
6.790536880493 -73.712791442871 -209.351547241211 1.769972801208
5.841557025909 -74.408233642578 -214.416061401367 1.326769948006
-34.083274841309 -72.886886596680 -209.107315063477 2.145667314529
-88.955177307129 -73.119125366211 -214.011901855469 1.634952187538
-27.754953384399 -72.548286437988 -212.550720214844 0.601638138294
84.945030212402 -72.699882507324 -215.032943725586 2.326275587082
87.670959472656 -71.610366821289 -219.062927246094 1.240081787109
-32.127014160156 -73.156158447266 -213.529510498047 1.723455071449
-84.958129882813 -72.823905944824 -216.866165161133 1.182301282883
-2.108016014099 -74.530654907227 -217.602935791016 1.741610765457
87.863304138184 -71.608619689941 -215.255310058594 1.342975020409
-150.420928955078 -73.473152160645 -223.350341796875 0.954915940762
-164.462570190430 -73.371192932129 -215.035003662109 1.288034439087
-159.117980957031 -73.365661621094 -223.789688110352 1.027141213417
-20.515079498291 -72.239189147949 -226.877349853516 1.283551573753
-152.037597656250 -73.219932556152 -224.096176147461 1.071655869484
-7.259264945984 -74.974601745605 -225.531860351563 0.810550928116
8.151379585266 -72.107849121094 -218.285598754883 1.844288468361
-163.351470947266 -73.660369873047 -225.182846069336 1.066362977028
-161.087982177734 -74.474586486816 -226.709884643555 1.051366567612
80.599418640137 -73.107925415039 -230.032363891602 2.039794921875
3.410599946976 -71.006332397461 -227.964279174805 0.392524272203
-154.158004760742 -73.290878295898 -226.410751342773 0.999106466770
-141.499832153320 -73.260406494141 -227.015975952148 0.708187997341
-19.379657745361 -73.734336853027 -224.442337036133 1.191595315933
2.789397954941 -76.141464233398 -225.379928588867 1.151257276535
80.999000549316 -71.891296386719 -223.438049316406 2.623994350433
-161.122375488281 -73.699020385742 -228.657516479492 1.295729994774
-146.697830200195 -73.584892272949 -228.560775756836 0.947269022465
-123.423767089844 -73.443428039551 -230.220840454102 0.782102584839
80.569572448730 -71.239128112793 -227.352172851563 1.321923494339
-114.722167968750 -73.007881164551 -229.345138549805 0.703750610352
-149.570266723633 -73.933654785156 -229.691802978516 1.304302334785
-148.860717773438 -73.289299011230 -231.187515258789 0.977662742138
-147.030303955078 -74.124389648438 -230.981857299805 1.477593541145
-155.350601196289 -73.508384704590 -229.726409912109 1.022650361061
-164.810943603516 -73.810440063477 -230.663650512695 0.926348328590
-134.704177856445 -72.416007995605 -233.335159301758 1.201131343842
-132.756713867188 -74.707176208496 -233.077713012695 1.199413061142
-154.444839477539 -73.474121093750 -232.443252563477 1.027829408646
-144.547836303711 -72.176193237305 -235.776840209961 0.837164282799
-152.020858764648 -73.558090209961 -235.403030395508 1.069225311279
74.487304687500 -71.965110778809 -230.599395751953 1.059939384460
68.310195922852 -71.396629333496 -237.720046997070 1.594829559326
-159.030639648438 -73.805854797363 -236.139495849609 1.188825726509
70.665031433105 -71.063896179199 -233.358169555664 0.213255196810
-17.886140823364 -73.605590820313 -237.158981323242 1.277982592583
10.331386566162 -72.527915954590 -235.294097900391 0.537756979465
6.257133960724 -73.565391540527 -236.256713867188 2.549965620041
-151.804656982422 -74.000579833984 -245.494689941406 0.865971624851
13.276788711548 -72.548873901367 -240.760208129883 0.524631738663
64.369056701660 -72.471038818359 -236.859817504883 0.938551664352
14.430009841919 -72.073303222656 -237.435211181641 1.198254227638
7.181274890900 -73.915771484375 -241.995162963867 0.664509773254
-5.559358119965 -73.470008850098 -241.617355346680 0.564541578293
-19.355669021606 -72.809082031250 -242.861419677734 1.193617701530
0.172514006495 -72.524993896484 -244.028564453125 0.422293573618
3.071722984314 -73.894210815430 -243.139831542969 0.558147788048
58.119781494141 -72.335998535156 -242.501022338867 2.044035196304
-55.869476318359 -72.944755554199 -244.969726562500 0.767152070999
19.070697784424 -72.093193054199 -246.182662963867 0.377322852612
-60.924957275391 -74.555511474609 -244.681869506836 0.636270821095
-7.988529205322 -72.792785644531 -247.599853515625 0.776966869831
-64.073318481445 -72.164268493652 -250.123809814453 1.491870403290
-85.805488586426 -74.770042419434 -251.966156005859 1.339080929756
-82.366981506348 -73.087265014648 -249.826980590820 0.700623333454
-11.779689788818 -72.678375244141 -252.265533447266 0.319258540869
-123.839965820313 -73.242370605469 -255.738967895508 0.888012528419
-13.570819854736 -74.096420288086 -255.407241821289 0.417829394341
-116.401252746582 -74.305000305176 -257.764221191406 0.833031177521
-113.828300476074 -73.728332519531 -258.728271484375 0.818822205067
-102.484123229980 -73.522865295410 -259.835052490234 1.240290999413
-144.234725952148 -74.313262939453 -264.858276367188 1.098524928093
-145.050552368164 -73.425018310547 -266.241851806641 1.115220904350
-167.261917114258 -74.287666320801 -265.008117675781 2.432817935944
17.127141952515 -74.427696228027 -279.768005371094 1.346319198608
-53.795944213867 -73.212661743164 -286.186340332031 0.473493903875
-64.996459960938 -73.105407714844 -286.329498291016 0.560923218727
-41.352455139160 -74.515121459961 -286.275421142578 1.562490940094
-29.266540527344 -74.736251831055 -285.338958740234 0.220997631550
-96.563735961914 -73.772293090820 -287.241760253906 2.296767473221
-28.760272979736 -72.440734863281 -287.609741210938 1.295259118080
-4.192151069641 -74.016059875488 -287.258300781250 0.223264321685
-166.848449707031 -74.089889526367 -289.335693359375 1.043722391129
-10.878426551819 -73.959053039551 -286.948699951172 0.380411654711
8.476828575134 -73.863388061523 -288.187042236328 0.235757127404
15.025247573853 -74.385009765625 -288.868225097656 0.977652609348
-56.163101196289 -73.365921020508 -291.195251464844 0.514487802982
-29.468353271484 -72.340270996094 -290.832153320313 2.211411952972
14.631516456604 -72.034523010254 -291.938812255859 0.586908340454
-69.063079833984 -73.804519653320 -291.521820068359 1.836259722710
-36.291301727295 -72.971359252930 -291.156402587891 0.368785887957
-16.838487625122 -72.189224243164 -291.130981445313 0.258695751429
16.907419204712 -73.941749572754 -290.170745849609 0.918511211872
-9.969667434692 -73.140457153320 -292.043334960938 1.362599253654
3.755832910538 -71.963943481445 -292.192626953125 0.228118255734
14.602901458740 -72.687545776367 -293.600433349609 0.255836158991
-134.196792602539 -73.334129333496 -295.060150146484 1.177650332451
-144.008514404297 -75.943878173828 -301.626068115234 1.509339690208
-146.491516113281 -76.341339111328 -313.406158447266 1.790793061256
40.706829071045 -69.498886108398 -13.179366111755 0.994184255600
31.074857711792 -69.700439453125 -12.283542633057 0.720271110535
38.323215484619 -69.743980407715 -16.295850753784 2.078369617462
20.934087753296 -69.645652770996 -20.056411743164 1.295132160187
44.281028747559 -69.730361938477 -21.182357788086 1.363462567329
24.866968154907 -70.660720825195 -22.527450561523 1.926714062691
24.428956985474 -70.654418945313 -29.217351913452 1.982968926430
22.374040603638 -70.850013732910 -34.467277526855 0.171452224255
43.311534881592 -69.538116455078 -30.765071868896 1.465365886688
27.195249557495 -70.670196533203 -34.714401245117 2.168579816818
42.217403411865 -69.906005859375 -34.754081726074 1.482113718987
31.780815124512 -70.514198303223 -37.004913330078 1.987069725990
36.398246765137 -70.299255371094 -36.984752655029 0.967420279980
31.707191467285 -70.695159912109 -39.946311950684 1.435755252838
41.573204040527 -69.941383361816 -39.929584503174 1.126315116882
35.986652374268 -70.315650939941 -41.438053131104 0.631394505501
-38.490997314453 -68.241104125977 -49.930408477783 2.295812129974
-30.788335800171 -67.735733032227 -51.863143920898 1.575918674469
-87.696388244629 -67.138961791992 -57.181156158447 0.398881912231
-87.072822570801 -72.504165649414 -65.070991516113 1.020246624947
79.567558288574 -71.183174133301 -69.985015869141 2.081733465195
84.485679626465 -71.510169982910 -71.846328735352 2.234984636307
-17.497636795044 -69.581481933594 -71.588584899902 1.776403307915
-88.261032104492 -74.243034362793 -71.502616882324 1.692422866821
-25.123262405396 -71.662765502930 -77.044319152832 0.368277311325
-49.663757324219 -71.567779541016 -85.725288391113 1.100516796112
66.037902832031 -66.901397705078 -85.769081115723 1.596715807915
54.026046752930 -70.671875000000 -92.024208068848 1.450848102570
99.818832397461 -69.527511596680 -90.822891235352 2.066233396530
70.500846862793 -70.007713317871 -95.734230041504 1.439329981804
-65.151992797852 -74.533271789551 -94.277603149414 0.551633477211
-65.649215698242 -72.956428527832 -96.750808715820 0.661063909531
45.478672027588 -72.403953552246 -97.035781860352 1.002000927925
77.726325988770 -70.346389770508 -102.320190429688 1.428192496300
53.729393005371 -73.430030822754 -104.176078796387 1.770771622658
100.770751953125 -69.734428405762 -97.910125732422 0.649432718754
-95.751335144043 -71.227409362793 -107.315200805664 2.698183059692
37.662387847900 -72.381271362305 -112.259445190430 2.166809320450
106.624244689941 -69.922225952148 -106.767623901367 1.361656308174
47.576602935791 -70.189704895020 -110.558105468750 2.175123691559
103.353370666504 -69.895622253418 -107.204635620117 0.938120365143
-86.296264648438 -73.318763732910 -112.674476623535 0.744138538837
36.588298797607 -72.545997619629 -110.132774353027 0.549125254154
105.774024963379 -70.675453186035 -116.250984191895 0.929807007313
104.964775085449 -68.912872314453 -114.481681823730 1.068458318710
108.283447265625 -70.181968688965 -114.381813049316 1.201993346214
109.818695068359 -70.282356262207 -114.876983642578 0.660351634026
38.271247863770 -69.803352355957 -113.075187683105 1.978339910507
31.808004379272 -72.389457702637 -119.644485473633 0.837948799133
43.905216217041 -70.681541442871 -116.468132019043 1.556287288666
109.701705932617 -70.028549194336 -122.434524536133 1.428212881088
38.810169219971 -70.562522888184 -125.706344604492 1.891685485840
108.264656066895 -70.426116943359 -130.728652954102 1.975019097328
112.749839782715 -69.674484252930 -130.254730224609 1.968129634857
33.795108795166 -70.642768859863 -123.649810791016 1.114719271660
-76.976737976074 -70.723754882813 -129.358718872070 1.483394503593
116.350402832031 -70.252357482910 -134.518356323242 1.667885780334
-56.349998474121 -72.047805786133 -136.561172485352 1.267873525620
36.813591003418 -71.565734863281 -135.495346069336 1.004124045372
-72.625137329102 -72.535034179688 -138.424240112305 1.230085611343
29.322826385498 -70.965911865234 -134.281860351563 1.161743760109
-77.408569335938 -71.997932434082 -141.489913940430 1.725075244904
-44.994262695313 -73.935096740723 -142.054153442383 0.773479700089
-71.545814514160 -70.238151550293 -137.765914916992 1.730215668678
111.988189697266 -69.849433898926 -137.922637939453 1.320183038712
113.196800231934 -69.933235168457 -141.568420410156 1.943896412849
116.732978820801 -71.917846679688 -143.756729125977 0.755290865898
-72.258132934570 -70.008148193359 -144.563430786133 0.691744625568
10.177451133728 -69.369689941406 -150.966766357422 1.030555605888
-53.990734100342 -72.790641784668 -152.025756835938 0.787003874779
-48.947883605957 -72.273971557617 -156.174636840820 1.086717605591
108.504898071289 -70.145385742188 -158.571380615234 1.796284437180
-42.355384826660 -72.092086791992 -151.008514404297 1.180057525635
13.303589820862 -71.393348693848 -156.631484985352 1.214192032814
22.241334915161 -71.578514099121 -158.106231689453 1.631929278374
115.330986022949 -71.790252685547 -163.259597778320 1.388498187065
29.153499603271 -71.970619201660 -163.308227539063 1.252661824226
-0.875796020031 -72.227241516113 -163.060440063477 1.051675677299
31.840497970581 -72.203765869141 -161.553619384766 1.166020035744
-67.869934082031 -70.660202026367 -160.393966674805 0.591473162174
-64.430931091309 -71.278579711914 -159.518447875977 0.786971449852
-67.389686584473 -72.843147277832 -164.937179565430 1.345185279846
115.265663146973 -69.290512084961 -160.423477172852 1.939657330513
-44.131881713867 -71.673019409180 -163.145278930664 0.658328294754
20.309631347656 -72.010711669922 -166.260375976563 1.049496054649
-63.864372253418 -72.618484497070 -169.505310058594 1.902149915695
-60.379966735840 -72.445396423340 -171.368545532227 0.641466140747
-38.366222381592 -71.387268066406 -159.583068847656 0.710112154484
-31.510648727417 -71.626937866211 -170.268463134766 1.420220136642
113.927360534668 -71.070381164551 -170.474319458008 2.393625020981
-36.311515808105 -71.721595764160 -176.765014648438 1.306523799896
16.156078338623 -72.412948608398 -174.406204223633 2.716730356216
111.258949279785 -71.984840393066 -181.037033081055 1.241584539413
-148.045028686523 -74.070976257324 -176.550399780273 0.473854660988
-144.949523925781 -73.727027893066 -176.581573486328 0.317005127668
-151.119750976563 -72.699447631836 -177.935455322266 0.803258717060
-142.696762084961 -72.362854003906 -181.012283325195 1.255251646042
-30.122577667236 -71.943519592285 -186.743347167969 0.679925978184
-22.455978393555 -71.344200134277 -186.393157958984 0.949908673763
23.012443542480 -71.514839172363 -189.075012207031 1.596677660942
-142.294433593750 -72.546600341797 -187.485229492188 0.769884645939
-145.976715087891 -73.080612182617 -188.638534545898 0.795163929462
-19.825494766235 -69.540786743164 -188.324432373047 1.760023951530
13.865596771240 -73.060844421387 -182.447311401367 0.513242065907
-147.640975952148 -73.444358825684 -192.815765380859 1.007760524750
-31.182029724121 -73.981750488281 -186.028518676758 2.244923591614
100.963462829590 -70.493438720703 -188.118164062500 2.755485057831
108.214965820313 -71.824020385742 -189.490646362305 1.421182394028
23.292800903320 -70.394096374512 -193.516311645508 1.194463849068
-17.983406066895 -72.844390869141 -188.714004516602 1.786594986916
-25.933115005493 -73.470970153809 -194.478118896484 1.593926310539
-153.424209594727 -72.366592407227 -196.372512817383 0.878650724888
-131.815017700195 -73.528320312500 -197.483764648438 0.403045535088
-123.987632751465 -72.180404663086 -196.153411865234 0.396423578262
-122.017997741699 -71.466629028320 -198.425033569336 0.670173704624
-23.028266906738 -69.878700256348 -198.118896484375 0.781160056591
10.674533843994 -72.075721740723 -193.095367431641 1.720184087753
94.846183776855 -70.548141479492 -200.802108764648 1.344944000244
-147.636077880859 -72.089958190918 -197.839675903320 1.001677155495
-145.919235229492 -72.472419738770 -199.050521850586 0.772846400738
-149.102035522461 -71.746299743652 -199.239685058594 0.860195517540
-154.697814941406 -72.192321777344 -199.770309448242 1.270373940468
-25.617607116699 -72.998855590820 -199.741165161133 0.954084217548
-13.981363296509 -74.515388488770 -196.405685424805 1.251347184181
-148.222366333008 -72.579475402832 -201.496994018555 0.896450638771
-15.395194053650 -71.724548339844 -199.470092773438 1.072300910950
-162.190643310547 -72.495338439941 -199.288543701172 0.954787254333
-133.512847900391 -73.123374938965 -200.321838378906 0.933670103550
17.300596237183 -70.831817626953 -207.369232177734 0.348464697599
-163.553833007813 -72.657752990723 -204.335845947266 0.984005987644
-145.271972656250 -72.932640075684 -206.678314208984 1.098116755486
10.901674270630 -71.447921752930 -200.513061523438 1.964162826538
-153.264938354492 -72.304687500000 -203.826232910156 0.988014638424
-22.811658859253 -72.720039367676 -200.537109375000 1.049406766891
102.993171691895 -70.609481811523 -199.754867553711 2.002048015594
-155.609771728516 -72.861351013184 -216.050018310547 0.801939189434
-164.302490234375 -73.193542480469 -210.446472167969 0.984446942806
-78.208198547363 -71.903915405273 -211.460006713867 0.217307478189
88.414672851563 -70.801757812500 -210.482345581055 1.300912499428
-3.295865058899 -70.632011413574 -216.369873046875 0.771565377712
-150.858749389648 -72.568527221680 -213.661163330078 1.267970204353
-87.835235595703 -71.596145629883 -215.213668823242 1.361468434334
-7.920895099640 -72.445396423340 -212.150527954102 1.335694670677
15.267057418823 -72.356399536133 -222.925216674805 0.739050686359
-145.759536743164 -73.697410583496 -219.215637207031 1.408697009087
-2.492984056473 -72.412437438965 -221.216934204102 1.576519846916
-21.901842117310 -70.787742614746 -221.414291381836 0.659653365612
-14.308720588684 -70.051399230957 -219.210006713867 1.578971743584
88.658546447754 -71.068695068359 -215.847457885742 1.268797755241
-21.554424285889 -71.560173034668 -218.390106201172 0.553503096104
-28.413131713867 -72.023933410645 -216.108245849609 1.782007217407
-106.808158874512 -72.505393981934 -223.911697387695 0.503108799458
-15.060648918152 -71.495391845703 -222.516754150391 1.640895009041
90.352569580078 -69.882995605469 -219.162841796875 0.872933387756
81.706123352051 -71.072052001953 -218.703598022461 1.194108366966
5.594340801239 -72.690933227539 -220.746002197266 0.888235390186
-10.192784309387 -72.906845092773 -225.471939086914 0.535052955151
78.323387145996 -72.570693969727 -222.726837158203 1.261960029602
-123.465476989746 -72.797889709473 -225.435058593750 0.384678751230
-23.039445877075 -71.419952392578 -222.844985961914 0.425471097231
-99.309326171875 -71.871177673340 -224.601715087891 0.884079396725
-104.879920959473 -72.765853881836 -226.817596435547 0.996065616608
-134.443038940430 -73.947563171387 -228.195220947266 0.846505105495
82.085861206055 -70.498687744141 -224.479248046875 1.847651958466
-123.556076049805 -72.630867004395 -227.621719360352 0.766233623028
6.017738819122 -72.343841552734 -228.205184936523 0.968602120876
80.525863647461 -70.647270202637 -224.153930664063 2.155025482178
-14.061754226685 -72.272903442383 -225.961242675781 0.678579926491
-11.722183227539 -72.427719116211 -231.083740234375 1.231372714043
-4.503540992737 -72.952499389648 -230.037063598633 0.472658991814
8.633721351624 -71.875083923340 -227.129440307617 0.957905650139
86.317352294922 -71.586524963379 -224.710281372070 1.668628573418
11.488753318787 -71.370285034180 -232.290771484375 0.567637681961
3.776518106461 -73.171371459961 -229.213684082031 1.484360098839
-8.530464172363 -72.417366027832 -230.415481567383 0.704823791981
-6.389128208160 -71.621833801270 -233.740112304688 0.446308910847
17.019794464111 -71.124839782715 -231.870880126953 1.375530600548
-11.869848251343 -71.984558105469 -234.182769775391 0.413188755512
71.760643005371 -71.875846862793 -238.137512207031 0.990774869919
-7.656070232391 -70.743782043457 -237.981903076172 0.420000046492
18.927688598633 -73.035858154297 -236.073455810547 0.912080168724
-166.003204345703 -74.001869201660 -242.299880981445 1.167674303055
-4.451725006104 -71.777160644531 -239.406921386719 0.424302250147
-8.991685867310 -70.750938415527 -242.232254028320 0.329732418060
-167.573028564453 -72.670906066895 -252.211425781250 1.041272521019
-10.018591880798 -72.469985961914 -245.510848999023 0.360036283731
17.257032394409 -71.313346862793 -246.746887207031 1.294898033142
-146.167205810547 -74.925964355469 -252.520050048828 1.062638878822
-68.516273498535 -71.038803100586 -248.329040527344 1.209017753601
-60.267341613770 -71.991004943848 -247.032714843750 1.272665262222
54.434097290039 -71.993659973145 -246.907196044922 2.042451381683
-76.881538391113 -72.755569458008 -248.493988037109 1.884081721306
18.765243530273 -73.041152954102 -249.308288574219 1.162656188011
-73.149459838867 -71.329528808594 -252.703033447266 1.650481939316
-14.052724838257 -72.777954101563 -251.264511108398 0.654999196529
-145.397720336914 -73.963790893555 -253.542449951172 0.927486062050
49.212242126465 -71.664573669434 -248.685165405273 0.980136394501
-78.114387512207 -71.621543884277 -254.266662597656 1.034648895264
-101.582588195801 -72.221755981445 -255.083496093750 1.423205137253
-97.240295410156 -74.156379699707 -255.506500244141 0.577220916748
-117.031829833984 -74.153594970703 -255.968170166016 0.282703697681
-104.901870727539 -73.907875061035 -257.378845214844 1.092732310295
-106.590934753418 -73.914024353027 -259.788696289063 0.782999575138
22.939916610718 -73.702583312988 -260.587371826172 0.908887147903
-127.075370788574 -72.553985595703 -265.448760986328 1.252439141273
-10.858209609985 -73.236640930176 -276.774749755859 1.600018262863
-145.345809936523 -73.482803344727 -282.384918212891 0.743067324162
-168.237762451172 -73.963432312012 -284.161499023438 1.404618382454
-124.399856567383 -73.787864685059 -286.591705322266 0.484109878540
-113.818679809570 -72.079849243164 -287.504089355469 0.958418130875
-74.994361877441 -70.711013793945 -287.644866943359 0.687797009945
-56.505237579346 -71.512603759766 -287.076599121094 1.104204893112
-42.660633087158 -72.476058959961 -287.031677246094 0.398102015257
-14.652864456177 -72.130287170410 -287.960723876953 0.245814397931
-13.625812530518 -71.389724731445 -289.351318359375 0.840958297253
-37.367897033691 -71.703445434570 -289.275329589844 1.172372460365
-33.820426940918 -71.844314575195 -289.188568115234 2.804960966110
-18.115610122681 -71.624114990234 -289.411346435547 0.842104077339
-69.009269714355 -72.209762573242 -291.344909667969 0.619916677475
-53.790218353271 -72.358062744141 -290.974884033203 2.312857627869
-15.183124542236 -71.364898681641 -291.218200683594 0.255034416914
-13.179426193237 -72.366165161133 -291.283905029297 0.244214251637
-3.623970985413 -71.247451782227 -290.863952636719 0.228267624974
2.552767038345 -71.706382751465 -291.338256835938 0.759587883949
-89.271041870117 -73.301033020020 -292.318847656250 1.504976272583
-142.025619506836 -72.479743957520 -293.345184326172 0.797256827354
-117.391578674316 -73.892059326172 -292.933715820313 1.644351124763
-153.507675170898 -75.313240051270 -297.604888916016 1.269169926643
-154.140823364258 -73.518852233887 -300.163330078125 1.374420046806
-145.407913208008 -74.702453613281 -300.178100585938 0.939674496651
46.340007781982 -69.471946716309 -18.779855728149 1.725283980370
19.630128860474 -69.562202453613 -23.569942474365 1.543691396713
48.785182952881 -69.527313232422 -26.748258590698 1.971479177475
47.095317840576 -69.716278076172 -33.957408905029 1.342545270920
86.579887390137 -69.461112976074 -67.435066223145 1.416505217552
94.934539794922 -69.862243652344 -72.655616760254 2.243967294693
100.844993591309 -67.761329650879 -80.369659423828 2.244543313980
98.389038085938 -70.977622985840 -81.931022644043 2.209062337875
58.446563720703 -70.382812500000 -88.062637329102 0.527162492275
48.639904022217 -71.644676208496 -93.685867309570 1.181917428970
63.177135467529 -68.768791198730 -90.539352416992 0.536062538624
-64.609603881836 -67.621414184570 -92.093971252441 1.002865552902
69.102516174316 -71.079673767090 -88.565971374512 2.262933254242
102.347999572754 -68.342002868652 -97.531784057617 0.991619110107
74.745475769043 -71.471199035645 -99.555061340332 1.310887694359
95.986618041992 -69.351852416992 -100.920562744141 1.900069832802
-80.783920288086 -71.826095581055 -101.118911743164 0.846344649792
43.998157501221 -70.438194274902 -101.693229675293 1.484072089195
-83.970657348633 -71.597396850586 -106.223640441895 0.807585239410
50.366149902344 -71.735191345215 -110.699302673340 2.285720348358
39.773895263672 -70.189544677734 -104.554824829102 1.604115843773
106.364601135254 -69.189079284668 -103.047676086426 0.893893718719
38.200572967529 -69.172981262207 -108.422935485840 1.898774147034
39.102638244629 -68.974533081055 -114.780479431152 0.738599538803
43.373012542725 -68.601768493652 -113.086509704590 1.561201691628
107.737510681152 -68.847229003906 -113.832580566406 1.789798736572
-82.495101928711 -70.620491027832 -121.223014831543 0.741729915142
111.112106323242 -68.851867675781 -126.120994567871 1.862915396690
37.346275329590 -69.568000793457 -123.881767272949 1.397346973419
41.533458709717 -68.424507141113 -120.856140136719 1.630842208862
36.120372772217 -69.588562011719 -122.651435852051 1.459429502487
-56.934970855713 -71.566711425781 -130.237365722656 0.656071603298
31.017642974854 -69.997985839844 -123.996856689453 1.490934252739
-76.409317016602 -72.842536926270 -137.104736328125 1.265930414200
-55.903236389160 -71.040168762207 -133.311798095703 0.779088854790
-79.479934692383 -70.452934265137 -135.273742675781 1.869094371796
33.524375915527 -69.362030029297 -128.799865722656 1.247426748276
-59.015861511230 -69.993377685547 -134.378417968750 2.335716485977
34.872776031494 -69.442344665527 -134.224838256836 1.849116325378
-73.215705871582 -70.320808410645 -140.033691406250 0.439365297556
-59.168342590332 -72.576187133789 -138.470855712891 1.387111186981
28.956104278564 -69.727775573730 -139.662765502930 1.293845415115
109.171066284180 -71.013542175293 -143.399414062500 1.834946632385
115.828773498535 -68.287620544434 -136.259277343750 1.232330203056
31.255023956299 -69.272354125977 -139.498519897461 1.313446998596
-45.460712432861 -69.633758544922 -141.506820678711 0.791868865490
109.649047851563 -69.037498474121 -151.365936279297 1.853144764900
-74.044113159180 -70.887054443359 -144.671630859375 1.025675058365
-58.820919036865 -71.214874267578 -143.110351562500 1.489103674889
31.350978851318 -70.681480407715 -149.948013305664 0.886277616024
-76.307411193848 -71.128143310547 -147.088882446289 1.254219889641
-71.194015502930 -71.857666015625 -151.565078735352 2.113294839859
116.546653747559 -69.725555419922 -149.934631347656 1.898635625839
-64.957962036133 -72.376708984375 -154.660888671875 2.180216073990
-39.035606384277 -70.900039672852 -153.692398071289 1.422529697418
27.660091400146 -68.943489074707 -148.592880249023 1.339995503426
-75.122169494629 -70.867111206055 -149.956878662109 0.620305180550
12.289075851440 -71.368896484375 -151.627639770508 1.832733631134
31.716558456421 -69.445144653320 -154.685424804688 1.156741023064
30.316938400269 -69.526306152344 -147.760482788086 1.989603042603
11.757164955139 -72.646148681641 -155.278747558594 1.173864722252
-48.574096679688 -70.170455932617 -154.207733154297 0.734435915947
27.545473098755 -68.682159423828 -153.433700561523 1.196525931358
-44.897937774658 -70.240295410156 -149.069580078125 1.303700566292
6.900588989258 -70.662826538086 -154.041152954102 1.323117494583
22.226488113403 -69.934143066406 -150.193878173828 1.282293319702
-71.815757751465 -71.494125366211 -156.146102905273 2.181313991547
-45.584274291992 -69.340049743652 -154.536148071289 0.716451346874
-67.593521118164 -69.783699035645 -157.352584838867 1.707451701164
14.567130088806 -69.827110290527 -158.450683593750 0.446151196957
25.146247863770 -69.677421569824 -150.330154418945 1.902595520020
2.505166053772 -70.252983093262 -161.491989135742 0.958446383476
20.295742034912 -71.741973876953 -156.347351074219 1.432324767113
30.831274032593 -71.200904846191 -164.674026489258 1.767018914223
-47.577606201172 -72.532302856445 -162.176132202148 0.765828847885
-34.013454437256 -71.257446289063 -161.584777832031 1.356469988823
-39.584060668945 -70.217033386230 -160.760406494141 0.704006731510
27.878978729248 -69.671615600586 -160.844863891602 1.414576888084
-43.813354492188 -71.467460632324 -168.112579345703 0.692013919353
-40.716884613037 -70.088134765625 -162.762145996094 2.340703010559
20.489076614380 -70.294059753418 -166.737854003906 2.137241840363
-40.305175781250 -71.070716857910 -173.560958862305 0.620730400085
28.770364761353 -70.142501831055 -170.354995727539 1.247222900391
113.754341125488 -69.015289306641 -167.400436401367 1.887174248695
-32.372005462646 -70.255035400391 -172.095031738281 0.674024343491
106.961875915527 -68.828369140625 -172.861328125000 1.693602085114
-34.669002532959 -70.425262451172 -176.965515136719 0.632530689240
-36.580154418945 -71.624702453613 -180.597610473633 1.139744162560
18.245031356812 -71.789459228516 -175.069763183594 0.663917422295
