107.770553588867 -76.098419189453 -182.794372558594 1.104266285896
-30.060253143311 -76.667167663574 -187.127151489258 1.392300486565
12.003672599792 -76.099739074707 -190.650726318359 1.756907343864
19.394453048706 -75.287345886230 -200.543411254883 0.680759668350
-146.175598144531 -74.102188110352 -192.979248046875 0.978499233723
102.900474548340 -76.019309997559 -194.881118774414 1.686893343925
-17.821605682373 -72.981163024902 -193.871032714844 0.266750156879
102.754867553711 -76.073951721191 -190.023803710938 1.398074388504
14.632484436035 -74.685119628906 -187.964584350586 1.100304126740
-131.663803100586 -73.129463195801 -200.982955932617 0.830649971962
-140.335922241211 -74.345405578613 -201.192779541016 0.938875138760
97.307167053223 -75.992164611816 -200.918914794922 1.326615571976
-11.845574378967 -76.834815979004 -201.400024414063 1.016937971115
-14.598924636841 -76.445648193359 -200.991134643555 1.836019396782
9.478408813477 -76.067199707031 -207.306808471680 0.966910183430
-149.850311279297 -70.857711791992 -205.981948852539 1.273393392563
-145.581771850586 -74.778236389160 -206.330184936523 1.022189378738
98.753288269043 -75.939880371094 -202.963165283203 2.124181509018
-77.978073120117 -73.722831726074 -209.654006958008 0.711020529270
-37.046546936035 -74.127731323242 -203.725708007813 1.337866663933
17.003541946411 -75.763008117676 -210.623626708984 2.232827901840
-25.909900665283 -75.019104003906 -211.822738647461 1.762230277061
-78.726486206055 -73.588211059570 -211.653976440430 0.559256076813
91.277107238770 -76.018844604492 -210.815078735352 1.951594352722
-82.080619812012 -73.208328247070 -213.117126464844 0.828984797001
-146.023269653320 -74.731208801270 -218.280700683594 1.072133898735
-79.099899291992 -74.276245117188 -214.820266723633 0.334216266870
-15.418868064880 -73.596710205078 -213.793182373047 1.073641896248
-20.646226882935 -73.792053222656 -217.254364013672 0.601587474346
18.995151519775 -74.136245727539 -211.318786621094 1.099680900574
-5.722032070160 -75.845443725586 -215.774749755859 1.580956220627
-87.708152770996 -72.712142944336 -218.680908203125 0.394817829132
92.247970581055 -75.861549377441 -213.344512939453 1.942025423050
-95.408660888672 -74.471565246582 -216.535186767578 1.010317325592
-149.377761840820 -74.811729431152 -222.748046875000 1.130318760872
-18.885171890259 -73.813720703125 -222.502670288086 0.863376140594
16.183931350708 -74.542236328125 -216.721862792969 1.042362213135
-101.445327758789 -73.044425964355 -220.445617675781 0.546809971333
7.804251194000 -75.539115905762 -221.211898803711 0.922772526741
-23.002853393555 -75.281234741211 -217.428909301758 0.595551669598
83.894035339355 -75.832351684570 -223.242324829102 0.903399050236
-146.283020019531 -74.437469482422 -222.603713989258 1.160265564919
4.625855922699 -73.234825134277 -225.885910034180 1.780620217323
-9.242390632629 -76.383193969727 -222.518737792969 1.658631205559
17.442605972290 -73.577056884766 -221.079483032227 1.297891855240
83.419532775879 -75.853767395020 -221.625396728516 1.225066304207
-11.958917617798 -74.525398254395 -227.678054809570 0.973175764084
-130.420028686523 -73.040107727051 -226.365524291992 1.894181132317
-11.779566764832 -75.896163940430 -225.155731201172 0.674474775791
17.107391357422 -76.789062500000 -234.228881835938 1.338636040688
-124.797752380371 -73.855346679688 -228.017669677734 0.791794478893
-148.447845458984 -71.405822753906 -227.744796752930 1.131533741951
-140.974533081055 -72.865768432617 -229.066558837891 1.047634601593
-134.364791870117 -72.770889282227 -230.800292968750 0.973403036594
-15.495458602905 -74.992591857910 -227.134948730469 1.829481244087
72.026161193848 -75.517791748047 -229.895935058594 1.864974617958
-141.170135498047 -72.401252746582 -231.954238891602 0.357063591480
74.434524536133 -77.084022521973 -229.703628540039 1.650619149208
-19.049472808838 -76.212341308594 -227.417953491211 2.307107210159
-141.559524536133 -76.792182922363 -231.721313476563 0.774745404720
78.805740356445 -75.287658691406 -228.298477172852 1.496310234070
9.200222969055 -76.299057006836 -235.939788818359 2.125958204269
-143.741271972656 -77.628517150879 -234.438400268555 1.533886075020
-150.514297485352 -72.382270812988 -235.604583740234 1.100915431976
15.806915283203 -74.262031555176 -232.948135375977 1.338727712631
-2.818064928055 -74.757003784180 -235.635604858398 1.205149412155
-24.437768936157 -75.000572204590 -238.106933593750 0.894093692303
-1.553828954697 -73.010238647461 -239.926742553711 1.120311737061
-160.888259887695 -72.782485961914 -237.992813110352 1.328139543533
11.507784843445 -76.167770385742 -245.067138671875 0.582846879959
-164.294860839844 -72.160415649414 -236.035324096680 1.590782999992
-13.929484367371 -75.812042236328 -238.294006347656 0.687229633331
66.004119873047 -76.095252990723 -239.360122680664 2.574693679810
-12.110962867737 -75.082809448242 -240.806884765625 0.601890504360
-24.438581466675 -73.314971923828 -240.147338867188 0.521126985550
-25.738037109375 -74.164222717285 -242.123687744141 1.899368882179
-15.713343620300 -73.787780761719 -242.516265869141 0.551223099232
-145.945663452148 -72.591072082520 -235.809646606445 1.178930759430
8.701454162598 -75.371658325195 -243.930099487305 0.992817878723
64.702033996582 -75.073989868164 -242.109756469727 2.193862199783
13.486636161804 -74.771545410156 -245.243957519531 0.886488795280
-161.183731079102 -72.156517028809 -240.247512817383 1.882484674454
-48.528415679932 -73.546989440918 -244.228897094727 0.973244547844
2.399441957474 -80.402252197266 -247.127349853516 1.030546188354
16.782928466797 -74.552482604980 -246.005981445313 0.923071503639
-54.569255828857 -72.975158691406 -247.185516357422 1.135599255562
-3.905158042908 -73.885139465332 -245.707458496094 1.639949083328
21.629627227783 -75.601509094238 -246.811553955078 0.848425328732
-164.612014770508 -72.520668029785 -248.808547973633 1.417615294456
-70.759475708008 -74.988838195801 -247.057373046875 0.900988101959
-50.046348571777 -74.582557678223 -247.271987915039 0.589863240719
-78.395187377930 -74.456291198730 -249.330352783203 0.394459873438
-159.286117553711 -72.307861328125 -248.414947509766 1.986365318298
-150.596603393555 -72.909942626953 -252.673599243164 1.219249367714
-59.086635589600 -74.860336303711 -249.743255615234 0.410390585661
-68.659477233887 -74.205749511719 -252.012985229492 0.309179216623
-153.273941040039 -72.341964721680 -254.153472900391 1.298442363739
-151.607666015625 -72.368011474609 -253.122421264648 1.273631095886
-77.344665527344 -73.924888610840 -253.941314697266 0.410111516714
-93.008125305176 -73.124832153320 -253.548202514648 1.707465291023
-165.847122192383 -72.253120422363 -250.788726806641 1.586630225182
-155.664978027344 -72.428886413574 -257.940002441406 1.655965447426
-133.573440551758 -73.089691162109 -255.789001464844 1.062608122826
-82.587394714355 -74.513298034668 -254.152893066406 0.745534956455
-162.544601440430 -72.439544677734 -252.477279663086 2.118790388107
-141.861480712891 -73.041595458984 -256.890014648438 0.983864486217
-85.784339904785 -73.223480224609 -255.736999511719 0.410741031170
-95.200340270996 -71.274314880371 -258.598358154297 0.548428773880
-147.739608764648 -72.859046936035 -257.757781982422 0.967989623547
-94.780220031738 -73.059494018555 -257.160797119141 1.061903238297
-149.234313964844 -72.521896362305 -257.641448974609 1.245743155479
-99.726669311523 -73.001403808594 -257.555664062500 0.574797213078
-164.692199707031 -72.776496887207 -259.821899414063 1.463827848434
-160.129501342773 -72.511589050293 -259.654083251953 1.406149029732
-123.786468505859 -72.899108886719 -257.865112304688 0.950590789318
-150.111251831055 -72.164062500000 -259.809204101563 1.247301220894
-114.642524719238 -72.921325683594 -261.115112304688 0.960672914982
-14.673983573914 -75.105995178223 -262.012268066406 0.466916590929
-142.505310058594 -72.749710083008 -262.281158447266 0.325712561607
-123.899673461914 -73.100471496582 -260.716705322266 0.963606953621
-155.143280029297 -72.507896423340 -262.243164062500 1.354827284813
22.066019058228 -75.362739562988 -268.828186035156 0.745882868767
-146.837203979492 -73.848953247070 -278.090026855469 1.283350706100
-166.987487792969 -72.647674560547 -277.550537109375 1.551381230354
-6.747140884399 -76.913543701172 -279.297241210938 0.504802048206
-146.825119018555 -73.867698669434 -282.778076171875 0.977740645409
-7.356538772583 -74.399215698242 -282.830200195313 1.639745235443
13.153713226318 -74.083251953125 -285.336608886719 0.605238199234
-135.568450927734 -73.684394836426 -286.756530761719 1.024603128433
-71.249809265137 -73.893646240234 -286.600555419922 0.642925083637
-33.021629333496 -74.639015197754 -286.467102050781 0.726052403450
-113.318656921387 -72.589973449707 -287.670440673828 0.747528672218
-92.270332336426 -74.142150878906 -291.107971191406 0.936369180679
-90.891273498535 -73.198829650879 -291.642639160156 0.212886676192
-47.743461608887 -74.736587524414 -291.134643554688 1.981047391891
-115.538635253906 -73.464080810547 -291.315948486328 1.471660852432
-110.438568115234 -73.479507446289 -290.804229736328 1.593626499176
-31.705535888672 -73.902992248535 -291.611633300781 0.233878448606
-112.967773437500 -72.008262634277 -292.231262207031 1.331515312195
-124.614242553711 -71.820487976074 -292.794433593750 0.455114334822
-143.291976928711 -72.927635192871 -292.772735595703 1.334324598312
7.753822803497 -73.846023559570 -292.892700195313 0.620799839497
14.556794166565 -75.962913513184 -294.269622802734 0.695043802261
-156.880157470703 -73.118286132813 -294.469665527344 1.011700034142
-154.471252441406 -74.447242736816 -301.139556884766 1.312744855881
-144.211959838867 -73.469711303711 -311.977294921875 1.426639318466
-149.878860473633 -71.145469665527 -312.415283203125 1.498848557472
-151.928314208984 -75.772338867188 -312.768035888672 1.514187693596
30.081851959229 -74.481536865234 -16.799283981323 2.406362771988
25.118482589722 -74.395904541016 -16.613021850586 2.050490140915
21.907480239868 -74.532577514648 -22.656936645508 1.984650015831
28.559947967529 -74.373252868652 -39.563610076904 1.987228751183
-56.665550231934 -72.191871643066 -49.254673004150 1.530520915985
-65.615936279297 -72.273017883301 -49.759273529053 2.588241815567
-38.106861114502 -73.415512084961 -52.745796203613 1.015054464340
-80.796173095703 -74.016815185547 -58.882648468018 1.834913015366
82.798408508301 -77.146835327148 -72.285217285156 2.524385452271
-19.040557861328 -75.794486999512 -70.792816162109 0.910871744156
88.952308654785 -76.694923400879 -71.390754699707 2.703321218491
97.556961059570 -75.353347778320 -79.039405822754 2.317685127258
-93.196861267090 -72.831405639648 -79.084808349609 1.192496180534
70.536712646484 -75.098487854004 -80.293067932129 2.069279432297
-42.703189849854 -77.089355468750 -84.169982910156 0.731712579727
100.092742919922 -73.628486633301 -84.034416198730 2.406815767288
-52.636249542236 -75.092315673828 -89.554565429688 0.823943018913
53.072902679443 -75.052810668945 -90.377304077148 2.224079370499
72.562660217285 -76.372909545898 -91.948112487793 2.291763782501
58.083137512207 -75.564903259277 -97.356742858887 2.088082790375
53.246486663818 -76.910705566406 -98.165061950684 1.381179809570
73.073776245117 -76.895919799805 -94.931602478027 2.285612821579
45.638084411621 -75.907089233398 -100.431541442871 1.616304755211
104.403350830078 -76.335845947266 -98.730224609375 3.037875413895
107.217681884766 -76.881294250488 -104.407539367676 2.759859085083
83.879722595215 -72.614509582520 -102.762382507324 1.898847818375
88.950637817383 -76.480842590332 -101.123481750488 2.379503965378
102.253074645996 -75.672225952148 -97.676940917969 2.539729118347
108.999420166016 -75.018508911133 -102.725822448730 2.785754442215
39.499092102051 -76.490325927734 -105.547958374023 2.439958572388
111.261779785156 -74.055740356445 -119.884231567383 2.182019948959
112.963546752930 -76.487701416016 -117.765953063965 2.324366807938
33.576969146729 -75.202644348145 -122.019119262695 1.710010766983
45.357559204102 -75.606849670410 -120.011428833008 1.824578642845
115.487663269043 -75.545249938965 -126.880752563477 2.049867153168
39.998008728027 -75.356437683105 -126.497421264648 1.628470420837
112.794013977051 -75.712203979492 -128.704330444336 1.510552287102
110.517051696777 -75.642860412598 -121.973892211914 2.601474523544
25.751873016357 -73.491020202637 -138.277740478516 2.002629518509
-49.156337738037 -74.115928649902 -135.613143920898 0.775944232941
-51.796245574951 -73.253273010254 -136.152770996094 0.615533351898
111.472602844238 -74.797447204590 -134.033264160156 1.665314316750
-71.204429626465 -74.485855102539 -142.437255859375 0.188107952476
-74.524192810059 -74.625755310059 -140.601669311523 1.068302989006
-56.818607330322 -74.757278442383 -144.464584350586 2.524242401123
34.226028442383 -73.686729431152 -141.517395019531 1.372454285622
112.069458007813 -75.443008422852 -143.875518798828 1.366142511368
-67.678848266602 -72.819175720215 -146.380554199219 0.428596109152
-45.451236724854 -72.674812316895 -144.920578002930 1.045984983444
34.879920959473 -75.926399230957 -148.909713745117 1.808228015900
-67.301063537598 -74.436584472656 -148.338409423828 1.216053366661
114.067451477051 -75.501815795898 -143.617080688477 1.584837198257
113.247604370117 -75.175666809082 -156.896575927734 1.062325954437
116.739761352539 -76.555297851563 -150.584594726563 2.104336738586
-37.576652526855 -74.694740295410 -154.328872680664 1.472883105278
-65.473533630371 -74.623893737793 -162.881393432617 0.625873148441
-71.943511962891 -74.102386474609 -156.624908447266 0.377303689718
32.603073120117 -75.586578369141 -149.910171508789 1.836082696915
-1.576766967773 -75.760780334473 -162.554016113281 1.094047665596
108.370292663574 -76.907669067383 -159.785064697266 2.884282112122
111.765342712402 -75.309837341309 -153.905059814453 1.933403491974
112.204177856445 -74.898986816406 -156.410675048828 0.811592996120
-64.554336547852 -71.559539794922 -163.445327758789 0.378988653421
-45.491970062256 -75.051803588867 -161.812240600586 1.357532382011
0.258015006781 -73.488891601563 -165.066604614258 1.019069552422
-25.847532272339 -73.349052429199 -174.853149414063 2.258522748947
107.088478088379 -75.792526245117 -165.947723388672 1.607107996941
-36.415649414063 -74.380805969238 -160.617431640625 0.958877682686
110.985252380371 -75.242813110352 -169.596923828125 1.091078519821
-41.138694763184 -74.868743896484 -172.755462646484 0.995800971985
110.274726867676 -75.131958007813 -166.384872436523 1.407723784447
-148.090011596680 -73.142547607422 -182.268737792969 1.314353466034
-28.223739624023 -72.837211608887 -175.835449218750 1.129857897758
-20.966180801392 -73.612976074219 -182.470840454102 1.261237740517
25.796033859253 -75.549560546875 -177.512161254883 1.969419240952
16.842752456665 -75.848449707031 -181.942947387695 1.173150658607
26.617881774902 -74.661483764648 -183.416641235352 1.275261759758
107.465904235840 -75.217132568359 -182.015686035156 0.779379189014
-150.449920654297 -72.251724243164 -187.435760498047 0.953700900078
-19.985515594482 -75.715950012207 -189.053329467773 1.431579828262
104.325141906738 -74.584495544434 -178.378158569336 2.412699222565
104.166786193848 -75.137603759766 -190.399261474609 0.960886299610
107.173072814941 -75.120742797852 -179.595520019531 1.626267313957
97.807754516602 -76.544532775879 -194.470046997070 2.494503974915
-151.478256225586 -75.832855224609 -194.548263549805 1.053603887558
101.223808288574 -76.302635192871 -203.776275634766 2.158959865570
-27.733356475830 -72.409255981445 -194.753967285156 2.201362848282
99.910507202148 -75.003059387207 -197.508422851563 1.955995798111
-124.135772705078 -72.955291748047 -198.127075195313 0.731414496899
-28.658315658569 -76.823738098145 -192.947357177734 1.157035827637
-140.340789794922 -71.863670349121 -198.738449096680 0.922516584396
94.851478576660 -75.643783569336 -199.845947265625 2.088980674744
9.658041954041 -75.962966918945 -198.123519897461 1.666613936424
23.309825897217 -75.116806030273 -194.167266845703 1.973003268242
-146.332855224609 -70.578605651855 -201.147293090820 0.921741962433
-140.471496582031 -71.662673950195 -201.645187377930 0.722068309784
-10.370422363281 -73.896125793457 -203.732803344727 1.558192849159
-123.958793640137 -73.213394165039 -201.414382934570 0.576839685440
-142.509811401367 -75.996551513672 -204.334945678711 0.981639087200
8.495198249817 -74.136833190918 -201.064407348633 1.133377432823
-21.133798599243 -75.585296630859 -202.650329589844 1.089753150940
20.540117263794 -75.018722534180 -203.849380493164 1.786127686501
8.914266586304 -74.490028381348 -209.879577636719 1.580580115318
90.178512573242 -76.179435729980 -207.557037353516 1.613728642464
-18.729784011841 -72.678298950195 -211.860595703125 0.940270066261
92.982147216797 -74.779922485352 -208.551269531250 0.552980482578
95.890129089355 -74.896598815918 -206.784149169922 1.902567505836
-149.692001342773 -71.978172302246 -216.275436401367 1.102990508080
96.610618591309 -75.089241027832 -211.300918579102 0.320441216230
6.836599826813 -75.297531127930 -209.301544189453 1.602018475533
5.869810104370 -75.921028137207 -214.372055053711 0.668275237083
-34.011394500732 -73.634284973145 -209.010208129883 2.087254285812
-88.880050659180 -72.688072204590 -213.865081787109 1.987802386284
-27.679975509644 -73.390312194824 -212.455917358398 1.058859825134
84.991203308105 -75.832572937012 -215.046051025391 1.521620273590
87.736015319824 -74.757789611816 -219.067153930664 1.916417360306
-32.064323425293 -73.898071289063 -213.436798095703 1.675675392151
-84.879867553711 -72.445640563965 -216.719924926758 1.300598740578
-2.082931995392 -75.847145080566 -217.552520751953 1.626758456230
87.931137084961 -74.799285888672 -215.259918212891 2.434371709824
-150.346908569336 -71.682357788086 -223.148605346680 1.137272834778
-164.377380371094 -71.377624511719 -214.819396972656 1.422723293304
-159.040222167969 -71.391616821289 -223.578613281250 1.245601415634
-20.445775985718 -73.082275390625 -226.785446166992 1.539307951927
-151.958572387695 -71.388282775879 -223.890274047852 1.125455379486
-7.248026847839 -76.103294372559 -225.480712890625 0.859647989273
8.223608016968 -73.628799438477 -218.219894409180 1.425773501396
-163.279907226563 -71.584854125977 -224.970718383789 1.303849458694
-161.034744262695 -72.429626464844 -226.508209228516 1.283625245094
80.627136230469 -75.996429443359 -230.044769287109 2.188734531403
3.499389886856 -72.330276489258 -227.882232666016 1.437428832054
-154.081680297852 -71.391746520996 -226.203460693359 1.194821476936
-141.426010131836 -71.615203857422 -226.820281982422 1.225969672203
-19.339553833008 -74.625488281250 -224.367034912109 1.097924828529
2.774626016617 -77.477943420410 -225.350311279297 0.689388692379
81.056480407715 -74.856376647949 -223.438659667969 2.076815605164
-161.054626464844 -71.633468627930 -228.447723388672 1.505447745323
-146.630722045898 -71.816825866699 -228.363449096680 1.112327575684
-123.359878540039 -72.136619567871 -230.043945312500 0.704188287258
80.637687683105 -74.155166625977 -227.345428466797 1.101540684700
-114.650527954102 -71.889068603516 -229.172027587891 0.727361977100
-149.510543823242 -72.094787597656 -229.495285034180 0.995067656040
-148.788986206055 -71.449760437012 -230.984954833984 1.148636937141
-146.975982666016 -72.324371337891 -230.789642333984 0.645915865898
-155.280929565430 -71.550476074219 -229.520050048828 1.223050594330
-164.746170043945 -71.648345947266 -230.451400756836 1.320881485939
-134.619064331055 -70.845489501953 -233.136856079102 0.470493704081
-132.718933105469 -73.178741455078 -232.904876708984 0.374986082315
-154.376647949219 -71.506805419922 -232.237243652344 1.222640156746
-144.457489013672 -70.378242492676 -235.566635131836 0.977178990841
-151.957077026367 -71.610031127930 -235.200027465820 1.265607714653
74.539398193359 -74.722442626953 -230.594223022461 0.968558192253
68.370063781738 -73.953681945801 -237.702789306641 0.822622656822
-158.971008300781 -71.706062316895 -235.932388305664 1.506189703941
70.734443664551 -73.714447021484 -233.339950561523 1.642855644226
-17.853023529053 -74.396263122559 -237.083084106445 0.516792058945
10.382054328918 -73.918075561523 -235.233871459961 0.891002297401
6.286625862122 -74.861595153809 -236.203262329102 2.080311059952
-151.757415771484 -71.952720642090 -245.295913696289 1.419369935989
13.322395324707 -73.943161010742 -240.702682495117 0.903230309486
64.408309936523 -74.955688476563 -236.849960327148 1.549501419067
14.487587928772 -73.525726318359 -237.374053955078 1.048364043236
7.199162006378 -75.171676635742 -241.945877075195 1.600708484650
-5.529329776764 -74.468070983887 -241.551467895508 1.031964540482
-19.310041427612 -73.510925292969 -242.775634765625 0.520971596241
0.218991994858 -73.616233825684 -243.958221435547 0.769455432892
3.090085983276 -75.053848266602 -243.086395263672 0.808496952057
58.158996582031 -74.634033203125 -242.483581542969 2.027671098709
-55.820449829102 -72.874343872070 -244.850738525391 0.745470583439
19.120475769043 -73.550735473633 -246.125625610352 1.434125065804
-60.907772064209 -74.383735656738 -244.574707031250 0.679302990437
-7.948444843292 -73.679374694824 -247.524383544922 0.826939582825
-64.010284423828 -71.872268676758 -249.988739013672 1.589238166809
-85.792785644531 -74.011688232422 -251.837310791016 1.015205860138
-82.318840026855 -72.422103881836 -249.684158325195 0.729445338249
-11.739870071411 -73.438934326172 -252.185043334961 0.556401908398
-123.790557861328 -71.663780212402 -255.558258056641 0.778932690620
-13.562079429626 -74.787376403809 -255.339508056641 0.896516740322
-116.376754760742 -72.858116149902 -257.601348876953 0.859112560749
-113.793197631836 -72.324531555176 -258.561859130859 0.830820024014
-102.448005676270 -72.340858459473 -259.677185058594 0.470923393965
-144.209701538086 -72.221122741699 -264.668823242188 1.228909134865
-145.008102416992 -71.302070617676 -266.042419433594 1.224830746651
-167.231597900391 -71.720710754395 -264.796661376953 2.253884077072
17.104719161987 -75.498146057129 -279.731384277344 0.605239808559
-53.783065795898 -72.759529113770 -286.069854736328 0.269863665104
-64.979110717773 -72.420623779297 -286.201324462891 0.372462034225
-41.369060516357 -74.316474914551 -286.184112548828 1.515220880508
-29.289564132690 -74.795616149902 -285.261413574219 0.256306231022
-96.554084777832 -72.429122924805 -287.090606689453 1.698799133301
-28.737869262695 -72.487678527832 -287.508911132813 1.298514604568
-4.207084178925 -74.571159362793 -287.196899414063 0.503751933575
-166.831970214844 -71.280471801758 -289.121307373047 1.061808586121
-10.890543937683 -74.379936218262 -286.880432128906 0.711583077908
8.461671829224 -74.669334411621 -288.135986328125 0.626403570175
14.997479438782 -75.318374633789 -288.828704833984 0.221913307905
-56.156543731689 -72.812416076660 -291.077850341797 0.303672194481
-29.446094512939 -72.339439392090 -290.729431152344 2.161671638489
14.649910926819 -72.928741455078 -291.874542236328 0.817345261574
-69.063049316406 -72.982398986816 -291.396728515625 1.325949549675
-36.280815124512 -72.826789855957 -291.053741455078 0.219125002623
-16.816017150879 -72.444931030273 -291.038635253906 0.355405390263
16.887411117554 -74.900474548340 -290.128356933594 0.325729757547
-9.968878746033 -73.527671813965 -291.967224121094 1.490380764008
3.777796983719 -72.632026672363 -292.117340087891 0.578267693520
14.606658935547 -73.563858032227 -293.542755126953 0.699918091297
-134.175888061523 -71.136932373047 -294.868499755859 1.229610204697
-144.044006347656 -73.476585388184 -301.451690673828 1.449360132217
-146.543289184570 -73.701370239258 -313.232910156250 0.739684462547
40.976097106934 -73.805892944336 -13.128442764282 2.359755754471
31.342678070068 -73.818672180176 -12.225643157959 2.136078834534
38.585666656494 -73.969772338867 -16.245035171509 3.194195747375
21.199487686157 -73.475265502930 -19.987955093384 2.363930940628
44.538917541504 -74.028190612793 -21.136770248413 2.559377670288
25.108852386475 -74.545410156250 -22.473033905029 2.172981262207
24.666162490845 -74.461082458496 -29.162101745605 1.987928509712
22.603811264038 -74.560218811035 -34.411819458008 2.786462545395
43.566558837891 -73.717193603516 -30.716077804565 2.852852106094
27.427516937256 -74.476997375488 -34.661632537842 2.247076988220
42.462173461914 -74.021339416504 -34.707630157471 2.853950977325
32.013641357422 -74.391654968262 -36.954750061035 2.040923357010
36.634525299072 -74.271873474121 -36.936737060547 2.096664190292
31.934156417847 -74.540702819824 -39.897781372070 2.026960849762
41.813591003418 -73.990074157715 -39.882614135742 2.272277355194
36.219421386719 -74.233856201172 -41.389579772949 2.216122627258
-38.206024169922 -70.541503906250 -49.789756774902 1.863800525665
-30.496019363403 -70.174629211426 -51.724460601807 1.860794305801
-87.383644104004 -68.353523254395 -56.982276916504 1.392876267433
-86.876312255859 -73.648719787598 -64.927543640137 0.608459174633
79.752342224121 -75.702323913574 -69.985130310059 2.525043964386
84.661338806152 -76.111106872559 -71.854362487793 2.110259532928
-17.260538101196 -72.089530944824 -71.480422973633 1.758302092552
-88.104736328125 -75.296348571777 -71.375625610352 1.896901965141
-24.931343078613 -73.957244873047 -76.950096130371 0.064339444041
-49.471046447754 -73.268333435059 -85.606437683105 0.864326834679
66.302024841309 -70.980751037598 -85.711471557617 2.041674613953
54.210605621338 -74.438812255859 -91.993759155273 1.271134853363
100.018096923828 -74.248321533203 -90.823974609375 2.695763826370
70.692855834961 -74.075149536133 -95.712303161621 2.308864831924
-65.023246765137 -75.826477050781 -94.174217224121 1.129436254501
-65.489753723145 -74.214309692383 -96.630577087402 1.322232365608
45.625755310059 -75.943046569824 -97.014831542969 1.909810543060
77.905014038086 -74.494285583496 -102.308219909668 2.386233329773
53.848400115967 -77.064750671387 -104.173110961914 1.973230719566
100.960372924805 -74.401618957520 -97.913864135742 2.343742132187
-95.557685852051 -71.758064270020 -107.148155212402 2.878868579865
37.800434112549 -75.602645874023 -112.230064392090 1.745938301086
106.802276611328 -74.618286132813 -106.778350830078 1.554821133614
47.758861541748 -73.632980346680 -110.515602111816 1.692505717278
103.532318115234 -74.519950866699 -107.211982727051 2.603480339050
-86.151550292969 -73.987892150879 -112.537620544434 0.572021663189
36.724746704102 -75.767196655273 -110.104194641113 1.050908684731
105.929794311523 -75.255989074707 -116.268165588379 2.957746028900
105.158264160156 -73.495498657227 -114.480033874512 1.059033870697
108.450202941895 -74.833496093750 -114.396377563477 1.914287328720
109.982704162598 -74.960304260254 -114.894012451172 2.008493423462
38.461578369141 -73.029510498047 -113.019783020020 2.294250965118
31.941711425781 -75.414306640625 -119.609268188477 1.550289988518
44.073806762695 -73.988250732422 -116.426918029785 1.827662229538
109.865425109863 -74.626182556152 -122.448425292969 1.913130521774
38.975517272949 -73.669227600098 -125.658599853516 2.445811033249
108.414421081543 -74.908531188965 -130.744842529297 1.957156777382
112.914451599121 -74.254173278809 -130.267440795898 1.738611221313
33.961376190186 -73.667594909668 -123.598266601563 1.671102881432
-76.792861938477 -71.412971496582 -129.203048706055 1.265351772308
116.499244689941 -74.861900329590 -134.540206909180 0.933818995953
-56.202991485596 -73.086296081543 -136.438247680664 1.448426127434
36.951564788818 -74.530143737793 -135.455535888672 2.009505510330
-72.486068725586 -73.219673156738 -138.290863037109 0.776045620441
29.475605010986 -73.789039611816 -134.228851318359 1.918514966965
-77.259689331055 -72.552772521973 -141.346328735352 1.776262044907
-44.892494201660 -75.149810791016 -141.961105346680 1.017637372017
-71.359260559082 -70.952369689941 -137.609924316406 2.123349905014
112.143753051758 -74.334304809570 -137.936019897461 0.769529104233
113.347717285156 -74.405311584473 -141.583618164063 1.410777449608
116.840736389160 -76.439491271973 -143.795593261719 1.520950794220
-72.071685791016 -70.637657165527 -144.404052734375 0.511881291866
10.354878425598 -71.627593994141 -150.878341674805 0.569225609303
-53.870834350586 -73.717864990234 -151.911895751953 1.169445991516
-48.821468353271 -73.262176513672 -156.059997558594 0.889872550964
108.639984130859 -74.345535278320 -158.583419799805 0.559032380581
-42.222839355469 -73.269126892090 -150.898498535156 1.011291623116
13.434596061707 -73.656517028809 -156.566543579102 1.488826990128
22.365560531616 -74.010116577148 -158.051574707031 2.073644876480
115.427368164063 -76.081893920898 -163.294784545898 1.290698647499
29.264387130737 -74.490509033203 -163.263854980469 1.208100557327
-0.763644993305 -74.132431030273 -162.990356445313 0.983478665352
31.947309494019 -74.796920776367 -161.514282226563 1.479071617126
-67.709419250488 -71.216392517090 -160.244598388672 0.365794152021
-64.283218383789 -71.914321899414 -159.378738403320 0.605708479881
-67.277488708496 -73.361755371094 -164.810516357422 1.343224883080
115.415542602539 -73.610725402832 -160.433013916016 1.155934214592
-43.999237060547 -72.688438415527 -163.028625488281 0.575890421867
20.419404983521 -74.318359375000 -166.207916259766 0.742122650146
-63.751647949219 -73.162467956543 -169.379409790039 1.687969207764
-60.265789031982 -73.041824340820 -171.244064331055 0.575658857822
-38.226314544678 -72.558021545410 -159.469116210938 0.652529597282
-31.384948730469 -72.828277587891 -170.162872314453 1.186972260475
114.033554077148 -75.258926391602 -170.500381469727 1.570895075798
-36.191509246826 -72.757209777832 -176.655517578125 1.340947628021
16.252490997314 -74.551078796387 -174.353515625000 2.441189527512
111.339164733887 -76.009315490723 -181.069442749023 2.314600706100
-147.949508666992 -72.811729431152 -176.359573364258 0.843436300755
-144.847610473633 -72.531173706055 -176.390121459961 0.977393925190
-150.996398925781 -71.363075256348 -177.727523803711 0.972432672977
-142.570510864258 -71.167945861816 -180.808654785156 1.313032150269
-30.015752792358 -73.003318786621 -186.641464233398 0.679023444653
-22.338197708130 -72.565338134766 -186.292358398438 1.523348093033
23.115123748779 -73.642768859863 -189.018783569336 1.787088274956
-142.176803588867 -71.293121337891 -187.283538818359 0.901006698608
-145.870117187500 -71.739418029785 -188.438812255859 0.950916051865
-19.672605514526 -70.796546936035 -188.207443237305 1.489741206169
13.943281173706 -75.068763732910 -182.398712158203 1.855984210968
-147.544570922852 -72.025764465332 -192.617980957031 0.951325416565
-31.116365432739 -75.026611328125 -185.946655273438 1.267927885056
101.071342468262 -74.233634948730 -188.125106811523 1.972573041916
108.292938232422 -75.698745727539 -189.518066406250 1.155809640884
23.415210723877 -72.482261657715 -193.448562622070 2.174569368362
-17.899120330811 -74.133117675781 -188.632751464844 1.467373490334
-25.864252090454 -74.536666870117 -194.395507812500 1.317438244820
-153.307022094727 -70.792716979980 -196.157974243164 1.067290425301
-131.727127075195 -72.386810302734 -197.301544189453 0.864929497242
-123.872695922852 -71.213844299316 -195.964782714844 1.031472921371
-121.890472412109 -70.517303466797 -198.230804443359 0.697149336338
-22.888824462891 -70.967483520508 -198.001831054688 0.564765930176
10.765346527100 -73.908447265625 -193.033050537109 1.149416446686
94.944938659668 -74.031730651855 -200.803146362305 1.021567940712
-147.515502929688 -70.619979858398 -197.627685546875 1.168215155602
-145.807785034180 -71.025138854980 -198.844024658203 0.756793141365
-148.975128173828 -70.231834411621 -199.022689819336 1.024036645889
-154.579284667969 -70.557258605957 -199.552597045898 1.625936985016
-25.542959213257 -74.016853332520 -199.653717041016 1.101083517075
-13.937917709351 -75.806564331055 -196.345016479492 1.007732033730
-148.114425659180 -71.059585571289 -201.289291381836 0.907821476460
-15.296311378479 -72.955780029297 -199.379180908203 1.751286506653
-162.076400756836 -70.711166381836 -199.066909790039 1.185613274574
-133.418334960938 -71.917785644531 -200.133712768555 0.864848256111
17.405124664307 -72.653778076172 -207.299591064453 1.358885169029
-163.446334838867 -70.793441772461 -204.114318847656 1.222240328789
-145.175704956055 -71.419830322266 -206.476760864258 0.874605655670
10.999913215637 -73.208946228027 -200.444091796875 2.094928026199
-153.151992797852 -70.657196044922 -203.610824584961 1.199901700020
-22.732456207275 -73.787574768066 -200.449386596680 1.253971815109
103.089706420898 -74.271301269531 -199.764297485352 2.278111696243
-155.516723632813 -71.039398193359 -215.837478637695 1.341263055801
-164.210311889648 -71.250656127930 -210.229431152344 1.223125696182
-78.108489990234 -71.720405578613 -211.310974121094 0.261015117168
88.502479553223 -74.053207397461 -210.479415893555 1.962832450867
-3.189462900162 -71.937843322754 -216.278228759766 0.621678650379
-150.758941650391 -70.868942260742 -213.450225830078 1.322468876839
-87.729911804199 -71.176116943359 -215.052154541016 1.484130263329
-7.847708225250 -73.699226379395 -212.073425292969 1.957120299339
15.329269409180 -73.975662231445 -222.868530273438 0.928464174271
-145.688079833984 -72.045028686523 -219.020843505859 0.664717495441
-2.426912069321 -73.684288024902 -221.144149780273 2.042724370956
-21.798398971558 -71.659080505371 -221.306411743164 0.911040961742
-14.190129280090 -71.101730346680 -219.101837158203 1.207747817039
88.736877441406 -74.269737243652 -215.847229003906 1.562787055969
-21.464721679688 -72.469650268555 -218.290664672852 1.183887124062
-28.329839706421 -72.815856933594 -216.007247924805 1.547669410706
-106.723884582520 -71.605430603027 -223.741180419922 0.604613006115
-14.974012374878 -72.495765686035 -222.422576904297 0.827452778816
90.452499389648 -73.084960937500 -219.151809692383 0.773673951626
81.783767700195 -74.100730895996 -218.696670532227 1.843607068062
5.653318881989 -74.133789062500 -220.683746337891 0.691820859909
-10.138364791870 -73.976409912109 -225.396743774414 1.062380909920
78.367980957031 -75.487937927246 -222.731948852539 1.397930860519
-123.384803771973 -71.539779663086 -225.251724243164 0.923673272133
-22.949808120728 -72.252975463867 -222.742462158203 0.548678696156
-99.214103698730 -71.118385314941 -224.431716918945 0.352529883385
-104.803535461426 -71.875473022461 -226.651412963867 0.784864723682
-134.385696411133 -72.435043334961 -228.013214111328 0.962213993073
82.170982360840 -73.475730895996 -224.466476440430 1.139532566071
-123.473556518555 -71.348373413086 -227.436462402344 0.825422048569
6.078299045563 -73.718528747559 -228.139358520508 0.692066490650
80.608505249023 -73.595565795898 -224.141235351563 1.734218955040
-13.993840217590 -73.258071899414 -225.875823974609 0.566786527634
-11.661700248718 -73.408073425293 -231.001861572266 1.431224822998
-4.454610824585 -74.091880798340 -229.967468261719 0.735933542252
8.704153060913 -73.314758300781 -227.061309814453 0.729653358459
86.379043579102 -74.647865295410 -224.712692260742 2.109110593796
11.565178871155 -72.815521240234 -232.219863891602 0.917281210423
3.819797992706 -74.489372253418 -229.154205322266 1.184136033058
-8.469953536987 -73.470214843750 -230.336547851563 0.738074302673
-6.315151214600 -72.684600830078 -233.654830932617 0.696219503880
17.100402832031 -72.688156127930 -231.802688598633 1.016421914101
-11.802493095398 -72.930023193359 -234.096023559570 0.630200445652
71.809623718262 -74.499389648438 -238.128433227539 1.635853528976
-7.566878795624 -71.736976623535 -237.886154174805 0.662625968456
18.965520858765 -74.594520568848 -236.026535034180 1.202799916267
-165.950637817383 -71.695152282715 -242.087860107422 1.405933380127
-4.385503768921 -72.821243286133 -239.324768066406 0.695279717445
-8.905473709106 -71.672828674316 -242.135101318359 1.218027472496
-167.500030517578 -70.230018615723 -251.983688354492 1.488552570343
-9.969910621643 -73.336486816406 -245.430252075195 0.604632258415
17.322814941406 -72.727996826172 -246.680068969727 0.436017155647
-146.145324707031 -72.921241760254 -252.335754394531 0.952032923698
-68.427841186523 -70.674308776855 -248.178283691406 1.133478283882
-60.199283599854 -71.809173583984 -246.899612426758 1.281750559807
54.477901458740 -74.170570373535 -246.882507324219 2.561119794846
-76.826751708984 -72.216987609863 -248.352996826172 1.852741479874
18.793302536011 -74.459915161133 -249.260559082031 0.359311372042
-73.069229125977 -70.824600219727 -252.550659179688 1.570991396904
-14.013737678528 -73.502098083496 -251.182968139648 1.191218852997
-145.356964111328 -71.964591979980 -253.348922729492 1.159374475479
49.262615203857 -73.715904235840 -248.652053833008 1.675916552544
-78.040252685547 -70.998359680176 -254.112518310547 1.099803447723
-101.516433715820 -71.107650756836 -254.913330078125 1.322054624557
-97.215141296387 -73.126647949219 -255.360336303711 0.572220742702
-117.002769470215 -72.712318420410 -255.803253173828 0.791555941105
-104.871360778809 -72.701416015625 -257.222808837891 1.039346098900
-106.561958312988 -72.647987365723 -259.630981445313 0.771550059319
22.945226669312 -75.090599060059 -260.549804687500 0.578996658325
-127.018234252930 -70.808891296387 -265.257385253906 0.738248348236
-10.848022460938 -73.763107299805 -276.699584960938 1.554002165794
-145.316314697266 -71.187202453613 -282.184936523438 0.321356475353
-168.214599609375 -71.178886413574 -283.944732666016 0.988998413086
-124.384155273438 -71.879280090332 -286.414428710938 0.796168088913
-113.770767211914 -70.379776000977 -287.319152832031 0.998563826084
-74.926628112793 -69.807800292969 -287.482513427734 0.498323798180
-56.457485198975 -70.995048522949 -286.940032958984 1.062324166298
-42.635589599609 -72.243263244629 -286.918090820313 0.217481449246
-14.627321243286 -72.463638305664 -287.869995117188 0.388250410557
-13.586280822754 -71.730033874512 -289.253845214844 0.880265176296
-37.329730987549 -71.556480407715 -289.158660888672 1.113430857658
-33.785842895508 -71.771125793457 -289.076721191406 2.778564691544
-18.079988479614 -71.871467590332 -289.312042236328 0.861537575722
-68.976325988770 -71.390998840332 -291.203460693359 0.433360159397
-53.763278961182 -71.855865478516 -290.849365234375 1.998765349388
-15.144119262695 -71.653945922852 -291.118927001953 0.373228669167
-13.161480903625 -72.695449829102 -291.196807861328 0.391993761063
-3.584738969803 -71.777755737305 -290.774383544922 0.499638020992
2.580907106400 -72.358627319336 -291.259246826172 0.782344520092
-89.256965637207 -72.055488586426 -292.169433593750 0.548610150814
-141.984237670898 -70.139564514160 -293.137451171875 1.002027511597
-117.384147644043 -72.062049865723 -292.763793945313 1.418707847595
-153.525238037109 -72.692367553711 -297.415252685547 0.586388885975
-154.123229980469 -70.859046936035 -299.954467773438 1.498612761497
-145.416519165039 -72.221672058105 -299.989685058594 0.612059116364
46.604534149170 -73.836952209473 -18.733678817749 2.808232784271
19.894945144653 -73.328796386719 -23.499206542969 2.399808406830
49.042213439941 -73.860336303711 -26.704538345337 2.602397918701
47.343536376953 -73.940139770508 -33.913654327393 2.964381694794
86.800460815430 -74.151153564453 -67.424201965332 2.573254823685
95.141273498535 -74.670021057129 -72.656501770020 2.653694629669
101.088020324707 -72.611549377441 -80.354072570801 2.689989328384
98.565307617188 -75.760406494141 -81.946166992188 2.656198501587
58.639030456543 -74.281547546387 -88.033592224121 2.415825843811
48.804382324219 -75.283508300781 -93.660263061523 2.092656373978
63.399974822998 -72.739631652832 -90.498023986816 2.740919113159
-64.337249755859 -68.950119018555 -91.920021057129 0.656489789486
69.278030395508 -75.192047119141 -88.554145812988 2.208443880081
102.566200256348 -73.045883178711 -97.522689819336 0.482201457024
74.903694152832 -75.586067199707 -99.552009582520 2.637434959412
96.182914733887 -73.889755249023 -100.915672302246 2.030881404877
-80.601211547852 -72.728141784668 -100.972511291504 0.506154119968
44.182559967041 -73.899322509766 -101.650382995605 1.856719851494
-83.786315917969 -72.381340026855 -106.071594238281 0.463941752911
50.515933990479 -75.233932495117 -110.675354003906 2.074365854263
39.962207794189 -73.534393310547 -104.505271911621 1.306018829346
106.560485839844 -73.918373107910 -103.050804138184 1.162856817245
38.407287597656 -72.445846557617 -108.361213684082 1.731167435646
39.308582305908 -72.200401306152 -114.717231750488 1.853155374527
43.586959838867 -71.932983398438 -113.023551940918 1.692825913429
107.932228088379 -73.493553161621 -113.832908630371 1.534398794174
-82.301979064941 -71.280258178711 -121.061500549316 0.411146253347
111.297019958496 -73.440765380859 -126.123908996582 0.396661549807
37.533718109131 -72.663703918457 -123.822494506836 1.719379186630
41.745746612549 -71.637786865234 -120.789199829102 1.604857563972
36.308555603027 -72.671760559082 -122.591278076172 1.702448010445
-56.773315429688 -72.658554077148 -130.109283447266 0.691522538662
31.197502136230 -72.962318420410 -123.936019897461 1.662943959236
-76.274803161621 -73.462936401367 -136.971023559570 1.692695379257
-55.733226776123 -72.121635437012 -133.179092407227 0.582413077354
-79.294296264648 -71.029747009277 -135.112609863281 1.914992570877
33.713260650635 -72.328491210938 -128.734588623047 1.790763139725
-58.824451446533 -71.000144958496 -134.231933593750 1.840722680092
35.055747985840 -72.380531311035 -134.161376953125 2.273909807205
-73.032165527344 -70.977287292480 -139.876861572266 0.470708549023
-59.033004760742 -73.536911010742 -138.350601196289 1.231382846832
29.130475997925 -72.488174438477 -139.596374511719 1.538235425949
109.299278259277 -75.383697509766 -143.421829223633 1.455124378204
116.016853332520 -72.869003295898 -136.260299682617 1.673635959625
31.438392639160 -72.081809997559 -139.429611206055 1.566535115242
-45.270000457764 -70.845664978027 -141.369049072266 0.648093938828
109.811950683594 -73.335800170898 -151.368041992188 1.362010955811
-73.875442504883 -71.478507995605 -144.519607543945 0.976924180984
-58.661060333252 -72.135231018066 -142.976165771484 1.117969274521
31.497697830200 -73.384719848633 -149.893157958984 2.457917690277
-76.144981384277 -71.648071289063 -146.937072753906 1.269248366356
-71.050949096680 -72.436309814453 -151.425369262695 2.134898662567
116.694999694824 -74.180213928223 -149.950408935547 1.137239217758
-64.829162597656 -73.051452636719 -154.532272338867 2.097444295883
-38.881221771240 -72.117935180664 -153.573104858398 1.434548139572
27.844320297241 -71.585311889648 -148.516708374023 1.527042388916
-74.956726074219 -71.381881713867 -149.803344726563 0.358833521605
12.424465179443 -73.662849426270 -151.561767578125 1.499339580536
31.885149002075 -72.107345581055 -154.617919921875 1.387342333794
30.489231109619 -72.231170654297 -147.692871093750 1.741555213928
11.863728523254 -74.891166687012 -155.225341796875 1.112191915512
-48.403068542480 -71.187187194824 -154.071868896484 0.364400267601
27.731552124023 -71.271751403809 -153.354476928711 1.457895636559
-44.725357055664 -71.385574340820 -148.938201904297 1.117768287659
7.049869060516 -72.821311950684 -153.962783813477 0.873949468136
22.390325546265 -72.447517395020 -150.122695922852 1.885632872581
-71.668449401855 -72.012817382813 -156.001831054688 1.929011940956
-45.397045135498 -70.415061950684 -154.394546508789 0.587861061096
-67.412811279297 -70.377182006836 -157.194610595703 1.589332342148
14.728738784790 -72.097892761230 -158.370712280273 0.563060581684
25.314645767212 -72.249458312988 -150.259063720703 3.050381422043
2.658344030380 -72.244361877441 -161.404861450195 1.118587374687
20.418306350708 -74.151687622070 -156.292633056641 0.918628156185
30.956630706787 -73.741386413574 -164.623245239258 1.254101753235
-47.461193084717 -73.486671447754 -162.065124511719 0.579722583294
-33.873264312744 -72.497039794922 -161.473480224609 0.559175908566
-39.420692443848 -71.350914001465 -160.633178710938 0.629257440567
28.039213180542 -72.191329956055 -160.775741577148 1.337556123734
-43.680191040039 -72.438224792480 -167.993850708008 1.077541708946
-40.552093505859 -71.178115844727 -162.632415771484 2.356951951981
20.633758544922 -72.600929260254 -166.667846679688 0.686771035194
-40.168590545654 -72.057479858398 -173.441162109375 0.568500161171
28.913759231567 -72.582290649414 -170.291061401367 1.595139622688
113.905075073242 -73.232528686523 -167.405334472656 1.520241737366
-32.219253540039 -71.420188903809 -171.974395751953 0.659729123116
107.113899230957 -72.849708557129 -172.857589721680 1.492223620415
-34.522834777832 -71.492904663086 -176.844207763672 0.613033652306
-36.460906982422 -72.615272521973 -180.486663818359 0.437889754772
18.353334426880 -73.963844299316 -175.012603759766 0.726422071457
104.635009765625 -72.797676086426 -182.066635131836 2.149502992630
-28.781948089600 -71.456283569336 -184.931549072266 0.642114222050
-33.695339202881 -70.977912902832 -174.228347778320 1.585594892502
-23.936225891113 -71.410003662109 -185.964981079102 0.921019494534
-148.804275512695 -71.565704345703 -188.278839111328 1.053502559662
15.894352912903 -72.671012878418 -183.474441528320 1.211650371552
106.545761108398 -72.674232482910 -189.121063232422 1.881321191788
-155.689117431641 -70.119949340820 -194.781738281250 1.073978304863
-26.448759078979 -71.994667053223 -192.101959228516 0.639070332050
-115.550239562988 -71.014221191406 -196.725723266602 0.620411336422
-133.946212768555 -70.916923522949 -197.693283081055 0.834793329239
-110.006446838379 -70.161872863770 -199.542037963867 0.563781559467
-111.601135253906 -71.114555358887 -200.671539306641 1.203105568886
-14.279240608215 -71.827842712402 -196.622085571289 0.759960770607
20.596580505371 -73.470520019531 -196.603515625000 1.094980001450
-15.612841606140 -70.432449340820 -201.754104614258 0.858040034771
-123.940711975098 -70.945915222168 -204.864120483398 0.191009595990
-21.558158874512 -70.848365783691 -206.344635009766 1.840804934502
-131.649856567383 -71.881790161133 -203.373031616211 1.055186629295
-13.297715187073 -72.809783935547 -203.139785766602 0.897464752197
-144.205810546875 -70.159904479980 -205.545562744141 0.990684628487
91.936866760254 -72.618980407715 -207.300567626953 1.728946566582
-165.084243774414 -70.380157470703 -202.538558959961 0.884099960327
-4.111193180084 -74.625846862793 -213.823822021484 1.690545558929
10.212308883667 -71.966102600098 -209.322769165039 0.919027328491
10.591272354126 -71.460456848145 -216.762481689453 2.358362674713
83.288032531738 -72.664619445801 -217.919509887695 1.535883307457
6.916163921356 -72.490440368652 -212.694885253906 1.390655875206
14.811417579651 -72.021560668945 -214.413406372070 1.032776117325
-15.840471267700 -74.461631774902 -217.052108764648 1.198967814445
-90.530326843262 -70.117050170898 -217.673355102539 0.887106418610
-97.013481140137 -71.262100219727 -216.738464355469 1.347910642624
-3.860101938248 -70.926170349121 -221.098068237305 1.181656002998
-166.170516967773 -70.396255493164 -223.742858886719 1.979697346687
13.317835807800 -72.058586120605 -222.463439941406 0.980671405792
-144.310195922852 -70.092224121094 -223.684066772461 1.546961903572
11.866617202759 -71.970443725586 -225.214401245117 1.113507628441
-133.427474975586 -70.591262817383 -225.102584838867 1.087255835533
-116.750778198242 -71.353065490723 -225.563751220703 0.935797631741
15.912350654602 -71.503997802734 -222.244155883789 1.498822569847
76.549125671387 -72.727561950684 -224.654586791992 1.738410592079
7.750912189484 -70.878700256348 -223.320159912109 0.796963751316
-111.584442138672 -71.256744384766 -230.382934570313 0.999085664749
