72.159629821777 -73.701202392578 -229.865036010742 1.312293171883
-141.062637329102 -73.430221557617 -231.524276733398 0.726217210293
74.588989257813 -75.234336853027 -229.670059204102 0.386373370886
-18.893838882446 -75.595298767090 -227.207107543945 2.002193927765
-141.393112182617 -77.824783325195 -231.269989013672 0.511196255684
78.938529968262 -73.373382568359 -228.281829833984 1.547930955887
9.338450431824 -75.346519470215 -235.783233642578 2.449765443802
-143.568649291992 -78.702880859375 -233.978851318359 0.407196193933
-150.413070678711 -73.552757263184 -235.156524658203 0.103384748101
15.923046112061 -73.207702636719 -232.814010620117 1.582821130753
-2.698699712753 -73.963027954102 -235.462982177734 1.051910161972
-24.317838668823 -74.505783081055 -237.891189575195 1.014477968216
-1.465882420540 -72.219886779785 -239.764724731445 0.760038554668
-160.785247802734 -74.102180480957 -237.522720336914 0.109400324523
11.626920700073 -75.227653503418 -244.915573120117 0.483902335167
-164.196151733398 -73.516242980957 -235.561584472656 0.941546797752
-13.800059318542 -75.178298950195 -238.094833374023 0.637626469135
66.128051757813 -74.403388977051 -239.314712524414 1.916860461235
-11.996124267578 -74.436813354492 -240.614639282227 0.110367611051
-24.344915390015 -72.830001831055 -239.939483642578 0.094407707453
-25.636661529541 -73.705780029297 -241.909301757813 1.743436813354
-15.618622779846 -73.197906494141 -242.323089599609 0.107091188431
-145.842453002930 -73.701744079590 -235.369476318359 0.096141710877
8.812382698059 -74.463577270508 -243.776840209961 0.696668267250
64.807334899902 -73.412528991699 -242.066558837891 1.956383347511
13.586676597595 -73.806083679199 -245.102783203125 0.122891955078
-161.093246459961 -73.490852355957 -239.779754638672 1.345514655113
-48.437137603760 -73.401664733887 -243.973159790039 0.786810457706
2.571893692017 -79.592575073242 -246.938186645508 0.626549363136
16.878322601318 -73.546798706055 -245.872207641602 0.124475091696
-54.490592956543 -72.924194335938 -246.920669555664 0.926041185856
-3.816205501556 -73.153266906738 -245.536682128906 1.380317687988
21.737033843994 -74.535064697266 -246.682235717773 0.546427309513
-164.532440185547 -73.940994262695 -248.332321166992 0.114206552505
-70.652290344238 -75.152404785156 -246.751663208008 0.668755173683
-49.946861267090 -74.471687316895 -247.008407592773 0.744047641754
-78.298667907715 -74.732192993164 -249.012313842773 0.089711375535
-159.209121704102 -73.655517578125 -247.950088500977 1.628424286842
-150.520401000977 -74.162071228027 -252.222671508789 0.134153202176
-58.987270355225 -74.881340026855 -249.460769653320 0.216568633914
-68.572212219238 -74.364852905273 -251.714981079102 0.089884050190
-153.207824707031 -73.636749267578 -253.699996948242 0.109433062375
-151.539413452148 -73.635765075684 -252.672073364258 0.108320564032
-77.263977050781 -74.208648681641 -253.627761840820 0.338119775057
-92.935920715332 -73.615135192871 -253.208023071289 1.360929250717
-165.774734497070 -73.699249267578 -250.311325073242 0.150512367487
-155.604568481445 -73.773345947266 -257.481475830078 1.392997384071
-133.502227783203 -74.130104064941 -255.370223999023 0.101099677384
-82.498786926270 -74.867721557617 -253.826400756836 0.615396618843
-162.473190307617 -73.849708557129 -252.005386352539 1.581513047218
-141.792205810547 -74.197441101074 -256.455413818359 0.726284623146
-85.715583801270 -73.628036499023 -255.410324096680 0.405714333057
-95.162040710449 -71.817810058594 -258.262573242188 0.530357956886
-147.673858642578 -74.097190856934 -257.312591552734 0.739080369473
-94.715507507324 -73.590438842773 -256.817474365234 0.507024347782
-149.172698974609 -73.779411315918 -257.194946289063 0.592529952526
-99.663017272949 -73.600006103516 -257.202972412109 0.259480595589
-164.629898071289 -74.249862670898 -259.344177246094 0.117672853172
-160.070831298828 -73.923515319824 -259.186492919922 0.114817664027
-123.722572326660 -73.819175720215 -257.466217041016 0.097444713116
-150.058410644531 -73.443511962891 -259.362640380859 0.427989006042
-114.585266113281 -73.735122680664 -260.733825683594 0.558677494526
-14.598412513733 -74.594223022461 -261.814697265625 0.144966095686
-142.449996948242 -73.939613342285 -261.846588134766 0.443134307861
-123.838439941406 -74.035491943359 -260.316589355469 0.098230056465
-155.089981079102 -73.865730285645 -261.785217285156 0.112785972655
22.128873825073 -74.394477844238 -268.700592041016 0.302380949259
-146.796539306641 -75.171012878418 -277.641662597656 0.222428545356
-166.959976196289 -74.235298156738 -277.068725585938 1.077467918396
-6.680681228638 -76.377784729004 -279.106323242188 0.425466358662
-146.792999267578 -75.211723327637 -282.329589843750 0.490974038839
-7.330120086670 -73.888496398926 -282.649871826172 1.250673174858
13.169360160828 -73.311607360840 -285.197509765625 0.287398546934
-135.547271728516 -74.897514343262 -286.330718994141 1.180936217308
-71.231391906738 -74.250564575195 -286.298522949219 0.430175691843
-32.996517181396 -74.486793518066 -286.235778808594 0.855434417725
-113.315788269043 -73.511589050293 -287.292938232422 0.430617868900
-92.255165100098 -74.799903869629 -290.763946533203 0.260052531958
-90.889785766602 -73.840858459473 -291.305694580078 0.895868360996
-47.724479675293 -74.802192687988 -290.874237060547 1.840620279312
-115.530761718750 -74.432350158691 -290.929962158203 0.731825232506
-110.429992675781 -74.377532958984 -290.428070068359 1.238297104836
-31.699996948242 -73.757629394531 -291.386260986328 0.091923989356
-112.981231689453 -72.946807861328 -291.857086181641 0.624707281590
-124.630187988281 -72.916610717773 -292.398559570313 0.836364626884
-143.291458129883 -74.271957397461 -292.335418701172 0.115310117602
7.752617835999 -73.181900024414 -292.744140625000 0.105572655797
14.580559730530 -75.214599609375 -294.124298095703 0.110226750374
-156.879043579102 -74.651329040527 -294.005065917969 0.769145071507
-154.465209960938 -75.979614257813 -300.673278808594 1.218064665794
-144.240203857422 -74.916900634766 -311.535400390625 0.122042730451
-149.938354492188 -72.670333862305 -311.973266601563 0.124033808708
-151.926696777344 -77.325668334961 -312.300323486328 0.664936959743
30.605377197266 -72.216651916504 -16.694629669189 0.903479516506
25.641668319702 -72.196159362793 -16.499141693115 0.217792868614
22.421428680420 -72.404075622559 -22.536106109619 0.212797388434
29.039434432983 -72.236114501953 -39.456218719482 0.210973441601
-56.225555419922 -71.234222412109 -48.992034912109 0.959885418415
-65.174987792969 -71.436782836914 -49.478878021240 1.841533899307
-37.658817291260 -72.227394104004 -52.513370513916 1.442254662514
-80.347763061523 -73.425392150879 -58.564487457275 1.148130059242
83.248458862305 -74.442558288574 -72.269615173340 0.852314770222
-18.596458435059 -74.437767028809 -70.585983276367 1.160002350807
89.397460937500 -73.904624938965 -71.389228820801 1.049049854279
97.969116210938 -72.484855651855 -79.060775756836 0.888088822365
-92.801033020020 -72.500427246094 -78.747901916504 1.455763816833
70.945579528809 -72.595306396484 -80.263183593750 0.227568462491
-42.264823913574 -76.110389709473 -83.910972595215 0.461697369814
100.472335815430 -70.750030517578 -84.068740844727 0.506189405918
-52.233669281006 -74.271087646484 -89.285606384277 0.133035868406
53.463813781738 -72.829528808594 -90.313629150391 1.754949092865
72.966430664063 -73.897697448730 -91.916038513184 0.224809303880
58.467308044434 -73.307891845703 -97.300292968750 0.210790276527
53.647491455078 -74.721702575684 -98.092895507813 0.883881449699
73.478858947754 -74.427947998047 -94.898025512695 0.224180832505
46.022167205811 -73.830085754395 -100.349296569824 1.577383995056
104.791007995605 -73.469177246094 -98.760009765625 0.889536201954
107.601676940918 -74.003952026367 -104.440155029297 1.122765302658
84.212142944336 -70.040214538574 -102.769775390625 0.965269804001
89.337127685547 -73.830986022949 -101.122573852539 0.751711785793
102.634071350098 -72.829254150391 -97.705688476563 0.538140416145
109.361618041992 -72.109710693359 -102.770668029785 1.178642630577
39.881889343262 -74.519073486328 -105.450996398926 1.246141910553
111.578750610352 -71.197975158691 -119.937767028809 0.755352079868
113.316711425781 -73.597053527832 -117.811393737793 1.967283487320
33.912246704102 -73.388061523438 -121.916496276855 0.369490981102
45.700916290283 -73.626060485840 -119.929801940918 1.803398013115
115.810935974121 -72.664169311523 -126.935386657715 0.507680654526
40.326343536377 -73.477584838867 -126.406471252441 2.089491367340
113.116333007813 -72.875541687012 -128.752929687500 1.701511621475
110.851295471191 -72.804710388184 -122.018486022949 0.296080112457
26.034561157227 -71.857460021973 -138.167755126953 0.492272019386
-48.853530883789 -73.466003417969 -135.354919433594 1.245126605034
-51.505695343018 -72.641098022461 -135.893463134766 0.117374725640
111.772865295410 -72.003616333008 -134.083541870117 1.044143199921
-70.907501220703 -74.161361694336 -142.134414672852 0.404502928257
-74.221656799316 -74.336730957031 -140.291748046875 0.578557252884
-56.523185729980 -74.250991821289 -144.188369750977 2.104887723923
34.504463195801 -71.955734252930 -141.422882080078 0.173781797290
112.359786987305 -72.687652587891 -143.923782348633 0.234198376536
-67.411834716797 -72.466575622559 -146.092330932617 0.105846233666
-45.185417175293 -72.019706726074 -144.676177978516 0.558790147305
35.174232482910 -74.221397399902 -148.805877685547 1.759030580521
-67.016220092773 -74.088050842285 -148.043289184570 1.075969338417
114.358863830566 -72.718658447266 -143.668945312500 2.106644153595
113.509819030762 -72.466156005859 -156.948211669922 0.310921102762
117.031867980957 -73.769393920898 -150.636596679688 1.817165374756
-37.302326202393 -73.979125976563 -154.090148925781 1.321969509125
-65.213668823242 -74.319702148438 -162.588745117188 0.740432262421
-71.678253173828 -73.854751586914 -156.322265625000 0.102559238672
32.891189575195 -73.916610717773 -149.803482055664 1.984937191010
-1.306961655617 -74.605102539063 -162.380035400391 1.646898388863
108.650581359863 -74.276489257813 -159.819061279297 0.786021232605
112.035087585449 -72.605895996094 -153.953231811523 0.229680955410
112.463722229004 -72.201080322266 -156.461593627930 1.190353035927
-64.336395263672 -71.246093750000 -163.168853759766 0.102045662701
-45.226222991943 -74.476760864258 -161.556381225586 1.187937259674
0.492699980736 -72.320899963379 -164.906814575195 1.057074904442
-25.630708694458 -72.574485778809 -174.643234252930 2.133634328842
107.342468261719 -73.207603454590 -165.984390258789 2.582148551941
-36.157413482666 -73.679473876953 -160.382339477539 0.665328264236
111.224723815918 -72.623359680176 -169.643676757813 1.302373528481
-40.896320343018 -74.287498474121 -172.508773803711 0.995836794376
110.518814086914 -72.506790161133 -166.430816650391 1.573165178299
-147.878738403320 -74.028861999512 -181.822494506836 0.761096239090
-28.015356063843 -72.098945617676 -175.623306274414 0.738735735416
-20.760591506958 -72.809440612793 -182.269058227539 0.837798595428
26.032461166382 -74.100471496582 -177.392074584961 1.389097690582
17.075654983521 -74.539337158203 -181.804031372070 0.678612649441
26.831329345703 -73.229438781738 -183.302261352539 1.529567241669
107.682037353516 -72.703125000000 -182.055603027344 0.214480414987
-150.260009765625 -73.193916320801 -186.989074707031 0.205025807023
-19.764381408691 -74.930244445801 -188.843490600586 1.403763055801
104.539970397949 -72.095146179199 -178.414978027344 0.351789921522
104.366424560547 -72.707069396973 -190.433044433594 0.208380997181
107.392494201660 -72.599212646484 -179.635330200195 0.790774106979
98.019050598145 -74.217658996582 -194.484817504883 2.880624294281
-151.253952026367 -76.821952819824 -194.082672119141 0.098421864212
101.414100646973 -73.974296569824 -203.798690795898 0.735825777054
-27.566230773926 -71.753837585449 -194.544555664063 2.260060310364
100.095397949219 -72.662719726563 -197.534484863281 2.839191675186
-123.958946228027 -73.597915649414 -197.728012084961 0.089633330703
-28.428960800171 -76.171653747559 -192.715438842773 1.442438244820
-140.178161621094 -72.724815368652 -198.313049316406 0.092066109180
95.040969848633 -73.381706237793 -199.859146118164 0.197477772832
9.862744331360 -74.825798034668 -197.969924926758 0.579390585423
23.509454727173 -73.779472351074 -194.044189453125 2.312975883484
-146.191329956055 -71.530944824219 -200.716278076172 0.513781309128
-140.317001342773 -72.539299011230 -201.220443725586 0.391023933887
-10.201938629150 -73.052040100098 -203.549987792969 1.030331373215
-123.784721374512 -73.869163513184 -201.014404296875 0.729830622673
-142.302505493164 -76.912559509277 -203.885848999023 0.097341164947
8.670181274414 -73.029197692871 -200.917098999023 0.551727592945
-20.939825057983 -74.879081726074 -202.438705444336 1.151784420013
20.720516204834 -73.763961791992 -203.721267700195 1.378472328186
9.077363967896 -73.418418884277 -209.731307983398 1.635027647018
90.361076354980 -74.015861511230 -207.558547973633 1.017898201942
-18.592008590698 -71.983886718750 -211.667175292969 0.427419513464
93.143966674805 -72.583900451660 -208.564773559570 0.192119732499
96.056549072266 -72.653541564941 -206.802780151367 3.057322263718
-149.559936523438 -73.046493530273 -215.831115722656 0.098398819566
96.771057128906 -72.857910156250 -211.319992065430 0.161095172167
7.011718750000 -74.250740051270 -209.145462036133 1.327147841454
6.043796062469 -74.910980224609 -214.211105346680 0.988596320152
-33.854160308838 -73.129570007324 -208.782699584961 2.003402233124
-88.739532470703 -72.936134338379 -213.535461425781 1.803058743477
-27.533027648926 -72.817680358887 -212.241775512695 0.916685104370
85.155563354492 -73.773391723633 -215.039016723633 2.270647287369
87.878265380859 -72.681198120117 -219.070449829102 0.183866247535
-31.912063598633 -73.388328552246 -213.211746215820 1.558646440506
-84.748298645020 -72.654006958008 -216.399185180664 1.401122570038
-1.915177583694 -74.957893371582 -217.376434326172 1.889873266220
88.081069946289 -72.702110290527 -215.263427734375 1.026384711266
-150.231613159180 -72.791870117188 -222.704330444336 0.099873788655
-164.249237060547 -72.634445190430 -214.349441528320 0.574680447578
-158.928817749023 -72.618812561035 -223.118820190430 0.103660546243
-20.330486297607 -72.481124877930 -226.586593627930 1.128628253937
-151.848449707031 -72.522758483887 -223.444244384766 0.118421018124
-7.091278553009 -75.320152282715 -225.293304443359 0.724672377110
8.359649658203 -72.605842590332 -218.074218750000 1.396697163582
-163.168151855469 -72.874992370605 -224.501785278320 0.106246143579
-160.914855957031 -73.697082519531 -226.039642333984 0.106200911105
80.765914916992 -74.066101074219 -230.028320312500 2.238568782806
3.600439310074 -71.415901184082 -227.733352661133 0.687967300415
-153.975677490234 -72.565391540527 -225.753265380859 0.101953662932
-141.319335937500 -72.623413085938 -226.393585205078 0.487719535828
-19.199283599854 -73.998054504395 -224.163101196289 1.021618843079
2.949005365372 -76.560745239258 -225.175888061523 0.822794377804
81.192443847656 -72.889251708984 -223.428482055664 2.126454353333
-160.948959350586 -72.910415649414 -227.982818603516 1.149250268936
-146.523773193359 -72.901527404785 -227.925674438477 0.099548287690
-123.253944396973 -72.919723510742 -229.649810791016 0.705957412720
80.757026672363 -72.212135314941 -227.337677001953 1.403792023659
-114.547042846680 -72.552238464355 -228.795959472656 0.089638128877
-149.401763916016 -73.223106384277 -229.050628662109 0.495846241713
-148.691650390625 -72.575576782227 -230.544692993164 0.100741520524
-146.866806030273 -73.425064086914 -230.348785400391 1.038191676140
-155.178924560547 -72.755714416504 -229.066741943359 0.103447273374
-164.643737792969 -72.983856201172 -229.979263305664 0.618787527084
-134.535095214844 -71.793067932129 -232.726898193359 0.574844002724
-132.603652954102 -74.099723815918 -232.487655639648 0.787499606609
-154.280395507813 -72.712844848633 -231.785858154297 0.103657290339
-144.383422851563 -71.468193054199 -235.139739990234 0.557719171047
-151.865234375000 -72.797874450684 -234.752807617188 0.561155557632
74.660743713379 -72.875808715820 -230.571929931641 0.169426158071
68.468399047852 -72.222740173340 -237.672042846680 1.599051833153
-158.878616333008 -72.990638732910 -235.471084594727 0.849711477757
70.837562561035 -71.931472778320 -233.314971923828 0.165033444762
-17.739810943604 -73.809127807617 -236.882965087891 1.093289852142
10.489809989929 -72.946723937988 -235.090805053711 0.123589493334
6.405491352081 -73.949195861816 -236.047805786133 2.570829391479
-151.679992675781 -73.185546875000 -244.847335815430 0.999873518944
13.419950485229 -72.958518981934 -240.565139770508 0.123643174767
64.521934509277 -73.273307800293 -236.806823730469 0.159768611193
14.585730552673 -72.509910583496 -237.240768432617 0.890680491924
7.311290740967 -74.274230957031 -241.790664672852 0.744400024414
-5.424669742584 -73.738113403320 -241.374862670898 0.776135027409
-19.219165802002 -72.970138549805 -242.576766967773 1.071940302849
0.307275563478 -72.821281433105 -243.796752929688 0.372709095478
3.198878049850 -74.216445922852 -242.923736572266 0.705362200737
58.258327484131 -73.061401367188 -242.429763793945 1.617287755013
-55.738632202148 -72.829010009766 -244.583999633789 0.729330182076
19.202100753784 -72.514625549316 -246.001083374023 0.643675446510
-60.804882049561 -74.404609680176 -244.291000366211 0.537472009659
-7.865274906158 -73.009880065918 -247.346694946289 0.447237521410
-63.950706481934 -71.960220336914 -249.710769653320 1.642625093460
-85.706214904785 -74.397865295410 -251.506973266602 1.134825468063
-82.249702453613 -72.752059936523 -249.368057250977 0.388639956713
-11.668305397034 -72.841896057129 -252.001083374023 0.106257922947
-123.738769531250 -72.573127746582 -255.165176391602 0.095914341509
-13.478323936462 -74.229331970215 -255.145614624023 0.533204674721
-116.313583374023 -73.678390502930 -257.217010498047 0.094794951379
-113.739166259766 -73.115036010742 -258.185058593750 0.093635603786
-102.396881103516 -72.985733032227 -259.322296142578 0.813755214214
-144.165740966797 -73.445014953613 -264.233398437500 0.107480801642
-144.978881835938 -72.543159484863 -265.609741210938 0.107506796718
-167.192443847656 -73.251449584961 -264.318908691406 1.458842515945
17.149362564087 -74.647346496582 -279.593383789063 1.084753036499
-53.780338287354 -72.881744384766 -285.807067871094 0.088103167713
-64.980117797852 -72.692405700684 -285.918426513672 0.087587200105
-41.346954345703 -74.273971557617 -285.938110351563 1.502831578255
-29.260442733765 -74.588043212891 -285.036590576172 0.207116648555
-96.553779602051 -73.125045776367 -286.746368408203 1.964174985886
-28.743732452393 -72.283607482910 -287.295989990234 1.319954872131
-4.186859607697 -74.039154052734 -287.021820068359 0.102207906544
-166.844390869141 -72.920806884766 -288.646057128906 1.085524082184
-10.871664047241 -73.935340881348 -286.693237304688 0.382900834084
8.480289459229 -73.973251342773 -287.985015869141 0.100430995226
15.022841453552 -74.538574218750 -288.687316894531 0.825678408146
-56.162300109863 -72.989845275879 -290.810150146484 0.087922915816
-29.459913253784 -72.160018920898 -290.515777587891 1.978133797646
14.637782096863 -72.168182373047 -291.743682861328 0.600424170494
-69.065956115723 -73.332969665527 -291.103179931641 1.607820987701
-36.288135528564 -72.739746093750 -290.824554443359 0.090024217963
-16.830158233643 -72.098976135254 -290.848999023438 0.094787947834
16.904602050781 -74.101722717285 -289.992584228516 0.712729752064
-9.970973968506 -73.094924926758 -291.785766601563 1.300186514854
3.762250661850 -72.017250061035 -291.966766357422 0.102928794920
14.599855422974 -72.811691284180 -293.408813476563 0.108519606292
-134.203964233398 -72.370094299316 -294.457244873047 0.109532572329
-144.052413940430 -74.871849060059 -301.010223388672 0.358800858259
-146.570587158203 -75.185478210449 -312.785339355469 0.850620687008
41.496532440186 -71.378845214844 -13.048146247864 1.508397221565
31.865852355957 -71.515487670898 -12.126606941223 0.610850572586
39.102645874023 -71.589218139648 -16.159294128418 1.620534300804
21.704441070557 -71.343681335449 -19.870750427246 0.723304629326
45.046951293945 -71.591552734375 -21.062240600586 1.526347398758
25.623029708862 -72.373458862305 -22.358352661133 1.520514607430
25.166698455811 -72.326606750488 -29.046871185303 0.212248519063
23.095998764038 -72.477958679199 -34.292057037354 1.719001412392
44.052558898926 -71.338752746582 -30.640995025635 0.496166348457
27.917690277100 -72.331764221191 -34.551616668701 0.765173494816
42.944828033447 -71.676406860352 -34.628925323486 1.479518055916
32.497955322266 -72.196258544922 -36.854000091553 0.214784175158
37.116859436035 -72.014953613281 -36.845516204834 0.218397274613
32.414936065674 -72.360252380371 -39.796146392822 0.213558495045
42.286178588867 -71.678207397461 -39.802734375000 0.781515240669
36.692928314209 -72.003486633301 -41.297679901123 0.927316188812
-37.790672302246 -69.341033935547 -49.570674896240 1.899162650108
-30.089878082275 -68.880790710449 -51.522037506104 1.154168725014
-87.006439208984 -67.841308593750 -56.677959442139 1.250486850739
-86.443603515625 -73.166740417480 -64.599235534668 0.119150817394
80.187767028809 -73.027847290039 -69.970436096191 1.297983407974
85.098243713379 -73.380126953125 -71.847244262695 2.124620676041
-16.867202758789 -70.712753295898 -71.294433593750 1.465720176697
-87.662086486816 -74.860984802246 -71.037109375000 1.368043541908
-24.522718429565 -72.708129882813 -76.740386962891 1.054811477661
-49.085613250732 -72.386550903320 -85.352226257324 0.135222181678
66.646308898926 -68.559898376465 -85.692642211914 1.027249097824
54.590209960938 -72.208091735840 -91.935150146484 0.822531878948
100.393211364746 -71.402854919434 -90.855163574219 0.293347090483
71.059143066406 -71.642807006836 -95.687347412109 1.605397939682
-64.618431091309 -75.191741943359 -93.877716064453 0.479266703129
-65.110969543457 -73.597534179688 -96.340705871582 1.062661290169
46.016731262207 -73.850067138672 -96.932441711426 1.353512763977
78.263839721680 -71.997131347656 -102.295196533203 0.815755248070
54.240119934082 -74.896102905273 -104.101310729980 1.241472721100
101.324127197266 -71.577087402344 -97.946067810059 0.244320914149
-95.228607177734 -71.591102600098 -106.811340332031 2.594453811646
38.159030914307 -73.685623168945 -112.133888244629 2.528721094131
107.151741027832 -71.757888793945 -106.820762634277 0.721648335457
48.093555450439 -71.575614929199 -110.448028564453 1.566943049431
103.879966735840 -71.705108642578 -107.248497009277 0.242494419217
-85.803771972656 -73.721061706543 -112.208518981934 1.047696471214
37.089618682861 -73.854431152344 -110.005187988281 0.957934617996
106.270011901855 -72.451950073242 -116.305763244629 1.809276700020
105.478469848633 -70.693450927734 -114.524421691895 1.419115543365
108.788085937500 -71.987129211426 -114.440872192383 1.480978727341
110.321197509766 -72.095893859863 -114.940879821777 1.570964097977
38.784381866455 -71.107681274414 -112.936965942383 1.942259907722
32.284477233887 -73.610069274902 -119.502510070801 0.780947089195
44.402465820313 -72.007774353027 -116.350440979004 0.191411182284
110.185302734375 -71.799041748047 -122.496528625488 1.137640595436
39.283061981201 -71.800178527832 -125.573616027832 2.208047866821
108.722618103027 -72.139831542969 -130.788696289063 0.291770577431
113.214424133301 -71.423439025879 -130.323120117188 1.455210804939
34.273223876953 -71.855514526367 -123.503578186035 0.180660068989
-76.511489868164 -71.100616455078 -128.903976440430 1.495647788048
116.798957824707 -72.003601074219 -134.599914550781 0.391405850649
-55.914798736572 -72.534095764160 -136.171173095703 1.024743914604
37.252357482910 -72.734191894531 -135.362426757813 0.603374004364
-72.198097229004 -72.892768859863 -137.991546630859 0.906969428062
29.769523620605 -72.086799621582 -134.124755859375 0.554980993271
-76.985900878906 -72.303848266602 -141.040832519531 1.483626008034
-44.588230133057 -74.473052978516 -141.706207275391 0.402275681496
-71.100288391113 -70.607490539551 -137.323455810547 2.167925119400
112.430465698242 -71.550025939941 -137.989715576172 0.733473002911
113.628410339355 -71.622230529785 -141.639266967773 0.235799908638
117.144035339355 -73.620201110840 -143.848434448242 1.052102088928
-71.829582214355 -70.334365844727 -144.117584228516 0.185517311096
10.590510368347 -70.258491516113 -150.747070312500 0.781020879745
-53.603488922119 -73.207649230957 -151.646163940430 0.774670422077
-48.568439483643 -72.704437255859 -155.806152343750 0.749301671982
108.888397216797 -71.705352783203 -158.629989624023 0.224845141172
-41.960628509521 -72.599250793457 -150.657501220703 0.759048461914
13.686272621155 -72.273117065430 -156.431655883789 0.567184627056
22.618343353271 -72.514907836914 -157.932312011719 1.560352683067
115.689437866211 -73.373512268066 -163.346313476563 1.905970931053
29.513153076172 -72.928115844727 -163.155670166016 0.356878250837
-0.516404449940 -72.968154907227 -162.825592041016 0.758348524570
32.203193664551 -73.190551757813 -161.409881591797 0.164910450578
-67.489753723145 -70.929824829102 -159.963653564453 0.101108521223
-64.052955627441 -71.578025817871 -159.101196289063 0.275059998035
-67.037879943848 -73.090789794922 -164.520278930664 1.077378869057
115.650093078613 -70.889236450195 -160.496154785156 1.556669116020
-43.767364501953 -72.099525451660 -162.786743164063 0.113373026252
20.661155700684 -72.887519836426 -166.083343505859 0.154582381248
-63.523593902588 -72.866210937500 -169.096908569336 2.011361122131
-60.043155670166 -72.708015441895 -170.968841552734 0.707161962986
-37.990016937256 -71.875534057617 -159.239089965820 0.117567025125
-31.165750503540 -72.105262756348 -169.944717407227 1.164685726166
114.271270751953 -72.603187561035 -170.552963256836 2.046330213547
-35.985008239746 -72.128791809082 -176.428283691406 1.299646377563
16.482427597046 -73.214103698730 -174.219650268555 2.194570779800
111.567268371582 -73.439247131348 -181.113143920898 0.573591470718
-147.731582641602 -73.668304443359 -175.915237426758 0.483883380890
-144.633743286133 -73.346656799316 -175.953125000000 0.844837129116
-150.800033569336 -72.266777038574 -177.284057617188 0.091579705477
-142.383300781250 -71.974151611328 -180.382415771484 1.350724220276
-29.825283050537 -72.339889526367 -186.424942016602 0.417385697365
-22.153596878052 -71.798202514648 -186.092803955078 1.414907693863
23.304817199707 -72.283859252930 -188.902328491211 2.275403738022
-142.000106811523 -72.124656677246 -186.857406616211 0.090484656394
-145.689315795898 -72.625480651855 -188.003402709961 0.092024810612
-19.515382766724 -70.003173828125 -188.021331787109 1.396884560585
14.165213584900 -73.800437927246 -182.257843017578 0.924943268299
-147.367675781250 -72.953796386719 -192.177932739258 0.938814222813
-30.897562026978 -74.374343872070 -185.718505859375 1.793158411980
101.263496398926 -71.833625793457 -188.157135009766 2.869453668594
108.501327514648 -73.209114074707 -189.557220458984 0.831136226654
23.581117630005 -71.140396118164 -193.338073730469 1.538392663002
-17.698451995850 -73.317832946777 -188.434417724609 1.598878860474
-25.668308258057 -73.854492187500 -194.179748535156 1.290011644363
-153.152648925781 -71.814239501953 -195.712493896484 0.094776004553
-131.555633544922 -73.126556396484 -196.890426635742 0.441687375307
-123.715019226074 -71.842926025391 -195.574432373047 0.896018087864
-121.746498107910 -71.130798339844 -197.847534179688 0.086966723204
-22.747423171997 -70.263114929199 -197.808547973633 0.379220783710
10.952160835266 -72.732719421387 -192.891311645508 1.865141272545
95.111167907715 -71.773086547852 -200.824081420898 1.714014768600
-147.366714477539 -71.571426391602 -197.194229125977 0.518441438675
-145.656021118164 -71.959571838379 -198.411956787109 0.627572178841
-148.833969116211 -71.209320068359 -198.588211059570 0.093276605010
-154.434295654297 -71.611747741699 -199.105697631836 1.075701355934
-25.363832473755 -73.355285644531 -199.440948486328 0.704832196236
-13.729815483093 -74.974845886230 -196.146392822266 1.225396156311
-147.966598510742 -72.036247253418 -200.852569580078 0.237889841199
-15.131722450256 -72.156738281250 -199.191284179688 1.146645188332
-161.927764892578 -71.863059997559 -198.604751586914 0.098744109273
-133.258255004883 -72.693443298340 -199.721481323242 0.424933284521
17.547853469849 -71.457237243652 -207.176452636719 0.845213651657
-163.305953979492 -71.987380981445 -203.649047851563 0.100549302995
-145.033081054688 -72.381866455078 -206.043975830078 0.266545712948
11.163482666016 -72.065170288086 -200.305999755859 1.681670427322
-153.013427734375 -71.711860656738 -203.166168212891 0.806167721748
-22.558130264282 -73.092407226563 -200.243133544922 1.232119321823
103.260330200195 -71.899406433105 -199.799926757813 2.025174379349
-155.395797729492 -72.183204650879 -215.386291503906 1.046307921410
-164.075271606445 -72.483589172363 -209.760467529297 0.283305794001
-77.977035522461 -71.813240051270 -211.006835937500 0.585445165634
88.651405334473 -71.925941467285 -210.487625122070 0.187562301755
-3.071245670319 -71.057678222656 -216.118392944336 0.286143183708
-150.636230468750 -71.938217163086 -213.009094238281 0.405178725719
-87.611846923828 -71.414634704590 -214.731872558594 1.669607520103
-7.697731494904 -72.860984802246 -211.896316528320 1.821938395500
15.460556030273 -72.880111694336 -222.734954833984 0.186621531844
-145.560638427734 -73.073043823242 -218.583953857422 0.689811706543
-2.294654846191 -72.816787719727 -220.977508544922 1.683450222015
-21.691638946533 -71.050186157227 -221.111694335938 0.643410384655
-14.087342262268 -70.381294250488 -218.924530029297 1.379759907722
88.878593444824 -72.164680480957 -215.854797363281 0.185685440898
-21.341545104980 -71.841995239258 -218.092834472656 0.972169578075
-28.197145462036 -72.268699645996 -215.794479370117 1.553562760353
-106.614692687988 -72.137557983398 -223.381896972656 0.196405529976
-14.858834266663 -71.801300048828 -222.237152099609 1.326450467110
90.572082519531 -70.972801208496 -219.168243408203 0.576994836330
81.918510437012 -72.101623535156 -218.691513061523 0.179191961884
5.791689395905 -73.156600952148 -220.530685424805 0.844058454037
-10.009502410889 -73.231529235840 -225.213714599609 0.626802086830
78.513923645020 -73.553176879883 -222.713577270508 1.162419915199
-123.277816772461 -72.300636291504 -224.860397338867 0.959349751472
-22.837738037109 -71.666122436523 -222.542709350586 0.107463032007
-99.113372802734 -71.553939819336 -224.089279174805 0.458996444941
-104.696395874023 -72.395774841309 -226.294555664063 0.891501903534
-134.270980834961 -73.355163574219 -227.596298217773 0.095356523991
82.286544799805 -71.498779296875 -224.464920043945 1.591489195824
-123.373207092285 -72.120750427246 -227.045837402344 0.090964950621
6.197107791901 -72.770935058594 -227.988967895508 0.636915981770
80.726409912109 -71.637847900391 -224.136093139648 1.950922012329
-13.875087738037 -72.566795349121 -225.688674926758 0.252280443907
-11.550786972046 -72.709968566895 -230.818466186523 1.173833250999
-4.333309173584 -73.292976379395 -229.794860839844 0.116709873080
8.819373130798 -72.327194213867 -226.917938232422 0.748112022877
86.509368896484 -72.615989685059 -224.713790893555 1.008249998093
11.663810729980 -71.814308166504 -232.084320068359 0.124509811401
3.947165727615 -73.576530456543 -228.995803833008 1.537908434868
-8.357254981995 -72.726516723633 -230.159072875977 0.510286867619
-6.219331741333 -71.927993774414 -233.485168457031 0.113528721035
17.197622299194 -71.611366271973 -231.678482055664 0.877221465111
-11.703738212585 -72.248451232910 -233.914550781250 0.110645927489
71.914108276367 -72.724655151367 -238.101791381836 0.164396494627
-7.491501331329 -71.017089843750 -237.718475341797 0.110903024673
19.080011367798 -73.512680053711 -235.896926879883 0.566663980484
-165.869323730469 -73.101631164551 -241.613006591797 0.112385377288
-4.298685073853 -72.065727233887 -239.158142089844 0.113048784435
-8.838804244995 -70.990814208984 -241.965057373047 0.559300601482
-167.456649780273 -71.703971862793 -251.512588500977 0.917179584503
-9.887188911438 -72.684020996094 -245.250289916992 0.108814641833
17.392612457275 -71.718498229980 -246.555923461914 1.167550086975
-146.068725585938 -74.112579345703 -251.893417358398 0.139049306512
-68.380409240723 -70.812576293945 -247.897384643555 0.888606786728
-60.135093688965 -71.831855773926 -246.629348754883 1.246613264084
54.563140869141 -72.667724609375 -246.823684692383 2.112179994583
-76.758354187012 -72.467636108398 -248.048538208008 1.649416923523
18.881174087524 -73.442871093750 -249.131088256836 0.824134409428
-73.027580261230 -71.045234680176 -252.259963989258 1.590989112854
-13.939244270325 -72.930564880371 -250.994308471680 0.956048011780
-145.295074462891 -73.150314331055 -252.912612915039 0.385828435421
49.338954925537 -72.290824890137 -248.585189819336 0.957486331463
-77.998764038086 -71.292465209961 -253.811355590820 1.206351518631
-101.472862243652 -71.717765808105 -254.566055297852 1.381495833397
-97.145927429199 -73.681465148926 -255.011978149414 0.575525820255
-116.938102722168 -73.532447814941 -255.418411254883 0.605827510357
-104.810607910156 -73.366897583008 -256.861541748047 1.061811447144
-106.506278991699 -73.347328186035 -259.266662597656 0.033100139350
23.019922256470 -74.071578979492 -260.425262451172 0.621156394482
-126.995750427246 -71.807060241699 -264.861938476563 0.403532207012
-10.818243980408 -73.269943237305 -276.515533447266 1.558406114578
-145.318893432617 -72.508628845215 -281.752014160156 0.117670051754
-168.218536376953 -72.813171386719 -283.467376708984 0.126300722361
-124.387374877930 -72.942207336426 -286.018798828125 0.938839375973
-113.796607971191 -71.305969238281 -286.951171875000 0.165441200137
-74.963912963867 -70.218193054199 -287.192565917969 0.250833749771
-56.479633331299 -71.157119750977 -286.680328369141 1.155060768127
-42.642337799072 -72.221275329590 -286.679351806641 0.088761679828
-14.635463714600 -72.073608398438 -287.684539794922 0.096174836159
-13.606879234314 -71.332763671875 -289.073852539063 0.991600930691
-37.350303649902 -71.474571228027 -288.933410644531 0.953832328320
-33.803730010986 -71.641677856445 -288.857330322266 2.829941749573
-18.098407745361 -71.534225463867 -289.122680664063 1.013445854187
-69.000061035156 -71.739662170410 -290.917541503906 0.086987115443
-53.781551361084 -72.000480651855 -290.590789794922 1.958760738373
-15.169090270996 -71.286209106445 -290.936248779297 0.094633154571
-13.172916412354 -72.301612854004 -291.013092041016 0.096264407039
-3.608464717865 -71.254646301270 -290.613555908203 0.099284350872
2.563441753387 -71.755737304688 -291.107635498047 0.735640168190
-89.271827697754 -72.678382873535 -291.841033935547 0.803243875504
-142.021621704102 -71.468498229980 -292.715728759766 0.769112110138
-117.397483825684 -73.061851501465 -292.380798339844 1.188123226166
-153.535644531250 -74.194747924805 -296.959106445313 0.865927875042
-154.162765502930 -72.381546020508 -299.505767822266 0.122436821461
-145.438766479492 -73.628402709961 -299.551483154297 1.029460549355
47.114349365234 -71.361511230469 -18.664085388184 0.922209322453
20.391477584839 -71.231147766113 -23.380115509033 0.308521986008
49.537151336670 -71.390113830566 -26.639461517334 0.444509893656
47.826164245605 -71.526550292969 -33.844810485840 1.523271083832
87.219398498535 -71.370994567871 -67.430503845215 0.245737016201
95.556549072266 -71.803581237793 -72.676483154297 0.250459879637
101.460906982422 -69.702575683594 -80.395156860352 0.251288980246
98.977340698242 -72.892189025879 -81.967544555664 0.249669253826
59.023571014404 -71.973251342773 -87.984367370605 0.540110170841
49.192592620850 -73.132476806641 -93.587181091309 1.756680369377
63.758934020996 -70.379798889160 -90.465255737305 0.573249638081
-64.019790649414 -68.296302795410 -91.657165527344 0.120729379356
69.672744750977 -72.744613647461 -88.521286010742 0.695483744144
102.912498474121 -70.198272705078 -97.564384460449 0.245309904218
75.282501220703 -73.115699768066 -99.528076171875 0.742957115173
96.534645080566 -71.142990112305 -100.940971374512 1.102374792099
-80.248985290527 -72.333000183105 -100.660240173340 0.111391998827
44.537765502930 -71.847633361816 -101.574729919434 1.424672245979
-83.447982788086 -72.052673339844 -105.754707336426 0.108089387417
50.871383666992 -73.140487670898 -110.605598449707 1.964964270592
40.307575225830 -71.552345275879 -104.423103332520 0.192870616913
106.907653808594 -71.043663024902 -103.096076965332 0.964587986469
38.731079101563 -70.502799987793 -108.281097412109 0.800884783268
39.617084503174 -70.275405883789 -114.639930725098 0.830702185631
43.894695281982 -69.943115234375 -112.955825805664 1.409667134285
108.253379821777 -70.651550292969 -113.882698059082 0.527662515640
-82.006584167480 -71.002738952637 -120.752464294434 0.104023285210
111.594085693359 -70.612052917480 -126.180320739746 0.777638733387
37.831462860107 -70.805259704590 -123.739448547363 0.362994194031
42.035148620605 -69.709114074707 -120.719184875488 0.646734774113
36.608829498291 -70.823799133301 -122.505851745605 0.182368546724
-56.478881835938 -72.084091186523 -129.843185424805 0.738392710686
31.499580383301 -71.188652038574 -123.839286804199 0.753479063511
-75.980781555176 -73.180168151855 -136.663208007813 1.749492883682
-55.451793670654 -71.547889709473 -132.917495727539 0.115201175213
-79.028877258301 -70.778602600098 -134.810394287109 1.633790016174
33.997669219971 -70.544090270996 -128.645629882813 1.347667455673
-58.559642791748 -70.472595214844 -133.969589233398 1.945931553841
35.330535888672 -70.603897094727 -134.074722290039 1.628499507904
-72.776962280273 -70.665359497070 -139.586975097656 0.346965610981
-58.742145538330 -73.031333923340 -138.075881958008 1.329010963440
29.397035598755 -70.816001892090 -139.497634887695 0.170130357146
109.589912414551 -72.663047790527 -143.464996337891 0.561109066010
116.286849975586 -70.025436401367 -136.328399658203 1.631834268570
31.699645996094 -70.378196716309 -139.337265014648 0.171716436744
-45.021873474121 -70.171562194824 -141.133651733398 0.117796041071
110.060371398926 -70.646057128906 -151.421707153320 0.228428974748
-73.622200012207 -71.199668884277 -144.225677490234 0.643652319908
-58.397575378418 -71.646690368652 -142.708679199219 0.960206091404
31.756645202637 -71.729598999023 -149.794662475586 1.388339757919
-75.893821716309 -71.410820007324 -146.637924194336 0.972061395645
-70.798187255859 -72.152420043945 -151.132339477539 1.823938250542
116.956687927246 -71.392143249512 -150.013488769531 1.305204272270
-64.574615478516 -72.699417114258 -154.248382568359 2.270558357239
-38.639656066895 -71.416358947754 -153.343963623047 1.929792642593
28.082235336304 -69.972457885742 -148.419616699219 0.585448622704
-74.714607238770 -71.142379760742 -149.507705688477 0.100496873260
12.685712814331 -72.269256591797 -151.424957275391 1.917113661766
32.118186950684 -70.469505310059 -154.526123046875 0.689096450806
30.737047195435 -70.579177856445 -147.597869873047 1.896938085556
12.134497642517 -73.522201538086 -155.081619262695 0.490402668715
-48.173961639404 -70.614700317383 -153.828613281250 0.417260766029
27.956220626831 -69.683280944824 -153.258560180664 0.163093850017
-44.484306335449 -70.739913940430 -148.701202392578 0.820646286011
7.295897483826 -71.510620117188 -153.819458007813 0.535478472710
22.637195587158 -70.914695739746 -150.010940551758 1.596144437790
-71.429855346680 -71.758796691895 -155.709533691406 1.926241755486
-45.179092407227 -69.804199218750 -154.160736083984 0.113421224058
-67.198623657227 -70.072349548340 -156.918228149414 1.818429350853
14.956167221069 -70.705955505371 -158.245620727539 1.392323493958
25.558357238770 -70.678413391113 -150.153900146484 2.509389162064
2.883121490479 -71.027275085449 -161.255615234375 0.142739579082
20.676454544067 -72.674064636230 -156.168960571289 0.807933151722
31.192720413208 -72.162979125977 -164.521835327148 1.274138569832
-47.216571807861 -72.939178466797 -161.812805175781 0.276694267988
-33.641937255859 -71.766128540039 -161.252182006836 0.723994076252
-39.202537536621 -70.689926147461 -160.406494140625 0.115644097328
28.262161254883 -70.633712768555 -160.676010131836 0.712095797062
-43.460994720459 -71.868537902832 -167.753692626953 0.517521083355
-40.339889526367 -70.541633605957 -162.404327392578 2.239819049835
20.851770401001 -71.169578552246 -166.551742553711 1.913538813591
-39.965007781982 -71.466850280762 -173.209548950195 0.111971914768
29.123968124390 -71.057929992676 -170.191070556641 0.816579997540
114.121650695801 -70.564086914063 -167.467239379883 1.001540660858
-32.022121429443 -70.716964721680 -171.761215209961 0.116386495531
107.315750122070 -70.297378540039 -172.908050537109 0.217061847448
-34.333667755127 -70.843315124512 -176.626159667969 0.113657549024
-36.263462066650 -72.008544921875 -180.259521484375 0.746747434139
18.574026107788 -72.602096557617 -174.885543823242 0.979365587234
104.819107055664 -70.321800231934 -182.112411499023 2.152912139893
-28.608968734741 -70.768524169922 -184.724716186523 0.114456005394
-33.508190155029 -70.305007934570 -174.014358520508 1.351075291634
-23.766244888306 -70.662681579590 -185.767745971680 0.770491242409
-148.625213623047 -72.490058898926 -187.838562011719 0.141669556499
16.082176208496 -71.382057189941 -183.348602294922 1.939383268356
106.714797973633 -70.206268310547 -189.171035766602 1.362779736519
-155.540878295898 -71.166717529297 -194.334808349609 0.630605578423
-26.282287597656 -71.309684753418 -191.897033691406 0.114034950733
-115.397399902344 -71.536231994629 -196.352447509766 0.086766041815
-133.794815063477 -71.688179016113 -197.284759521484 0.114389635623
-109.870750427246 -70.623535156250 -199.183486938477 0.085712179542
-111.454734802246 -71.602661132813 -200.305404663086 1.438826918602
-14.124580383301 -71.002365112305 -196.441482543945 0.119561046362
20.769969940186 -72.180938720703 -196.482879638672 0.700072526932
-15.486265182495 -69.649085998535 -201.577407836914 0.813542723656
-123.803298950195 -71.617958068848 -204.474777221680 0.629599094391
-21.434127807617 -70.165710449219 -206.154388427734 1.674755811691
-131.496490478516 -72.649223327637 -202.964355468750 0.292883813381
-13.142311096191 -72.001930236816 -202.956405639648 0.293257594109
-144.078292846680 -71.104766845703 -205.120574951172 0.092723473907
92.072364807129 -70.431167602539 -207.322219848633 2.656451702118
-164.946258544922 -71.588478088379 -202.072052001953 0.227129578590
-3.952509164810 -73.746086120605 -213.649581909180 1.414025545120
10.342741966248 -70.874847412109 -209.188873291016 1.428750634193
10.700976371765 -70.399345397949 -216.631591796875 2.401193857193
83.404991149902 -70.641975402832 -217.924026489258 0.179949089885
7.047545909882 -71.458892822266 -212.552093505859 0.649095177650
14.932614326477 -70.893165588379 -214.288116455078 0.132000491023
-15.688968658447 -73.753128051758 -216.855850219727 1.365699172020
-90.431030273438 -70.405296325684 -217.352554321289 1.033882617950
-96.896591186523 -71.632049560547 -216.399734497070 1.657292842865
-3.764336347580 -70.077781677246 -220.941604614258 1.008595347404
-166.072036743164 -71.719161987305 -223.273895263672 1.792915344238
13.424549102783 -70.988067626953 -222.334976196289 1.018514037132
-144.217620849609 -71.124130249023 -223.258972167969 0.615406572819
11.967125892639 -70.932228088379 -225.083496093750 0.871725142002
-133.331909179688 -71.485076904297 -224.696243286133 0.512092828751
-116.647460937500 -72.027183532715 -225.186172485352 0.729081988335
16.011859893799 -70.397994995117 -222.123321533203 0.848560869694
76.654891967773 -70.826339721680 -224.645629882813 0.172226324677
7.840819835663 -69.886383056641 -223.186416625977 0.942000210285
-111.491920471191 -71.884918212891 -230.015762329102 0.558766543865
77.119194030762 -70.905799865723 -228.485290527344 0.171103820205
81.500129699707 -71.020118713379 -229.715606689453 0.173980712891
-123.090538024902 -71.663749694824 -232.107467651367 0.091135673225
-113.823165893555 -72.036178588867 -231.310745239258 0.470262706280
-11.134952545166 -71.005500793457 -230.911834716797 0.778177559376
72.080123901367 -71.804222106934 -228.845977783203 0.167632445693
64.941429138184 -71.638420104980 -234.931472778320 0.159918814898
75.387382507324 -70.710983276367 -231.406875610352 0.442853242159
-133.035903930664 -70.744132995605 -234.626068115234 0.445542544127
72.085861206055 -71.313591003418 -235.448776245117 0.984568655491
67.094970703125 -70.808242797852 -236.045532226563 1.666829466820
-166.287872314453 -72.026596069336 -228.915649414063 0.923228681087
0.502648174763 -73.705680847168 -238.879364013672 0.117065355182
17.249273300171 -71.425506591797 -240.371047973633 0.125031217933
-5.713932037354 -70.638320922852 -239.295410156250 0.069452144206
13.748414993286 -70.281997680664 -239.458190917969 0.122351460159
64.740592956543 -71.717704772949 -239.001586914063 0.409587949514
11.511928558350 -71.205505371094 -241.239105224609 1.231520175934
-9.688951492310 -67.745246887207 -241.929321289063 0.105983175337
1.715483188629 -69.844909667969 -240.931686401367 0.417428046465
65.260734558105 -71.949340820313 -243.186309814453 1.048902988434
5.925126552582 -72.745285034180 -242.950744628906 0.931703925133
-8.460645675659 -71.788909912109 -243.280853271484 0.109392948449
13.750660896301 -71.360862731934 -244.747070312500 0.951559066772
-167.198654174805 -71.035079956055 -241.178527832031 1.651586532593
59.129726409912 -69.755218505859 -247.656509399414 0.968473672867
52.189231872559 -69.992752075195 -247.582351684570 0.943937182426
55.790428161621 -71.838851928711 -242.469375610352 0.453909546137
-11.885494232178 -71.607231140137 -248.024581909180 1.194067001343
57.577121734619 -72.115081787109 -247.156478881836 1.013851404190
-72.650863647461 -70.778709411621 -248.147323608398 0.702403664589
51.825923919678 -71.471427917480 -249.794509887695 0.144848853350
-90.696662902832 -72.451934814453 -251.826431274414 0.218231379986
-125.444511413574 -72.853713989258 -254.257461547852 0.096613034606
-133.083358764648 -71.037216186523 -254.118057250977 0.097982294858
44.110546112061 -71.612449645996 -252.784957885742 0.511399209499
-135.673919677734 -72.471511840820 -255.693496704102 0.456629097462
-110.400154113770 -72.153854370117 -256.953735351563 1.010128021240
-113.555770874023 -70.055938720703 -256.769531250000 0.494325280190
-82.539558410645 -72.147926330566 -255.161148071289 0.839187681675
-111.681480407715 -72.895004272461 -260.866638183594 0.814076662064
-123.780029296875 -72.920120239258 -261.978118896484 0.249935373664
-145.090072631836 -70.150520324707 -265.977905273438 0.105752080679
-15.317784309387 -71.337234497070 -262.136199951172 0.361680030823
-167.703201293945 -71.410079956055 -263.737335205078 1.607620239258
-13.992776870728 -72.108581542969 -271.966064453125 1.087231993675
-159.592437744141 -70.483604431152 -267.434020996094 0.487115025520
-152.590332031250 -70.523071289063 -275.201324462891 0.860162615776
-168.201965332031 -71.758148193359 -277.207641601563 1.121515631676
-12.566058158875 -70.282325744629 -275.076019287109 0.981695771217
-133.682159423828 -72.561058044434 -283.789672851563 1.198782920837
-159.770462036133 -71.380645751953 -285.977203369141 0.352592974901
-145.366317749023 -71.328315734863 -281.734039306641 0.479983776808
-134.868667602539 -74.174591064453 -284.693206787109 0.108698122203
-8.170457839966 -69.651985168457 -285.154541015625 1.510396718979
