# This PCD file was generated using the MATLAB® pcwrite function
# from Computer Vision Toolbox®.
# .PCD v.7 - Point Cloud Data file format
VERSION .7
FIELDS x y z
SIZE 8 8 8
TYPE F F F
COUNT 1 1 1
WIDTH 784
HEIGHT 1
VIEWPOINT 0 0 0 1 0 0 0
POINTS 784
DATA ascii
33.432277679475973 -85.777969360323425 -162.567169189453125
21.128128051790430 -96.218124389620300 -162.222763061523438
120.006868362459372 -98.185882568331238 -160.463176727294922
-91.055334091153910 -92.589370727510925 -164.964057922363281
18.548042297395899 -96.382705688448425 -167.050979614257813
-69.167219161954691 -92.767944335909363 -165.556007385253906
35.228120803865622 -97.224716186495300 -157.531635284423828
-41.789171218839456 -90.078277587862488 -163.911071777343750
13.984467029604151 -102.921066284151550 -157.714225769042969
18.124491691621973 -84.755355834932800 -160.813632965087891
23.799936294588282 -81.158050537081238 -166.630065917968750
-38.902265548673441 -83.130706787081238 -159.366584777832031
-33.818578720060160 -91.807571411104675 -163.203163146972656
-37.258337020841410 -80.703063964815613 -158.655437469482422
-102.001356124845316 -75.066345214815613 -158.864799499511719
29.979635238680078 -70.070297241182800 -161.101440429687500
-32.571660995450785 -71.455474853487488 -163.166694641113281
23.504917144808008 -65.748779296846863 -156.161674499511719
-133.593992233243739 -68.805267333956238 -163.049987792968750
-24.593425750699804 -73.944747924776550 -161.463287353515625
-145.776502609220302 -63.953033447237488 -163.961921691894531
26.425010681184961 -70.737747192354675 -162.581352233886719
-26.269750595060156 -70.684967040987488 -160.526969909667969
-100.601644515958597 -65.781326293917175 -168.147621154785156
-93.303190231290628 -61.383911132784363 -167.537796020507813
-23.242439269986914 -60.054779052706238 -160.889850616455078
-17.972434997525976 -64.180068969698425 -164.784774780273438
19.687973022493555 -61.862533569307800 -159.887683868408203
15.994436264070703 -51.336700439424988 -169.969238281250000
24.494983673128321 -59.142776489229675 -160.436901092529297
-140.359785079923427 -61.756286621065613 -164.764480590820313
27.315662384065821 -55.756576538057800 -160.803539276123047
17.797890663179590 -47.845108032198425 -161.793388366699219
-135.746198654142177 -45.958786010714050 -162.015151977539063
-107.659414291349222 -49.910934448214050 -160.334674835205078
24.805530548128321 -47.720642089815613 -162.371780395507813
-107.957548141446878 -50.152938842745300 -159.606544494628906
-103.378751754728128 -46.625579833956238 -159.182773590087891
-158.881818771329677 -51.998916625948425 -159.220024108886719
-21.795982360807226 -41.230697631807800 -154.555896759033203
25.248886108431055 -45.608001708956238 -162.163238525390625
-130.757108688321864 -40.460006713839050 -154.573268890380859
-122.059202194181253 -39.725585937471863 -160.457328796386719
-13.005266189542578 -37.944793701143738 -160.793537139892578
-6.629172325101660 -44.156906127901550 -159.194385528564453
-18.577442169156836 -35.416442871065613 -164.082603454589844
-139.817975997892177 -41.511734008760925 -167.259277343750000
-9.138793945279883 -35.170974731417175 -163.052368164062500
-10.835390090909765 -29.843215942354675 -164.980819702148438
28.491577148470117 -38.714385986299988 -162.408447265625000
-2.169567108121679 -31.015182495089050 -167.476119995117188
20.658675193819239 -37.745025634737488 -164.126861572265625
-4.653910636869238 -29.636413574190613 -159.903991699218750
-11.270162582364843 -35.807769775362488 -165.911781311035156
20.675806045564844 -23.308441162081238 -159.782966613769531
4.936221003565027 -28.468826293917175 -166.358512878417969
13.131149768861963 -23.337448120089050 -158.982761383056641
2.497532844576074 -11.478546142549988 -163.320472717285156
-149.093473434415614 -24.160034179659363 -163.142433166503906
89.025293350252340 -25.928314208956238 -164.356704711914063
-123.761518478360941 -8.488433837862488 -160.759754180908203
-127.407484054532816 -17.759292602510925 -161.428775787353516
-3.892105102506445 -23.654876708956238 -163.939239501953125
17.344104766878321 -22.224105834932800 -165.266777038574219
-137.476026535001552 -19.726333618135925 -162.074432373046875
93.823831558260153 -20.662292480440613 -157.902362823486328
0.675220966371729 -20.034286498995300 -160.914558410644531
11.113174915346338 -19.418838500948425 -159.840606689453125
82.541788101228903 -15.188476562471863 -162.401077270507813
14.201862812074854 -13.893020629854675 -158.558551788330078
-8.190374374357031 -11.639404296846863 -164.405464172363281
-119.436368942228128 -9.366317748995300 -161.214405059814453
4.138309001955225 -6.934570312471863 -163.002258300781250
12.970874786409571 -8.622390747042175 -154.837997436523438
69.423402786287497 -9.324935913057800 -162.778869628906250
-150.861021041837489 -5.937499999971863 -160.206367492675781
-0.957793235746191 -3.179275512667175 -166.223167419433594
-163.222623825040614 -13.894180297823425 -159.845882415771484
14.119534969362451 5.211517334012512 -160.448101043701172
-163.022306442228114 -3.745193481417175 -157.253051757812500
-154.874692916837489 -0.944900512667175 -163.579010009765625
67.936800003084372 -0.891921997042175 -159.228286743164063
67.675317764314840 -3.219177246065613 -161.303134918212891
74.756608963045309 -1.260131835909363 -162.782051086425781
57.280710220369528 1.111236572293762 -164.132209777832031
-151.378110885587489 -1.811141967745300 -156.810882568359375
-155.777448654142177 8.808929443387512 -167.605300903320313
-11.290895462003515 3.290130615262512 -164.669830322265625
-149.343229293790614 -5.185943603487488 -159.822933197021484
27.038053512605860 6.547363281278137 -162.508186340332031
-168.371320724454677 3.251647949246887 -157.970745086669922
-154.269956588712489 2.385162353543762 -152.699424743652344
-70.343122482267191 7.927764892606262 -160.114673614501953
-159.988386154142177 12.686553955106262 -161.358623504638672
-76.609312057462503 14.755950927762512 -161.779388427734375
41.937002182039450 9.999237060575012 -161.730636596679688
26.478612899812891 5.413757324246887 -166.639099121093750
-151.686155319181239 15.626800537137512 -159.477493286132813
-91.903730392423441 12.398498535184387 -161.912487030029297
49.994581222566794 16.202178955106262 -164.303878784179688
-91.452817916837503 12.673614501981262 -161.008136749267578
-149.535047531095302 12.359954834012512 -158.729404449462891
-98.107992172208597 20.278320312528137 -157.092090606689453
-162.587369918790614 10.759033203153137 -168.332183837890625
-105.427511215177347 16.694854736356262 -168.338905334472656
-148.204969406095302 18.033233642606262 -165.464271545410156
-148.161405563321864 19.498748779325012 -160.818264007568359
-161.243482589689052 8.980957031278137 -163.503135681152344
-154.741575241056239 10.735595703153137 -165.712577819824219
-157.373716354337489 24.260864257840637 -168.484710693359375
-155.927061080899989 22.156341552762512 -161.463466644287109
24.757867813142969 20.232421875028137 -167.518127441406250
-142.585386276212489 14.312438964871887 -159.192512512207031
-144.445661544767177 39.777038574246887 -156.481613159179688
30.468938827547266 25.836700439481262 -165.153106689453125
-3.179688453641699 26.928985595731262 -156.472103118896484
-122.769208908048441 38.848419189481262 -156.755008697509766
-130.562940597501552 40.924346923856262 -166.596893310546875
-132.649442672696864 41.360534667996887 -160.405429840087891
-122.492414474454691 41.238800048856262 -166.529678344726563
-107.891088485685160 45.506256103543762 -161.624641418457031
-101.646482467618753 37.921508789090637 -160.926921844482422
13.441730022463037 40.643402099637512 -168.359451293945313
-80.544080734220316 47.073638916043762 -166.870124816894531
-142.198804855314052 46.365783691434387 -154.000740051269531
-93.481039047208597 41.554656982450012 -158.311519622802734
-118.426687240567972 46.077362060575012 -164.923294067382813
14.756727218660547 38.923522949246887 -162.069770812988281
-110.504835128751566 49.664001464871887 -159.714832305908203
12.452661037477686 49.357360839871887 -164.769706726074219
-134.626737594571864 44.244049072293762 -163.864822387695313
-144.030927658048427 53.046417236356262 -160.393051147460938
-152.030302047696864 70.876403808621887 -166.542098999023438
-151.915845870939052 67.170837402371887 -159.665229797363281
54.281770706209372 -219.197486877413269 -155.471652984619141
27.395889282259180 -209.303825378389831 -164.192802429199219
36.812053680452536 -204.722640991182800 -160.175823211669922
-37.416112899747660 -191.239223480196472 -161.412166595458984
-6.205197334256933 -179.891632080049988 -163.404830932617188
94.477647781404684 -169.208030700655456 -158.350193023681641
70.788782119783590 -171.320663452120300 -160.596817016601563
-26.177293777433203 -168.679092407198425 -159.615695953369141
-88.270345687833597 -163.213188171358581 -164.288726806640625
-38.737394332853128 -164.087989807100769 -162.711921691894531
74.203592300447653 -168.474578857393738 -161.756965637207031
66.978403091463278 -153.889457702608581 -163.497192382812500
69.392763137849997 -164.121444702120300 -164.622573852539063
-51.277544021573831 -158.466316223116394 -167.639434814453125
74.465677261385153 -155.559478759737488 -161.884788513183594
51.787061691316794 -151.531814575167175 -162.949081420898438
72.930238723787497 -157.296775817842956 -164.062095642089844
-60.674039840665628 -147.185142517061706 -158.192337036132813
50.731683731111715 -144.913017272921081 -159.761646270751953
56.381380081209372 -150.931106567354675 -166.471611022949219
109.167848587068747 -144.229667663546081 -162.577163696289063
-61.682233810392191 -136.884384155245300 -154.624961853027344
119.947206497224997 -138.519081115694519 -163.469352722167969
-76.568624496427347 -148.617195129366394 -162.134773254394531
59.875513076814840 -139.139785766573425 -162.387329101562500
61.015920639070700 -140.066574096651550 -164.437629699707031
99.029619216951559 -140.145133972139831 -166.610015869140625
93.508111953767965 -138.037399291964050 -157.074275970458984
57.276285171541403 -148.187438964815613 -161.075080871582031
-67.838956832853128 -139.484123229952331 -160.418102264404297
-68.129140853849222 -133.461990356417175 -161.662422180175781
-69.228445053067972 -132.567573547335144 -162.750106811523438
-82.431097030607035 -122.605239868135925 -169.660682678222656
115.273157119783590 -127.699050903292175 -156.167041778564453
-75.879835128751566 -125.425384521456238 -168.508033752441406
-78.322034835782816 -123.790557861299988 -159.127033233642578
113.965974807771872 -128.154075622530456 -162.162353515625000
-51.071939468351175 -130.234184265108581 -158.343860626220703
124.745851516756247 -110.607467651339050 -156.655181884765625
120.290521621736715 -110.600631713839050 -159.287467956542969
120.978471756014059 -125.317764282198425 -160.650146484375000
-83.172277450528910 -103.428161621065613 -167.533584594726563
-38.519128799405863 -104.627944946260925 -165.856323242187500
-66.610685348478128 -100.432647705049988 -164.710327148437500
-64.057531356778910 -96.756088256807800 -158.506782531738281
-59.766508102384378 -101.928726196260925 -164.523078918457031
-44.441377639737894 -102.277877807589050 -161.653427124023438
-36.762697219816019 -101.414978027315613 -155.412063598632813
33.071853637727926 -102.228088378878113 -158.452762603759766
-88.428731918302347 -99.703674316378113 -160.616619110107422
-37.784929275480081 -90.873245239229675 -159.478008270263672
-47.351724624601175 -97.673461914034363 -164.547454833984375
-41.974039077726175 -92.845703124971863 -157.475715637207031
41.944677352937887 -83.418411254854675 -162.684783935546875
-39.057554244962503 -101.586334228487488 -161.190494537353516
-83.965299606290628 -96.826354980440613 -164.254783630371094
-34.959947586026956 -88.284927368135925 -163.427719116210938
39.311365127596090 -91.987579345674988 -156.985595703125000
-93.388669967618753 -80.994293212862488 -159.362152099609375
25.817962646516992 -89.066375732393738 -158.035392761230469
-98.903287887540628 -68.032379150362488 -163.379478454589844
-89.510038375821878 -92.337600707979675 -160.753353118896484
33.366207122835348 -88.349945068331238 -163.132003784179688
31.495504379305078 -75.494796752901550 -158.972690582275391
-89.844800949064066 -67.607009887667175 -165.292289733886719
-133.605726242032802 -65.979888915987488 -160.804588317871094
-18.556203842130468 -52.265930175753113 -162.876655578613281
-15.678836822477148 -58.449768066378113 -164.439315795898438
-106.403722763028910 -61.121597290010925 -168.407058715820313
-140.341764450040614 -62.809005737276550 -150.226215362548828
-100.580816268888285 -63.062637329073425 -162.255203247070313
-143.727628707853114 -50.658187866182800 -161.070247650146484
-127.868207931485941 -50.924331665010925 -157.674369812011719
-127.111280441251566 -56.590606689424988 -157.501373291015625
-13.102964401212500 -51.982543945284363 -155.969463348388672
-111.732587814298441 -44.057785034151550 -160.637142181396484
-104.587957382169535 -56.301651000948425 -157.777194976806641
-17.134134292569922 -50.772018432589050 -158.552158355712891
-150.854352951017177 -39.233139038057800 -159.706562042236328
-123.655714035001566 -47.103485107393738 -163.152557373046875
-119.161603927579691 -37.332015991182800 -162.739143371582031
28.177818298372461 -44.975891113253113 -150.898960113525391
-151.364179611173427 -39.000778198214050 -156.579147338867188
11.060201168092920 -25.529663085909363 -162.939842224121094
20.736000061067774 -28.557373046846863 -162.830535888671875
-13.992813110318945 -38.591415405245300 -158.659111022949219
0.483984947237207 -27.691925048799988 -165.829666137695313
-163.486234664884364 -37.063201904268738 -158.565010070800781
-157.758741378751552 -31.444427490206238 -167.515731811523438
-87.623868942228128 -27.112609863253113 -165.900238037109375
-97.264791488614847 -22.013961791964050 -161.996269226074219
-156.333646774259364 -22.681381225557800 -154.221496582031250
-91.128614425626566 -21.497772216768738 -161.493618011474609
-3.498242378202246 -24.621688842745300 -159.061603546142578
-113.847738265958597 -22.783660888643738 -163.900093078613281
-133.831724166837489 -24.075958251924988 -159.723136901855469
9.266671896013452 -25.335494995089050 -154.409000396728516
-125.451505660978128 -22.797439575167175 -155.688285827636719
-117.212629318204691 -23.022109985323425 -160.547233581542969
-111.627813339200785 -13.192825317354675 -159.175346374511719
12.678165912660791 -18.182083129854675 -161.046844482421875
-101.104703903165628 -23.408691406221863 -157.979293823242188
-155.219861984220302 -28.137451171846863 -161.361564636230469
-138.274595260587489 -14.450424194307800 -166.678215026855469
-158.705259323087489 -20.154388427706238 -161.843883514404297
3.349118948015406 -14.351669311495300 -159.084182739257813
-4.672866821256445 -8.076416015596863 -157.249252319335938
87.192499160799215 -20.411972045870300 -162.654525756835938
9.519983053240015 -15.404266357393738 -158.941890716552734
-142.275037765470302 -15.022994995089050 -157.089092254638672
-5.235054969754980 -20.884323120089050 -160.018295288085938
77.863008499178122 -19.545654296846863 -163.911041259765625
83.889101028474997 -10.310546874971863 -163.786407470703125
-123.212568283048441 -8.313674926729675 -160.987064361572266
-154.927564620939052 -18.551589965792175 -160.717182159423828
-103.358373641935160 -17.167175292940613 -155.960323333740234
-114.283285140958597 -8.269332885714050 -151.704959869384766
-164.468702316251552 -18.044830322237488 -160.930259704589844
-154.130369186368739 -11.332733154268738 -162.405364990234375
-140.249143600431239 -13.793029785128113 -165.056571960449219
-5.554599761930273 -10.927291870089050 -161.654441833496094
2.645852088960840 -7.808044433565613 -161.568546295166016
-150.291105270353114 -1.138763427706238 -162.611083984375000
15.520553588899805 -1.811218261690613 -167.140815734863281
11.896865844759180 -12.138900756807800 -161.551586151123047
-156.404188156095302 -3.924179077120300 -167.845695495605469
25.145809173616602 -5.463378906221863 -160.030647277832031
57.064973831209372 -1.513427734346863 -159.839080810546875
59.726121902498434 1.186859130887512 -160.260372161865234
-7.716344833341406 -1.036361694307800 -160.412620544433594
56.303068161043356 2.078338623075012 -157.404121398925781
-163.425626754728114 9.549591064481262 -168.098320007324219
-151.858243942228114 -1.363250732393738 -162.070259094238281
-153.340742111173427 9.111968994168762 -166.139854431152344
57.070951461824606 12.322784423856262 -156.571903228759766
-84.897687911954691 5.645935058621887 -161.570087432861328
-111.959051132169535 9.830139160184387 -164.580177307128906
-99.818792343107035 10.157806396512512 -159.980102539062500
36.941665649446676 11.570495605496887 -159.847343444824219
45.192907333406637 1.717620849637512 -157.403583526611328
-96.101240158048441 8.878234863309387 -157.163463592529297
-85.337842941251566 12.630737304715637 -157.373291015625000
52.189191818269919 10.756530761746887 -162.619804382324219
52.717054367098044 7.790313720731262 -161.599529266357422
-151.319944381681239 14.226623535184387 -167.297134399414063
38.463886261018942 15.011444091825012 -160.704010009765625
-134.355100631681239 23.090087890653137 -164.237060546875000
-107.465192794767191 18.715820312528137 -155.909084320068359
-132.710508346524989 10.977813720731262 -164.009025573730469
38.662763595613669 15.257232666043762 -165.146354675292969
-107.597906112638285 17.090789794950012 -164.092567443847656
-6.428565978971289 14.033264160184387 -157.457736968994141
32.936521530183981 24.268432617215637 -162.269927978515625
-9.562992095914648 25.780883789090637 -156.170059204101563
30.126647949251367 34.427734375028137 -160.951675415039063
-140.643720626798427 44.394744873075012 -158.311443328857422
-4.226266860929297 36.852752685575012 -159.312770843505859
-146.283567428556239 38.016052246121887 -168.640785217285156
-117.825056076017191 42.944793701200012 -159.000106811523438
-143.916349410978114 39.330200195340637 -162.299430847167969
-104.602735519376566 40.477203369168762 -160.240299224853516
-95.399473190275003 42.949554443387512 -160.669025421142578
-0.567285060849951 36.803222656278137 -160.589588165283203
-105.997030258146097 43.999389648465637 -165.752761840820313
-109.520757675138285 39.749511718778137 -160.206493377685547
-111.536321639982035 43.179809570340637 -160.470924377441406
-127.363050460782816 42.361114501981262 -155.130836486816406
-110.522405624357035 41.512634277371887 -163.746131896972656
-148.284299850431239 43.755767822293762 -164.851745605468750
-138.571012496915614 49.901123046903137 -164.570915222167969
-144.263593673673427 60.388916015653137 -159.384746551513672
-148.395170211759364 71.343170166043762 -164.669670104980469
-154.761152267423427 54.789794921903137 -154.513225555419922
-132.513227462735927 65.519470214871887 -163.392822265625000
-146.054288864103114 71.587677001981262 -157.001365661621094
44.351678848299215 -232.284599304171081 -156.140708923339844
52.774927139314840 -234.047784805269714 -163.611526489257813
28.302446365389063 -220.510456085176941 -153.597179412841797
60.599905014070700 -216.673278808565613 -159.749641418457031
36.548774719270895 -215.374198913546081 -161.905216217041016
39.266386032137106 -209.242343902559753 -163.872718811035156
-49.293085098233988 -194.057594299288269 -156.135589599609375
86.481851577791403 -178.375549316378113 -157.978401184082031
87.197046279939840 -175.114715576143738 -169.149078369140625
-83.227857589689066 -183.973052978487488 -161.771141052246094
-5.897789955106543 -181.103858947725769 -151.556537628173828
-88.522603988614847 -173.972030639620300 -160.816673278808594
105.386667251619528 -175.263572692842956 -164.055328369140625
-6.880272865262793 -175.059967040987488 -160.840179443359375
77.945489883455465 -173.042564392061706 -158.846073150634766
-29.238759994474218 -175.821975707979675 -164.977348327636719
-20.830789566007422 -169.039176940889831 -163.140083312988281
62.681825637849997 -158.945846557589050 -159.669086456298828
-37.152818679776956 -156.243034362764831 -169.173171997070313
71.112962722810934 -158.432487487764831 -161.813468933105469
55.508546829256247 -162.493179321260925 -162.355583190917969
60.704477310213278 -149.944747924776550 -158.500015258789063
72.442911148103903 -153.939369201632019 -158.025436401367188
66.251501083406637 -151.707183837862488 -160.946678161621094
117.547876358064840 -150.700340270967956 -154.411415100097656
104.702699661287497 -152.678924560518738 -153.016567230224609
63.935220718416403 -145.612327575655456 -155.031330108642578
112.648752212557028 -144.967292785616394 -165.090332031250000
-71.220190048185160 -144.500549316378113 -155.969482421875000
-56.909055709806253 -142.851890563936706 -155.856410980224609
106.931833267244528 -146.045700073214050 -162.287185668945313
63.490205764803122 -144.415504455538269 -164.474212646484375
83.499383926424215 -145.689117431612488 -163.545265197753906
-70.565343856778910 -134.664466857882019 -160.465370178222656
-72.915090560880472 -143.833175659151550 -158.113224029541016
104.272211074861715 -137.281417846651550 -157.773826599121094
41.892671585115622 -134.201225280733581 -153.295509338378906
112.621622085603903 -138.891372680635925 -162.491401672363281
53.487009048494528 -128.419105529757019 -157.608840942382813
111.231714248689840 -139.619285583467956 -154.046638488769531
-68.352445602384378 -138.419242858858581 -157.592304229736328
116.827676773103903 -137.083396911592956 -160.948863983154297
-77.142614364591410 -121.110397338839050 -157.444385528564453
-52.545526504483988 -113.824554443331238 -159.346767425537109
-43.655118942228128 -121.229690551729675 -160.275897979736328
-59.491231918302347 -124.349182128878113 -160.591079711914063
-41.488061904874613 -114.620803832979675 -155.787151336669922
-77.170537948575785 -107.919097900362488 -163.056724548339844
-69.026617050138285 -107.967102050753113 -161.504291534423828
-76.932714462247660 -111.126312255831238 -162.142295837402344
-45.661909103360941 -102.598220825167175 -165.484558105468750
-63.468900680509378 -112.009307861299988 -157.333312988281250
-51.145132064786722 -109.077987670870300 -159.469970703125000
-50.415899276700785 -104.267410278292175 -160.439708709716797
28.912038803133203 -107.120208740206238 -154.498859405517578
-82.613248825040628 -101.010681152315613 -152.414283752441406
-43.728040695157816 -106.910064697237488 -156.133110046386719
-95.470891952482035 -94.768630981417175 -155.993965148925781
-93.478651046720316 -89.232528686495300 -153.337078094482422
17.566930770906641 -97.271682739229675 -157.853225708007813
22.875886917146875 -87.259475707979675 -153.115604400634766
-91.308790206876566 -85.307144165010925 -159.709491729736328
-95.627912521329691 -87.770874023409363 -157.197620391845703
-95.014654159513285 -76.981338500948425 -156.624286651611328
31.676521301302149 -79.178039550753113 -159.823154449462891
-103.337766647306253 -74.581832885714050 -161.969047546386719
28.040977478059961 -79.080108642549988 -156.883968353271484
-138.814878463712489 -68.270233154268738 -157.997604370117188
31.297945022615625 -74.050415039034363 -161.328422546386719
25.552036285433008 -66.411590576143738 -162.506622314453125
-140.265882492032802 -50.464614868135925 -158.526916503906250
23.728502273592188 -68.674911498995300 -164.801445007324219
23.535135269197657 -66.679840087862488 -158.918884277343750
-134.013395309415614 -58.584869384737488 -167.025764465332031
-151.738386154142177 -60.230209350557800 -167.550384521484375
20.081115722688867 -49.910217285128113 -155.059413909912109
29.234783172640039 -52.718338012667175 -157.531177520751953
-131.676130294767177 -54.141723632784363 -164.825592041015625
-102.398252487150003 -45.307907104464050 -158.186988830566406
22.380946159395410 -45.526855468721863 -161.007720947265625
-114.947423934903910 -53.822784423799988 -158.104438781738281
22.582700729402735 -41.675567626924988 -157.010616302490234
-126.068754196134378 -48.875381469698425 -162.075462341308594
-146.183607101407802 -47.586807250948425 -158.133327484130859
-148.343229293790614 -47.846313476534363 -160.007083892822266
-157.698209762540614 -45.018173217745300 -161.809406280517578
-10.505365371671484 -50.366165161104675 -159.890491485595703
-147.847120285001552 -39.907867431612488 -157.217075347900391
-20.121324539151953 -60.770675659151550 -160.071708679199219
-9.512138366666601 -51.658233642549988 -161.129917144775391
23.897279739412500 -49.936965942354675 -155.166965484619141
-148.965085983243739 -48.718170165987488 -157.992748260498047
-95.274641036954691 -43.610214233370300 -162.756240844726563
-12.683954238858984 -37.165023803682800 -158.409824371337891
-151.653776168790614 -39.539947509737488 -155.375350952148438
22.384335517915918 -43.492599487276550 -159.921592712402344
-159.508863449064052 -39.236907958956238 -160.127983093261719
-111.900114059415628 -38.829711914034363 -162.916854858398438
-108.910947799650003 -37.559967040987488 -155.406913757324219
-117.775342941251566 -37.281585693331238 -164.400672912597656
-6.179739952054785 -36.651245117159363 -155.379615783691406
-10.034563064542578 -36.848449707003113 -155.347930908203125
-154.918577194181239 -33.457565307589050 -158.512931823730469
-151.825498580899989 -30.746536254854675 -160.118579864501953
-161.211683273282802 -25.396575927706238 -159.475292205810547
-140.814802169767177 -30.019943237276550 -163.164932250976563
-145.304670333829677 -23.621597290010925 -153.768989562988281
2.522147178682520 -15.221542358370300 -160.982971191406250
0.564772129091455 -19.208343505831238 -158.916820526123047
-90.548513412442972 -26.129211425753113 -160.407268524169922
1.859644889864160 -14.994277954073425 -162.676300048828125
-156.945722579923427 -20.551483154268738 -159.291381835937500
-100.201864242521097 -15.967346191378113 -161.465579986572266
1.356335163149073 -15.774887084932800 -157.622417449951172
7.762153983148767 -11.976028442354675 -151.086071014404297
-102.654600143400003 -8.638000488253113 -164.448356628417969
13.218955993684961 -20.432769775362488 -165.750633239746094
-114.663991928067972 -16.969528198214050 -162.926124572753906
1.175161838564112 -5.279800415010925 -163.094490051269531
5.516350984605982 -11.134063720674988 -160.902076721191406
7.355738997492029 -7.234786987276550 -160.095245361328125
76.710680007967184 -3.407760620089050 -156.883872985839844
-7.171501159635351 -9.220733642549988 -164.393104553222656
11.080534935030176 -7.814987182589050 -156.886394500732422
18.345392227205469 -4.478530883760925 -163.672920227050781
14.212917804750635 -7.469543457003113 -157.407619476318359
3.590756893190576 0.794998168973450 -167.437828063964844
67.343461990389059 -11.949249267549988 -160.861827850341797
71.930459976228903 -9.914642333956238 -160.300773620605469
15.704515457185938 -0.251007080049988 -164.585571289062500
64.859743118318747 -3.803558349581238 -162.548736572265625
59.665407180818747 -6.408004760714050 -167.622817993164063
53.536344528230856 1.005142211942200 -161.415676116943359
50.156747818025778 10.949127197293762 -166.438903808593750
46.396253585848044 6.821136474637512 -161.521823883056641
-126.227506637540628 15.626434326200012 -162.688278198242188
-6.670130729642676 6.586791992215637 -156.593490600585938
36.257720947298239 18.957885742215637 -152.992828369140625
48.789846420320700 6.977722167996887 -161.335212707519531
37.822616577181051 15.697113037137512 -158.403644561767578
-93.280508041349222 14.173004150418762 -163.540702819824219
38.225265502962301 17.471527099637512 -165.488044738769531
-146.311429977384364 13.381225585965637 -159.437690734863281
-109.385480880704691 15.054656982450012 -168.407806396484375
-102.113172531095316 14.912719726590637 -157.473278045654297
2.318769931825830 16.065216064481262 -158.419944763183594
-142.981977462735927 6.925445556668762 -158.850097656250000
39.098619461092184 11.914855957059387 -157.951023101806641
-108.494756698575785 17.252868652371887 -164.746467590332031
34.060422897371481 9.582519531278137 -157.454341888427734
-127.781064987150003 1.634429931668762 -161.747642517089844
-110.659231185880472 12.000610351590637 -164.597648620605469
-96.443517684903910 18.031372070340637 -158.093334197998047
-117.461675643888285 12.969879150418762 -160.200542449951172
-126.803159713712503 20.683990478543762 -162.291893005371094
42.199689865144919 17.070343017606262 -163.906944274902344
-111.166082382169535 20.091918945340637 -160.210845947265625
-135.514509201017177 18.978515625028137 -167.781806945800781
1.376399993929102 19.028808593778137 -162.015373229980469
-149.811460494962489 34.457275390653137 -164.572013854980469
0.783384799989893 33.390991210965637 -160.258525848388672
-0.152952194181250 41.203094482450012 -156.922725677490234
-117.731184005704691 41.423248291043762 -157.871341705322266
-121.935590743985941 44.374450683621887 -162.112098693847656
-127.251157760587503 42.086425781278137 -162.422348022460938
-123.762388229337503 53.888305664090637 -158.693386077880859
-148.884122848478114 51.027130126981262 -158.678226470947266
-146.571912765470302 59.862609863309387 -161.505382537841797
-142.256940841642177 55.595306396512512 -165.420066833496094
-149.522001266446864 53.309020996121887 -162.685997009277344
-134.923780441251552 62.931671142606262 -158.785869598388672
-137.347089767423427 66.655273437528137 -159.206813812255859
-142.570920944181239 61.818511962918762 -156.846534729003906
28.778959274324610 -213.596786498995300 -160.661472320556641
54.417367935213278 -211.217956542940613 -162.929527282714844
34.499303817781637 -204.550949096651550 -159.976959228515625
38.520811080965231 -203.214729309053894 -164.057403564453125
-38.093080520597269 -203.081436157198425 -158.131446838378906
-71.969968795743753 -192.592060089083191 -162.446289062500000
88.588220596346090 -183.789482116671081 -159.178100585937500
89.667634964021872 -182.921348571749206 -159.910766601562500
80.124277114900778 -182.209648132296081 -156.135223388671875
-86.704175949064066 -169.800659179659363 -157.864791870117188
102.849985122713278 -169.187179565401550 -161.633953094482422
-19.766147613492773 -168.437606811495300 -152.598899841308594
68.849935531648825 -164.776405334444519 -157.992504119873047
-38.546281814542581 -160.197067260714050 -159.890979766845703
-45.390787124601175 -162.046524047823425 -158.858795166015625
58.439580917391012 -155.096572875948425 -154.023990631103516
113.559511184724997 -158.980033874483581 -159.196971893310547
73.493539810213278 -147.377159118624206 -159.854564666748047
61.117883682283590 -148.020889282198425 -151.295299530029297
58.497884750398825 -144.017105102510925 -158.146987915039063
64.645967483553122 -144.343055725069519 -157.781547546386719
117.086053848299215 -146.813049316378113 -157.746734619140625
80.028245925935934 -137.627334594698425 -155.925472259521484
54.574453353914450 -136.279754638643738 -154.590950012207031
84.605890274080465 -133.117263793917175 -159.352130889892578
101.940706253084372 -136.750320434542175 -152.505096435546875
-67.308744430509378 -142.727760314913269 -158.551719665527344
-79.728612899747660 -140.224487304659363 -162.049041748046875
-80.333265304532816 -132.801307678194519 -164.317726135253906
-56.224130630460550 -125.285171508760925 -158.465885162353516
-50.424043655362894 -118.821319580049988 -162.474754333496094
-87.867956161466410 -128.107261657686706 -158.041187286376953
-67.211866378751566 -119.864501953096863 -157.317066192626953
-64.290746688810160 -121.418457031221863 -157.862739562988281
-52.244840621915628 -114.659133911104675 -159.873615264892578
-80.026144027677347 -106.429962158174988 -155.793395996093750
-83.620664596525003 -116.196792602510925 -159.121349334716797
-36.884138107267191 -105.042984008760925 -161.774700164794922
-41.178792953458597 -109.189224243135925 -155.288185119628906
-66.674406051603128 -108.778305053682800 -155.697986602783203
-43.798707962003519 -104.738571166964050 -152.942188262939453
-66.351644515958597 -104.897308349581238 -159.929431915283203
25.741291046175196 -102.932174682589050 -157.720920562744141
-47.665956497159769 -105.167465209932800 -168.512870788574219
-48.290666580167581 -104.026275634737488 -160.344741821289063
14.874423980745508 -87.440231323214050 -152.250160217285156
26.169052124056055 -91.486160278292175 -154.523311614990234
-137.361082076993739 -67.402297973604675 -151.800460815429688
-99.542776107755472 -70.662933349581238 -162.363090515136719
-95.170927047696878 -56.194351196260925 -160.820301055908203
-140.754209518399989 -57.661514282198425 -161.004528045654297
-108.959928512540628 -61.554519653292175 -149.105556488037109
-137.897977828946864 -45.335357665987488 -151.559196472167969
-104.144323348966410 -46.877822875948425 -159.303550720214844
-142.580366134610927 -49.347015380831238 -161.850093841552734
-142.658155441251552 -39.958847045870300 -157.162609100341797
-145.930540084806239 -34.556564331026550 -161.525470733642578
-138.819593429532802 -25.304000854464050 -160.867084503173828
-144.575559616056239 -17.030517578096863 -161.434673309326172
-97.103254318204691 -21.708511352510925 -158.877231597900391
-105.525686264005472 -26.052764892549988 -163.017181396484375
-121.232793807950785 -12.063095092745300 -162.086212158203125
-100.467458724942972 -20.468490600557800 -162.156677246093750
-152.285932540860927 -15.423873901339050 -164.353210449218750
6.916793987187578 -17.579223632784363 -161.643070220947266
-128.933805465665614 -18.394577026339050 -157.119655609130859
-142.009870529142177 -7.259628295870300 -165.312522888183594
-125.488615035978128 -3.972885131807800 -159.686481475830078
-3.839337348905371 -8.571731567354675 -159.828269958496094
21.413510322603418 0.565383911160950 -161.888973236083984
71.662698745760153 -1.771377563448425 -158.963947296142578
26.827974319490625 -0.092514038057800 -162.245399475097656
68.607309341463278 2.870330810575012 -161.465995788574219
48.447885513338278 -1.516571044893738 -155.966297149658203
66.784601211580465 3.391723632840637 -159.018005371093750
-151.809492111173427 6.132965087918762 -162.281517028808594
-155.423414230314052 3.717590332059387 -162.173110961914063
51.764032363924215 12.448394775418762 -160.790561676025391
42.526048660310934 11.720031738309387 -161.030784606933594
53.054956436189840 1.752288818387512 -155.472496032714844
-139.376310348478114 6.990386962918762 -156.706512451171875
-130.196714401212489 7.376708984403137 -158.085384368896484
-124.555021285978128 12.862335205106262 -162.599266052246094
-126.114820480314066 14.925384521512512 -156.322132110595703
-133.844724655118739 15.043457031278137 -155.940929412841797
-120.117712020841410 17.718811035184387 -168.375572204589844
-133.601072311368739 19.435485839871887 -154.592147827148438
-120.669050216642191 12.686614990262512 -161.238155364990234
-121.274900436368753 14.015899658231262 -155.458988189697266
-117.121671676603128 16.907806396512512 -154.942398071289063
-111.348485946622660 28.750091552762512 -159.257720947265625
0.412465095552637 24.303588867215637 -159.479095458984375
36.631944656404684 19.865295410184387 -163.412361145019531
-140.552030563321864 26.768676757840637 -163.938827514648438
32.715335845979880 20.952545166043762 -157.685775756835938
9.390723943742945 24.707489013700012 -160.070888519287109
22.990615844759180 37.937561035184387 -162.458518981933594
-142.212461471524989 44.853210449246887 -163.208717346191406
-114.948881149259378 44.922943115262512 -162.140014648437500
-133.787549972501552 43.284667968778137 -162.382171630859375
-150.608701705899989 44.536956787137512 -154.224678039550781
-118.193021774259378 44.734130859403137 -156.553897857666016
-111.460798263517191 42.826812744168762 -159.587211608886719
-119.070966720548441 43.175109863309387 -153.991073608398438
-138.892560958829677 48.981781005887512 -157.382194519042969
28.079805374178125 -227.639102935762878 -162.007896423339844
45.837324142488669 -215.755241394014831 -161.656757354736328
42.304903030428122 -231.021997451754089 -159.515548706054688
54.080125808748434 -215.025619506807800 -152.469299316406250
34.699247360262106 -215.056793212862488 -162.139381408691406
29.567457199129297 -207.483783721895691 -164.370742797851563
-33.553552627530863 -201.358882904024597 -158.676528930664063
-70.846189498868753 -191.491790771456238 -165.321014404296875
-3.461909294095801 -193.201198577852722 -159.454780578613281
75.737695694002340 -175.357055664034363 -155.301696777343750
109.192041397127340 -172.903968811007019 -158.878265380859375
68.826391220125387 -160.836380004854675 -159.921596527099609
67.678514480623434 -164.064186096163269 -155.513107299804688
111.201486587557028 -158.454086303682800 -159.484176635742188
-58.917425155607035 -153.594238281221863 -156.155521392822266
-49.313470840421488 -149.455848693819519 -162.261054992675781
54.054521560701559 -157.522567748995300 -156.829170227050781
-59.416723251310160 -147.836410522432800 -157.488235473632813
-63.837469100919535 -139.558303832979675 -159.523300170898438
-94.489927291837503 -150.298080444307800 -155.113388061523438
-64.211950302091410 -147.947624206514831 -155.836498260498047
54.307710647615622 -141.862472534151550 -159.681522369384766
-67.119871139493753 -144.738761901827331 -159.028003692626953
56.762193679842184 -141.471267700167175 -155.887668609619141
103.026269912752340 -145.472824096651550 -154.078628540039063
97.511178970369528 -138.419075012178894 -159.768272399902344
-62.513471603360941 -132.889442443819519 -158.213401794433594
-69.178243637052347 -136.425956726046081 -157.170352935791016
-56.357210159269144 -124.414443969698425 -152.561462402343750
-99.290838241544535 -124.608886718721863 -155.492034912109375
-70.751111984220316 -112.086395263643738 -161.756866455078125
-88.567449569669535 -124.979278564424988 -158.136299133300781
-53.939634323087503 -132.566596984835144 -153.780208587646484
-57.645849227872660 -126.350357055635925 -151.372394561767578
-83.552549362150003 -116.809127807589050 -155.731849670410156
-52.112142562833597 -114.055770873995300 -159.146667480468750
-74.775266647306253 -112.633193969698425 -159.491012573242188
-64.308584213224222 -109.483062744112488 -159.866764068603516
-60.825124740567972 -112.242156982393738 -157.653583526611328
-53.818132400480081 -109.023651123018738 -156.755935668945313
-46.922502517667581 -105.006881713839050 -158.641708374023438
-91.289327621427347 -104.946243286104675 -166.035110473632813
-85.058507919278910 -105.109848022432800 -154.570144653320313
-72.454183578458597 -115.752761840792175 -152.519001007080078
26.184270858797266 -101.764465332003113 -161.224334716796875
-43.549825668302347 -96.220123290987488 -154.618499755859375
23.602487564119532 -93.180572509737488 -153.624179840087891
-92.003705978360941 -85.880477905245300 -164.082267761230469
-100.883398055997660 -75.233688354464050 -163.540542602539063
-93.118101119962503 -64.756240844698425 -153.518737792968750
-95.907186508146097 -68.531112670870300 -153.937820434570313
-97.864225387540628 -68.345428466768738 -153.096488952636719
-96.780424118009378 -60.254257202120300 -162.232246398925781
-138.828336715665614 -55.219802856417175 -154.687503814697266
-108.814352035489847 -56.309631347628113 -153.631992340087891
-128.477018356290614 -52.391555786104675 -156.984836578369141
-136.440946578946864 -45.710220336885925 -158.342308044433594
-108.786497116056253 -51.158081054659363 -160.868362426757813
-147.609403610196864 -43.695907592745300 -163.216247558593750
-138.278608322110927 -41.331832885714050 -156.953041076660156
-116.510641097989847 -43.492858886690613 -153.926036834716797
-132.309064865079677 -36.072311401339050 -157.973381042480469
-138.449262618985927 -41.999801635714050 -158.375816345214844
-117.605070114103128 -25.330398559542175 -161.706825256347656
-103.861021041837503 -18.629745483370300 -161.945461273193359
-141.457715988126552 -19.507827758760925 -159.448871612548828
-104.521490097013285 -16.363052368135925 -155.787929534912109
-105.563589096036722 -13.522811889620300 -158.221256256103516
-114.468946456876566 -9.489089965792175 -158.882457733154297
-125.877042770353128 -7.025756835909363 -163.839393615722656
-112.328229904142191 -13.818740844698425 -161.509349822998047
9.569283008608057 -14.171249389620300 -154.434375762939453
-138.212766647306239 -8.540115356417175 -162.831359863281250
14.683736801180078 -9.647796630831238 -155.381618499755859
12.383329868349268 -8.751892089815613 -156.280578613281250
7.711104989084436 -6.993774414034363 -153.329586029052734
19.767601966890528 1.686157226590637 -163.248855590820313
-138.045087814298427 -14.371765136690613 -159.721218109130859
3.735424995454981 1.367889404325012 -160.370979309082031
28.389842987093164 -3.994293212862488 -154.145286560058594
50.633527755769919 0.716369628934387 -151.111076354980469
62.460947036775778 4.560729980496887 -154.101894378662109
-144.868848800626552 7.625427246121887 -160.100910186767578
-0.990417003598974 9.644378662137512 -160.288921356201172
29.710273742708399 11.978576660184387 -165.180175781250000
-124.163282394376566 10.574798584012512 -149.939048767089844
-121.324079513517191 14.095489501981262 -152.292579650878906
-120.547742843595316 11.362426757840637 -157.628353118896484
36.451028823885153 16.558654785184387 -157.370117187500000
-129.502393722501552 15.783355712918762 -162.841880798339844
35.220560073885153 17.778137207059387 -160.001724243164063
34.723701477083395 23.523284912137512 -157.550926208496094
-147.517469406095302 15.332672119168762 -155.606891632080078
-141.629117965665614 41.089141845731262 -161.236881256103516
-141.252225875821864 41.628417968778137 -152.354812622070313
-138.027585983243739 42.201019287137512 -154.380176544189453
13.495069980653955 44.654754638700012 -163.585250854492188
-145.769651412931239 46.601318359403137 -160.455345153808594
51.830347061189840 -212.534706115694519 -160.673675537109375
35.790641784700583 -205.362136840792175 -167.973068237304688
-55.648336410489847 -199.570934295626159 -157.057209014892578
-67.149831771817972 -199.888595581026550 -159.510528564453125
-16.997076034513281 -193.574966430635925 -150.983127593994141
-16.635797500577734 -185.864158630342956 -158.782356262207031
-4.797122001615332 -183.207748413057800 -153.839393615722656
-21.658897399869726 -174.765007019014831 -163.427726745605469
77.915750503572653 -170.701957702608581 -159.541080474853516
-99.175252914396097 -169.705467224092956 -158.999248504638672
-42.258562087980081 -159.763122558565613 -154.532783508300781
62.969034194978903 -157.996612548799988 -153.144676208496094
66.696317672762106 -151.581108093233581 -157.179382324218750
74.652307510408590 -157.020126342745300 -156.229610443115234
113.386613845857809 -155.515281677217956 -157.109157562255859
62.802827835115622 -143.386901855440613 -154.532764434814453
105.628381729158590 -145.692825317354675 -160.185962677001953
-73.194150924650003 -135.948661804171081 -162.111000061035156
-89.496412277189066 -138.231224060030456 -157.523830413818359
78.350717544588278 -133.737205505342956 -153.777774810791016
-78.013944625821878 -145.536529540987488 -152.684139251708984
-66.075109481778910 -123.871215820284363 -157.972141265869141
-77.405881881681253 -121.923751831026550 -153.823425292968750
-47.127717971769144 -118.481857299776550 -159.993221282958984
-78.552701950040628 -120.363571166964050 -160.451797485351563
-50.489145278898050 -112.458999633760925 -157.937671661376953
-79.243413925138285 -110.512008666964050 -158.267921447753906
-66.770803451505472 -104.435226440401550 -156.501285552978516
-68.265302658048441 -125.297653198214050 -157.925788879394531
-75.295484542814066 -115.217346191378113 -158.201721191406250
-57.282178878751566 -109.022338867159363 -156.227756500244141
-80.377843856778910 -108.458557128878113 -159.790630340576172
-42.864816665616800 -109.632003784151550 -162.952033996582031
-51.659936904874613 -100.220184326143738 -158.347312927246094
31.809825897249414 -111.080398559542175 -155.723190307617188
-58.751615524259378 -105.227523803682800 -152.330139160156250
16.159783363374903 -99.451370239229675 -163.462455749511719
27.240756988558008 -93.299346923799988 -159.010177612304688
19.471715927156641 -96.768020629854675 -156.422954559326172
-92.155660629239847 -98.459243774385925 -160.159057617187500
-83.374174118009378 -90.476150512667175 -156.543258666992188
-87.926794052091410 -92.074218749971863 -148.774375915527344
-97.100210189786722 -86.372940063448425 -156.755138397216797
-88.041379928556253 -88.755859374971863 -153.665653228759766
-151.493528366056239 -67.390411376924988 -156.766780853271484
-145.737424850431239 -66.062622070284363 -159.884906768798828
-98.900609970060160 -75.467926025362488 -149.440162658691406
-142.487073898282802 -67.105056762667175 -158.549991607666016
-98.738241195646097 -63.910202026339050 -155.819778442382813
-150.879453659024989 -59.956512451143738 -160.814609527587891
-102.095029830900003 -54.373245239229675 -158.922588348388672
-103.805273055997660 -58.080123901339050 -156.054538726806641
-136.277647018399989 -41.673309326143738 -155.824256896972656
-128.893339157071864 -45.086715698214050 -151.803993225097656
-104.142934799161722 -45.729553222628113 -159.215103149414063
-112.822706222501566 -40.557144165010925 -150.805778503417969
-108.181158065763285 -43.198562622042175 -158.140083312988281
-110.739240646329691 -44.077636718721863 -158.871116638183594
-124.689085006681253 -50.607025146456238 -153.620109558105469
-131.590879440274989 -39.508666992159363 -151.212448120117188
-125.664075851407816 -43.055313110323425 -155.982101440429688
-117.431264877286722 -43.683471679659363 -159.766605377197266
-125.768293380704691 -37.873489379854675 -157.256462097167969
-104.444715499845316 -42.869720458956238 -150.389194488525391
-146.195783615079677 -24.741699218721863 -156.510154724121094
-143.700773239103114 -16.558105468721863 -153.855918884277344
-151.073560714689052 -21.217300415010925 -154.432178497314453
-135.215894699064052 -25.503112792940613 -164.984672546386719
-127.339292526212503 -14.399368286104675 -153.667846679687500
-119.729520797696878 -19.999816894503113 -158.474449157714844
-137.486692428556239 -15.411437988253113 -163.521408081054688
-141.849637985196864 -21.589309692354675 -154.498775482177734
-129.903272628751552 -16.574691772432800 -156.303359985351563
-127.937803268400003 -18.511810302706238 -155.053920745849609
-137.882184982267177 -7.343475341768738 -158.054477691650391
-122.146070480314066 -9.344238281221863 -150.807582855224609
-116.183179855314066 -20.487121582003113 -150.611740112304688
-1.446722030607031 -12.737136840792175 -159.639514923095703
12.411046981844141 -2.991058349581238 -158.560665130615234
16.800077438387110 -3.056625366182800 -160.597167968750000
14.798926353487207 0.318450927762512 -155.681976318359375
-7.531702995267676 1.573852539090637 -153.576156616210938
-6.317610740629004 -0.322387695284363 -153.829162597656250
44.840677261385153 10.367340087918762 -157.720066070556641
52.124399185213278 2.788879394559387 -160.178867340087891
-138.234449386564052 10.353088378934387 -155.147411346435547
52.546167373689840 6.779632568387512 -154.846492767333984
40.986059188875387 12.290374755887512 -153.809665679931641
-145.474058151212489 17.710571289090637 -150.191104888916016
-143.094480514493739 18.110565185575012 -151.288349151611328
-141.092130660978114 21.768310546903137 -164.903861999511719
7.874477982553675 20.335601806668762 -160.498756408691406
-144.597974777189052 15.559448242215637 -155.191108703613281
19.360265731844141 31.086944580106262 -153.611701965332031
-136.643735885587489 36.265075683621887 -161.947124481201172
-138.500303268399989 45.665222167996887 -160.953872680664063
-140.912214279142177 39.088989257840637 -161.570354461669922
-143.625242233243739 43.527160644559387 -162.790664672851563
-132.093915939298427 40.176452636746887 -156.996395111083984
