# This PCD file was generated using the MATLAB® pcwrite function
# from Computer Vision Toolbox®.
# .PCD v.7 - Point Cloud Data file format
VERSION .7
FIELDS x y z
SIZE 8 8 8
TYPE F F F
COUNT 1 1 1
WIDTH 786
HEIGHT 1
VIEWPOINT 0 0 0 1 0 0 0
POINTS 786
DATA ascii
2.093337535858350 -7.852081298856262 -162.750297546375009
-0.429382324218555 -4.742477417020325 -165.601760864246103
-160.034868240356246 5.711456298799988 -165.174385070789072
-3.185950279235644 -0.518936157254700 -163.293823242175790
23.226108551025586 0.592849731417175 -162.356056213367197
-140.016344070434371 6.743865966768738 -166.526268005359384
-65.649789810180465 5.419647216768738 -164.149208068835947
-53.996732711791793 2.036987304659363 -165.590354919421884
59.979795455932816 1.920227050753113 -162.798095703113290
-67.049943923949996 1.825775146456238 -164.327598571765634
24.513744354248242 4.600341796846863 -165.528175353992197
-65.469781875610153 6.309478759737488 -165.115516662585947
-7.727849006652637 1.008041381807800 -163.222373962390634
-137.897020339965621 7.662963867159363 -167.290504455554697
54.237718582153519 5.109741210909363 -161.719245910632822
-72.444948196410934 10.707336425753113 -166.869918823230478
-95.165811538696090 10.001861572237488 -161.881706237781259
-91.758409500121871 9.553894042940613 -166.272979736316415
-112.305459976196090 7.974243164034363 -162.814491271960947
-98.260164260864059 12.114593505831238 -162.346076965320322
-98.265527725219528 13.088409423799988 -164.419586181628915
29.165710449218945 13.643432617159363 -162.494148254382822
-121.816957473754684 20.028747558565613 -162.422035217273447
-6.334208488464160 30.629943847628113 -165.762298583972665
-140.221666336059371 38.244537353487488 -162.359985351550790
-161.285875320434371 40.428619384737488 -166.319152832019540
-117.538591384887496 39.063995361299988 -165.718452453601572
-106.791376113891403 41.826080322237488 -161.810569763171884
-68.189088821410934 39.532073974581238 -160.742153167712900
-50.148500442504684 41.714569091768738 -165.435569763171884
-34.549531936645309 41.118011474581238 -163.783790588367197
-8.015400886535449 44.868774414034363 -167.799598693835947
-6.499006271362109 46.824554443331238 -162.535377502429697
-31.090303421020312 45.232299804659363 -166.644798278796884
-27.091527938842578 43.838256835909363 -164.616615295398447
-11.709568023681445 43.849304199190613 -161.873588562000009
-64.555124282836715 48.030883789034363 -163.811424255359384
-48.288625717162887 46.111846923799988 -164.121963500964853
-10.392208099365039 46.593231201143738 -161.461021423328134
-6.486069679260059 44.797424316378113 -166.348068237292978
3.525840759277539 47.486206054659363 -164.040222167957040
9.708042621612744 47.326538085909363 -161.627841949451181
-84.936388015746871 47.954345703096863 -164.857780456531259
-132.570116043090621 49.936920165987488 -166.359062194812509
-109.104341506957809 47.604309082003113 -165.682022094714853
-146.373598098754684 49.853210449190613 -163.589996337878915
-144.802614212035934 54.439147949190613 -165.421699523914072
-139.569978713989059 54.976165771456238 -163.200744628894540
52.376176834106644 -223.840337753324036 -161.195858001697275
27.793470382690625 -221.630134582547669 -166.056251525867197
57.405015945434769 -220.012554168729309 -160.693504333484384
54.964372634887894 -210.011444091825012 -164.248825073230478
95.399396896362504 -174.883850097684387 -163.305511474597665
103.357839584350785 -171.153236389188294 -165.104827880847665
108.992437362671097 -166.935729980496887 -163.089340209949228
106.068082809448441 -161.587966918973450 -164.029357910144540
64.448747634887894 -155.667617797879700 -164.470077514636728
53.304109573364457 -153.906166076688294 -168.570396423328134
71.059530258178910 -154.280067443875794 -162.463302612292978
-57.486635208129684 -151.881637573270325 -161.090347290027353
78.559148788452347 -157.229232788114075 -162.975250244128915
108.572111129760941 -146.103187561063294 -157.500797271716806
82.260808944702347 -143.935111999539856 -164.288551330554697
102.022062301635941 -142.467979431180481 -162.530387878406259
-76.855501174926559 -141.563758850125794 -164.417915344226572
52.865995407104691 -146.903198242215637 -162.557556152332040
-78.784036636352340 -142.747695922879700 -164.835258483875009
58.865659713745316 -134.673461914090637 -164.931495666492197
45.481187820434769 -141.419433593778137 -168.558883666980478
109.864202499389847 -141.736450195340637 -162.648498535144540
44.891603469848832 -139.054649353055481 -163.318290710437509
50.270021438598832 -126.454895019559387 -164.616928100574228
50.427072525024613 -131.950843811063294 -163.353485107410165
117.772832870483597 -132.611640930203919 -162.309547424304697
-73.666482925414840 -123.475616455106262 -167.433898925769540
119.886457443237504 -121.001403808621887 -166.706466674792978
47.665643692016801 -120.225601196317200 -160.199768066394540
48.190885543823441 -124.752731323270325 -162.862556457507822
42.641435623169144 -124.105972290067200 -163.966682434070322
-48.129251480102340 -115.431488037137512 -167.613494873035165
37.810087203979691 -121.512527465848450 -162.709487915027353
-69.823335647582809 -107.156631469754700 -161.971725463855478
-47.760900497436324 -112.377685546903137 -166.777503967273447
-71.935846328735153 -110.087692260770325 -161.585731506335947
43.163797378540238 -114.216384887723450 -161.786514282214853
-52.052244186401168 -111.362106323270325 -164.656059265125009
42.719171524048051 -111.583114624051575 -162.893058776843759
-64.435289382934371 -105.333587646512512 -161.831920623767587
-51.712141036987106 -104.196762084989075 -161.304630279529306
33.228862762451371 -102.317199707059387 -164.340591430652353
118.442518234253129 -101.813476562528137 -166.158546447742197
122.820127487182816 -107.762603759793762 -159.808265686023447
38.254663467407426 -103.435073852567200 -163.640068054187509
-40.669801712035934 -104.737625122098450 -164.904968261707040
114.309171676635941 -92.675308227567200 -161.613739013660165
-68.058191299438278 -101.877517700223450 -163.461158752429697
-51.121870040893356 -102.634948730496887 -163.641464233386728
39.097017288208207 -97.476119995145325 -159.833705902087900
-70.059366226196090 -98.782638549832825 -164.874763488757822
-63.163469314574996 -94.682601928739075 -163.545333862292978
122.403028488159379 -95.329772949246887 -167.143608093250009
-57.197786331176559 -89.822250366239075 -162.999717712390634
-31.886960983276172 -92.683105468778137 -161.037673950183603
33.182506561279496 -98.933425903348450 -162.102951049792978
-65.728891372680465 -98.894927978543762 -164.010086059558603
19.858872413635449 -95.145217895535950 -163.171722412097665
39.296251296997269 -87.966171264676575 -163.054351806628915
38.448589324951371 -94.665954589871887 -161.392974853503915
22.675753593445020 -90.772964477567200 -167.788536071765634
-42.467027664184371 -91.678161621121887 -165.026489257800790
32.209499359131058 -91.742935180692200 -164.885078430164072
-38.760541915893356 -94.739593505887512 -162.740188598621103
12.157356739044385 -90.845565795926575 -163.804969787585947
27.899280548095899 -94.928527832059387 -162.813468933093759
-61.492319107055465 -87.510833740262512 -162.972412109363290
-39.244527816772262 -90.796859741239075 -160.848659515369150
-60.779855728149215 -91.156280517606262 -163.101264953601572
25.533180236816602 -86.410140991239075 -162.458045959460947
31.640285491943555 -94.791427612332825 -162.761268615710947
9.899684667587476 -80.372390747098450 -163.618217468250009
28.731821060180859 -91.308914184598450 -163.389152526843759
38.109375000000199 -77.712341308621887 -163.296020507800790
-39.963369369506637 -81.693908691434387 -164.877922058093759
-29.447916030883594 -81.698699951200012 -169.554077148425790
-33.498266220092574 -84.078521728543762 -164.334495544421884
35.193735122680863 -86.192565917996887 -163.866119384753915
-36.957059860229293 -78.116271972684387 -161.983009338367197
-32.461507797241012 -78.520553588895325 -162.167549133289072
28.682331085205274 -79.115997314481262 -162.292282104480478
-32.570993423461715 -69.710968017606262 -164.123039245593759
35.225124359131058 -74.767654418973450 -160.200973510730478
119.005971908569535 -79.909210205106262 -160.498329162585947
-26.239995956420703 -72.895950317410950 -163.499366760242197
110.050184249878129 -71.576828002957825 -161.266036987292978
-27.309942245483203 -67.499176025418762 -163.213829040515634
-30.157861709594531 -63.512771606473450 -166.433296203601572
28.427339553833203 -67.878311157254700 -166.272583007800790
113.085660934448441 -62.822875976590637 -163.866752624500009
-24.249116897582812 -62.008361816434387 -162.077995300281259
-27.927717208862109 -67.413314819364075 -163.050003051746103
-15.962612152099414 -58.093414306668762 -166.945678710925790
-141.816881179809371 -56.086944580106262 -164.287811279285165
20.184019088745313 -61.524810791043762 -163.305458068835947
112.219701766967972 -53.713592529325012 -162.161743164050790
-151.748933792114059 -51.939407348660950 -163.345695495593759
-15.756309509277148 -55.378005981473450 -160.661548614490243
-108.425012588500778 -47.630004882840637 -165.295806884753915
-123.588899612426559 -49.405807495145325 -165.081336975085947
-100.678003311157028 -45.167221069364075 -164.195983886707040
-106.449052810668746 -44.738967895535950 -162.910713195789072
-5.107686996459766 -48.544586181668762 -164.372642517078134
27.326791763305859 -48.765380859403137 -162.400100707996103
-8.601473808288379 -43.012283325223450 -160.021160125720712
-119.522195816039840 -39.415252685575012 -163.738067626941415
-13.638141632079883 -41.889862060575012 -160.025619506824228
-122.156068801879684 -42.045547485379700 -162.603469848621103
-8.195333480834766 -44.644454956082825 -163.699401855457040
-138.875627517699996 -42.166030883817200 -162.583801269519540
99.039609909057816 -38.356369018582825 -159.809040069568368
-157.325456619262496 -43.497665405301575 -159.073936462390634
4.464036703109937 -27.042144775418762 -165.192848205554697
18.695734977722363 -34.998550415067200 -164.679924011218759
17.554218292236524 -27.871520996121887 -165.637016296375009
89.889455795288285 -28.132858276395325 -163.426353454578134
15.753106117248731 -31.823532104520325 -164.518455505359384
19.858400344848828 -30.118453979520325 -162.663482666003915
-8.594642639159961 -29.003067016629700 -166.756454467761728
-83.232789993285934 -30.483306884793762 -164.013549804675790
-90.763925552367965 -28.351379394559387 -163.755607604968759
7.246670722961621 -25.745285034207825 -162.522186279285165
-159.233812332153121 -23.013931274442200 -165.546478271472665
22.384647369384961 -25.245346069364075 -161.539638519275400
-137.396959304809371 -23.707595825223450 -163.053665161121103
20.212584495544629 -19.923553466825012 -163.851058959949228
-127.404817581176559 -20.096252441434387 -165.027008056628915
-108.682542800903121 -17.758239746121887 -164.629302978503915
24.018701553344922 -23.983703613309387 -162.771293640125009
85.658536911010941 -23.474655151395325 -163.480712890613290
13.998448848724561 -21.402740478543762 -163.527847290027353
-102.638132095336715 -14.030120849637512 -162.976600646960947
79.624425888061722 -17.040161132840637 -164.377098083484384
91.275495529175004 -15.351165771512512 -164.527519226062509
-117.966798782348434 -9.859985351590637 -163.483009338367197
-109.792352676391403 -14.491699218778137 -163.694229125964853
-2.786266326904101 -17.053680419950012 -160.444347381580087
79.250905990600785 -13.445129394559387 -164.187011718738290
71.913328170776566 -11.640045166043762 -164.088905334460947
80.549665451050004 -15.337905883817200 -162.989799499500009
-128.024934768676559 -10.847457885770325 -160.443656921375009
77.437833786010941 -12.477767944364075 -164.579139709460947
73.430562973022660 -9.497451782254700 -161.357959747302743
-158.898118972778121 -14.423965454129700 -162.337715148914072
8.696404695511060 -3.926040649442200 -169.879081726062509
26.618213653564649 -5.357772827176575 -164.789787292468759
1.222717761993604 -4.165985107450012 -161.051895141589853
23.006877899170117 -5.537109375028137 -158.734233856189462
73.488424301147660 -6.684082031278137 -164.461242675769540
16.164641380310254 -1.450607299832825 -161.801158905017587
-3.695477485656543 -4.037322998075012 -157.718776702869150
6.707673728466229 -7.372039794950012 -160.472797393787118
72.204710006714066 -2.377532959012512 -164.160995483386728
10.306478738784985 -2.274597167996887 -164.097785949695322
0.253754615783887 -1.706207275418762 -164.333473205554697
21.529046058654981 -1.942291259793762 -165.921737670886728
-160.245943069457809 -3.831161499051575 -165.325653076160165
63.272264480591019 2.444122314424988 -163.859367370593759
57.183954238891801 6.043334960909363 -158.084075927722665
65.448690414428910 -2.000930786160950 -164.246398925769540
-4.929548263549609 3.072784423799988 -161.916656494128915
64.434175491333207 0.878234863253113 -163.353401184070322
-66.666772842407028 4.978454589815613 -163.163177490222665
58.017492294311722 3.843048095674988 -163.939529418933603
-81.529771804809371 7.592864990206238 -163.456497192371103
-116.002763748168746 11.737854003878113 -164.752616882312509
-125.190874099731246 7.999664306612488 -163.633857727039072
53.353487014770707 7.046874999971863 -165.088432312000009
-125.353517532348434 8.240447998018738 -166.157974243152353
-101.994104385375778 10.173858642549988 -161.898593902576181
-108.877931594848434 12.533874511690613 -161.438323974597665
-76.541498184203903 9.774871826143738 -164.034957885730478
-103.800806045532028 14.221984863253113 -161.960426330554697
-116.881700515746871 17.482360839815613 -166.856300353992197
-139.329591751098434 22.664520263643738 -161.197677612292978
-8.113183975219531 20.777832031221863 -162.245811462390634
-164.150697708129684 19.489288330049988 -165.651496887195322
-7.412303924560351 28.935577392549988 -163.008934020984384
-151.830003738403121 22.325378417940613 -160.487228393542978
-145.535005569457809 28.471923828096863 -163.883468627917978
-162.779649734496871 32.553405761690613 -163.610527038562509
-7.077154159545703 34.494293212862488 -163.607803344714853
-123.053422927856246 38.211883544893738 -165.923156738269540
-150.915498733520309 41.256835937471863 -163.372802734363290
-136.831941604614059 36.009674072237488 -162.688415527332040
-127.747926712035934 35.549865722628113 -166.395355224597665
-1.074990272521777 39.634399414034363 -157.894134521472665
-118.740671157836715 38.475280761690613 -167.027961730945322
-133.921266555785934 40.655609130831238 -161.615962982166025
-108.614313125610153 40.787414550753113 -166.442169189441415
-71.887704849242965 43.143066406221863 -161.694744110095712
-53.596086502074996 42.169403076143738 -164.182586669910165
0.104809761047559 42.993774414034363 -164.450935363757822
-46.817834854125778 40.832580566378113 -162.360542297351572
-50.113637924194137 43.742431640596863 -161.250011444080087
-63.312135696410934 45.424041748018738 -161.817012786853525
-80.971277236938278 48.868316650362488 -162.629371643054697
-87.950395584106246 44.068969726534363 -161.323787689197275
-153.254762649535934 46.491363525362488 -162.720802307117197
-154.014772415160934 48.735046386690613 -164.517272949207040
-117.546854019164840 48.934417724581238 -166.311096191394540
-137.587694168090621 50.020111083956238 -163.773376464832040
-146.007799148559371 58.755126953096863 -165.836853027332040
-143.446397781371871 67.167297363253113 -165.911781311023447
55.472875595092972 -230.176050186185364 -161.535240173328134
24.275001525879102 -215.069118499783997 -164.665695190417978
49.458127975464066 -210.156791687039856 -159.657436370837900
-8.020468711852832 -178.518531799344544 -166.158775329578134
89.263319015503129 -179.655838012723450 -161.102428436267587
96.131559371948441 -178.804969787625794 -158.961776733386728
85.377386093139847 -179.321990966825012 -165.915443420398447
80.197156906128129 -175.569305419950012 -164.085090637195322
98.658582687378129 -169.842262268094544 -165.161773681628915
-88.688760757446090 -174.702026367215637 -160.121437072742197
75.268751144409379 -169.402595520047669 -163.479721069324228
-29.109369277953906 -167.537117004422669 -164.108764648425790
106.350057601928910 -158.899177551297669 -162.672805786121103
68.884981155395707 -154.411842346219544 -160.245853424060556
114.536603927612504 -151.121742248563294 -167.060104370105478
108.952810287475785 -146.363204956082825 -166.114730834949228
79.698331832885941 -144.155334472684387 -162.583824157703134
-72.817529678344528 -143.433715820340637 -161.945674896228525
61.720849990844926 -140.584213256864075 -162.680549621570322
114.470136642456254 -138.731140136746887 -160.031719207751962
54.411905288696488 -132.429977417020325 -163.384353637683603
87.258527755737504 -139.376686096219544 -161.563510894763681
48.978036880493363 -137.385536193875794 -162.366760253894540
111.605459213257035 -141.534027099637512 -162.200195312488290
54.894044876098832 -137.040260314969544 -162.142784118640634
114.598005294800004 -134.865097045926575 -167.214096069324228
117.480886459350785 -133.438323974637512 -165.341407775867197
-72.129831314086715 -130.793838501004700 -161.072196960437509
-75.677408218383590 -125.604034423856262 -161.267524719226572
51.231122970581254 -124.791259765653137 -165.581672668445322
121.104330062866410 -123.464324951200012 -163.976470947253915
120.973974227905472 -121.175537109403137 -162.115447998035165
-79.995248794555465 -118.000320434598450 -162.081016540515634
113.263929367065629 -119.000625610379700 -164.203804016101572
-52.091974258422653 -113.156051635770325 -167.015678405750009
-78.922700881957809 -117.684722900418762 -163.261772155750009
-65.294946670532028 -117.818145751981262 -163.074539184558603
-51.959211349487106 -118.180816650418762 -159.149902343738290
38.883865356445511 -114.685165405301575 -162.266059875476572
49.625547409057816 -110.140457153348450 -161.017768859851572
-65.904306411742965 -108.359893798856262 -162.540252685535165
35.985374450683793 -113.917709350614075 -160.710834503162118
118.934514999389847 -101.864166259793762 -162.313156127917978
-32.943590164184371 -96.659637451200012 -162.799011230457040
37.627216339111527 -96.022171020535950 -163.358947753894540
121.138364791870316 -97.076324462918762 -160.702236175525400
42.804220199585160 -102.121704101590637 -163.082511901843759
117.630041122436722 -103.969192504910950 -161.115066528308603
-45.099534988403121 -95.565795898465637 -163.011489868152353
-64.049524307250778 -93.996856689481262 -160.327560424792978
-47.882661819457809 -92.409912109403137 -163.246955871570322
-34.851331710815231 -79.991912841825012 -166.071975707996103
11.941260814666943 -89.043411254910950 -163.854652404773447
117.082754135132035 -91.285156250028137 -162.474456787097665
116.213056564331254 -85.177673339871887 -162.135192871082040
17.278099060058789 -87.459472656278137 -161.955131530750009
10.536683797836499 -83.604782104520325 -162.610298156726572
26.465156555175977 -89.644378662137512 -161.798065185535165
32.889949798584183 -89.230621337918762 -161.206047058093759
115.969366073608597 -79.178146362332825 -161.814674377429697
116.812253952026566 -77.089431762723450 -165.258651733386728
31.149757385254102 -70.506423950223450 -159.887817382800790
32.226776123047074 -81.076354980496887 -164.503341674792978
119.460790634155472 -82.814346313504700 -160.329044342029306
-21.895919799804492 -67.767562866239075 -161.481750488269540
117.447576522827347 -77.048751831082825 -162.433578491199228
24.765052795410352 -77.306030273465637 -162.978736877429697
28.858064651489453 -77.177185058621887 -162.359947204578134
115.773710250854691 -71.956451416043762 -162.389411926257822
33.971881866455277 -74.519943237332825 -161.608692169177743
119.517316818237504 -61.102508544950012 -161.503494262683603
-31.060655593871875 -67.255310058621887 -161.979904174792978
32.347015380859574 -73.795898437528137 -162.056777954089853
114.718755722046097 -60.956771850614075 -162.038009643542978
30.337751388550000 -66.340316772489075 -163.411804199207040
-144.649538040160934 -58.594375610379700 -161.464508056628915
-21.007415771484180 -55.621871948270325 -159.627025604236337
31.812253952026563 -60.003341674832825 -160.371761322009775
-106.542100906371871 -53.168762207059387 -164.156532287585947
-103.649164199828903 -53.711791992215637 -160.370510101306650
31.005186080932813 -56.373626709012512 -162.928749084460947
18.892387390136914 -59.888381958035950 -160.580024719226572
-19.680097579955859 -54.733306884793762 -159.986774444568368
-22.407251358032031 -55.748641967801575 -166.279357910144540
-20.783967971801562 -57.768875122098450 -162.855918884265634
22.031989097595410 -64.930114746121887 -160.448299407947275
-143.640352249145309 -49.993453979520325 -162.774459838855478
-138.140001296996871 -52.216629028348450 -162.450553894031259
-137.172166824340621 -46.739547729520325 -165.633857727039072
-15.701238632201953 -53.560684204129700 -161.551551818835947
20.854861259460645 -45.342926025418762 -160.227863311755868
106.078046798706254 -51.467193603543762 -161.330757141101572
-106.518136978149215 -46.683929443387512 -161.579521179187509
28.492547988891797 -46.542800903348450 -165.557060241687509
-8.105228424072070 -49.382278442410950 -161.400054931628915
-10.506959915160937 -46.211639404325012 -161.809448242175790
108.179136276245316 -45.268798828153137 -160.984485626208993
15.152579307556348 -45.628051757840637 -164.213890075671884
-14.757328033447070 -48.449874877957825 -160.755100250232431
-114.131929397582809 -41.947082519559387 -165.585945129382822
-126.975557327270309 -41.750961303739075 -162.851867675769540
-106.892213821410934 -40.083282470731262 -158.313674926746103
-134.960863113403121 -41.667633056668762 -165.464530944812509
24.727151870727734 -47.138504028348450 -161.964126586902353
101.033269882202347 -42.946472167996887 -163.358863830554697
-158.736284255981246 -43.610671997098450 -158.372203826892587
107.213811874389847 -42.604904174832825 -161.765819549548837
-14.420131683349414 -38.866241455106262 -165.984542846667978
101.802778244018754 -34.234664917020325 -160.104187011707040
95.277563095092972 -33.261779785184387 -163.530815124500009
19.347611427307324 -38.901245117215637 -163.989128112781259
26.969465255737500 -32.863418579129700 -161.730426788318368
20.033445358276563 -37.012283325223450 -159.537616729724618
-3.678578376769824 -22.482711792020325 -162.703628540027353
-87.231737136840621 -26.379104614285950 -164.477966308582040
-3.232663154601855 -32.599380493192200 -164.395576477039072
96.256971359253129 -28.452133178739075 -162.353393554675790
-86.350725173949996 -27.300521850614075 -164.680244445789072
-93.965349197387496 -23.769363403348450 -160.363723754871103
-87.260240554809371 -25.476455688504700 -163.200973510730478
95.428617477417191 -22.783569335965637 -163.712455749500009
-128.115800857543746 -19.858108520535950 -163.081665039050790
-125.261461257934371 -18.295394897489075 -166.497566223132822
-109.479578018188278 -20.171569824246887 -162.517837524402353
-105.942193984985153 -21.797683715848450 -160.027961730945322
-126.178300857543746 -17.804550170926575 -161.261299133289072
-104.511117935180465 -17.482955932645325 -169.146331787097665
-105.036378860473434 -16.926986694364075 -162.480491638171884
0.326628684997754 -20.219329834012512 -165.562057495105478
-8.751217842101855 -21.699432373075012 -164.630722045886728
6.197867751121716 -14.395202636746887 -160.458446502673837
-2.988357543945117 -17.851623535184387 -159.629272460925790
22.569364547729688 -11.301300048856262 -163.100418090808603
-11.682453155517383 -15.728347778348450 -160.789497375476572
-159.671968460082809 -22.764755249051575 -161.185218811023447
3.068216800689893 -11.370910644559387 -162.391601562488290
87.986112594604691 -13.532104492215637 -159.465789794910165
18.149850845337109 -11.164718627957825 -164.133651733386728
1.277770519256787 -10.058624267606262 -161.714466094958993
-149.707963943481246 -8.526336669950012 -160.545070648181650
-135.119035720824996 -14.604324340848450 -161.298301696765634
69.768110275268754 -8.851318359403137 -161.037220001208993
1.522763729095654 -10.718734741239075 -163.347198486316415
16.497722625732617 -14.094467163114075 -164.404640197742197
76.624769210815629 -14.461212158231262 -164.420989990222665
84.143918991089066 -10.421432495145325 -162.658462524402353
78.218145370483597 -3.362838745145325 -163.394142150867197
5.612137675285535 -9.137069702176575 -165.183372497546884
65.217870712280472 -6.791107177762512 -160.674411773669931
-11.837190628051562 -5.129379272489075 -164.978675842273447
-8.110428810119434 -4.462081909207825 -160.188346862781259
15.400824546814160 -5.463012695340637 -162.310310363757822
71.972875595092972 -6.845306396512512 -165.425369262683603
72.612585067749222 -4.078277587918762 -160.843566894519540
56.786993026733597 1.364196777315613 -162.548233032214853
68.318166732788285 -2.012893676785950 -165.368705749500009
-8.353745460510059 4.802032470674988 -166.843322753894540
-76.459207534789840 9.224029540987488 -160.059276580798837
-69.707735061645309 7.993957519503113 -160.612125396716806
51.439500808716019 3.010620117159363 -165.096862792957040
-141.975282669067184 5.613372802706238 -163.859573364246103
43.165544509887894 11.447479248018738 -162.371162414539072
-84.879251480102340 6.930114746065613 -166.062881469714853
-149.120058059692184 9.633697509737488 -159.112628936755868
-133.202562332153121 8.277069091768738 -156.695732116687509
52.329133987426957 8.746765136690613 -162.188858032214853
-117.858713150024215 12.852111816378113 -158.913322448718759
-109.734346389770309 10.339569091768738 -162.920013427722665
-85.237306594848434 12.109558105440613 -158.724151611316415
-6.550275802612109 5.532440185518738 -159.327495574939462
39.029081344604691 12.415588378878113 -162.074028015125009
32.090295791626176 14.664123535128113 -159.871376037585947
-151.844316482543746 15.238952636690613 -158.422134399402353
-107.607599258422653 17.662353515596863 -165.253463745105478
-6.783528327941699 17.089019775362488 -162.135147094714853
-125.667650222778121 20.343872070284363 -162.460968017566415
-7.016875267028613 25.446716308565613 -161.220825195300790
-157.789766311645309 27.431457519503113 -161.956863403308603
-0.210679054260059 34.626525878878113 -163.353553771960947
-153.816408157348434 42.715789794893738 -163.001571655261728
-156.778169631957809 32.799011230440613 -164.502616882312509
-135.547685623168746 40.151794433565613 -162.865318298328134
-163.113786697387496 39.557861328096863 -164.628410339343759
21.099089622497754 43.161315917940613 -164.544647216785165
-96.113435745239059 41.552703857393738 -163.574485778796884
-80.155092239379684 41.035491943331238 -158.521099090564462
-160.741273880004684 39.484832763643738 -159.962261199939462
-84.969942092895309 39.026428222628113 -166.354331970203134
-146.679216384887496 43.404907226534363 -163.119949340808603
-68.450937271117965 48.672851562471863 -163.424743652332040
-63.609437942504684 43.781860351534363 -161.843757629382822
-75.511873245239059 46.360534667940613 -163.539421081531259
3.312640666961865 44.107116699190613 -159.839244842517587
-81.006097793578903 43.677124023409363 -162.505104064929697
-91.985818862914840 45.950683593721863 -163.947708129871103
-109.662027359008590 47.658660888643738 -162.926071166980478
-109.592081069946090 47.797760009737488 -159.969764709460947
-127.180635452270309 47.170501708956238 -162.023590087878915
-135.834886550903121 55.754089355440613 -162.888496398914072
-137.278490066528121 66.696929931612488 -164.118705749500009
31.482877731323438 -229.707017898587708 -160.066181182849618
39.925687789917191 -228.442068100003723 -161.254238128650400
36.963445663452347 -226.595361709622864 -163.893714904773447
51.754568099975785 -224.258300781278137 -159.960235595691415
32.493089675903519 -213.205642700223450 -161.823852539050790
-67.344392776489059 -197.951995849637512 -160.259136199939462
97.234457015991410 -179.291633605985169 -157.523532867419931
-10.081132888793750 -177.391105651883606 -160.053245544421884
110.179891586303910 -171.904525756864075 -160.589603424060556
102.647497177124222 -169.203773498563294 -165.411712646472665
76.061056137085160 -166.353034973172669 -163.091476440417978
77.805036544800004 -162.230384826688294 -164.928817749011728
-37.136667251586715 -162.540374755887512 -165.105392456042978
68.709032058716019 -162.462226867703919 -165.007301330554697
-86.907701492309371 -156.722328186063294 -162.334823608386728
-41.698125839233199 -159.732574462918762 -159.678348541248056
-48.358427047729293 -157.435089111356262 -168.505538940417978
108.525251388550004 -147.256942749051575 -166.996681213367197
66.740945816040238 -152.606979370145325 -164.820510864246103
73.401968002319535 -153.847244262723450 -161.019603729236337
-88.232294082641403 -148.122711181668762 -156.677013397205087
115.382818222046097 -151.740890502957825 -163.061897277820322
51.603750228882035 -145.942924499539856 -160.479839324939462
108.929098129272660 -146.722290039090637 -161.396320343005868
114.253187179565629 -138.838661193875794 -159.601650238025400
108.786367416382035 -140.299316406278137 -161.986145019519540
81.385862350464066 -144.158393859891419 -163.902816772449228
94.813512802124222 -138.312316894559387 -163.722671508777353
57.509359359741410 -133.693962097196106 -161.536468505847665
118.145093917846879 -141.235298156766419 -159.510902404773447
53.716543197632035 -139.473014831571106 -164.298263549792978
48.065805435180863 -143.332496643094544 -159.925079345691415
120.259382247925004 -134.479568481473450 -162.025321960437509
-71.052690505981246 -135.392524719266419 -159.159225463855478
53.595685958862504 -132.032142639188294 -160.925495147693368
42.255468368530472 -129.861114501981262 -163.661117553699228
112.965749740600785 -134.747230529813294 -159.386901855457040
46.901174545288285 -133.405883789090637 -158.953754425037118
-80.576097488403121 -132.206611633328919 -161.343170166003915
-88.085435867309371 -130.280288696317200 -158.873748779285165
111.556951522827347 -125.721389770535950 -164.755088806140634
-87.288232803344528 -126.463562011746887 -163.030364990222665
46.465368270874222 -123.653671264676575 -163.712135314929697
44.457868576050004 -124.160598754910950 -161.398555755603525
-75.936960220336715 -120.876129150418762 -161.320053100574228
39.875429153442582 -110.245834350614075 -159.928436279285165
118.355306625366410 -113.626327514676575 -162.952026367175790
-45.155157089233199 -109.009887695340637 -161.364521026599618
-80.764970779418746 -113.463287353543762 -160.500087738025400
45.436235427856644 -113.286148071317200 -164.869949340808603
-81.623003005981246 -109.224807739285950 -157.458900451648447
-81.421434402465621 -105.501312255887512 -163.674766540515634
-42.177518844604293 -108.262939453153137 -162.793434143054697
-63.373384475707809 -105.570220947293762 -159.799354553210947
-43.212633132934371 -111.603454589871887 -160.667606353748056
122.911252975464066 -107.281738281278137 -159.018032073962900
-65.739976882934371 -108.298645019559387 -163.002990722644540
44.016881942749222 -113.644866943387512 -161.970306396472665
-71.209047317504684 -104.966323852567200 -160.515754699695322
-65.842416763305465 -109.341979980496887 -161.270477294910165
-83.903680801391403 -104.982696533231262 -159.577316284167978
-46.391862869262496 -98.026916503934387 -159.485267639148447
38.922430038452347 -99.150848388700012 -157.807167053210947
35.008472442627152 -95.422897338895325 -159.887390136707040
26.629344940185742 -100.611343383817200 -157.044406890857431
120.314527511596879 -98.537429809598450 -160.961917877185556
-86.029283523559371 -92.643447876004700 -160.032077789294931
20.486983299255566 -92.573501586942200 -163.037155151355478
-64.450212478637496 -91.779602050809387 -160.941993713367197
30.957725524902539 -95.180664062528137 -160.604568481433603
-41.681673049926559 -89.639999389676575 -160.464710235583993
17.052124023437695 -91.718368530301575 -160.179363250720712
22.590939521789746 -86.568038940457825 -163.817939758289072
25.277883529663281 -81.073089599637512 -165.636383056628915
-41.431795120239059 -82.511230468778137 -163.367156982410165
-31.701002120971484 -90.199829101590637 -160.505229949939462
-38.897642135619918 -84.021301269559387 -161.789936065662118
-96.220674514770309 -73.207061767606262 -161.926063537585947
29.207410812378125 -70.903030395535950 -162.473098754871103
-27.306901931762500 -69.071060180692200 -161.181743621814462
22.907009124756055 -66.656082153348450 -165.036148071277353
-136.183336257934371 -69.464294433621887 -161.429344177234384
-24.782024383544726 -72.205139160184387 -158.522243499744150
-147.564683914184371 -67.412841796903137 -165.847045898425790
30.871250152588086 -63.116165161160950 -157.307312011707040
-25.464612960815234 -73.551177978543762 -162.391777038562509
-100.232126235961715 -67.455184936551575 -159.789413452136728
-99.677362442016403 -61.622833251981262 -165.415107727039072
-22.569049835204883 -59.792221069364075 -157.140823364246103
-16.170728683471484 -63.246902465848450 -165.246047973621103
21.408297538757520 -55.663085937528137 -160.448123931873056
24.388839721679883 -47.713226318387512 -159.030574798572275
21.296421051025586 -57.983520507840637 -161.269149780261728
-135.439943313598434 -57.724960327176575 -160.411918640125009
28.996099472046094 -54.979858398465637 -158.039192199695322
14.969436645508008 -48.204528808621887 -161.215442657458993
-129.684663772582809 -50.750534057645325 -159.959289550769540
-106.925828933715621 -49.731506347684387 -161.057590484607431
22.303721427917676 -43.741348266629700 -159.775661468494150
-108.950357437133590 -48.356140136746887 -160.327766418445322
-100.361398696899215 -52.955337524442200 -156.794364929187509
-157.921800613403121 -45.125259399442200 -162.695747375476572
-16.900485992431445 -44.973724365262512 -160.348297119128915
20.315386772155957 -44.682617187528137 -159.878402709949228
-135.585939407348434 -41.225646972684387 -161.651973724353525
-128.389085769653121 -38.810577392606262 -163.221755981433603
-12.710233688354297 -37.682800292996887 -159.708175659167978
-4.500933647155566 -40.421401977567200 -162.387107849109384
-7.376281738281055 -39.023925781278137 -161.928874969470712
-133.411958694457809 -40.734848022489075 -164.577331542957040
-9.140378952026172 -32.061447143582825 -161.647666931140634
-3.075182914733691 -30.674896240262512 -164.896553039539072
24.947340011596875 -33.905120849637512 -158.852764129626962
-7.457636833190723 -33.473129272489075 -164.596038818347665
17.892900466919141 -34.868865966825012 -161.571884155261728
-2.989563941955371 -29.352249145535950 -162.209770202625009
-13.601713180541797 -32.983032226590637 -158.845024108875009
20.075821876526074 -23.917388916043762 -165.626449584949228
5.830987691879468 -25.153457641629700 -166.066673278796884
18.598011970520215 -23.712326049832825 -158.018024444568368
1.355661869049268 -18.045272827176575 -163.302940368640634
-151.401567459106246 -19.834609985379700 -162.070373535144540
88.242467880249222 -24.689529418973450 -163.497795104968759
-127.864702224731246 -20.734466552762512 -159.624126434314462
-127.627000808715621 -21.950546264676575 -163.072692871082040
-1.005969047546191 -19.689208984403137 -162.085083007800790
15.948850631714063 -11.061889648465637 -161.196937561023447
-149.508546829223434 -15.568084716825012 -161.143894195544931
95.451131820678910 -24.767745971707825 -159.990203857410165
5.247424721718030 -19.160018920926575 -160.220851898181650
8.037643790245252 -21.923324584989075 -162.037918090808603
81.427236557007035 -15.435623168973450 -163.866218566882822
8.018421769142346 -10.029861450223450 -159.236427307117197
-7.312025070190234 -17.773071289090637 -163.233001708972665
-119.111833572387496 -10.742874145535950 -159.930335998523447
3.131071805954175 -8.008865356473450 -161.120830535876962
9.864853620529370 -12.915496826200012 -159.255237579333993
73.429952621460160 -6.512954711942200 -159.503810882556650
-150.847139358520309 -6.837600708035950 -162.691284179675790
-5.104735374450488 -0.202011108426575 -160.868297576892587
-161.694856643676559 -6.272888183621887 -163.709197998035165
17.248736381530957 -2.791259765653137 -158.740219116199228
-157.184053421020309 -6.091583251981262 -162.216850280750009
-153.380769729614059 1.030563354464050 -162.820945739734384
64.420270919800004 0.451385498018738 -161.260913848865243
69.666021347046097 -2.119567871121887 -162.635543823230478
63.544534683227738 -0.301574707059387 -161.854263305652353
59.124708175659379 4.146057128878113 -161.262420654285165
-148.059312820434371 -1.014434814481262 -162.220436096179697
-149.142900466918746 3.418029785128113 -159.200973510730478
-5.968592643737598 4.531890869112488 -164.170028686511728
-144.014177322387496 1.704223632784363 -161.084960937488290
27.024257659912305 6.375640869112488 -162.764442443835947
-162.361787796020309 6.029968261690613 -165.997261047351572
-160.252580642699996 3.299835205049988 -159.885520935046884
-74.768465042114059 3.958251953096863 -162.835708618152353
-162.107362747192184 14.791900634737488 -161.128551483142587
-78.048288345336715 11.791046142549988 -161.056056976306650
49.888055801391801 8.441192626924988 -160.525939941394540
29.615749359131055 11.465942382784363 -164.621093749988290
-151.349000930785934 16.863433837862488 -162.278366088855478
-93.506517410278121 14.690032958956238 -156.113704681384775
46.600587844848832 10.978790283174988 -161.579151153552743
-97.501489639282028 14.115600585909363 -167.571701049792978
-146.792985916137496 19.948516845674988 -157.355094909656259
-97.873788833617965 13.567291259737488 -160.439605712878915
-160.523897171020309 14.645843505831238 -163.402702331531259
-105.793825149535934 18.399597167940613 -162.510673522937509
-145.975313186645309 20.777008056612488 -163.570777893054697
-151.262376785278121 18.582733154268738 -159.997211456287118
-158.744234085082809 18.779174804659363 -160.913799285876962
-156.764238357543746 17.331237792940613 -159.880592346179697
-158.411073684692184 20.739898681612488 -161.558673858630868
-158.404314041137496 17.720581054659363 -162.149398803699228
33.105937957763871 20.487945556612488 -162.625144958484384
-142.524202346801559 18.706817626924988 -164.741523742664072
-142.519166946410934 39.249420165987488 -161.141521453845712
32.026151657104691 31.652709960909363 -162.269126892078134
-4.367682456970019 29.651336669893738 -163.088706970203134
-118.544267654418746 39.477874755831238 -160.318424224841806
-129.088960647582809 41.149658203096863 -162.531349182117197
-127.209123611449996 43.586608886690613 -160.604736328113290
-119.594530105590621 40.984436035128113 -162.143920898425790
-107.112840652465621 44.994995117159363 -160.431053161609384
-98.075204849242965 40.665557861299988 -158.247821807849618
16.554276466369824 47.665924072237488 -164.233367919910165
-77.753969192504684 45.071624755831238 -162.245033264148447
-141.869890213012496 43.396942138643738 -162.240295410144540
-94.475015640258590 45.842102050753113 -161.746032714832040
-122.028261184692184 46.971679687471863 -159.178573608386728
16.856907844543652 43.386810302706238 -163.929588317859384
-104.807420730590621 44.197631835909363 -156.601573944080087
10.142739772796826 48.382995605440613 -161.735000610339853
-135.966936111449996 43.862335205049988 -161.161666870105478
-145.749910354614059 51.004913330049988 -162.150032043445322
-150.835329055785934 69.188415527315613 -161.253990173328134
-148.041292190551559 66.880187988253113 -160.852169036853525
55.581029891967972 -220.206863403348450 -163.336387634265634
31.010759353637891 -209.400825500516419 -161.443008422839853
38.516407012939652 -208.266410827664856 -162.327018737781259
-37.224409103393356 -197.504566192655091 -163.240707397449228
-5.077213287353320 -182.712646484403137 -159.373805999744150
101.922765731811722 -176.383827209500794 -162.185729980457040
76.261823654175004 -175.220413208035950 -157.057785034167978
-16.617496490478320 -170.549980163602356 -161.079437255847665
-90.470071792602340 -158.688911438016419 -164.982933044421884
-34.945261001586715 -162.428291320828919 -161.191982269275400
69.100473403930863 -163.388076782254700 -160.312408447253915
69.770349502563676 -158.875747680692200 -163.361747741687509
61.012338638305863 -157.271949768094544 -158.817562103259775
-51.379365921020309 -154.713546752957825 -159.993377685535165
74.337667465210160 -155.530220031766419 -157.300006866443368
51.195093154907426 -146.980453491239075 -164.118080139148447
75.999738693237504 -150.150276184110169 -162.537750244128915
-54.757310867309371 -149.009178161649231 -159.270103454578134
57.670907974243363 -151.676025390653137 -162.786300659167978
53.200872421264847 -146.477035522489075 -162.556976318347665
110.834920883178910 -144.244216918973450 -158.196006774890634
-58.991518020629684 -146.173736572293762 -160.933086395251962
118.099836349487504 -144.422645568875794 -160.285236358630868
-71.520547866821090 -143.963088989285950 -163.014022827136728
62.003328323364457 -139.885780334500794 -163.444587707507822
55.502294540405472 -144.169158935575012 -159.195617675769540
99.327772140503129 -141.005020141629700 -159.117328643787118
91.986524581909379 -138.192855834989075 -159.372135162341806
62.301126480102738 -140.324478149442200 -160.780254364001962
-68.816125869750778 -134.011001586942200 -161.555122375476572
-69.343339920043746 -130.156555175809387 -160.181404113757822
-72.907220840453903 -126.757263183621887 -162.128150939929697
-85.702028274535934 -126.659301757840637 -165.553047180164072
112.362783432007035 -128.313812255887512 -155.861331939685556
-80.912965774535934 -126.108398437528137 -163.216361999500009
-69.220300674438278 -123.849029541043762 -157.409042358386728
117.025190353393754 -128.781013488797669 -159.545104980457040
-54.134363174438278 -127.032386779813294 -153.680744171130868
121.190046310425004 -113.388824462918762 -163.972877502429697
117.522092819214066 -115.410568237332825 -162.057273864734384
114.761739730835160 -119.033416748075012 -161.707336425769540
-85.993455886840621 -107.369277954129700 -161.349494934070322
-39.582807540893356 -103.279342651395325 -160.773208618152353
-71.703790664672653 -100.640487670926575 -158.892044067371103
-61.884820938110153 -96.133941650418762 -160.847126007068368
-62.822237014770309 -97.176696777371887 -159.488609313953134
-47.715108871459762 -101.468688964871887 -160.176551818835947
-39.487665176391403 -99.087203979520325 -164.431549072253915
23.839944839477734 -98.596145629910950 -160.809276580798837
-86.701654434203903 -102.271026611356262 -157.936622619617197
-38.267152786254684 -97.810928344754700 -159.429710388171884
-44.721639633178512 -97.429443359403137 -155.065517425525400
-34.664209365844528 -90.231018066434387 -159.042854309070322
34.964733123779496 -83.096084594754700 -162.785285949695322
-42.593042373657028 -94.116333007840637 -161.113834381091806
-92.995958328246871 -95.701309204129700 -156.937530517566415
-37.902666091918746 -88.275970459012512 -158.010105133044931
33.169033050537308 -96.817626953153137 -162.591033935535165
-91.101495742797653 -82.138412475614075 -165.552772521960947
30.161010742187695 -87.328567504910950 -162.673576354968759
-100.245553970336715 -75.325042724637512 -158.245510101306650
-93.646158218383590 -81.491027832059387 -161.110347747791025
29.628770828247266 -80.050186157254700 -160.522087097156259
33.614395141601761 -77.131378173856262 -159.030551910388681
-100.894754409789840 -71.520324707059387 -162.904640197742197
-134.681398391723434 -70.600082397489075 -158.901500701892587
-12.413434982299609 -55.648971557645325 -161.110256195056650
-20.000251770019336 -63.362457275418762 -159.947635650623056
-107.914346694946090 -58.171585083035950 -162.007179260242197
-136.381364822387496 -58.154708862332825 -156.610858917224618
-95.987543106078903 -63.510833740262512 -158.227485656726572
-150.602190017699996 -54.663009643582825 -161.034545898425790
-123.816438674926559 -49.908203125028137 -164.855049133289072
-125.798982620239059 -48.956970214871887 -162.701385498035165
-12.414276123046680 -55.601455688504700 -159.050392150867197
-112.910554885864059 -47.128677368192200 -161.373985290515634
-109.594865798949996 -46.135818481473450 -157.621948242175790
-19.497940063476367 -50.456390380887512 -162.604583740222665
-146.917238235473434 -47.271652221707825 -158.557083129871103
-124.813127517699996 -40.281265258817200 -162.604148864734384
-117.523691177367965 -40.598037719754700 -158.755401611316415
25.542427062988477 -43.130813598660950 -162.596092224109384
-154.583070755004684 -41.969635009793762 -160.297279357898447
18.621429443359570 -29.684921264676575 -159.733715057361337
21.335439682007031 -30.270736694364075 -161.690010070789072
-9.608652114867969 -35.969345092801575 -157.315490722644540
2.361876964569287 -28.594848632840637 -160.839626312244150
-162.628786087035934 -34.821533203153137 -158.314304351794931
-151.695512771606246 -32.184341430692200 -157.546840667712900
-87.314676284789840 -26.583084106473450 -160.556369781482431
-91.232080459594528 -22.269653320340637 -162.256141662585947
-153.573289871215621 -19.947311401395325 -161.258701324451181
-99.103967666625778 -25.743606567410950 -159.002819061267587
-4.675620079040332 -30.770797729520325 -159.152008056628915
-120.056833267211715 -22.740554809598450 -162.355484008777353
-134.738130569457809 -21.009811401395325 -161.437816619861337
4.268528699875073 -23.640457153348450 -162.100006103503915
-126.929368972778121 -20.278289794950012 -159.242092132556650
-116.362573623657028 -21.838546752957825 -164.584083557117197
-106.962930679321090 -20.279098510770325 -162.745147705066415
7.705742716789441 -16.801452636746887 -156.115234374988290
-99.895799636840621 -14.333938598660950 -159.314853668201181
-153.078371047973434 -22.135467529325012 -155.780731201160165
-139.296709060668746 -18.276672363309387 -159.898178100574228
-158.042131423949996 -19.922134399442200 -160.230525970447275
-0.565265178680225 -18.248001098660950 -160.184547424304697
-1.043252468108935 -12.364685058621887 -160.841453552234384
85.832777023315629 -19.357467651395325 -162.756141662585947
7.254577726125913 -15.429382324246887 -162.547218322742197
-135.625139236449996 -8.849349975614075 -160.585739135730478
-6.871976852416797 -15.760940551785950 -159.166923522937509
81.452634811401566 -16.797439575223450 -160.935886383044931
82.045461654663285 -11.745254516629700 -161.042819976794931
-127.221361160278121 -12.564132690457825 -159.392593383777353
-150.021898269653121 -16.626861572293762 -163.185882568347665
-106.837884902953903 -12.066726684598450 -159.445919036853525
-117.369142532348434 -9.360885620145325 -156.695163726794931
-156.344408035278121 -10.176376342801575 -159.511512756335947
-152.743623733520309 -9.337432861356262 -161.117813110339853
-139.379762649535934 -10.860687255887512 -157.238967895496103
-5.396369934081836 -9.596481323270325 -159.717891693103525
2.151164531707959 -4.456314086942200 -160.054630279529306
-153.381807327270309 -4.357360839871887 -159.287887573230478
12.825913906097608 -6.731979370145325 -161.521305084216806
10.204974651336865 -8.273803710965637 -161.387981414783212
-152.745347976684371 -6.202743530301575 -160.446144103992197
24.139394760132031 -2.664413452176575 -164.369224548328134
58.127321243286332 0.483383178682800 -162.942886352527353
57.928640365600785 -0.482040405301575 -162.890922546375009
-8.651870727538867 2.003601074190613 -161.738040924060556
55.526155471801957 4.288696289034363 -159.554157257068368
-154.218080520629684 5.084350585909363 -157.708541870105478
-151.846391677856246 2.439147949190613 -160.951824188220712
-153.232789993285934 4.512542724581238 -164.106880187976572
62.015031814575394 3.850250244112488 -160.470741271960947
-84.977815628051559 7.804138183565613 -159.606784820544931
-117.659456253051559 9.368316650362488 -159.934207916248056
