# This PCD file was generated using the MATLAB® pcwrite function
# from Computer Vision Toolbox®.
# .PCD v.7 - Point Cloud Data file format
VERSION .7
FIELDS x y z
SIZE 8 8 8
TYPE F F F
COUNT 1 1 1
WIDTH 783
HEIGHT 1
VIEWPOINT 0 0 0 1 0 0 0
POINTS 783
DATA ascii
15.264652359978768 -64.218387261101597 -180.741397880206875
19.193845460000766 -64.851106254712903 -183.474757390825971
-33.096081234017404 -66.618082295238807 -188.376433960307708
-28.993551019530329 -67.433586500141573 -183.462577722291741
-146.394088612385161 -68.876846502054249 -194.237567677665993
15.677075332938294 -67.337692309821435 -192.927880210901606
-25.560789415217378 -68.156336156245402 -190.926627140219495
-121.215222570688752 -66.009551811959199 -199.220777724202378
15.594024805024922 -66.985514973859154 -196.082368658283741
-30.160919604011781 -68.956734047202346 -197.468947574794328
-123.475320331103632 -69.668749760770652 -204.413241341652281
-22.928036410286957 -68.097091205388608 -197.452192750998989
10.641742554529259 -69.049654556106148 -199.015539612189428
-18.716204815316267 -69.796907706261138 -202.149817471410387
-115.412075581871164 -66.141828302608303 -210.323725687503838
8.013387706169876 -66.406105509119655 -205.900277082406262
-161.538384113529560 -65.561425192884727 -214.124712533702649
-148.382989636242854 -69.275097550603945 -217.608368794653444
-25.853253494239851 -66.732918381236345 -208.603495548055008
-22.800252750403097 -69.564229594726086 -206.853395221358426
-145.190600141884886 -69.190922780848908 -217.823364453726782
-170.205154340565429 -66.978845241239256 -215.662534321923260
12.745917638255364 -68.574940721614169 -208.036133584048031
-17.565548053667392 -66.105770504988428 -211.262431232740113
-11.746217118792877 -64.043364723909733 -212.855361908687684
-155.189515474776329 -67.641708395439920 -221.467252912012782
-17.764189295489182 -64.905821062491839 -212.730324427279157
14.428653347406566 -69.471649088176065 -218.081015249000188
-12.129144232996062 -65.643659057779757 -219.879015135561360
3.568611434528169 -66.670408553682904 -218.275450844442844
-16.084645318921751 -64.658393292351619 -221.528621679809788
-101.031892976419215 -67.680628006788552 -224.747079945482227
-161.990030152467881 -69.265885093827350 -228.575074924048153
7.781772593635850 -67.054859111453780 -218.562471033927210
-100.813234331603638 -70.548270951429672 -228.667708483544004
79.478579818242054 -67.399629719818435 -220.610890376791446
-153.211022570850986 -68.515967717527133 -231.834107502642468
-129.304184255542168 -64.332013827871037 -230.440350986039789
5.563812150413710 -65.059727664543260 -223.090151359650719
-161.024618217085617 -69.203243647889252 -235.427153327067600
-136.391307393159337 -69.095178820534869 -231.628041710453289
-135.847366604478083 -68.504184390522738 -232.568012212336782
-126.915979792540696 -67.489626294389822 -235.069981005129108
-115.206792033937262 -71.591727805944998 -231.666929354108447
-5.427290697897668 -66.482440697231667 -226.934923768336148
0.160607161653630 -63.532708320752107 -224.216287960156336
-168.079215407607023 -69.106597039828415 -234.787294786883450
-11.128489749453962 -67.768539331171894 -233.783022070098099
-1.074460984256056 -64.961083750441972 -230.891538056441931
65.924972948613373 -61.359873615764428 -229.180083806316560
-12.551259377722978 -67.629135477680833 -235.438747757979684
73.389220684738248 -63.660154508847398 -228.717737868570026
-1.011318248613158 -64.604302961082354 -236.121129131593818
-4.466431688762007 -64.550152484561750 -234.861247803217168
-13.461352821753842 -63.654248397193612 -240.399709011778157
-160.397373454558817 -69.997873191277122 -248.847254404916868
-2.987504278019621 -68.306540479384068 -238.670012119635004
-169.329032646027287 -67.746775709782725 -248.570263569156452
57.450173217007574 -65.261337199779675 -243.695425307474977
-158.675923886587100 -67.745891032611951 -250.595383767320129
12.880755258726680 -64.533179131569440 -244.835970132385654
57.148101766047716 -64.916545135574552 -242.327005304298240
-163.403214601894518 -64.522998530211922 -256.480095470157494
-163.782546201793195 -67.381252873912501 -254.894222201912299
15.971130457331256 -62.732061964088111 -245.803133717281867
49.480111771251401 -64.467273766189720 -242.982211578537431
22.619032262709251 -68.557213326804614 -251.687712189102768
-17.469822764080611 -66.052164459713268 -253.185528184687115
43.544349076268844 -64.108221418313960 -249.206357579683385
-165.578072772931421 -64.699016501675928 -260.286847495541338
38.027632568092166 -64.666364340889146 -249.805999307746674
-154.718023220856367 -70.912419524419477 -263.440415002212717
-160.907212328264080 -66.944490108488935 -257.929566837922948
-145.544187559918669 -69.050317467304453 -262.641282996308462
-88.192894196688158 -67.708641523493938 -255.678319759276377
-129.911923400302044 -67.543963391686901 -262.043344364360962
-97.609961758112064 -66.313328853920410 -256.535316263374114
40.037492279362525 -64.084185889443603 -256.713882074985293
-13.063128142435041 -64.882293080705793 -258.134832873431208
-143.289822508466216 -70.173326753113187 -265.872604522369045
-133.382430231772304 -68.063341073009767 -264.265569711330954
-116.743003895780475 -69.131654652474879 -263.824949142379467
-114.844429520795131 -65.785597250188573 -261.681536435116811
35.278162456478270 -62.948783931149741 -257.028592578266398
-98.276345308925158 -67.081952489032062 -264.558141197336738
-158.747429617592104 -67.390557069124654 -268.555483667112298
-163.904947190072676 -67.531356892605402 -272.441134489086608
-156.308295324395260 -69.572935305655335 -269.568268317798015
-164.091736352872061 -67.592582138987481 -268.255704101235153
-154.460092315248772 -68.317507564083968 -270.328192006153188
26.600128064148862 -64.051303349894425 -258.091627986783067
26.501075711417965 -65.527572908800394 -263.611777064657588
-14.443757727961795 -64.558527351905909 -270.328723209804423
-153.267469132805786 -65.665857906138939 -286.183810124385502
-11.969662414782420 -63.756815375541848 -275.582390512538268
-134.709910940907946 -67.648627519773910 -290.503973317182954
-143.287409648788127 -65.212385743441459 -297.396845932271674
-108.818167072316385 -66.851180587343237 -299.308413780988928
12.538233089656487 -66.288594343843201 -291.355158282227308
-85.064071600597487 -69.457756915416425 -292.407590526257536
-152.381985369431646 -68.207578853141996 -299.608288202426991
-98.850323694002299 -64.721879006983229 -296.984891508179430
-1.041305443020271 -64.256155324793568 -290.625541538946720
-145.874950235976002 -70.104828651007693 -300.884846636772409
-101.714480509738877 -64.202177377270431 -294.476241522032524
-142.198800503591144 -63.544142391155781 -300.273600785544602
0.044877963448833 -64.267884984441011 -292.851284466508730
-133.506142576469443 -68.758883667499376 -301.671370819826734
-113.913458892910256 -67.673118999457202 -298.263930984666217
-127.617996405432734 -67.953570687640280 -300.203929627801415
-152.214025393554209 -63.804088769904197 -308.875466904443897
-145.882685873929603 -62.863460519449482 -311.262947225513983
-142.665321838245916 -67.550019718347954 -319.787911728222298
29.474033813652941 -66.945304424168825 -31.419993321241890
-40.733901418018405 -71.679410065408433 -53.977040288809711
78.940034557557468 -65.556220116877611 -59.046010826038994
84.555793679571110 -67.285777726735063 -65.462321755723138
57.809548539002122 -69.875037513067539 -72.767716533956445
-109.093147555321849 -72.239651528082135 -92.754032849963536
43.793831048614116 -66.883457347998316 -84.328056681280046
47.593726993547513 -66.298697315801149 -89.622669592926556
-64.130290099933845 -68.658106884526333 -94.147935906603379
43.863934799655340 -69.079237415542053 -88.501567197652960
53.163790325346326 -65.992852939314005 -91.027101361510617
58.022976975945440 -69.562950700259137 -88.932008468973166
36.569190306456569 -68.298692239263701 -93.821101570698616
35.469117128524239 -66.001561477896445 -96.282461759924374
92.313132989311356 -67.996720480039230 -92.892682187711841
-77.289418970718160 -65.591560374797623 -103.959204876779197
-85.410290804558699 -69.025313479157703 -107.418816134327884
45.240064147314015 -67.258225707559347 -101.305876418621992
59.366457182606851 -68.734647704444228 -97.706863282376474
-79.379180115047475 -65.987794495739635 -107.608248141833911
-86.935757686933968 -69.806680317352743 -112.506578796909295
-78.653681450226074 -70.535822430009929 -110.935378223656514
84.527922855056289 -67.218925718882630 -106.179897446602183
100.285750167173774 -65.034284487541512 -101.540642483308872
35.555351328176471 -63.990624762103550 -109.013046980896846
39.902734222247389 -70.937585040367139 -110.237350837803092
-89.187097359799779 -69.654090743065069 -111.477452052434217
98.676287070044623 -64.493685531859200 -104.832378912171777
103.132795064330338 -65.187139111238480 -103.647934473943067
99.903726119845231 -64.242156435098678 -112.191768841952424
-90.499400421394981 -69.647220822217918 -123.575858760690593
-85.909099189646241 -72.154013342467920 -123.346837896449415
-66.042889846603032 -70.054413697982767 -131.127906474942051
105.459980574074052 -66.466508362187156 -124.151707508677063
-89.361605625703021 -70.053444895206553 -134.793032412676865
-60.880107800762161 -68.816582245396049 -132.224415723999414
-69.319771616225594 -73.082197466252964 -132.757455069903870
-93.674781246936931 -69.288955845171813 -136.989335092973079
-81.751470720278533 -71.820635183284949 -137.172115101669107
-83.134527588856400 -65.064422962362030 -137.505594162323035
-82.369998722734024 -66.325129401830083 -142.573716003739605
-67.659946361431466 -68.413349554316326 -139.883367475133468
-54.460218540060410 -65.024389490398491 -142.050168081398084
-78.061009797960565 -69.016844837173508 -146.453974549156214
13.115416619881508 -65.074531462310190 -144.477503359703746
-78.078972933567513 -68.973435533261650 -148.070406717637383
-51.175366190549227 -69.096717846203305 -148.110796862787481
-96.498511580314812 -67.665767872665384 -152.549758335470017
20.118073463909084 -70.231239228029480 -150.937968559960950
-53.225103860180639 -64.559663320755604 -155.364759598731240
-50.733076037599588 -66.082553342800963 -160.556013005165397
20.617515251523308 -66.270490128103674 -156.761409555669616
17.660279547489466 -65.538842276582727 -163.511362998897596
22.561563904635072 -65.178366999106373 -168.076219433576938
14.755871870186947 -63.116704333468427 -173.327859967300299
20.723419588012060 -65.523704063343132 -173.350534306618130
-153.244868849307323 -72.101407245229296 -184.021428583614266
-115.388739516023321 -66.666507649141849 -179.853008964217906
13.463296815978179 -66.237969298853884 -180.340059949824507
-114.347324606098852 -66.367195383993518 -192.332998212827135
-107.556951689018803 -67.616716943674433 -187.496619089221724
17.806021129215122 -66.276718408445390 -186.550651801766207
-111.942759312799097 -65.099954094583225 -196.684059331379586
-145.916063704155590 -70.433208023993458 -204.557415284741040
10.060471873946522 -66.114291111203769 -197.375495974819273
-126.739532500824737 -69.220232144123855 -200.477506549348192
-145.974031493798208 -66.515069718107824 -202.923303795367190
-137.128133898788008 -66.656183293824412 -201.268355805053829
-165.148318935573741 -67.161497976097806 -209.072348713838181
-125.211890307473340 -69.265116440307764 -202.753639270093146
14.616203544180497 -66.165154763713005 -200.246450764767189
-115.349422479406428 -67.282067114901864 -204.243677788781184
-113.157083989942322 -67.518476649133021 -204.735949542370889
-155.608964513386468 -68.018132971695977 -209.683928855456031
-167.003597163395256 -66.730507019590448 -207.279630151190474
8.968602542965030 -65.720886306901249 -201.507397097892664
-159.510626241526523 -71.534503841029974 -211.163030942901145
11.295833708196081 -66.653839976333401 -201.968091032442061
-22.098538963469430 -63.383958060292372 -206.645706284004802
-126.670105361187126 -65.083316754401309 -215.555926964597319
-171.153395160529243 -67.130649269977198 -215.331698588285803
-125.680120813533989 -66.184429262377449 -215.418169136495464
-18.836156110612784 -67.796257195462786 -205.813729944931879
-145.017543370967701 -65.452883823717372 -215.311163992941403
-153.785899293724754 -67.347937946246432 -218.369250870289250
-25.239057168795284 -67.151703842455959 -215.151620804535753
6.146364401681055 -63.003218331995086 -213.508668572662316
-166.294751728959966 -66.800662187251106 -226.607964241418671
-7.481441854979629 -64.753986082318576 -220.684074702045194
-161.660159570442460 -67.155111245900713 -232.880460175293990
-108.400575377303227 -64.595848988212538 -227.722155691257456
-105.154024403440246 -67.805981408094652 -227.375510628481607
-157.493928261511627 -66.217929223785390 -235.558732227781206
-143.290903102712008 -68.247345588868228 -231.071506087181007
-136.454810407003322 -64.993439355050768 -236.822055569845503
-168.267459326525511 -73.209090362107602 -233.880631479535793
-108.339094765684621 -67.290597502321276 -231.731584839241918
-161.976660703478416 -68.479589424242917 -236.149864321577809
-10.131974440172513 -62.133770882137526 -226.910314364474971
-148.534009394999288 -67.875362194947783 -237.806676195082929
-111.362383181357018 -65.081997030595318 -239.377830586493587
-148.910907067455213 -65.325362482261482 -237.931026399167052
-114.317609630572264 -65.688748460043485 -240.864894287057808
-153.802924540358418 -68.364692531467540 -243.223486634285479
-145.809707158462913 -66.027324136967692 -241.094169755498513
4.207019923101132 -65.487853505217018 -234.087840570441784
2.354840012796501 -67.009339518183708 -233.719192060594168
-159.139821240360277 -64.076310317923529 -240.827695292519707
-128.612565941428699 -66.592473178528635 -239.462264975883045
65.057373129836122 -62.369419526492706 -233.932153499860476
70.479466614942567 -61.408673793053183 -234.992049818485953
-167.937749306137079 -66.352540631002640 -245.406886963754033
61.289922347096237 -63.640810153256751 -235.106497389526794
-5.871692810139557 -64.677022140960148 -242.047496579385353
-1.454924796502908 -67.131035989217594 -240.480860984496218
2.145446939004408 -64.555298461806387 -242.176660173954730
-164.943294904022565 -67.555332542624157 -250.496607256198331
-15.051777961438766 -64.210959556039455 -241.895025467449898
4.213468750664333 -63.488833195057708 -238.154570428547885
66.395798338245726 -63.793487756005725 -239.992711221834242
-14.804677853968549 -60.717123839566874 -238.484482467034439
49.237332349593117 -64.633375632321020 -244.859379758934494
59.557920932949550 -65.314166388027999 -241.119986943428245
55.540165843465694 -61.326581277525122 -248.457884223850556
50.657470190870526 -67.988184613883590 -242.414488103753115
-166.182552276195423 -65.704669385171442 -255.482971860437232
46.891872090906020 -59.624514779103528 -245.333283110454232
45.423674512804055 -65.288722983704986 -249.747080226024906
52.909647669153330 -65.602831686008244 -246.586973852874735
50.133298438689330 -65.704812516508795 -251.739802171110000
-136.156352361772434 -66.887524716183194 -263.920761989162372
-97.837376957829690 -70.154087772147321 -259.357119103933258
-95.288625022719884 -63.983587541648518 -261.809653416953950
26.941947152714171 -61.543949648739044 -256.508486729214496
39.650934167212512 -62.398848065307483 -255.595924324836460
-137.318417131011728 -67.644318213374845 -264.429848999980095
-126.112116631115384 -64.909256787231072 -267.116234583862592
-148.057311071063197 -70.385128570846618 -268.431346869899812
-150.102737445156833 -65.363228372055829 -264.217392565504099
39.113095937990849 -64.503967891063255 -260.099702528620639
-102.268425026424325 -65.063493022252118 -266.385859588815720
27.362406238978579 -64.562318125455491 -260.546415143729178
-148.347650280644018 -69.639658038077258 -267.086935540936963
-109.996424707560436 -65.520408718022367 -266.780393122094836
27.722547947336910 -63.257276412436866 -262.777337151084168
-143.258360841501258 -66.002546726022089 -271.145734680044484
-112.250266070781123 -62.816186371151581 -270.615836253566727
-136.739610349854104 -66.518375471252909 -270.930571344775217
30.374350454895584 -60.814001887250512 -262.715391742158261
-10.057977067061024 -63.313134635927277 -262.529729797538266
-135.474306379252397 -67.508666558540511 -273.755054888250186
-127.191942550047600 -67.054947941279636 -274.577513974193437
-153.793168033081912 -69.708735316910690 -275.737811533564866
-7.547625182013377 -60.809004124253001 -273.611044858543096
-147.975427056910405 -64.938028460098010 -290.363937916524208
-7.097022980609999 -64.569840427253638 -281.720058112536890
-143.553518595792923 -66.422120992312074 -292.430177932172001
-130.471037919406427 -65.448319818643128 -296.661511383325319
-134.933181150192496 -66.936882730926115 -295.832164879512277
-124.874985459702827 -65.900206495696040 -293.476652587273747
-117.931559056654663 -64.173931214430738 -297.148746657296783
-114.398573023407380 -66.658932067972998 -296.237822262076975
-112.035167567192303 -63.914662601682480 -299.137251617041784
-136.467346702702969 -63.494098317141471 -300.070649479123460
-112.500584132257188 -60.291235091790973 -297.103735928653350
-123.145230219568958 -65.378909534901510 -298.840189212491737
-125.923772919015278 -66.235743596043918 -301.110186777034130
-147.672352855691230 -63.451217657443500 -303.372835758397287
-149.843935552216692 -67.744028472075541 -305.437830766518005
-151.305372784991107 -66.050059552528595 -304.736364466593045
-151.235856163619331 -68.025405561311175 -310.998464451844370
-142.803451741022883 -69.484628114795640 -309.556638878362264
-150.143083800193381 -65.631381337766953 -321.974065609342290
-147.577992752161663 -65.208257872652879 -316.835780146054503
-148.260108717136688 -63.630174970764024 -323.572071208574584
-28.079421982216964 -67.662469009366774 -56.697324359404028
-101.677307194234942 -66.552935573319900 -69.663352798646969
62.105394050484513 -63.756042477081110 -65.289262337467221
-20.804705340730990 -64.523680971610403 -69.305708078763047
-24.357158993530192 -70.129511472455007 -71.104406265178653
88.199214208488371 -62.143766270888456 -65.445783533671630
-39.694173721453382 -69.114159294029150 -75.915724072249617
-108.799322599825672 -71.104224828733535 -84.830193129858429
-49.040777025411558 -65.066990225967601 -77.800508421369642
-50.803979925315048 -68.512257451973198 -81.036643721806811
-41.606914006614147 -71.342896863687500 -80.219234259115325
53.922201033571696 -62.666444615411827 -85.613147026580265
44.272899209575435 -68.851180907007958 -89.912537264483021
94.562425692849857 -62.549676942449217 -88.585711072429504
-71.499230060224335 -65.358722690241677 -97.302806990189183
48.855294051724300 -66.052760232988419 -95.150787320497486
91.159025160314073 -65.004047688041453 -89.237166043751316
96.258823153993859 -65.553291841742222 -95.046764735335017
92.383084219740496 -67.784759000693668 -93.378502653722251
99.501576384285372 -62.961893772600668 -92.833999313999726
41.724224200047729 -68.923540435739540 -93.805107489849163
42.682119655809181 -64.016303040472224 -99.450632258879708
-82.206599361762699 -67.539042127447729 -104.397695120704853
42.716921229033723 -66.699936564450937 -99.531388162571133
-81.071127347506021 -67.481004812119721 -105.180908408587371
-92.419808743188952 -66.854444877429671 -109.666413619361435
35.296139211158199 -66.622439597149764 -101.512785082242203
99.578869478331086 -64.550030889514346 -105.103930621793097
33.500465031564701 -66.128806341143857 -108.788205705152663
97.536892099882735 -67.437091996683648 -104.398276958704017
-108.459229856003219 -68.078086321858066 -123.506959887288389
-106.636953640320229 -68.428840805228646 -129.223763392659805
-91.125461306445402 -69.537318019106650 -128.575623499182313
-67.667087565044739 -69.934063893498447 -130.791899488903454
-82.080423912475382 -68.454616858264018 -137.147305625081543
-88.935032085767219 -66.872228502321832 -134.708976191751162
-61.371437930491112 -66.990284646767819 -134.749804108362383
-91.876352535906705 -69.713445960896067 -138.401114749637031
-60.068118120688084 -66.081028173383316 -138.015910850489689
-85.166166816379871 -67.714607366131602 -142.306376658920129
-81.209010046005844 -64.494846719244265 -145.820886151421462
-82.721794685605275 -68.118276098292995 -144.987575799818870
-101.024896527085616 -68.323537010518251 -148.446023655757159
-64.932927533084779 -65.185765762057159 -146.507817194211270
-58.480535704074910 -63.258567312280881 -148.104118645418424
-103.554718786441839 -67.853697800530384 -154.420907746271524
3.333496022198968 -67.020173414247864 -148.443167345378100
4.176865506669309 -63.405128085013381 -152.104484337201200
4.314287891277196 -67.299845722432892 -156.284142102009952
-106.983024674294569 -68.555255544916804 -164.285752961579533
-98.754799352717328 -63.347844807380106 -165.641379407529314
-108.691540561722917 -69.541373580141254 -173.070980905528216
-105.627785170152237 -65.404287655016788 -177.835847293071538
16.451834195703295 -67.705689584272079 -169.128694627942536
17.764911430155831 -63.350502895453815 -170.058348709419363
-146.220404936602989 -67.482688685500662 -183.261073839460892
13.466787551188006 -66.004961055982264 -180.798061040623793
-106.874617432701598 -67.766865453263463 -188.800575658577259
10.593876790386251 -65.372785239563072 -181.920509887173381
-160.242927114908014 -68.270819104987993 -193.516662457026143
-148.939201861819981 -68.250129184553316 -196.354329943586976
18.297875225821041 -65.239709072374097 -184.132664921663718
-117.188102736996228 -64.012349107557426 -194.457224400640854
-158.837412151870808 -68.580186950777772 -200.691687283645024
-136.661796131238049 -62.029604302714610 -201.489742558848860
8.892171241224574 -62.126426612783185 -197.681281230493624
-159.226588713887679 -66.203335732177820 -206.846678772751090
10.201462568078110 -63.458729499174851 -197.321907579682062
-27.532198052308352 -65.362786753110100 -201.352059300091895
-155.481966571035940 -66.697531373570072 -209.979158618324107
-167.559498003375836 -66.883378030645460 -210.418242245401416
-161.634350923564313 -64.758034471423386 -212.563625248428309
-154.290766649900519 -66.782428575760960 -210.052493174725214
-114.657483150776557 -65.916504498102142 -208.737693109236972
-20.498689608005975 -63.604410982870959 -202.537524319113601
-143.145749884807088 -66.960384731155273 -215.328312519832764
-154.471042044533050 -67.589215835137381 -216.482764206362305
-18.380687573960984 -62.961541356313710 -206.963781728470906
-166.534760211956495 -67.471681848739323 -215.470881293811374
-19.685400440188140 -65.459502743613982 -216.231145325525972
-21.695758885162796 -63.105627346581379 -214.933320919692733
-164.575224737551764 -69.352435135626891 -223.145598586626505
-15.528001016769387 -64.973063350332382 -214.278185449332796
-162.066640499415371 -68.067213709720505 -224.062988994624504
-147.312029972463819 -67.030848445258400 -230.705704668434635
-6.651568196234855 -62.513856317530255 -226.717116282785923
-133.987252426167402 -65.047273905065268 -233.590802059557461
-110.589903896129215 -65.567069648969749 -231.507462375849599
-165.265605063522315 -68.811354980884076 -235.260990330800354
-120.272863654001895 -66.886920441987414 -234.386719740905164
1.760603087210356 -63.968035213781356 -229.105684307528719
-6.792773438208904 -62.632271152996360 -228.248493790081966
-151.166757924321701 -66.671866683778546 -238.790010604470126
-136.735379029141967 -67.292306155756293 -243.026154664463263
-118.422259735235968 -64.498454075415879 -243.817909283497755
-0.753708255290142 -64.641713978858448 -238.712834001120854
-1.275670991334664 -65.886289195139511 -235.760793216841165
-9.567045844369140 -62.315237015012620 -239.317258347459784
-12.022323031903277 -63.694394773246579 -237.996865877855157
3.019441925477700 -60.392485729656919 -240.012230789395517
63.317094021827266 -61.456903034431662 -239.008477500429706
9.530515679640594 -62.040425805868971 -244.465355547240506
7.729643362918626 -64.757151368966746 -243.329974989046860
-12.267594558167488 -64.485598365836069 -243.391326400085347
58.691931244018747 -61.272479283993981 -240.228766784060667
-13.989758737364518 -63.422270453659848 -253.244667910425790
-147.416186564023093 -68.177987789259419 -261.400582728619440
-148.397358751395643 -64.784939127927416 -263.844665403643944
36.365258097661702 -62.658064561258051 -254.058625434974175
39.178476577260781 -62.032338272384735 -256.515275403539476
-144.755285610955895 -65.749343178091024 -268.381825173806192
-105.799739570030965 -67.457520204769665 -262.864143907501727
-113.394172325977564 -65.825198407996382 -263.853452237331055
-125.736826833350818 -60.389525184000100 -266.540916564736051
-110.569264182481135 -66.088099127260378 -266.278274192269350
-136.649710941665631 -61.533562100814123 -266.452308548054191
30.837985161422672 -61.328507360425093 -260.657422552435378
-116.422858274833118 -67.058926422629725 -267.803157166080325
-7.647439783182577 -62.267457761040589 -263.146744849111769
-145.435629680097151 -66.434041766333692 -273.575711956114333
-6.671310435308605 -65.284704478854422 -273.542815709230922
-6.181824691176040 -60.775005409364645 -287.588542661550264
-134.646277536973798 -63.422081385715416 -295.419059801540129
-6.939206878526782 -61.456734604589009 -292.329529770844488
-134.330225206916083 -63.434012870929401 -298.665881193996086
-122.157059458383969 -64.934964014504246 -298.726454435691664
-150.454351241680627 -65.845212551639349 -309.258256619847771
-148.099705402355823 -60.909996517487059 -312.666661287784393
-152.297815257532847 -66.598694066603059 -320.968696343097747
16.018250998753537 -69.924832517136110 -30.272925244639545
15.673175985165440 -66.877440177324004 -35.407210288153522
35.644097960448633 -64.407852380979904 -37.818418610364247
-75.440015877379750 -66.796495556583750 -51.103919460540915
-66.680332316540856 -67.740294569497564 -46.917490445226946
-81.726830597336829 -69.912641338421210 -49.941589791940025
-47.365938367673195 -66.809256741110644 -50.273373736436731
-89.213028583909619 -66.943918792286240 -53.861579962954352
78.958058893289817 -63.707772485540623 -61.466333721530695
-27.245865552187468 -63.874294403469150 -74.012541476286799
59.788435428144709 -67.314432634458711 -69.353044688586664
88.917019408987642 -65.965736283367818 -71.245156115342041
58.837839299030023 -65.367674725083134 -69.486969023117155
-40.825168382812521 -65.431153056928594 -83.002088684665708
53.376540371388153 -67.685449703632145 -78.602954254440746
-55.882450188740080 -65.698189855782658 -90.903172731309809
51.703805693452765 -68.673068140663105 -83.155801231663162
-61.217730644156205 -67.513443734165975 -91.418721691301684
-68.167688611586598 -67.655680695991649 -92.732463540311031
41.336051558704469 -62.376745005171415 -90.030108978136042
-111.733336963943685 -70.100773156844909 -103.630839034635713
52.593484284397164 -64.078482970393182 -95.029740759455620
92.573245040619227 -61.994913448857631 -93.286029310897959
-82.780482078692643 -67.734911282751497 -107.383419843204138
43.161568037930515 -62.692941314551270 -100.015374832835093
38.089740319132147 -61.546259969426458 -102.793129298370800
-105.906647949949985 -67.767323244781238 -113.818026894234393
71.791670096022898 -64.215389120467762 -106.337008392957586
-89.012237741392141 -70.800263420282690 -116.588259720923361
-84.622853820641964 -67.718699347396296 -117.842421816919909
-98.089119040726501 -68.309590309703779 -124.521511323006990
-70.807301446455313 -64.342421236237456 -121.834271671972928
-65.726550179145235 -67.058000808617905 -125.121269748759360
-72.500858777182998 -68.595791758326357 -124.025568582072978
-103.142204232384728 -64.714090527524604 -128.150604936854052
-86.121766469593652 -67.467703142141573 -131.472625730157745
-86.146171103012733 -66.628078408700418 -127.869290797612024
-63.656713807750435 -63.445720251262159 -130.389138022233482
-96.091586184079375 -69.367129946347319 -132.954445827278846
-85.919616250375555 -67.750258569907487 -135.388545916954911
-59.251454960900730 -68.058304136661562 -132.371905053549057
-56.839039325125313 -63.499725137626918 -140.926571602726426
-98.810424032155197 -70.169763123207105 -141.080949707858593
-83.312076747824307 -66.273816445345204 -143.107462193869708
-56.385560872137518 -65.395240129810844 -138.000669463444382
-63.446521625590265 -65.422145062029443 -142.990390288257004
-96.017069061945989 -67.486433534065611 -149.319677792410715
-57.641356613295358 -67.198248721934434 -148.008779883834592
16.570851702389810 -64.639839100193171 -147.413181989785983
-98.430908528695880 -68.595306695361401 -152.408822193818963
14.717421306287758 -65.272076002496902 -151.354564017450201
12.056126742632511 -64.077457373082751 -152.921906004299899
-102.477982447718233 -72.509493097033811 -163.242706280316838
-116.421685073310073 -64.708234632208047 -182.406811448741678
-157.481073123702032 -66.050942966921482 -186.858275329115259
-110.105173245452164 -66.711927430927574 -188.937540899164816
-146.955820527106965 -70.865676501762181 -194.552809237330251
-156.994588635617134 -67.294601896666421 -199.513106534531204
-112.112917531515507 -68.662906999601589 -198.905258452027851
-156.306405486080649 -68.596725287321874 -202.998782968639176
-109.829795326924454 -66.262994462624178 -201.387250495744922
-148.435441448620026 -63.605506039916804 -207.072743701530442
-149.997803569329051 -66.090674511888736 -206.071635079871101
-146.536585404944077 -66.016200462154416 -207.285554217848443
-141.616799544915665 -66.083909879613884 -213.755842005064750
-134.115668311693838 -66.912338210076172 -209.311957993764878
-120.611881249299358 -67.918708177161221 -214.227344629355031
-148.636075926471989 -65.687011967200903 -231.318801943082462
-145.233235304692755 -65.648892665392282 -238.719471600508797
-138.287068929185835 -64.470715792934030 -233.336391710803554
-129.176040496278063 -65.802587326452908 -233.676122250223074
-113.089288466755363 -66.877408621771252 -232.323979230518603
-113.303891000779572 -67.959963885766527 -237.282457368333638
-124.764438512792793 -66.753415754927730 -241.154448318952888
-136.540335091246249 -64.862630169061646 -241.758199834672638
-0.492241077505284 -64.946455909169259 -233.382920561997139
2.163232246838426 -63.017208706867009 -235.689882208685930
-117.967150854936932 -62.131931095670140 -238.759191636553794
-129.854908141894981 -63.366311991237744 -242.060610287133073
-154.051142110813714 -62.981205499712004 -246.325417764188472
-146.857032503745870 -62.670754277431399 -244.720661360384582
-7.402314302767138 -65.212158474726991 -241.283268116041256
-1.668827770963020 -64.150826782543604 -242.196096002779512
4.336105097957347 -60.924889179999305 -240.841498531962458
16.186172207086095 -66.221365071398736 -242.653471699409636
59.722905867878353 -60.313341271817059 -241.441376278127393
52.292131512974763 -59.873854723328627 -241.815598405376647
16.558448157301541 -63.458196451588066 -245.681928638076982
-153.969068203888327 -66.149546496351121 -261.044829092332236
46.687861487570800 -63.819862993735491 -249.657634032259352
35.666859474269408 -61.261854282854145 -253.743515391195018
-129.937263136340079 -65.846699935117016 -262.180770800431446
-136.016308165586366 -62.667676765493241 -267.667630784521464
25.431040868060130 -63.514815277146980 -258.087706620538711
33.277447355046640 -62.039347695219092 -260.491118569194953
-134.892322181138525 -61.432841507952659 -269.035334529326917
-126.346565692377112 -63.926464589458924 -268.563184397376517
-118.947823765983969 -64.170574073925380 -272.691927309714060
-2.656520849638888 -61.391777311112037 -269.542895194038636
25.472258003109744 -64.588224473029143 -269.161804404409224
-129.600506319417718 -61.621789715090664 -296.146982640999681
-3.723553064474025 -58.002001586362447 -289.438138939432520
14.467077625703780 -59.904174092891836 -290.446762035329698
-131.280179261688033 -62.621390416390994 -296.633913760052906
-125.142334710800185 -62.507377424669734 -294.186564562264209
-124.599807849871496 -58.977933030388719 -300.063659838941931
-0.721252793842048 -59.235826837072750 -289.178180363137415
8.778006935000850 -63.155681665748517 -293.875724228498257
24.973418817087332 -64.473790716508802 -34.582510076730721
10.765615458496523 -64.262341018466586 -40.536963501860690
31.346097141587428 -65.866667751877856 -40.166391662970668
-64.070387170391129 -63.383528598304501 -49.269996265437307
-30.989578934592217 -65.824727838248478 -55.501652304154447
-104.853000768881003 -65.778589631594699 -77.161201797459057
-40.078656888828235 -64.773721445083979 -77.548193584945551
89.988077281600653 -60.456814844533334 -71.162112851441833
-109.007877798643534 -65.940407864854691 -84.608133638942547
-58.466267496930811 -65.606704748821613 -84.024675951864054
-62.796767827744176 -66.986245227647444 -88.350850342408407
90.279778317477110 -60.268941170587006 -82.764477771540356
92.647303800798284 -65.831498266867499 -83.552190871503726
43.744814555540231 -64.950952771482534 -87.167540687496555
56.172409636817235 -62.660922264868439 -88.374028522016999
52.376531917287906 -63.049442301735823 -95.000311548552091
-73.588018377594494 -66.266161832397188 -100.881215092757586
45.255431219200062 -60.253699459133912 -92.945309063937657
61.017135142291266 -66.506523221483803 -103.571617487854695
-78.893353575437942 -64.360137475299211 -110.829424999853231
83.406990318798293 -62.444594009317726 -103.913575935642839
-93.879537721067436 -67.121447063530780 -119.008469664876529
-90.061205278667700 -68.484096901310764 -121.095668608235187
-68.266529200024507 -61.481309884685153 -122.549616817712575
-85.653830614222201 -67.316738164631914 -123.129679870269783
-72.148649116380255 -66.574163794084555 -125.978652750901517
-93.164025330510157 -65.888134681711264 -128.626854135787454
-84.291287390480235 -65.563853759006165 -125.710657143673401
-91.279937440441429 -65.196496982324845 -128.237462312237909
-92.017947426263660 -64.029947573510114 -135.473893320977254
-61.749285746880872 -66.732448462991826 -131.610711186254122
-58.732684812068356 -68.990455331906787 -134.198083468798160
-72.170667086015399 -66.303274690055346 -132.708133991074476
-95.292764324186123 -64.642608690216960 -134.110611730146132
-98.398244968667370 -67.807376804680743 -136.157680903914610
-82.299848556599898 -67.494385976526800 -141.086439407762299
19.102959515778615 -63.404770840213452 -135.328203690840638
-69.905462114197604 -66.017808702850161 -139.381997802900401
-64.572468857049131 -63.673390697441071 -141.504747982647729
-61.336088225020347 -64.848335977180497 -142.659131495173284
20.037087607197069 -62.221675973374438 -137.203007802532966
-67.248864422935668 -64.831896681355389 -141.807459859235337
-103.336680538804643 -69.143153854584469 -150.291933615810194
6.333755481667474 -63.929259193338446 -149.882511078881663
-101.336880819561998 -66.887620405509608 -157.008940452600399
-111.097523276746131 -63.376987022384014 -166.227770989690470
-105.140710491508997 -66.027328092500170 -172.794379206077025
-112.991634839747007 -67.460233655327372 -179.408452511580492
-153.124187579232739 -67.339566144444660 -183.621820833696404
-145.959485117013315 -66.617736890077254 -186.925339663765101
-106.995716179087282 -64.655365462576924 -185.539709732064864
-153.310675565716735 -69.049802122881360 -198.010880432508202
-118.980016000501337 -64.008446559757814 -194.619777165981731
-147.324787829199607 -65.255594608181113 -202.173419848773733
-131.663607891080773 -62.016136398513787 -205.714878554237202
-144.714521703574491 -64.810162825170494 -205.473758104173641
-135.402955035086649 -65.763812065378488 -202.566983824421783
-119.399708021973254 -67.781698634438001 -203.694848438796441
-113.456352966709460 -61.052066485375988 -204.058170819821186
-127.170423574634981 -62.267499161985846 -206.243726753803571
-113.340589860069628 -64.706773052439502 -209.403837969771587
-139.845612614664333 -65.521497666713799 -207.048016765612772
-119.213016160227852 -65.138161195128760 -209.795919608004112
-126.511200315364903 -65.077682227268710 -213.303710138793093
-118.940435441535840 -69.265906059675387 -211.663172294549071
-150.727591263063118 -63.652822120517115 -215.132823653792286
-151.350768707950238 -66.595993266739342 -216.759018761437090
-147.959581262469044 -62.176423522993304 -220.403913071178636
-153.134675045484386 -61.994312941119546 -230.958887430658450
-131.926716293877831 -66.585791492945717 -231.550001165751610
-134.834887332767266 -65.787057850015813 -236.315616173961388
-117.843170515665832 -64.236493395514756 -235.383857995618484
-125.514503609071028 -62.353796680110960 -234.588522216596914
-119.169901553019457 -62.989432572591888 -238.265816691540579
-144.471341702860173 -62.205954882134392 -237.156551257359610
-132.866687791406207 -63.427751779708387 -241.867271378781197
-118.987082042649064 -65.106775139946848 -241.891856116687393
-1.298286725565319 -60.748050340960027 -238.978829224918428
6.307764370791979 -61.627876597843802 -246.400890798738686
-12.792569308122310 -60.944638413742240 -249.664572512979134
51.326104986847277 -61.994459179630262 -247.235265603036822
38.584490523530867 -62.931348927344303 -245.540079809461787
48.018448209892973 -63.535562249796378 -251.703156604365006
-6.762389521058523 -61.135061306434984 -257.168571825424465
-134.705904153680791 -62.478725999624025 -265.182068040164324
39.182100810950800 -60.631131425373070 -259.923542462251874
-130.503343402604230 -61.885418027298961 -270.857002673910017
-129.708190650403793 -64.527058510495976 -273.362765096329724
25.120860627619926 -64.783810592429944 -261.496928215867229
25.892718817986228 -62.667992871519147 -261.303537273693223
28.386971800858387 -62.954209927662831 -261.075630104122808
25.536459870340792 -60.204213668295139 -266.523030754610602
-147.369584684581241 -61.112168177956896 -290.711357916946099
-152.852419888751200 -65.827355642142763 -295.443544162179990
-151.152225166262241 -62.898010799202673 -296.589972317233446
-151.283075736796633 -66.400171913064980 -295.364828032684670
-140.474706776195490 -62.721739992655067 -299.025791867728856
-156.065553931249184 -63.281919953399822 -300.223126523021676
-119.180658562856252 -63.448431819350390 -300.882587393509823
-140.532499170724776 -62.453208897774516 -299.946087144756632
6.178367435552296 -60.978495541793670 -291.909358931924373
-145.263832842009009 -62.066680817123654 -305.010971547649888
28.110285654823201 -65.669930408321591 -11.577738261683468
25.114563484150700 -66.455417110468943 -16.244950867206590
25.927644558792199 -64.369959669889113 -38.381798243435952
22.871265746205957 -65.134287577259983 -41.637190772710781
-50.842179089856032 -68.166906082628174 -49.837030926761983
-41.140309464791173 -66.859359344998907 -52.435816897098761
-21.524956825246107 -65.756604213965502 -60.657284642177537
70.266151659950793 -65.237030308465989 -53.817042551286391
67.706109899207775 -62.519009520028909 -58.325889376979411
-23.002060126655728 -67.083980612590850 -62.907967605541359
83.275717805012874 -65.540447701331615 -60.553788822166233
56.482215353168826 -62.536757277369993 -62.804564029533850
56.078700536325549 -62.288137783077850 -61.671981814861901
55.141556110678550 -64.178666947730818 -70.294803893535487
-50.933736350263644 -61.523345793478192 -86.760705562979737
-62.681789308577578 -64.370519793972107 -88.142919166929872
-66.806528849914841 -65.397497920189181 -92.296143307075042
93.265123625742149 -62.039013262959919 -89.650050202233956
46.193451700740191 -61.385065874685829 -89.371495757910836
48.395799751308729 -63.178344851301034 -95.541105814126269
-84.858797523278739 -68.174019201580307 -105.239099115604830
-87.139316536084692 -68.473783445624747 -109.013317638852200
-104.484335510868533 -67.170980642216250 -118.063028294859677
-85.277563574083814 -63.015083161186361 -117.244590429391778
-83.883022151740960 -64.417887193374568 -121.149398999158947
-71.954842629884112 -62.790131509704544 -122.550869876749644
-66.356504691448706 -63.778444985330339 -126.073897141680192
-73.810899576377039 -63.030596777676728 -129.117311236250487
-87.999349180954610 -64.015158554438827 -132.947536279278438
20.654163624343731 -64.744318424849013 -133.976772850846260
-93.747875508396902 -65.273243083251657 -140.608946928214010
-103.186489208564268 -65.047887201442975 -139.947594366375000
-94.001244056622738 -65.546542564075153 -145.455963962002386
11.657584966927256 -58.030874954345990 -143.788388755928622
-98.856631903673275 -69.527643623540087 -153.095701544056510
9.965772003098579 -60.831631690412287 -149.944420841602579
-104.673059142778015 -64.766560227068041 -155.135794443497616
-99.641556326418453 -64.371765209488927 -164.564590012238256
-114.997024805410945 -64.816828974765485 -168.405149162169238
-116.972355826887537 -63.064841116098982 -187.157016087147809
-111.379353922639154 -63.609011436913811 -189.503724383499701
-155.683461594047202 -63.853252251448119 -194.922603606589064
-145.213341729857888 -64.476212631205357 -191.616597629399934
-151.347913214734490 -67.542473647415861 -198.521947669634187
-114.648616698641035 -64.193040895117775 -199.325916547820754
-152.427439486462760 -64.224367818851618 -201.783994071713039
-135.400175784821471 -62.499415209922788 -203.453737915857658
-113.314556366224366 -65.680608539748491 -205.435128415242474
-118.480278658421412 -64.813599457589689 -208.135695824739713
-143.459733451497243 -61.344231118941998 -207.466299934471323
-126.265313583454713 -64.219427870445728 -209.304212005963564
-135.934855672349016 -64.042398555047669 -215.054463664091145
-127.221185029464692 -64.284452469019811 -213.379880880446905
-137.371718941358068 -62.668429236420280 -236.626097841558618
-126.158180855657008 -62.772505986254778 -240.747336835521764
2.440674261027894 -62.865993146870011 -242.396217642489347
-7.901786545372424 -58.955511272520141 -243.658763291734118
14.564488176569750 -59.967162406498446 -244.671298578570656
-7.503873336302277 -61.536018027709524 -245.589574920228898
-7.204191575803016 -61.864650368645812 -247.131999959649875
-153.145892893889965 -63.822179212714282 -252.905449511375366
42.472325594945644 -61.445924563213822 -249.372680417437891
-5.578023446838870 -61.724451023257735 -254.021819912034175
-152.836982037350708 -60.591351521476291 -265.198137068415576
36.064669166253275 -57.899263513141292 -251.958823857366554
-151.626642990633741 -64.404570182575782 -264.227529583210298
35.597944080930503 -56.041953263846310 -257.071482332996538
-147.384352236165682 -62.021060354933240 -266.746379763942571
-0.683356627490575 -58.974380934326611 -258.518824368244168
27.724660789318659 -61.844643519962958 -255.054367565415760
-154.093395774939324 -60.551147178949591 -267.949029348483862
-156.098124612553079 -63.031674317446665 -270.810232002532814
-149.245924391372881 -65.262665532071921 -268.234077430698278
-148.093266612505431 -61.361118287170093 -274.371138416432075
27.969974317262508 -57.541568351956613 -264.383642849544174
-153.984389384097312 -62.762751198421782 -272.737231699674794
-150.164826711412559 -65.006959254824835 -274.247235528468082
22.124384494561596 -59.217427992819651 -276.743487126739694
23.514726477287059 -60.756698295312169 -281.479888301166852
-149.273162374369036 -64.051031649640322 -290.962105634186457
-154.397405007021632 -61.502848077721190 -292.335790144571945
-143.091671261881402 -63.044243746322323 -289.275548277408404
-149.174585524761937 -64.047193230940366 -289.605131895720831
-155.213973523178993 -60.855149155945355 -297.488223237415070
-152.601159878442843 -61.848055666545896 -297.921386794108855
-149.399804070479945 -62.691948951200359 -298.773736210598713
-143.287939619189217 -59.866452128661869 -298.525903217980499
-155.873666626971954 -64.253241947038489 -305.006513442510993
11.603458870783854 -61.070415214310898 -294.064501596259959
-154.758913890453670 -65.805261663838110 -301.748484356481299
-155.512671093878083 -63.070195590395151 -306.530425829042485
-143.942203289625354 -60.784238058434710 -302.408723365593175
24.153247806369201 -66.581733881793610 -17.917363811010517
29.102033400373031 -62.754403130315190 -24.191220936540908
-72.379225958628311 -66.623669470303213 -48.747322649195375
-84.377377944115409 -64.231751312073300 -47.579417101093100
-89.081949913935091 -65.342451562684289 -50.798636691457773
-28.920685350963524 -66.347425378619235 -53.097316962684658
-99.490634659225776 -64.308177434268089 -61.409612336266839
-103.299368491195310 -64.720060401995738 -65.567586047976974
-40.031724530849033 -65.679325092125538 -75.287039571233251
91.428718358553510 -61.286211982959180 -69.976174397847018
-61.802640548102701 -62.881807913361769 -85.838991834897755
53.718363657458866 -61.807767570707405 -82.552750661202950
-65.926005473542361 -63.177852881986531 -86.252592979250664
53.570453348953848 -66.331716651590909 -81.496124211363139
55.154582077680118 -62.832848056284682 -83.791385559323558
-108.076065189865176 -63.219547010233207 -89.507904204087126
-70.621708352963395 -63.505424850077134 -93.757578256639761
43.005110598863752 -60.189738468426846 -89.973136951574034
53.760787196778793 -58.736070514938987 -88.232201000737447
-75.188661239694667 -64.234973822923720 -98.451062687999354
44.119952076198089 -61.843631356749363 -93.286877027092757
46.520266392096403 -58.733320501267151 -95.026735394249343
55.466893759666945 -61.649257030935104 -95.570467206399002
60.207089029644152 -63.390610528772783 -93.452816034436083
90.973964041706310 -61.577920090332590 -101.749613207640280
-83.842496657231692 -63.331539408954740 -111.213836548711626
-80.951678386166591 -65.163387994437755 -108.456419968336689
-82.180727997633028 -64.023725385165335 -113.643519373147384
66.458248164490641 -63.581030821197402 -106.908161830524264
70.273863994790645 -61.345188606275080 -106.068950997123977
-90.774253256654092 -62.561745609904726 -117.992015316833857
-69.194025429614214 -62.873782481651347 -119.168944956589684
-75.945746613406897 -64.952158779724542 -123.515867520501516
-91.775942779840577 -63.024486513163019 -127.243433277502689
-88.067636705775897 -63.067767555538786 -125.497821419427098
-74.908135742678581 -64.834611616032447 -125.925273199237012
-68.150538552506205 -61.893965371497174 -124.636982917446161
-80.791312737007615 -67.693564293062778 -128.862886796348334
-82.011195526165750 -62.032810133890635 -132.314963012340229
25.901450407205047 -60.674562317200127 -126.065748247106754
-84.812396751377818 -66.004140888778210 -130.640991604591250
22.481871371109683 -63.118983800693108 -128.885283137368049
-73.085608477732180 -65.754214207159109 -139.406148090148378
-67.509803905028264 -64.516595560867160 -134.950580421596953
24.378948438327491 -58.379683666940537 -132.820966557446326
-96.321249809255391 -62.127594148035627 -145.303135909204542
-61.155100964033309 -60.413717521888863 -140.087887513403672
-60.309431062493843 -59.590311644535717 -141.912073584512569
19.450027032982938 -61.422744771151535 -141.410845843944969
-101.702640463408613 -62.781698571898190 -152.026349254865721
-101.048953332111950 -63.207197178694017 -148.511723536343908
11.589289220120868 -56.389999162417432 -146.029140515418476
-101.903848454451179 -62.101608399316184 -158.530562505454412
14.734247896690583 -62.754346889503275 -150.809111911142736
10.221463223944038 -63.811464568460778 -154.885304040722673
-106.225581975460869 -62.047657808958505 -160.012619174048297
-105.892907301663286 -63.190523098089493 -162.571238649575065
-105.058348576434440 -62.751364114309091 -173.285439876039788
-107.124041258818181 -60.000867438225484 -179.549057993303791
-111.634146512753546 -62.343573278346739 -180.146426843203415
-112.218776581871424 -59.678057569972161 -181.973597692386960
-148.549003567223025 -63.767376514692216 -183.198647683726875
-159.643240605273405 -66.245266467993147 -189.878701659514661
-150.176992771259847 -64.465700609766643 -196.496131615073864
