# This PCD file was generated using the MATLAB® pcwrite function
# from Computer Vision Toolbox®.
# .PCD v.7 - Point Cloud Data file format
VERSION .7
FIELDS x y z
SIZE 8 8 8
TYPE F F F
COUNT 1 1 1
WIDTH 792
HEIGHT 1
VIEWPOINT 0 0 0 1 0 0 0
POINTS 792
DATA ascii
188.896189314658841 -55.667904866589026 -131.872031070031454
189.942560393687387 -54.052041842635873 -133.029081051970593
189.204728801731477 -55.263223295074468 -99.913491820194196
189.415597983320112 -54.314342406547681 -100.431565869233637
188.800482609891333 -55.340399549410620 -95.906363275487465
190.382170159896134 -55.811529883557029 -94.480898098783470
189.860625912963627 -56.355771136244655 -136.469182420416018
190.487449265657915 -53.426600518455210 -95.666386390133496
189.930469653595793 -54.457039662890949 -137.249308443529458
189.743933137326508 -54.637406510813463 -133.578492983645134
190.816171599439969 -54.809093177009956 -132.743517038909488
190.653476009981830 -55.394413897723410 -99.352935509498536
190.485833774557364 -54.428994218530377 -96.458466063502897
190.814489841076067 -55.714410109184911 -138.316486626209866
191.207273441031219 -55.273575224628004 -137.168830918657875
191.547422462067317 -55.731600360702231 -131.047256154175273
191.080742122218965 -55.623197062256779 -100.349969244499817
190.290669624960287 -55.366633791675639 -100.340970195395670
191.573463506201904 -54.639681795652407 -137.012723478284840
191.548545727749968 -55.316618259646191 -137.177662893009199
190.792199154836425 -54.404512654629173 -95.293390421342636
192.095538771595642 -55.436463285535922 -133.140634341867639
192.417491222139176 -54.718044063664152 -131.185075485120990
191.584058954133326 -54.484777435876353 -132.735776949628246
191.708294824521317 -54.404867813417368 -100.884096160247623
190.688778822994124 -55.261475466646431 -95.083441212200128
192.015853214532399 -56.121922814167178 -137.516996735406991
191.952053174633818 -55.213507699380870 -137.744555788899703
192.608053177597895 -53.553927408520693 -136.056569147841600
192.740177448826614 -55.490826779534203 -100.705244634071036
192.042437807163111 -54.233445338310162 -99.679657508225219
192.616457014237682 -54.883320124361845 -132.912821029095227
191.881831023550831 -54.987521716821959 -131.332878692191684
192.406035174186115 -54.277624462591163 -132.470213751519367
192.664648560408153 -55.683657730701526 -100.554026710334512
192.557989227469676 -55.114460868659918 -95.699940110284032
192.844846214983562 -55.135765003985455 -137.125091969733603
192.892652371915574 -55.273074944284815 -136.728595887104831
193.047162110876002 -54.225875328483482 -135.941539544571015
193.189493810869237 -55.352884381529520 -100.921561405857574
192.616621976994821 -54.038690946195672 -97.526436109412614
192.749455288048239 -55.296257902645380 -95.301250919873866
193.810205212764458 -55.252047174843682 -137.882009844404166
192.505575793426942 -54.841182999919795 -137.148304239278190
193.556109269645077 -53.707719917470108 -132.712291425282359
192.679712679636282 -54.517622058241869 -132.162273315396703
193.304930269674514 -54.683241593332994 -132.290456362790593
193.551692240826497 -54.550875884878621 -100.261608192668874
194.460148050526044 -55.216763350882289 -99.604146736921010
192.653393772302849 -55.453572334666333 -95.358256239307565
193.478546204766133 -55.113848756006377 -138.094964075535756
193.064669508465926 -54.785277814514785 -137.927875300148116
193.538628607213695 -55.527931444295746 -132.922662857043349
193.359631638623711 -54.490802133766863 -131.372161426849033
193.704478229099237 -55.897724852384954 -99.582020910338414
194.199358101984444 -55.369158882704738 -138.135435006959142
193.098685609887269 -54.374204218978861 -96.238183064797127
194.503378736190228 -56.080550266519708 -95.455610778643887
194.669476989645887 -54.890488952551593 -96.446114934060020
194.263928727470159 -54.578588432547619 -139.524271081264573
194.745752306055778 -54.995677734676747 -130.915829797355059
195.030843041701161 -55.495792088583428 -100.415424481249261
194.255318341159096 -53.200326496233139 -99.559075345410790
193.871515247931598 -55.074124932184148 -96.303157380228967
194.379545295417273 -54.986771674236621 -96.077806430407506
193.961123479280843 -55.115753053940708 -139.252448284462645
194.488958106417584 -55.697841591352585 -130.849626032124206
194.109768838027321 -55.880871085868577 -101.030136493378706
195.386559292984742 -54.496258563160566 -99.501194984676928
194.838097706512400 -55.015960961839355 -97.308212494745490
195.094973622881042 -55.589050491133520 -138.910344963077051
195.652571788588602 -55.472109964791230 -139.503213124730991
195.480178455997589 -55.077228649238933 -130.206836642001747
196.285693531738843 -55.330447138198338 -117.418750422328685
195.211461680810515 -56.033299890757192 -114.898185952637846
196.088351036191483 -55.146831438513232 -140.230198501928584
195.230068445690534 -55.637846627231809 -130.173688922435787
195.818002600538875 -54.167012308360597 -120.370145347269471
196.402258950517449 -54.796448421536894 -115.335135124760399
195.512633631103029 -55.256504331461400 -115.343238882228206
195.970180575130456 -55.004886526354625 -113.774356228566276
195.819743583722556 -54.401932023791531 -112.520128159880002
195.556304493671007 -55.618079584362221 -110.593089136571521
195.963503014972446 -55.427467006716483 -111.696621764862172
196.455800252702090 -55.937280632212008 -100.543503446209996
196.085384040344621 -53.592712888815697 -99.198763444595969
195.517731589277076 -53.544247500501939 -96.208484493645585
195.927386941659648 -56.219405321311100 -140.152334003133802
196.099228250080301 -54.746893830216692 -129.912232391230560
195.805632663770268 -55.354819309972143 -120.838435566353979
196.223209765702194 -55.410821467593919 -120.466522966011269
195.987627301336119 -54.189639228210652 -118.859285702299587
196.808887015948898 -55.209269041681722 -117.918455046680293
195.588219349811311 -53.925800552118481 -116.786409909498246
194.940089980662037 -54.112536142944776 -116.159716839977392
196.557600223791781 -55.599446494296870 -111.507937141999662
195.508379167981644 -54.554707167904553 -111.760476482006197
196.063066334163949 -55.430180388763432 -100.366357860155716
196.014572800689081 -55.307220357965434 -99.613603684286375
196.343616422833151 -54.335843520099786 -98.897998489766948
195.926853573798155 -54.821063249180142 -95.482239451636701
196.364443447186119 -53.883336153610060 -97.251077267263966
196.713592481395921 -55.400478783963010 -141.245542829650162
196.992888013157710 -55.535398464390809 -129.133363115321885
197.344246699205939 -55.033669405356534 -121.327089824665762
196.774664989939396 -54.730331932834034 -122.010869440742908
196.336874991514918 -54.649249808502518 -111.208780690824113
195.961405098849525 -55.779141394145427 -101.712264701232030
197.037086737131744 -54.742755956344070 -141.152030405487011
197.407633456511462 -55.612741547606191 -128.663411482411789
196.909065742028389 -55.112299750519725 -129.676343494125433
195.936140856183471 -54.387922794844812 -110.391898367799229
196.971463289285651 -55.130402449781258 -101.070944067197701
196.425660791787607 -54.781993475074955 -101.114220651267118
197.271340976801383 -55.296835751265732 -99.780303463725488
196.967639773418654 -54.752502181016624 -97.056094642681799
196.827815448945444 -56.004068761251631 -95.933335548609463
197.231604180309972 -54.751089355418870 -97.042921368847487
196.612240584678659 -55.523322084390955 -141.960609297277927
197.915441879488668 -53.588814275804069 -127.912914439473894
197.701602688433240 -54.439558265982498 -120.809431620330884
197.453428637606294 -54.651928019208370 -110.129376074399417
197.130428388757451 -54.029752878598572 -101.450573887108973
197.564193539321963 -53.618462530244472 -99.797460093506601
197.210871956822729 -55.166578715378861 -99.025100076074438
197.303682932232761 -55.510953713204415 -96.404112073299999
196.690451734666198 -55.076259932312524 -97.445324502338877
197.345058567341653 -54.502532317460918 -127.659223510332424
198.440244367677394 -55.094130587277292 -125.749350760200088
197.333400381434501 -53.875251043901009 -125.139373769209385
197.126489075257240 -54.877840149420010 -122.928133215839608
197.088710456855949 -54.632381293275643 -121.710917992392353
196.978721898244061 -55.368088074508435 -121.506885952720268
197.825705303182616 -54.981540285135040 -110.731090888121770
198.788466463626861 -55.580079440793611 -108.939036949743922
198.547913239370274 -55.592946161165244 -108.392645350203708
198.979133962137297 -55.972609357941266 -106.096480890680084
198.491319215397084 -55.007998682675364 -103.613858147988253
197.960217103049729 -55.018841423081255 -101.473207750832060
197.714601842201546 -56.024497850562639 -101.321870947484598
197.298385426700833 -54.484615656228044 -101.038474047275429
197.429459813820273 -54.660878648806531 -97.580913053124775
197.197863114215465 -56.382793021091175 -96.502722077636051
197.832382119900075 -54.725347599176843 -96.734972436848622
198.283475433092974 -55.070515073570633 -142.488307258336135
198.102902966167790 -54.535006727761854 -136.031305229753116
198.032152034774498 -55.847439343711855 -134.555483094650754
197.898958672250956 -54.398902677902768 -126.305449962208343
198.095365743322589 -55.147442546592771 -124.876205593571910
198.292778821909451 -54.979703453793491 -123.033244310232078
198.251001936770166 -55.032114592674745 -122.696995570373446
198.306658055076383 -53.967626307264098 -121.222678137524326
197.892632220742513 -54.904347516254603 -109.944130080961287
197.648612210174690 -55.280160161449317 -106.165474711554779
197.530661708090975 -55.139052890224804 -105.501294500035229
198.330683570621375 -55.075921290588624 -103.755875001673530
197.656308905537344 -56.450265139981781 -103.030958886340144
198.238040126675202 -54.784576994161100 -101.896071591533271
197.710019908676088 -54.703326990464618 -96.541193731359883
197.149489977658135 -56.266720883298788 -97.073092480277424
198.584718395257511 -56.271640296835542 -141.842807041098666
198.851795930563924 -55.710567434644204 -136.219423144417050
198.222807225044050 -54.761020390541617 -124.602722776923542
198.287693256931334 -54.033633217674179 -123.177441203571306
198.920868623470966 -54.387926938021209 -122.617369234141563
198.835323588655854 -54.393315847754579 -109.543498606452388
198.791089598894501 -54.639039221308323 -106.016216300132527
199.195324962487518 -53.738038025681227 -105.604190599528337
198.136789323856220 -55.383606755789458 -102.530576708896191
197.385327021977815 -55.168913586107948 -101.966331614623044
198.953376639908385 -54.429145953429497 -100.626261269489703
198.531435847618468 -55.461272335359013 -97.003097199228520
198.472478069394555 -54.288563868664312 -98.180495379100037
197.902393039581398 -55.306654497205628 -136.207092880021321
198.071081120192758 -55.403468002827196 -133.177473868446612
198.729338555570564 -54.816289782089726 -127.221194482883448
198.763508144907945 -53.631947724467587 -109.418134031362698
199.039899457111432 -54.935616028841906 -105.889768603803731
199.025779847790602 -55.195728703213931 -102.551735880281029
199.314427797220731 -54.676111896934543 -98.010807038602948
199.177614273968317 -55.639187629314989 -133.324276668060122
199.642047122535672 -53.915206396456185 -105.659529632182227
198.904701983783667 -54.766624112770430 -104.436317379516936
200.197359810961160 -54.610164640988657 -136.725487951660057
199.879255421471044 -53.939644598647860 -109.789984898479389
199.912640363122193 -54.810900263919024 -107.019553074198299
200.461988862224786 -55.559325930499526 -97.386853751209387
199.798053749009426 -54.290340090926861 -97.240215621577633
200.269808784692941 -55.479016278057884 -133.318960497123243
200.929670633949428 -56.218776720010041 -98.398384411122976
199.857394043497379 -54.419924193136694 -98.490890603500247
200.244404590146587 -55.877024021633858 -132.878543427307903
200.755088132443660 -56.682762148850273 -97.324867632366718
200.209647616626313 -55.761529763694668 -136.287393754408242
199.964242199884126 -55.843586772622842 -133.921074800730224
199.930172338717057 -55.211897206486711 -98.659293246398079
200.194459436095514 -54.181670497901976 -99.149747279618850
201.564705535283935 -55.638790526066231 -141.547707526056683
201.322514893990103 -54.181867865626785 -135.633997061106953
201.395381360403178 -55.497468608390804 -134.972958846955748
201.774456381494275 -54.946722880257425 -133.888309030659372
202.009408049724925 -55.889260894089446 -134.566991355449971
200.618729569618210 -54.867487529163114 -125.970054539182826
200.994229047102749 -54.834320720386884 -108.906169807594893
201.614402716551922 -54.153350576954296 -104.683959874412068
200.732239709444713 -54.768158465440223 -100.024721960708490
200.789139393880561 -56.912269824007424 -98.059602111264937
201.776701116624963 -54.511996393613359 -99.850831463074528
202.236974957128098 -55.313222947230386 -142.340794324226891
201.497505992124701 -54.733310100451789 -127.720687687107585
201.508983187013314 -54.400240206312802 -123.803096626570181
201.056274883977153 -54.109096592469555 -109.484412273919446
202.376867414425590 -54.304913361832448 -106.671514395810817
201.617276092489931 -55.855252961398890 -99.884753758474218
201.637792040985914 -54.205023085016876 -99.860647422893734
202.482835006749610 -55.149997106939210 -141.854660022521358
201.153621881257180 -55.460342564483526 -126.907578188571534
202.571790773392422 -55.406744432427331 -125.275470777058359
202.460634144062908 -54.309443883311118 -125.139576901999902
202.112959239565640 -54.727438068912832 -121.957561512270075
202.422594008208591 -53.829916108585351 -122.111391284607151
203.130496674135458 -53.902174557522791 -106.309818577489864
202.395580326794118 -55.315102318725110 -105.095236252739213
202.197459949590325 -54.735087516642494 -102.581149006094947
202.315909394728862 -53.835874502553239 -99.730386705331313
202.557948249397214 -55.736212267720461 -99.723582492293843
201.608736420627054 -54.658679738373010 -99.304822024699178
202.028548283421514 -54.697850828231452 -128.312305962208342
202.965270109426655 -55.703436794929047 -126.723291620258522
201.428951141059343 -54.854047972113889 -123.955667135944879
202.519661694297326 -54.392314816957821 -124.346012465906256
202.570974296903927 -56.004177619858439 -121.363484321228810
203.179799425108172 -53.694285097142767 -120.091099970478467
202.418451821234157 -53.960365118421166 -110.572224640919131
202.750717443425970 -55.313859901897217 -109.448778958025486
202.865709444859846 -55.112117916851986 -106.598806398555652
202.890592002355106 -54.219712968677740 -104.923837124186093
202.809298301791472 -55.154877470517221 -103.077633264995285
202.676522258846404 -54.304095535396272 -102.048491215881299
202.371722344040649 -54.759699390603558 -99.868958915185701
202.097395338853204 -53.844606796120182 -100.482577938916265
202.644277465788861 -55.143896945886326 -121.105757076619057
203.341541221503149 -54.478139187094243 -108.839316658198555
201.781936501174044 -55.224196649476156 -107.578771669455492
202.566557241581307 -54.686501400040981 -104.277735667195003
203.251067179620520 -55.431385417845362 -102.803412358459184
202.722362650767963 -55.036084414755479 -101.429168368413613
204.209993593298350 -55.872069665046183 -141.450494351353143
203.925560428806904 -56.383714015009645 -129.063006128927384
203.672457165528982 -56.255250885279565 -120.521125433696255
202.671915994534970 -54.625641406164377 -109.146152704199636
202.480652798464547 -54.203717790571602 -106.728508656915963
202.917673991671279 -54.721277433709318 -104.476307470324073
203.364950983977678 -55.064571265764741 -102.522415006234283
202.974900320125897 -55.586640505562499 -101.201811007439801
203.101405066704615 -55.683539683189750 -101.825094984131496
204.327641790197475 -55.749708480635405 -141.424950475008188
203.936152789108263 -55.148219821099929 -128.814298959580867
203.966230083008355 -56.123532545989775 -120.571762688611585
204.015247519019454 -55.768466675512940 -100.966721440548397
203.472404508889355 -55.244122038739334 -102.054831074677239
203.921643567823452 -55.608995185213914 -128.862786596709498
204.285237199098219 -55.225028749327976 -120.567633705907383
203.531214416443106 -54.432094475039577 -119.819186708929465
204.695169822634625 -53.682039120092234 -119.157826867890321
204.253965736709461 -54.074292896807833 -117.706005492088508
204.079915898360753 -55.305405903461818 -117.057089664894363
204.335115625337039 -54.693595480544872 -102.284533075236908
204.706920480297413 -54.908356791163854 -119.722557418253700
204.417654224589370 -54.920774150161904 -119.362832129035695
204.229860938375367 -55.633949296791116 -118.541145349048946
205.003493911338694 -55.290862955372972 -118.091742425328107
205.012162330980573 -55.223146475700915 -117.395013427466097
204.373065621292255 -55.454460136820160 -117.059881667661585
204.157670050869655 -53.945986749696452 -115.203340493370902
204.487975381045402 -55.229111471767865 -114.967691012425902
205.045117315000937 -55.684319041420196 -101.932806812210885
204.054213947851537 -54.376236937139424 -102.276916967731154
205.621819318004214 -55.207017572093591 -139.317427341828903
205.504587644585143 -55.465360683206868 -115.561720744167076
204.933107367956239 -55.321487519077934 -115.017290450925529
205.599018654126354 -54.451261485860329 -115.143649162728792
204.828794412078963 -56.321957903388153 -114.209643887208458
205.102105178052113 -54.995396664718427 -113.751202647492107
205.044458480070404 -53.564455273291145 -113.219496688460168
205.376619098610803 -55.375235349356316 -112.393947063182864
203.467057675158259 -54.539830860359416 -112.741114954479201
204.118768406905161 -54.849780619787055 -111.831186182746066
205.320439658607796 -54.948839828375853 -109.835823337965934
205.248834058473648 -54.630230370255234 -109.681973484354018
206.431344132946919 -55.177632580256400 -108.845357413069962
205.214779277611996 -55.453633594118415 -107.403570601514900
205.549754269886364 -55.725589044795839 -106.847489931455115
205.648184202509299 -54.656384658069712 -106.496549874484231
204.902813353512386 -55.107790751292484 -104.667919492103721
204.184957161585345 -54.525496261824628 -105.272601696353732
205.994117975273298 -54.848877049598372 -103.087745199923390
204.899476677895677 -54.487452240943256 -104.239340443857117
205.275548586800653 -55.178873838746057 -102.841720634284499
205.921973022886448 -55.592672530787553 -138.539084675219044
205.309662264522956 -55.206952194530629 -131.062523101953445
205.325916721550897 -54.657105577347167 -137.508925851940234
205.876831921988497 -54.850027429668344 -132.672511951214148
205.878615078320877 -55.259006764465951 -132.272740330425194
205.931695015211346 -54.304564256999782 -138.020645175591000
206.553971738457847 -55.281136577289203 -132.408757164309009
207.053644498849934 -55.370730721639603 -136.829003706555341
206.367257939431710 -55.367914257857549 -133.536771675027154
206.426051533090856 -56.809043030150846 -137.883477053865192
207.879644876549804 -54.422744469014916 -137.206741998014706
207.831533850582758 -55.422447736140739 -132.300130493894699
207.084417748270624 -55.299699232455083 -137.130316457632944
207.788191607245665 -54.351067241217066 -137.629534703132663
207.050259570838676 -55.867713491648004 -133.636606934667498
207.378040694944048 -55.428026787269829 -132.907136909196396
209.506790069064465 -54.821315708906226 -137.665427754696736
207.903189832453364 -55.213031192836397 -132.961112856489535
208.170784810493785 -55.777374208969988 -137.338020050201465
207.779787157400676 -55.487893895566287 -133.190054712718364
209.377531788020633 -54.849504149127142 -137.092336689803261
208.936812612274821 -54.331235918627840 -133.222960208929237
208.858138631833015 -55.562659330877835 -137.417187149431385
209.587029029903590 -55.816845484589351 -132.523976202866322
210.799182301456625 -55.040115454560961 -137.279149975336026
210.690354725044784 -55.439916519313485 -137.218687292251900
210.066622799588657 -55.822364485848510 -132.562482382636404
210.998912556110611 -55.373004930221100 -137.766804240670638
210.299409225400041 -55.671758361941954 -133.893093903688055
210.328213122268778 -53.860756280607809 -132.933876031547527
211.075722296117448 -55.127531520501847 -136.660539674778306
211.069152918211955 -55.174603663912166 -133.581263874824003
211.954766556004415 -55.184164342974682 -136.815653503589289
211.531341143947344 -55.528187770187671 -133.223789675374377
212.515611378704023 -55.471326258131597 -137.636126542216090
212.385257598651208 -55.693683308576666 -132.689998130227792
212.574716801829993 -53.923812008914794 -133.586646193294797
213.263819537611226 -55.417570714893216 -132.790463722405292
212.621051616756745 -55.733348788365504 -138.366567315626668
213.557526987203147 -55.113751431771433 -137.493361013782391
212.834760247558762 -54.583359880760284 -133.730871128772606
214.022920720160073 -54.926951695688985 -132.766769076395121
213.459943229661945 -54.660546167524856 -136.990488579024230
213.622108156641701 -54.650613439471542 -133.845924802617702
213.757952486576983 -56.118714774808609 -137.989075221438242
215.933085233334197 -55.347169243018271 -137.619542611808811
214.830889622696191 -55.863341917265387 -132.893683299514720
216.919759469005896 -55.167818834939851 -133.815808223388501
217.873955011178452 -54.943067148614332 -137.099007205472191
217.789899257711426 -54.536826433376135 -137.372924361990215
217.841426226717289 -55.645192332111932 -133.146461881778833
217.713590413710506 -54.568147861021686 -137.993930877664695
218.361535668318140 -55.349907339066689 -133.627618337102831
219.416968490621798 -55.474857332441232 -138.999881751676980
219.178940006301616 -55.469313292208227 -133.259082273740233
219.555586470329075 -54.615293412877193 -137.234978116386202
220.348481735027377 -55.313157092330130 -132.780372323494646
219.739395539458627 -55.739719722706411 -137.891816039158670
220.628768231988829 -54.769446759192817 -133.802150111671551
220.896482209028079 -55.591831675236861 -138.204541578130573
221.816914030998021 -55.439670961662529 -133.382592265619706
221.787237189355835 -55.141922286469708 -138.179615950143329
222.032374149542392 -54.576442087581938 -133.602009211006134
222.197023128781836 -55.135305942543496 -137.229898326962797
222.279436701190548 -55.745507802382591 -134.030254956154351
223.910772292470199 -55.360796539545348 -137.295227314369896
223.595792945402735 -54.951341583737843 -137.682094776339909
222.839783395583453 -55.491990620046948 -133.477614140220737
223.450522137520267 -54.909786403253648 -138.861124268774063
223.556368739320789 -54.476228676853509 -132.435406121492406
224.740477273091159 -54.986800423198702 -132.526918697873896
224.468522196521974 -55.629439621039140 -140.711998315612476
224.950176883810485 -54.967499040799083 -140.092467284606357
225.100442410472994 -55.144373599562456 -131.372475568951955
226.163184165889930 -55.384568638658507 -140.446273464091632
224.458859673496988 -55.216145214528083 -130.213848162738657
226.254427585784100 -54.964758873732706 -130.092661955780642
226.181254554029948 -55.690281919786486 -141.203766779159139
225.544745534946742 -55.568275004746141 -130.389278569302149
225.398714935291025 -54.744625017658691 -118.085330252986125
225.115213005159490 -55.700018040639023 -116.960359790418096
225.217147453235953 -55.487775984917889 -113.112235342108008
225.061110258183021 -55.314645123088042 -130.764255539591346
226.440911884173374 -55.746172143155519 -120.354464004882544
226.588367274245456 -55.138734732131113 -116.391703075660303
226.494285676953922 -55.006646935759179 -114.343369318972194
226.009079181479251 -55.454290942022311 -114.051649707790560
226.501631234164563 -53.913063311468733 -121.854381154868491
226.581563053887635 -55.039115510350655 -121.094558534484776
226.843779324650711 -54.675713999806476 -119.873579943764980
225.627954219521172 -54.434557126594171 -117.946670439613058
226.084374732749382 -55.152814122596737 -116.934826780289171
226.858788153258303 -53.669442981180971 -114.296894269581870
226.329920796732353 -54.530284342865912 -113.506908180444512
226.120853707003675 -56.341519073120907 -112.345861385220786
226.079571119231389 -54.875373329756059 -112.073345343975376
227.543815616761464 -55.429147421995410 -129.360680945742217
226.662665597774151 -55.185693585398013 -121.674982284599253
227.144042326554342 -53.858565137282966 -120.731860926379795
226.443889058833008 -54.725295683773425 -120.111477031134058
226.725683716468239 -54.678979037910366 -118.024762676275742
226.633184891005527 -55.591661950026023 -112.507179058144786
225.872658955354296 -54.987909722294745 -112.488661193043285
227.122532057260685 -55.136594964151143 -129.170918750038282
227.073073258247661 -54.855185951027408 -121.466205208681913
227.516830345736736 -55.354581843288145 -120.478463455065366
227.140893923959709 -53.191681328225307 -119.518386086457980
228.047774787411470 -54.014550184459196 -118.280163076805053
226.358371159913787 -54.691059997418193 -111.307091966147013
227.036446482851289 -54.806199751086908 -135.672627700778577
228.157646212511139 -56.242693791210186 -134.901053680427054
228.193495123573143 -55.953727691037571 -129.360039320261109
227.911676737680125 -54.064950901945579 -120.587309145317477
228.074493081600878 -55.196155718668180 -142.591721158448394
228.176312138240007 -54.593598170355619 -111.944631307742839
229.019435710493781 -55.149494437476875 -142.719627607696424
227.965339765462176 -54.464684988473365 -136.945085135719950
228.076781462427022 -54.732981030190416 -137.221195223701898
228.889519718286437 -55.535783168396236 -134.998880296854566
228.266142055042536 -55.390345410278300 -128.557363102984937
229.167020200730178 -56.205380326235300 -107.759285929409003
229.206086576334854 -54.570673135113836 -106.174509160016612
228.914576675195605 -54.546097016652595 -103.432770037632721
229.322457289945589 -55.816845599186735 -103.031780652095932
229.237441532504135 -55.533591145947483 -137.170034154562956
228.816425434879449 -54.418749397228694 -135.002897627545536
229.584929573669683 -56.048728494504672 -128.596271071055753
229.392376796431648 -55.477056554303772 -129.231357241944153
229.316984397670950 -55.949309882256074 -125.390879687914605
229.573991216426748 -55.517146145323011 -124.663986606837369
229.153794469334429 -55.080849501676497 -122.490644826830163
228.421237944145048 -54.257259386419733 -121.150298299225909
228.394765223001343 -55.159827183626760 -111.107794105809333
230.762397362299680 -55.111285343127108 -110.674888847949234
229.433908433527534 -54.662834410201100 -105.074904736768389
228.749647604387093 -54.414960439845231 -103.901754015089864
229.095869755456221 -54.433055949791438 -102.895143659173527
228.649591701624303 -55.551512606987245 -103.053701689708234
229.031955337302946 -55.484617701248069 -100.014511533144486
229.230084317018651 -54.973349743601020 -101.131035966646863
229.331303496236188 -55.252665791258295 -137.711788638312157
229.638369999440044 -55.817408001276220 -134.324527252855120
229.725342562648279 -55.130315173795395 -123.482336858333582
228.868967450815546 -54.661109613040395 -121.476317717632185
228.991412732791332 -55.861644917521929 -110.293371353017818
229.845487186002771 -54.379521604723891 -110.975547719023453
229.517758422308191 -55.147207102623696 -109.053186379038053
229.967946611872378 -56.077654804487338 -107.538946102873965
229.851691409992725 -55.128969627057799 -105.276996884262928
229.824296724154920 -55.758669790776821 -138.257402311539806
228.899839228383200 -55.704075387829150 -111.684826695808724
228.897571015338713 -55.422502994646081 -107.991693597278157
229.809222689954709 -54.566757056550230 -105.536830064759343
229.644166170650323 -54.743638824687778 -100.614098321175732
230.051762965318431 -56.188625404122064 -137.597543613441587
230.105458224393431 -55.461563566218445 -135.271129140171695
230.890677620602503 -56.501408349072676 -133.678879239252524
230.494287273601401 -54.566289828815272 -122.532338654798934
230.840143444368323 -55.147602970377889 -109.187132721761856
229.529185275379007 -54.853294307304793 -109.078080721343099
229.757239923589196 -55.678927855579886 -108.096841970542229
229.999060300766814 -55.748989210733555 -106.183161408824503
229.281079393361551 -54.164768601642066 -103.217212605728761
231.028235452611540 -54.256871785062813 -103.464979863862382
230.170609964613277 -55.306489823069498 -101.074008301789434
230.104257844243136 -54.329011863766794 -101.417212695309118
230.208699788245752 -55.362343443948802 -136.892873076672544
230.704055092892105 -54.784941369209008 -122.873452572475969
229.459321296125864 -54.033012359209167 -111.296994631483230
230.934295796985282 -54.470589408963633 -107.796201227008936
230.539204991113422 -55.150557627264902 -106.712223262531083
230.540111901566405 -55.164905079516103 -104.645849105600902
231.008846419716122 -54.924610450909626 -104.068754825738367
230.614199516338175 -54.417310439083636 -103.730600821282579
229.657311804290885 -54.613625082406571 -100.236282103107456
230.080363636027101 -54.958397250407188 -101.352455257806483
231.659980514846950 -55.908801084525507 -135.600981885786098
230.964334565620362 -55.240391080642667 -134.291339976285627
231.310667025151531 -55.084667369765953 -122.398104953011057
230.744247186400116 -55.194534974153783 -122.102086973740029
229.939320150768737 -55.465261032664060 -111.611559793069475
231.543818103943664 -54.498025465249185 -107.717652796433214
231.475493602758434 -55.007811202496143 -106.171542821361911
231.045164956403170 -55.164384047898494 -105.058154596609455
230.781835285772843 -54.257274001672641 -104.957185154693931
231.500958362834467 -55.689977817341401 -103.310455300064973
230.270589864917042 -54.188551513830035 -102.477745938555444
230.931545641060126 -55.542563571581553 -101.465937835513358
230.998112524249933 -55.895634001914956 -136.378468031034998
231.284806400046534 -55.369850123286213 -136.110334084354093
231.390734977822149 -54.558386969402747 -134.831243343699384
231.504467455359361 -56.164316219344045 -134.565234785456454
231.552175377560360 -54.857246348300365 -128.291187524526464
231.257543893005050 -54.559988944732282 -104.230284191516702
231.611399684797391 -53.806482104386014 -102.471851007509343
231.326855020236337 -54.975741069907627 -142.772628472760942
232.025531786514563 -55.216829588765762 -128.503777529008261
232.268912569922520 -55.612227669677310 -129.613244098519516
231.757398910843307 -55.689098075559372 -121.975100298133555
231.929497238270642 -54.361164542918161 -120.950280976246432
232.983295031094059 -54.641391274205532 -142.038288558799110
232.377513607412936 -56.119392615451517 -122.171280517853489
232.565607600401819 -54.249086544571284 -120.180110441553779
232.796074331759996 -54.067384035273108 -120.446362599088530
232.853840741256249 -54.760763052416010 -119.364107396452596
231.606515932284992 -54.696006185343265 -111.344844683095516
232.579365182739508 -53.906460233531632 -112.730158131165339
232.973787915444177 -54.602232028284647 -105.404207450990555
233.846156399223702 -55.325822467907955 -104.513371551333847
234.234834398935959 -56.484299536746832 -129.091992333417721
232.912323548282217 -56.333919535537817 -121.562325839632393
232.105171760992079 -55.152921166477554 -121.453071295113233
233.408324250937483 -54.622697087448145 -120.490959804353793
232.341482632150019 -53.755659365333344 -119.047008956788176
232.267959254714356 -54.725282434246921 -118.956957177428421
232.745525699713397 -53.940609418584785 -116.812876690914152
232.551216445057833 -54.422050113771604 -115.621059377354612
233.011840661939800 -54.046233111756223 -111.728367200653778
232.834754989928598 -55.435673436762286 -107.309552844444895
232.652596542091089 -56.276844828545137 -104.811942226047194
233.203551745077249 -55.043111120321996 -141.647958603422950
233.321881016125872 -55.252389696954154 -121.087099313226759
232.821782891420099 -54.545082541774448 -119.597762552010664
233.315147269089067 -54.144606770482099 -119.171070558923105
234.196037216154906 -54.758906374594332 -118.650480478544608
233.190730876002164 -55.572442951197715 -115.467571803755661
233.184165383273864 -54.364150304522184 -114.412884875360149
233.254998645515172 -54.847440398828965 -113.491111991280761
234.038629732632955 -54.092722795058279 -111.535902629154961
233.844817569280480 -55.173933028861612 -105.533578348220971
233.551467901587330 -54.856623099464727 -103.970039262414275
233.450738389195351 -54.744701303429352 -116.960784844477871
234.201745111146892 -54.795832586709565 -115.843982643069879
233.858720270569734 -54.982676805316530 -113.678958554423900
232.692825043190339 -54.819253328056689 -112.828793348022387
234.385095792658888 -53.844042925500197 -112.097028922949406
233.293140482985507 -55.889770933226956 -107.923138423729299
233.827133433907278 -54.707368644807360 -105.632828900289198
233.245754144228158 -54.399910079300057 -106.354330759037680
234.417413237005064 -54.135781435232147 -104.350709622294062
233.860827729240441 -56.065006663753550 -130.491548448116987
234.248763400807690 -55.731972496211910 -131.488157093565860
235.985101847454814 -54.811477856128363 -139.653722245469822
235.760423362554747 -55.889489814176173 -132.604900194821795
234.758786330465796 -55.672160023246278 17.418182593224266
236.514759929363038 -55.096175928012642 -137.785516744893727
234.433002949205274 -57.152010709881026 15.902654487285112
235.275176500959219 -54.084303715507843 18.359711491755419
235.097109414058593 -55.359408367315268 18.394621231245605
236.211499077797981 -55.403816110088911 17.985335202759767
235.862722043266331 -54.376605209281706 18.865111911347363
235.697451222214994 -55.193006458508975 20.138390087678992
237.019921154328273 -54.754204089937161 15.640703896998524
235.489294460673193 -55.887232967686629 16.900265538758305
236.624550163952080 -54.713583033806373 17.759033654135461
236.982914634769429 -54.594348577520790 19.255805899559991
236.827388181887187 -54.907092794840437 7.693655254411571
236.727651894715194 -54.979791892998819 8.567380165152024
238.045698643930820 -55.317060962438902 9.455505970217251
237.334298167323738 -55.752458578577759 9.137786681552889
237.568478915821828 -54.831469597812159 19.609272388181417
237.638229384694029 -55.384527750498975 11.199668358141691
236.748702842287969 -54.842893257292189 18.404478440060402
238.045710004139153 -54.314980472764120 19.104917214269264
238.413457991441447 -55.472452965807861 -138.178413693238639
238.269797716194262 -55.838510762505052 -133.890483884067606
237.461637304702094 -55.255893149172977 3.636359122975383
236.554010978138194 -54.770383531504535 4.535935768349852
237.751145283765936 -54.534713176215206 5.006730597569053
238.001693496595351 -56.165879256350507 11.306219434312835
238.007664428743396 -54.713213849478777 15.391514344817255
237.818644664333391 -54.482359508499229 15.739575326446424
237.087987077351329 -54.432092808307360 17.986259972408778
238.579797557586005 -55.115650691584250 4.283347573024398
236.776986720647955 -54.986646891488888 4.228076982923634
238.193769037332800 -53.717850028762697 11.739924337467961
237.457686470757437 -54.740103646228263 16.656707494036130
238.488916227500937 -53.758773130865443 16.913358503809199
238.249849980513659 -55.109954036752740 18.147697515945282
238.503074322904155 -53.895550129280203 19.307445808151890
237.915830452828772 -55.101183100869690 19.960325256154661
238.827007347111390 -55.358573661846634 3.508848764179127
238.037074667344172 -54.652234945089802 11.711744347012740
238.455518452067992 -54.558733303684903 15.743045937857255
239.006541728888010 -54.852293642772054 16.656391155353596
238.342191173279048 -54.604909397298968 16.633980399563622
238.717189102875977 -54.206855247975483 19.049202475477550
239.078834348796306 -54.514803288793075 19.738444970973649
239.215863441512113 -55.356132973536972 3.926140562415272
238.955712229491098 -55.526819187767458 4.073286087442178
238.395685935018548 -55.791852491365589 12.779826353572311
239.297754687154651 -55.720049458431177 12.438435190729544
238.664172139571690 -54.518289831410627 13.702251377546972
239.330351555968036 -54.973404086548769 14.576842410189212
239.577084305023106 -55.161193224966055 19.525707207860652
238.454009299052245 -55.864545535076829 21.116316212537143
241.191559710124778 -55.189922362523163 3.991805093803485
239.563058548570098 -54.801577526671736 4.656920272693237
239.412972207766074 -54.377366417913905 4.253737132807441
240.034023266206702 -55.579600888302210 21.622766929190433
239.936980582748504 -54.326713215946413 21.439722779829715
240.386928794913246 -56.439046632793193 21.225568364533167
240.803628517896897 -55.491991606448096 3.800897764184965
239.447645419346486 -55.573470480402207 4.010676758981087
240.748593632127807 -54.008915150704752 4.445900526182466
240.499077394443844 -55.654877558765975 20.183463296659340
241.093176620559376 -54.503119315342914 20.415440963320449
240.365451738652041 -55.424279285316871 4.399799285869429
241.201389401532026 -55.118855690957389 21.025617201938879
240.570030898595604 -54.758772378432909 26.899515738179549
241.640335845744147 -54.733348223449525 28.409076800888190
241.212364811443479 -55.388609867734218 29.408502645426999
240.730270818438470 -54.809316789618208 -137.698887664937075
241.485150416825491 -55.414081958450069 21.150726539478068
241.486500697371355 -55.339398452009505 28.403646369379437
241.055386799244786 -55.048046669907464 28.764575959164667
241.702050920880083 -54.271457822873401 29.977892597241208
242.186334435166060 -55.658031922698797 -137.577667849627773
241.324157901124153 -55.179832163041596 5.420079067553559
241.086799001618601 -54.654218316618838 21.034964176899479
241.390367246745001 -54.950686753043030 27.037552154579579
241.775348224172205 -54.898015553632405 27.651156739245536
242.331096017935295 -55.559349753734949 28.955975645901237
241.971872928593541 -55.231160146275982 29.005413645403603
242.224589241493192 -55.191282538073864 30.502258501123944
242.870408079295885 -55.737073458896091 6.873643582485697
242.210975648609377 -55.471741933249902 6.676634740097557
242.425469562641581 -55.051516668197422 7.953133245837919
242.653594867006575 -55.227092179452754 25.912884717212791
241.971469796957024 -55.126887129441826 30.569640468208902
243.223211787972701 -55.032068124736597 -138.184926267314324
243.000213078174028 -54.754256568014952 7.495881461725920
242.713755956615188 -55.547563507023938 8.764472177123324
242.474600512712527 -55.771644873657138 21.445253961319473
242.339420828329111 -55.008945340522104 21.583803272085291
243.019843568098423 -55.588118319645034 24.532578975453351
241.574030403783269 -54.750770708190075 31.071856369080063
242.986837883221227 -54.709387167236983 8.099147986934959
242.671197852895546 -54.703228129313317 8.591126487813002
242.631775608446986 -55.201853836219541 9.965210677551344
243.489752391922735 -54.718983745873800 24.775689804016285
243.395976217350352 -55.112684614224861 31.623501527581240
244.304185849296431 -55.577291711992615 -134.685378745881025
243.865417788936554 -55.079559438315925 3.956865432549634
243.727444244255793 -55.858310650218797 4.928586638776622
243.099212266688369 -54.969216369282975 6.116134066838699
242.766532082591056 -55.293000953503991 21.978608591363859
243.285124234633059 -55.377987962965790 23.121636821597637
243.149620443040675 -54.758782157750090 31.313227550956690
244.806011816498739 -54.694115595961932 -137.994047427915660
243.868543779189224 -54.575444421488370 4.985958694724785
244.067290134179672 -54.208655567814418 5.772478511534685
243.924529359814244 -55.013732376040267 7.361781980034895
243.369320771374646 -54.247228764358439 7.853329833299348
244.432230357566254 -53.570428425906343 9.747868511705349
243.096351314332054 -55.628160913476009 22.440923871649407
244.265531980759391 -55.566098086494719 31.477326216906420
243.421923459767527 -54.713017170166609 2.780433902190191
244.584113912510816 -54.783367481765879 4.692481784964394
243.621388217530750 -54.524598197092743 4.801634468472459
243.926110090703503 -53.920922044137555 5.428654629796886
243.980522169805568 -54.393739752791788 6.658211871963229
244.463504081553452 -54.766358943424251 7.768266198361415
243.971637580501067 -54.214467833055735 8.655880195687391
244.320692173230157 -54.959544092490574 22.665481588646344
244.187240022633802 -54.442383183299327 22.593224856514617
244.837417496914441 -55.671934418785881 -133.278786706205779
244.028888748724683 -55.117809451966494 2.745383476637661
244.239387527413214 -55.358355395102691 3.490724089836821
243.368539719246343 -53.502903386924970 8.182659344490318
244.236031736425645 -55.157777540651210 8.228455068737585
244.574049686432659 -54.935372410661188 21.143957649411767
244.742358038729662 -54.876668660714515 32.400172435944953
245.611290326713743 -55.640204240530423 2.131147994232107
245.244582478869148 -54.283659310374404 4.129759546813670
245.006458210347432 -54.265594454392271 5.534683734840548
245.252757705662191 -54.870116762744829 8.236700340113796
245.214178090234213 -54.896035270078826 31.990683808167319
246.274521576722066 -55.270690824800340 -134.105174369440334
245.428952544914637 -54.885823183365432 -134.620309625590266
244.571239452990170 -56.233720150272262 2.703710927187389
244.984489719080898 -55.052636707282034 2.385225120850427
244.613389781259826 -53.580659134465314 3.879147014940575
244.390891534544778 -54.287311550902004 32.844830100012686
245.868354578784675 -56.310325137472802 -138.524727292207729
245.866278555300141 -55.486360964741763 -133.609683037192156
245.854494335566301 -54.681557145228751 3.410387766810135
246.241935907534582 -55.098542914876461 32.195688833155515
246.121054164682278 -55.372579022151655 62.863901782625256
245.738979534541073 -55.724588499585366 64.402889353757956
245.916293445081692 -55.253832035831138 66.790384000099351
246.228469948138496 -56.085048655589659 -138.708451420255301
247.538584814912809 -54.308418849900619 -133.629466799216118
245.864865477396421 -55.110964780004707 2.873931455295210
246.301169790667217 -55.241176063336013 3.443069113488784
246.877026519284470 -55.483211536769616 61.460328552011426
246.635827509779972 -55.885435949670111 63.425598990396935
246.116773246421985 -55.316259687269593 64.911976802422657
246.526960271459217 -54.781582284941777 66.079140759499779
245.942465399646125 -55.087749360982684 66.885135599974376
247.177493181488785 -55.213741907165655 -133.537840630824604
246.848041352638916 -54.992315467763291 2.612258215864088
247.377020932190220 -54.578042275892500 2.949376623740569
247.711258347563017 -55.465284104353955 32.129988544402394
247.207225798186272 -54.375540213563141 62.195231168740257
247.428276875251356 -54.972378781668624 62.651973027236338
247.387228565110689 -54.391611329921361 63.845797770483841
247.667065243297571 -54.581730538122017 65.845460272493426
246.402830061084956 -55.188729075331608 65.939454269138082
246.698902948541814 -55.803547049781187 66.554869820569593
247.680000162956532 -54.710022061422521 -137.768736562012776
246.657199620042064 -54.608386552265785 3.439449280754635
247.776707126231514 -55.632205698241151 32.395379562435835
247.401747243225856 -55.290119022719139 32.492282786963699
246.870682649201399 -54.387913150301131 61.666805784469133
246.872571190416721 -55.460123888029486 62.708158844597705
247.260163352771173 -54.974093484054251 63.080871126297204
247.578594751726655 -56.364709028515449 66.870927811644549
249.122895841945251 -54.116677442698801 -133.803663813703110
248.699545262451494 -56.185444607867581 1.885683104716048
247.638367215617677 -55.023777338248635 32.237931290860416
247.406817057303300 -55.515324543501038 60.138235530442998
247.750651825758325 -55.719850454907714 60.061615778959954
247.653681917270092 -53.946182639139224 61.313331766085582
248.042654266419419 -54.503630504944098 62.215680116651285
247.312943773473563 -54.776472719263566 64.245800187038128
248.347316653422524 -55.723276103933884 63.936771850603584
247.583823135441207 -54.952325536767887 64.291176718937891
247.409093194450122 -55.143317576140987 66.037028523898272
247.855204478890670 -55.074787078680203 1.800918368839419
247.689903380853679 -54.222249254673315 3.211021560575597
247.450557250148734 -54.776032319206180 32.851295329587160
247.671327164141218 -54.722503202747347 59.533570931285254
247.531385168660904 -53.660156093006492 59.390424099072249
247.908114747314386 -55.109820371895964 59.876125098223220
248.776560972302519 -54.452095930631913 61.454539631281158
247.319680633009739 -54.916114273639295 62.325145275923816
247.658239273912585 -54.945592611812216 62.460598347642978
247.138328442185895 -55.364759001751850 65.536334065587369
248.868070025769896 -54.773978608345686 2.740366038794763
247.627254221712775 -54.574399796108310 32.460758606337919
247.711214623176886 -55.126189616431262 58.118574713432075
247.462304602372456 -54.182377278208207 59.172874153361221
248.366673601967932 -55.230330558334856 59.467719625362363
247.879979142070539 -55.285908214063895 60.968028409611406
248.149134490495669 -53.777886102444768 64.448204788275902
248.571389087186958 -54.853773727987999 66.207767904097068
248.140278120905663 -54.674078779790122 65.505301711921618
248.552993866121511 -54.997378390501666 2.035586253235044
249.023479460260859 -54.663506792184791 4.314616304301444
249.244786085256038 -54.841541549523072 3.351778426968473
248.907354582221842 -54.336467697479691 33.235070593517477
249.628825804994790 -55.175968586164004 57.602684696444733
248.421172287593862 -54.936164368885841 58.081544675960565
248.815408734246830 -54.682929568312900 58.966905592850438
249.611118692551202 -54.237409352672401 62.295418846545296
248.466118674744678 -55.125789160723158 62.627195405161849
249.379412104814122 -55.006095490697547 64.264543277564798
248.171073045128992 -54.239251980551430 64.713828269789147
249.529728727728468 -54.652659220924491 3.894493041445875
249.529858430906955 -53.802476615651507 5.092070571806812
248.743902923006800 -54.850810433380502 55.542207382171249
249.343663559946464 -55.242900597074609 56.681948244511666
248.922892573022978 -53.725138164590476 57.180615704172332
248.733022522401342 -54.370465068465009 58.504986523214157
249.628191090434399 -54.640473466532640 58.967758912370542
248.996089849705811 -54.221754825799451 60.719488738721637
249.004261861451567 -54.658237210084152 60.549591441343431
248.738971216139163 -55.397106924522816 65.056938653847567
249.028843260094845 -55.158732434759443 64.348608649410096
249.891461087932640 -55.216908366370092 3.266231606467175
250.059940416216591 -54.976623441868526 5.636066804478546
249.587393002961193 -55.590576587481991 33.076970242943446
249.715320191877055 -54.574832335958448 56.176425425016866
249.440478658672731 -55.214758730080860 56.622096775979536
248.749384985670275 -54.549088697634673 57.760429955276059
249.736177067867089 -54.679539936330912 62.539907897335894
249.606858586490290 -54.133794856680453 62.750397011238988
248.571984124015927 -55.028675007844271 63.110619846251979
250.589209968749685 -55.116808485730317 -137.832357123607409
250.426688606626271 -55.250785258621761 4.038436396625789
251.303479023075994 -55.813523787498369 4.695944676101972
249.538400468256214 -55.532650069680727 34.565181558678368
249.937844902388633 -55.228197699495496 54.347914321601841
249.542752219253373 -54.687663701432811 55.598180841145080
249.485853554936597 -54.523585252246889 56.991028244305902
249.526456473318746 -54.492266898656439 56.636604843049682
249.481555649951957 -54.111151470916454 60.980249564413896
249.798972620437127 -55.392839726382860 62.653617612092418
250.313418757011817 -54.375326070127571 63.104980101105539
250.844716070013192 -54.861122054988186 -138.119868586638205
249.728231240878756 -55.151762366037204 4.998994473355899
250.100720723243342 -54.719927361074738 4.366972932065603
