# This PCD file was generated using the MATLAB® pcwrite function
# from Computer Vision Toolbox®.
# .PCD v.7 - Point Cloud Data file format
VERSION .7
FIELDS x y z
SIZE 8 8 8
TYPE F F F
COUNT 1 1 1
WIDTH 810
HEIGHT 1
VIEWPOINT 0 0 0 1 0 0 0
POINTS 810
DATA ascii
89.613374632627057 -37.273019851052702 -48.988928502196991
89.235785275887352 -37.261810108110829 76.944297222062872
89.682851518341025 -36.714279281607510 77.265600956555488
88.939273647261317 -37.085420945375567 82.448586893963409
89.391479899594586 -36.874628145031650 83.644958180622936
88.546780396842536 -36.625953429253158 85.044736358919707
89.329099012858563 -36.724967977469689 86.871959877940128
89.287722550769161 -37.009013792007302 88.035980947588584
89.519713436615760 -36.497659503759252 89.204488943243547
89.248258713774405 -36.357692186775665 91.442244574565279
88.740852182885860 -36.237106114081925 118.294979590758913
89.788940848395214 -36.992360084291697 -49.035983567194272
89.554345896803468 -36.736563341894652 78.203997571920070
89.754226811907998 -36.529680182114433 78.653481949679275
89.442318732808403 -37.377805183502666 83.976789039959812
90.094651240884872 -37.186844725566772 84.299400411632377
89.216776044388055 -36.366454761769134 89.194242534583310
89.762002633184395 -36.514123343236733 91.379544912501217
89.642019198360074 -35.812731156095403 92.176522599552996
89.509088325431478 -36.978488023361130 116.049470561656506
89.572890816807472 -36.828819423798429 117.460891762846870
89.209037969261175 -36.234536056571940 118.217413183808489
90.368789091966704 -37.573650085490073 -88.485006382286869
89.924620697606926 -37.359771138050434 -49.108604960725188
89.968904213637515 -36.570881335983309 78.056099986692985
90.178738831547975 -35.996540251032002 78.885638195506388
90.409371093734336 -36.980123094285595 84.781523881886073
89.674068057193580 -36.558816356293114 116.273852485611286
91.150115581457371 -37.189391343636395 -87.966043005972963
90.894089843437030 -36.966457790695706 -50.433916435949882
90.733813957702125 -36.897652093096021 77.172449923700114
89.972579205072009 -37.173394826118326 84.163224608174176
90.254187010403825 -36.635348983361887 84.549854119364184
89.979778858688562 -37.185151392549564 85.780945339308687
90.332783684324951 -36.742869033646159 86.750957009029179
90.321860980388109 -36.918609808799943 88.523934576157487
90.301767718155048 -36.449834154262021 91.497071999901550
89.897842927319104 -36.827978639803554 93.195993336727440
90.195461649625074 -36.662448793448803 117.353381070164104
91.145102876731002 -37.382331682509395 -50.477016394954497
90.906833194056176 -37.152053768197206 77.655973691057099
90.923406104982689 -36.724480472527546 78.874590772199369
90.755090890550775 -36.442803140192709 79.500812859521218
90.834926408083888 -36.854830520237478 85.571638868554373
91.055130471138995 -37.215109289348739 86.247879373985540
90.696861283441464 -36.196559718908198 88.632858571427420
90.743359398184296 -36.529926790679561 91.082371516155433
91.039915405417531 -36.198712186628740 92.117336483326099
90.836230507596824 -36.276482553643234 94.599539120617536
90.564190428705615 -36.457468877756014 116.977240914893187
91.297739019187645 -37.700317224260353 -89.069248998126199
91.020002344688436 -36.098269457541221 80.273158418995223
90.926296269029834 -36.856104384592690 84.699936126956104
90.662722494645109 -36.308829200635145 90.550534587660721
90.779130863598922 -36.088047598000479 94.479999025899630
90.903809403675055 -36.772717161561545 116.579300271430498
91.562149903271489 -36.865653747404174 -51.268419757180069
91.562766440277727 -36.774926998754374 77.046612851881065
91.596298434794491 -36.583278925580146 78.065017651719884
91.631627817514143 -36.499679105854128 79.477310766877878
91.310948750727206 -37.203595500772153 83.213980470542907
91.537942518219950 -37.072508310968956 83.645822697586738
91.977875201052171 -36.730429092816507 87.613069692992241
91.898636567545722 -36.940250702007674 88.498771594446865
91.657632765855482 -36.810174713643931 90.264981168597402
91.242835804416046 -36.394455994792118 92.826354564710641
91.750339102624096 -36.588865546206335 94.058019380718861
91.432811712451553 -36.076045571794957 114.871571233516548
91.953262789598625 -37.050870614603220 116.561150343519174
92.494030673260355 -36.991271234541344 -51.822320591078714
91.956217158187712 -36.636620880300391 79.082390722361595
91.697632743844082 -37.102350687642172 84.617203851066776
92.234754529192728 -36.985075626786816 86.006758478035152
92.160797649309643 -36.862019773513495 87.477533607883657
92.441104596932647 -36.733531722321068 88.937178707873983
91.917737336186008 -36.504316743216357 92.106182569180930
91.250652010725545 -36.403290180483282 93.214925515717098
92.088460883858360 -36.604533645031104 116.262968818993826
92.544123345099749 -36.959434981460284 77.582433134842731
92.755805982555344 -36.664670973454037 77.904843058510963
92.090225871117880 -36.090333353753671 79.312212153273791
92.755306076004004 -36.658108197743971 86.745396263372669
92.492014990542344 -36.386700249421800 87.416108643782593
92.555484699310483 -36.443915513435023 89.715687612285762
92.096597642684443 -36.349328720854253 94.155871180414550
92.528914282895741 -36.336004630213033 115.104000586688642
92.301260202414184 -36.904407543751866 115.902944931782670
93.414358591305927 -37.248808976348080 -88.314555327804428
92.862821392258851 -37.572572495279744 -52.564114523783573
92.763101672039383 -37.110689740007700 73.034153737373828
92.636254879430822 -36.376867447120894 77.754727709197795
92.684759787534915 -36.394060881566936 79.196240662964740
92.764626729076980 -36.814302483352201 84.716667384256425
92.784010913256310 -37.205226939456779 85.637222261723011
92.863375894153648 -36.657849221841303 88.435896319247931
92.762685597645842 -36.674088536661856 91.093983648132138
92.916044201116620 -36.615732307705350 92.988531122171153
92.434794805476372 -36.913021584826694 114.952054853157549
92.997481205433047 -37.062409012054438 116.028066427664996
93.101439917255760 -36.429481697961897 117.374956684553297
93.751848212075075 -37.139544367285154 -88.560536220269910
93.378528534174194 -37.306559449285395 -52.830129920547321
93.058861878983663 -36.240178932266787 79.763150763858064
92.639436063820980 -37.083412349828485 84.815006810802203
93.106796781749523 -37.112185219168460 85.363403654736516
93.363700457781931 -36.802707164422749 87.424311901537337
93.250981428884970 -37.052402798923325 90.610264388915965
93.177853199093363 -37.076582354206231 116.037295790548981
93.161322510263219 -36.552691920184195 116.846178404281588
93.768221945419569 -36.966579931823226 -53.544221050320786
93.717399240370227 -37.408781171720975 77.507374436434446
93.639615789435140 -37.464764167108747 85.091511091030640
93.586770193631409 -36.972969829503505 85.761102693352370
93.568305915355367 -36.874105735582731 86.773186949927322
93.180435564773290 -36.187180589370911 95.382087403313548
93.293115761972103 -36.868809476530849 115.170908995768514
93.341318074278661 -36.628047772527914 117.132954221033785
94.382629942247974 -37.193237223391314 -87.978224909861254
94.735152559743540 -37.492302577107743 -53.565474351018210
93.721352351157734 -37.334174149558862 72.750263986972897
93.690257968813256 -36.905601248021100 73.039692909859497
93.613521343505809 -36.851465592783867 79.129048720966807
94.026329413804774 -37.044774009660777 86.666820381549996
94.134566871779029 -36.426374326920374 91.085605774621470
93.968670470818793 -36.985436039917275 91.333489626257673
93.906111377047864 -36.733813530478841 92.467265750591963
93.661453257407743 -36.284738241224240 93.171628126424395
93.678306523964835 -37.056568053550201 94.091392125685644
93.665292004610833 -37.176933612469405 115.094917142383821
93.757185271826131 -36.558141668579857 115.472024326697962
94.972619590785939 -37.169131588413222 -54.047490675825571
94.539521656788267 -37.532410065671804 72.844677830145855
94.797636758586165 -36.897888266638780 73.118771914867551
94.012365900358219 -37.167443788323219 77.516772493177655
94.214984176034619 -36.719569251884039 78.032347789306939
93.997602761264034 -36.847322866785859 79.006661506423839
94.321211021123759 -36.293281848629150 80.154513417997023
94.847157496189453 -36.736493582505979 85.327388390221117
94.430257172746423 -36.752518304961498 88.630336464172345
94.469680468719133 -36.818755657300777 92.699250792226039
94.323467760388738 -36.505130584906198 114.106152829497319
95.422535060143488 -36.797037453790360 -88.111873471338797
95.389455038706387 -37.508897153260499 -54.500825073951418
94.607777862920997 -36.851880752555267 73.352688578574799
94.615384762800204 -37.253253755579642 77.975350316198075
94.950958409528127 -36.729341722779026 78.746895227959229
95.333311078483092 -36.634980296307475 79.929850428915017
94.832910545669890 -36.133595314444520 80.679797256105502
94.290989661526140 -37.099490207071220 84.531914275242329
94.835951439010060 -36.562723301930923 86.410540219193464
94.900827001051027 -36.662975290118787 88.697200939935740
95.283548606577384 -36.656567528421476 89.615870461936353
94.882895345865066 -36.671384977200972 90.698433171669322
94.660564583741689 -36.252745779915621 92.494444240783622
94.678977175162061 -36.587677176472759 94.182277279091338
95.021300017480414 -36.418893685403667 114.681471273383480
94.512789343859055 -36.868842053132838 115.024999045624838
94.610629480299181 -37.319274806935788 116.212672707742541
94.522480487768377 -36.164136194369611 116.881327635039284
95.456311878778138 -37.446789492303083 -55.415108767122248
95.165773737500729 -37.273529595316703 -55.506745379741517
95.153006927764579 -36.885170903646952 73.488065295878471
95.665384669936785 -36.958981336611139 73.934462253987135
95.171227147468599 -37.288370183642613 84.720850744689216
95.752534118199009 -37.399734257036776 85.851239684440984
95.535677351686161 -37.015508028340022 89.085754271787849
94.953078012153554 -36.755334045292393 95.423823286090325
95.137648130591288 -36.636129980607301 113.751691296110252
95.212157293269343 -37.011269496857246 115.489086493886489
95.483533944576749 -36.829067214325271 115.968453674974256
96.061588497348055 -37.701327474212256 -55.951888687469378
95.377331298749169 -37.132806061864258 73.029325519744347
95.805063995003664 -37.146759189244349 73.809964822308885
95.700844911195901 -36.884151375875717 73.720808283539469
95.415980860776017 -37.520982241962479 73.805445958091298
95.434594397694624 -36.312407175855419 78.886386585264503
95.634179971011449 -36.663993558044368 79.575385181370564
95.810414335216535 -37.621517780439518 83.737576613149770
95.592432197548618 -36.857390868383987 84.687435658185237
95.822581022999216 -36.883758520466976 86.393540465203074
95.376162080533291 -36.738510094978679 89.450146747960815
95.778715071459416 -36.179879667676587 91.812460013976803
95.406652451702470 -36.900046424016139 93.304124960490853
95.473778264678984 -36.677104649783104 95.275698366694641
95.372193642755235 -37.088781042491043 114.128764119375177
95.703094252748201 -37.262810855648922 114.962770726082880
95.477473622897108 -36.500719076451567 116.175035215984636
96.718331850229802 -37.260033663966510 -87.990527907712732
96.580398918337607 -36.230118654462238 -87.469849087243261
96.766558151414401 -37.339692196655804 -56.230909933277417
96.020204673486887 -37.180541085114555 73.799242665369746
96.370359887889009 -37.211805172128521 74.364024116464620
95.738079868562394 -37.239683422414494 85.451938816747088
95.822257411498327 -36.846724632610709 86.779334108203244
95.899092937484070 -36.889681496089899 90.127031643247378
96.008514863839196 -36.700025039982592 90.024661071398214
95.805806711359054 -36.417486502359843 91.979705974279497
95.697149003452779 -36.827646099329840 94.459760075560638
95.902048582995477 -36.428411411493961 94.784208058025641
95.856548654973494 -36.348230617180100 96.197651112360319
95.931639106034808 -36.672558265067330 113.840314700476725
95.613465132783688 -37.026482875572931 115.216449731679901
96.909024402658943 -37.286716074174834 -87.913202701124064
97.031847715996335 -37.469011655485950 -56.250647162165180
96.236959459775534 -37.283607436166285 73.463914549401196
96.999862344457313 -37.213314006957667 74.436005320920955
96.557093350042123 -36.631227371249125 74.244126459701334
96.658554223284781 -36.292773225003359 79.607585010907059
96.455954390170973 -36.663006970502401 80.483952830732562
96.255805894315159 -36.680796909608397 85.520742336763604
96.807785196801561 -36.560542974993226 94.084529446965306
96.260712581354284 -36.696037380400050 113.939299440289886
96.341842769372363 -37.106067523110980 115.320273733612709
96.435763874287360 -37.065672452371800 116.243406451470278
97.200739233533923 -37.407126724378514 -87.754306501264765
96.824192336324884 -37.028311972657477 73.404072011490626
96.943007191632688 -37.091139933123671 74.500291554361155
96.485657206363058 -36.587236246297181 78.487388359244406
96.467700564919141 -37.297704846156485 84.347838140846505
96.917267082698743 -36.870999561621517 86.640447981005195
96.777248799327594 -36.866456658636565 87.229278440936923
96.593500962971589 -36.830817404827634 90.760290511188259
96.290190656508059 -36.869642009048505 91.733607498661144
96.833958074133946 -36.691692959712519 94.033403636031593
96.624922991233632 -36.516156363002004 95.198338550575471
96.611354109902393 -36.333089062591370 112.966618597956327
96.537135775584815 -36.995487460396895 115.305351120649192
97.794307803043992 -36.766515641723039 -57.109947746436674
96.973753698932427 -37.087176420239444 73.502934605978538
97.074955256799285 -37.258767053161861 74.350484770985275
97.154332282120080 -37.104133431550345 79.367058630777166
97.168625222797203 -36.693496317086307 79.650962231414866
97.041410353338563 -36.421028559847997 81.032495620121338
97.025298204771914 -37.146115770991351 85.704430883041098
96.985504409558274 -36.863342044329642 89.362339757104294
97.295495154750029 -36.821991047117969 91.284003045572206
97.075115176338954 -36.268774334455763 93.308487615170179
97.372963259270207 -36.548579100160701 95.246730109633802
97.033567343175292 -36.647761467090191 114.256216708306582
96.887588650306540 -36.984990092647330 115.427744026857525
97.100081156961338 -36.480401305325380 116.114586527737274
97.487479988055753 -36.885075737920481 73.958706501898035
98.245079538587774 -37.212810589801727 78.830226141636800
98.057854644177866 -37.167267329766993 78.848433081442749
97.326887544324222 -36.914825546623213 79.629564004734831
97.822069769667578 -36.402466076290928 81.097845749710430
97.014429681486831 -36.408485235044452 82.005815223014977
97.905546657002631 -37.095053679374530 85.060924122087542
97.561207887156073 -37.129955093423305 86.755526623419243
97.881785355341734 -36.896770649435346 89.199242851238523
97.405051165884643 -37.175226935870057 91.376158792911468
97.373550763761671 -36.610430133886325 92.496107385025240
97.307773592685251 -36.231070411734137 95.288273242860214
97.328521164132610 -36.313802062341843 113.232851942407677
97.016464156706334 -37.304426689539540 113.853019428677470
97.272095238672392 -36.964466082722346 115.098910467229658
97.843663801044940 -36.699365120442174 115.742975000600211
98.496850855918638 -36.923362396991450 -57.719044494983592
97.876336437810352 -36.933459767712826 73.940949531060937
98.068215796496986 -37.205253931757838 74.481281245796879
98.086804805351136 -37.686779783817570 78.971345969516705
98.197880121185051 -36.519657280455014 79.828117750221338
97.868709281110910 -37.431704319574266 84.900324563890166
97.769161688242235 -37.166918589068551 86.933101264736379
98.291942932572695 -36.881804737489922 88.430598529587527
98.115188548836031 -36.450773113083621 90.169561788746151
97.973494367546621 -36.434260885528161 92.061114596935866
98.186857595589615 -36.301133407015776 93.731016973089098
98.134739379133237 -36.577683753597867 94.965939860817613
97.388504239325698 -36.192134119672083 96.007892961932640
97.659918614966102 -36.840492452529162 113.396705612050951
97.909085666605421 -36.851507455996504 114.634931680174617
98.149958516833649 -36.549052678949238 115.187325535598958
98.692813514889110 -37.103686379114443 74.005355450542837
98.187192147635272 -37.051430226992423 78.989401700304100
98.225981083689433 -36.393260840245837 80.920765803370500
98.161077475895794 -36.881004738273170 87.412812255682795
98.330216273928144 -36.817937658386256 89.196639375864819
98.224291632424936 -36.153167922056596 91.329023453790015
98.249508145068617 -36.394176416628440 93.217007200706149
98.131866971435898 -36.309135044127913 95.127282219767480
98.495639624983966 -36.570688242919005 114.001766604219739
98.296920556537643 -37.435261180924350 114.486393570812709
99.132603440275489 -37.294534095006888 75.149654734007925
98.620609130718748 -37.205025597900963 75.101205797515391
98.719289368998915 -37.043754022428800 80.242087609888969
98.612925558275634 -37.252028125813219 86.783268245489126
98.873594682312529 -37.120701691848495 87.880787381280086
98.536048501924796 -36.678613971786739 89.466523941622938
98.712552180323755 -36.514418696356607 91.660669564677931
98.510553230562394 -36.577848802672754 93.393998577553447
98.936704401239311 -36.486380264033031 93.996316785431461
98.470035664938905 -36.466859789006506 94.643556207314788
98.747715551841608 -36.464587417132442 112.530614249404650
98.781062174350311 -36.372691752238232 115.299630958280446
99.478341332168796 -36.918825384190633 -59.120461714934336
99.413648142975703 -36.919783120050134 75.313449286008535
99.670061893855333 -37.375922816891439 87.070018499684082
98.931659421555082 -36.618677886009131 112.338809396999892
99.480820826657208 -37.336038245659076 113.611508132310561
99.296270007862120 -37.036783311988913 115.580901168096844
100.393553887930011 -37.386926321855789 -87.574553703031668
100.193135802602214 -36.401905914830863 -59.054297551785055
99.694885921891469 -37.196537580184923 74.835664210762246
99.613448485490039 -36.905424393328339 81.196051899308642
99.018882055092035 -36.510727597290462 81.457507345488594
98.983566176913641 -37.159382525707798 86.849351716269226
99.661309128391295 -37.588514395623683 87.321551797210503
99.626079561094528 -36.947785101455189 88.527197632315989
99.501695936709211 -36.941851434664031 89.373143366467588
99.700599373659657 -36.975674184491190 91.457915689994508
99.370575632308473 -36.384513689561615 94.012974563742929
99.724864121961403 -36.698385334518704 94.821128126375811
100.083377520383777 -36.675663004781512 -87.430479803346344
100.174410316406153 -37.242925604779344 79.665255417448705
99.659125407302284 -37.319413452908407 85.514975867376577
99.683852497894406 -37.104458892776179 86.582779443704965
99.947234921104339 -36.526773141219408 87.763725359616885
100.145847027082013 -36.553640692828971 89.619563472201108
100.213227593233668 -36.736076094784565 90.670170707903424
100.085371173104377 -37.401430120287245 112.580081154743581
100.882849216440732 -38.088128243574253 -60.115764204268800
100.189379468375336 -37.313559165179029 80.690394960468950
100.428832647780496 -36.678981538015165 81.552405165344354
100.530800338164127 -36.541786810936188 87.561578304189325
100.503806700510935 -37.085568570954337 88.438627431791843
100.110581032255453 -37.085482441383064 89.369173936854935
100.681876667718058 -36.975688769677568 93.357176746605873
99.911023212207994 -36.464404078013594 94.293733462396915
100.809604559680295 -36.000595441437085 95.195516887844505
100.373409567449457 -36.128904298448909 111.348175802088548
100.353799100530935 -37.165172075263321 112.303081655373163
100.416931702931365 -36.935366580955694 114.213656840128166
101.269501040347890 -37.042925234042251 -87.587248450279546
100.756911642140807 -37.328362211608074 -60.706278045594232
100.912415188252567 -37.147960241582524 80.057137234932497
100.847866447034249 -36.932713942291429 80.943179697976944
100.681477137861350 -36.652136819486756 83.014317240125607
100.614694611931014 -37.061427905327719 87.631251825672351
100.745185573378492 -36.875165169187042 89.225617109181741
100.633591448084104 -36.619666133993590 90.466906207773988
100.665191236633262 -36.555044800327089 92.337706429056098
100.368276740534085 -36.080039742282160 96.159617186021180
100.719111394864981 -36.892238460554509 111.307157300578140
101.926251428451366 -37.007700247293393 -87.534497935330990
101.133500446695649 -37.260528703200208 -60.477928144212598
101.483366447076676 -36.464962098820799 80.688491707720118
101.121173692552418 -36.625220107605116 92.455750533509246
100.822823494919547 -36.563822358867974 95.099948191982989
101.665168061191991 -37.155140831866397 -87.089984283598895
101.635693096600193 -37.037226817947435 -61.215569058290669
101.643860066744224 -36.640103298284565 81.509980538034355
101.830265054196943 -36.484756071840742 82.659402599269853
101.860238651819415 -36.985686594187548 86.604711246975683
102.026923168901106 -36.867406543673376 87.755229584355703
102.074102964215442 -36.820331126813670 88.480256228024842
101.645497095369805 -36.877976574073394 90.215967987843840
101.503700010655791 -36.680594802524453 91.339933116587176
101.395768265638480 -36.565506390892025 94.876573465730942
101.181043473478439 -36.067775126889082 96.037989787612787
101.759313125256668 -36.953844882546903 111.282494272066458
101.499299770706600 -36.714979278951809 113.996709209989191
101.873794160681015 -36.944459876078106 80.941813210340612
101.994056952409892 -36.626900375097932 81.799562734475813
101.807642464294716 -36.805828381396964 87.141314838158365
101.642623729733643 -37.107138758179850 88.773399726445689
102.049549055869434 -36.519966007776020 89.346227588568183
101.697127538114174 -36.845174627214107 92.498217422727251
101.742297412996777 -36.967935794147571 94.187249023595911
101.686269007293291 -36.556148111468765 94.702009622991540
102.082750682389232 -36.543721343281717 110.338316648520234
102.473190138038632 -37.273134705291035 -61.936709044341143
102.297559386650050 -36.426606911485074 81.829523682650176
102.331265859161732 -36.505028325393766 83.145067683832266
102.529664422842814 -36.501443836953939 83.762797955970584
102.382503444772865 -36.853962174133024 90.669225483285473
102.201050683613644 -36.915577030707482 92.187872874980073
102.464643399038181 -36.592774849068263 95.253721114072988
102.205485759739616 -37.227288304358908 111.166871107841104
101.930348329553567 -36.731298002182349 110.370914786631701
102.472282045411177 -37.200016121706277 113.759039262316094
103.000048813700943 -36.975026736768015 87.387547687847118
102.786604716461071 -36.755874664673094 88.427614655052665
102.623258118058914 -36.857834445560613 93.487781314451624
103.050235379326736 -36.395275452657295 94.837098787774991
102.942890430063628 -37.319226692145001 110.545785462306767
102.725839724560544 -37.070500576983633 113.107281105350495
103.668572306781940 -36.898485715933532 -62.682741011807181
103.351656357814278 -36.888530401963060 81.693175110435419
103.258628850848780 -36.763051564746519 83.030766232388657
103.624842449184669 -36.183584481403727 83.496645519178827
102.826433203207372 -37.229074872510239 86.721415275304295
103.050379348958643 -37.212024028104850 88.236578597170961
103.551545867311020 -36.663238517442537 89.195036264756425
103.257339265389831 -36.643522662724010 89.901279101008427
102.898671730323287 -36.599562622419434 92.959017322303012
103.299732137754916 -36.252044475354353 94.917383711159914
102.872075994577216 -36.477613830616875 109.444733935785948
104.345164813712387 -37.244043153501508 -63.839681454727412
103.163730702009047 -36.832704216598707 82.957595498553843
103.351322976490522 -36.570046685756445 83.363387283235880
103.637360440154168 -37.432273016211767 87.750333947383325
103.527901503547938 -36.759452498586043 88.529721533284402
103.480780296133958 -36.814716994213441 89.677327891283184
103.466579182715662 -37.166027690851827 89.962975094763394
103.404959743771158 -36.435731557785502 94.814589929870579
103.504862657932932 -36.225768691133425 95.698994522378939
103.455493086288470 -36.644261129929667 109.714718669877172
103.428758358175557 -37.138060300160788 112.174838064603890
104.441812483516557 -36.934785925574580 -86.568955471406682
104.661806645591071 -36.758973524152594 -63.666845898625724
104.245129696714017 -37.172518658702977 82.332669441823597
104.152848583860688 -36.243972494805625 83.711079812719134
104.200091939217131 -36.157028154017922 84.777783264547011
104.099959067296368 -36.889981939871632 91.135377162488737
104.155285132459994 -36.770170196826001 92.955760311109600
103.980585669315403 -36.715397907140911 94.315944930533448
104.901909973832247 -37.370529554397656 -63.984365613481984
104.242476925829550 -37.115446925085315 82.848564364343545
104.597746803416456 -36.823996841520049 82.953903315296742
104.789649372251134 -36.462927979547089 85.039089739768613
104.462184429424795 -37.793902205570120 87.805914719242381
104.810765558104052 -36.755353765259471 88.271434421870950
104.156567767101620 -36.822902292718432 90.438874190732093
104.259938293362353 -36.287667939454153 97.301308479351079
104.042790536511774 -36.512359462331581 108.581823809985551
103.761434578594461 -36.719326874594437 112.161047332542026
105.182152915039353 -37.109472659332837 -64.288296131414370
104.441059444502741 -36.801064442027588 83.614667374928857
105.180424972409952 -36.562211430699101 84.456662527659859
104.658135109699941 -36.550390309039116 92.077414524619812
105.048349200553872 -36.876704458995611 94.161584320589625
104.930030071047653 -36.326256054632580 95.088713985193522
104.895317653616715 -36.539578219097159 96.097383026334526
104.662439221533546 -37.017792782034810 108.741256553257756
105.479524485740939 -37.023972805163552 -86.434127765991676
105.272540381245292 -36.484701457812172 -85.617449435161120
105.292618009329090 -36.526616937790621 -64.605114534998947
105.272483641352053 -36.890644321381963 -64.913676405762999
105.185005801745760 -37.044615333687872 78.111653960884652
105.277851239459338 -36.645674811547231 84.293884452567170
105.202952988671228 -36.510501643542774 85.338380921816693
104.765637218159227 -37.313566384057559 87.740248294264035
105.267539872978688 -37.278859062325246 88.687265496448660
105.157812800341517 -36.674817258645561 90.648109086302838
105.162046904925930 -36.473137151182648 91.285846105178635
105.347922852908951 -36.630465172930265 93.514906294212111
105.156559798540229 -36.160884684325609 95.375489149568679
104.927843454391436 -36.493912713805408 97.071189723337397
105.312806263018388 -36.633456132758475 107.228798808096883
105.678417597327410 -37.519859777314537 111.901904315627505
106.189026893723351 -36.963849258372605 -86.343688321228896
106.140213192436221 -36.741983028748756 -86.033191177462669
105.898741935503068 -37.044382700916159 -65.174314333118033
105.593209850245529 -36.137970261106226 -65.830944901657176
105.385945117016973 -37.065990905691635 77.288405068828709
105.599259641348993 -37.176900226252222 78.141816052528199
105.504739648776678 -37.116642833674355 79.201765841668006
105.697777140067757 -37.151542302636884 83.820962818455897
105.442330606818430 -37.030499368602086 84.342550982090970
105.131138089445670 -36.401492892377121 85.502169662220524
105.335842576369586 -37.077659989585634 89.391058379816968
105.747614163627105 -36.736545670855790 90.463284403675544
104.998457001319849 -37.435611700974498 93.358010615857481
105.621329939345657 -37.223346503532738 94.112559572058018
105.392913232458753 -36.825483298309663 107.904144413476942
106.587810640964889 -37.197347171491863 -86.267439575617644
106.495502795816236 -37.017244262239764 -66.014238984993668
105.738501168209822 -36.878373536530169 78.461714891726743
106.092612545578177 -37.010259173100934 84.571855516941525
106.289924873903800 -36.912986578030463 84.376148799135734
106.098085157388482 -36.871638820206122 85.587166119641992
105.652431141586575 -36.489384555806595 86.543319478460617
105.987953226286976 -37.118975654005808 93.834109962985210
106.117529182858760 -36.916773156610631 94.454249555318214
106.061321829244292 -36.538674012414035 95.371029681770381
106.041501243139905 -36.705174357058659 95.701179468196202
106.309570181484062 -37.019684790264407 107.619026066708557
106.880681034640006 -36.909169416386561 -66.814211096779971
106.459890588645194 -37.054697030389882 78.418582054992683
106.376532401743845 -36.791645620984859 78.936457474919195
106.106180758188600 -36.531522361906838 85.906505331474236
106.470376095487822 -36.879261225958260 86.398213347412749
105.924528206775534 -36.313341835492871 87.655686219518643
106.335315933010733 -36.509014544728920 96.186861004726964
106.197598204945265 -36.262535095948273 96.842354137841937
106.233269450577097 -37.207327826291284 110.723183972742461
106.207355743814460 -37.043134688964813 111.351351413722327
106.925191650008685 -36.696425256978941 79.077882384179489
106.653540891569918 -37.760990164988677 79.528863345133487
106.863850684098495 -36.701728428412281 88.798695138575567
107.081632928897875 -36.436010366739474 90.247885013002545
106.545434760605261 -36.752836771221688 91.542491743218491
106.463394194260943 -36.555426269900558 96.867904472232411
106.972106254635008 -36.250155321941527 105.435751877096820
106.342000925503029 -36.057812676040967 108.466659451303997
106.510766359552363 -36.894102539964777 110.994321087399456
106.368088227912324 -36.316683492415159 111.477812112697919
107.112724993695664 -37.486558589802215 78.707210575000389
106.890501975363804 -36.942953894422836 79.228472312471183
107.216372857826713 -37.055302730584636 79.925746020822245
107.515998165612430 -36.787689388556011 87.383143589111484
106.999373083014149 -37.020803551230550 88.346567713909479
107.074568527922793 -36.586617004963912 89.323356071240013
107.500373445540546 -36.233381687777182 90.336330980682774
106.953470919628387 -36.864798501338704 93.519465767966153
107.084636541928390 -36.886522537904909 94.198703368668006
107.130398769510009 -36.078826653717776 95.040187098434728
107.072372955482180 -37.335275598003477 97.145144169426302
106.888650485252157 -36.453999180320523 97.941582066827408
107.081435092236475 -36.994203898712215 106.366872696316918
107.098379793836472 -36.682912823440773 108.490395548069841
108.159136568200793 -37.289272073645563 -85.580108695011560
108.048037525948956 -37.036296118098413 -67.847898166349694
107.608276248176196 -37.217855856027136 79.123584456717879
107.955859881765605 -36.425623254838200 80.085525747549241
107.425717039379435 -36.967088490634993 80.738429571294233
108.142361368525940 -36.966598584830173 81.947120514962222
107.462797730447377 -37.108565771296043 95.025116110138342
107.367846296656381 -36.545102878154005 95.763527625983286
107.984718732498095 -37.000264318694690 97.929722795330107
107.719733058598180 -36.563900897353406 99.085798353477884
107.484821043709886 -36.411939768088402 104.511162899622178
107.661047805234759 -36.565860403596297 107.787653900144150
107.592258695465176 -35.932725695961778 108.920036856439552
108.297753163587004 -36.809472322736625 -68.972727627016980
108.119424821444326 -37.196665568592458 79.876727926114526
107.612451421129350 -36.489620786470304 81.151964036853826
107.715793424478065 -36.705163796129327 99.115921270619495
108.003025308739140 -36.328669862523917 99.996228568095773
107.926434606977267 -37.235384067604109 103.972312432565488
107.914103254131263 -35.770511523107054 106.955634891849783
107.521782760834242 -36.674095932383459 107.441891803930616
107.436678504277779 -37.173228417777736 109.567924394149713
108.713354658163212 -37.400492088345516 -85.359626460884215
108.688791085447207 -37.016321139743972 -69.011643293848138
108.631930066565971 -36.808577470195253 -69.785048852961523
108.566101187936269 -37.158222106556231 79.234848283076872
108.491949200674711 -36.879288558133943 80.537949000596811
108.175129410171806 -36.815640710767639 80.666315177767103
108.520227100308034 -37.057413057292933 82.647941268546973
108.180232057263723 -37.133423128911204 81.799016120259793
108.295896787633950 -37.298248283655489 96.478430132466414
108.219562839876545 -37.189594417296128 100.895220995510272
108.301878076412748 -36.503602627517097 101.909475929892906
108.497257470608901 -37.445641529858833 102.956992659459743
108.528501084232190 -36.682080023598189 106.881020596620687
108.430840870818614 -36.347910728186726 107.251443736785447
109.793503353729733 -37.080282280856260 -84.654533212916263
109.071413976035402 -36.432096345078463 -85.078810245213120
109.076265774347604 -36.956954152929185 80.243609934980171
108.565289500043562 -36.640860894980399 81.156659330603091
108.761910744925231 -36.900121684385432 82.139502958156200
108.632054508925265 -37.678064004975866 83.296181483324844
109.153491868525478 -37.035321246346449 83.237291651516273
109.403042732298999 -37.308546069691133 83.500515293184563
108.848437615850898 -37.528310160716345 97.613472161985399
108.831434042534127 -36.425410756959394 105.619501491867837
109.424420768337669 -36.653551883631067 106.774448526950195
108.906131699279442 -36.226082303893996 107.537384504365221
109.100483587193366 -36.620401032822059 109.314504598352713
109.477086369864040 -36.821377110176158 -85.209404390272454
109.731950735481192 -37.063135496500415 -69.708086368161162
108.898997787662282 -37.404116503470554 80.162457034932672
108.940153328305698 -36.369392667517630 80.871694386909027
109.226048788862258 -36.135117926432734 81.711823447085152
109.371448123428181 -36.552666613565897 83.130242503846560
109.216452313493292 -36.281072372447134 103.951497894436997
108.964298727861632 -37.381214233381833 104.704063049833906
109.064124637394272 -36.524001672892297 105.499464389381615
109.180478027761154 -36.868658103879788 106.448460039926545
109.572618434557427 -37.065149620695294 -70.429031765485263
110.090450704385049 -37.157171941789436 80.553535543373229
109.396393742851529 -36.937140740042508 80.723616111971495
109.375955524260362 -35.803285821460484 82.255129561593250
109.580727038882102 -36.334400456514395 82.870983715644869
109.957079635674333 -37.020899486873269 84.253341876248044
109.330588778112286 -36.829037382063468 84.415502788183687
109.396904775326021 -36.841863020313433 92.192689282762899
109.947266096651745 -36.698034703957390 93.395133693282517
109.546212251595932 -36.799599036812751 93.882476078454758
109.265328590102229 -36.733516552358324 100.071942463719267
109.720227520915472 -36.740563890911140 101.359753253593894
109.563998885108347 -35.994206377243714 101.799622882998861
109.764613394468498 -36.930067310316993 102.954009294910918
109.508518888842431 -36.886964483843229 103.660839904883233
109.775054758294331 -36.862131945692710 104.778042441315449
109.264170261396544 -36.930250804598302 105.593447158046260
109.388344969321523 -36.385638671174192 106.503428936737762
110.518030770690288 -37.383561514865086 -70.759560637318657
110.094389346115932 -37.031398567344326 81.227929044944034
110.589193132374618 -36.948010136613753 81.830184000883278
110.100022654438547 -36.358722529864338 81.596475039552558
110.198739290071742 -36.110572620536068 83.079560642518857
109.785409903722140 -36.664439960958454 83.455344195324187
110.246429359130332 -36.616101251105057 84.739056198323098
109.863433801900015 -37.008054128244254 85.361301163710223
109.899938550156364 -37.341252394756523 87.839739151981021
110.036101465619964 -36.933468626258708 88.709312720395701
109.959975617173072 -36.986454436345426 89.192314375924809
109.788163015710438 -36.583561693185885 89.857135436956995
109.940406386045595 -36.900163907708475 91.474258101177426
109.767551217220998 -36.210855977744700 94.027474156643876
109.659724344146667 -36.300830037004665 94.954489499630910
109.669823022109895 -37.033717779292246 101.446822854179416
109.913840468146063 -37.286835609865427 101.985905565337632
109.751267117081483 -37.230867389374765 102.825428466908321
110.160349625673916 -36.962888489414013 103.925646605571387
110.037749689187194 -36.269658218610630 104.907817227790616
109.889671195343240 -36.973741100270068 105.931162635964284
109.783439231085154 -37.181239424077887 108.521348564732051
110.358073505049788 -37.189973322137178 -70.839538488445115
110.429557261694143 -36.303017144165814 82.981661702829243
110.416416218186512 -36.724139778753361 84.672297839404607
110.397985212346356 -36.511557982433949 85.729558603915976
110.098016390615484 -36.795960408690831 86.842289369739646
110.328635796550088 -36.678493131051951 87.458604047309947
110.273172600888273 -36.873576107037991 88.282916668626910
110.169170456790155 -36.124940818482727 89.626115215484447
110.089862240728621 -36.442892390735103 90.737496856814005
110.939752922170769 -36.889148550532774 94.093630783740025
110.972723277915904 -36.467931573024075 96.120317814399954
110.367135742286280 -36.808167522269414 97.591853345402697
110.214680875635992 -37.230804662968374 102.433801287808834
110.716532395190924 -37.170438357273660 103.649699626781754
110.174948158933375 -36.887745382253733 104.609427495672620
110.331375269234741 -36.150465986802729 105.623275355472600
111.139938974519893 -37.176521460271125 -84.822293541654716
111.410422447908132 -36.432234064544289 -71.438797546453699
111.263497366165637 -37.076989774265776 82.738300438005751
110.534142271525425 -37.031211474337255 82.680325428528519
111.144006815606758 -36.300985520470697 83.373315770448500
111.130637486433173 -36.161704614915820 84.453978374814994
111.064024144245082 -36.605180490919544 85.972877519855501
111.097803965725205 -36.579576329001576 87.402300894674468
111.302256159986598 -36.364565691659074 88.384020859233203
111.003426351109326 -36.823534809208049 92.168894702500538
110.763882986309852 -36.681398222455087 93.127043150921978
110.435747061730865 -36.409809293407420 97.195576648700424
110.799887090856615 -36.875391464727855 98.149535561933391
110.367801290403861 -37.129365306790817 98.705364812792368
110.463898985476987 -37.124453452441507 102.725642813887816
110.644303337810115 -37.345486921059646 103.585845524250345
110.782863310985249 -36.256262557002579 104.818623655099231
110.635933357491879 -36.964855592540729 107.314026824714404
111.149197318531620 -37.246840600790669 -85.024664698722262
111.327034327457952 -36.896609971450069 84.107607832446988
111.582653171849060 -37.017465404813819 84.532499998157206
110.941555883838234 -36.835760114539440 84.387732050335885
111.033366125024443 -36.494941723916853 85.971784110721359
111.315703820438245 -37.229756930365475 86.740274423894576
110.995692577586269 -36.110907010695747 86.479152574225253
111.590447969888245 -37.182340572443792 91.502242980443427
111.072442899226431 -36.544906983596682 93.256372398070852
111.138749529230211 -36.532152076746996 94.352069964335868
111.442812300531855 -36.894433735102815 94.882562215027193
111.368177511824740 -37.044916017629923 96.143124537150740
111.383929566490664 -36.781469939613672 98.384390882238506
110.917567239623764 -36.936286978175943 99.785712846494263
110.699046734823611 -36.986174875456996 102.769295860887354
111.471452121314300 -36.371756048634126 103.904238838625929
111.900422238806911 -37.319245248678314 -83.850274042298565
111.721495405423639 -36.225135480198780 -83.706907294581384
111.668542212505344 -36.865228494017494 87.658596643380719
111.784728693692841 -36.587220354886242 88.558721483415084
111.693576200599011 -37.310442893232221 89.597900723280702
111.887621235043426 -36.777648308687525 90.213992091532788
111.685731325323189 -36.708606580710679 91.580483576790073
111.891579267922580 -36.101581726683143 92.713800318240843
111.378246172013561 -36.554353312405325 94.831079377915330
111.613017438814495 -36.206659981273006 96.170485336212593
111.296575440089100 -36.042635467069843 101.758966975310500
111.357451967092473 -36.971827453295546 105.647525006011691
111.861141092099800 -37.252153670037792 -84.552258365871580
112.552925255230846 -36.513787780333885 -84.404781769845755
112.576303589636808 -37.563297322654748 -72.363836684171517
112.189336388257772 -36.706870044377098 -72.372227875797378
111.455495017366502 -35.694995321001066 90.346721303700988
111.655457903972859 -36.445815860195800 91.299942563879029
111.943842183821616 -36.250028194787077 93.471241370635070
111.795397056823333 -36.081036014996585 94.188479273622434
111.675938277944610 -35.969725027256040 95.329165222231836
111.987610149670417 -36.426346995111437 95.898208598363780
111.747984240331220 -36.822046572301716 97.305095995252088
112.056705877020462 -37.066453130269288 103.600529716900368
112.458914134955705 -36.994393930879362 104.630220430204460
111.783143026734905 -36.095288349967511 105.419188692296487
112.789170951776185 -37.299219954892209 -72.268129268126472
112.447440715789142 -36.958805980641507 94.224241337611971
112.490056201967406 -36.165219189222796 95.252443933105852
112.239081092532800 -36.317214369219862 97.486033349490370
112.353260114686279 -36.297111538856122 98.157132385514416
112.613256976684966 -37.017144108318355 99.922337144323549
112.859667969630578 -36.906692043633804 101.124910838233077
112.395651617075643 -37.333629732977769 101.940569567670252
112.083622828311718 -37.413098169345687 102.351445268657542
112.713605242720504 -36.514912873022645 105.091177716750707
113.213130039756606 -37.540779423184361 -72.469798145120180
112.801642769731771 -36.461809732512691 100.541087651072971
112.843331308309843 -36.529643389383089 102.581281679457476
113.675366297277080 -36.303764759702304 -73.171874840604957
113.839822234502392 -37.280340023292382 -83.897503179724296
114.138182787706512 -37.257450446781718 -73.015297470559560
114.701260395484923 -36.706269069164236 -83.299064488604927
114.302391842123072 -36.667638337875339 -83.076544579618826
114.104526577999920 -37.038440204726221 -73.317583227513950
114.605964859311541 -37.221612981896705 -82.873374182250146
114.877531775178483 -36.171027808643650 -82.872746390427793
115.698894544452514 -37.140517751676406 -83.094351611890247
115.694690371741814 -37.495806089607278 -73.891873829867208
116.328062548019957 -37.648067928758110 -83.079499632562474
116.242787069901297 -37.196090810381889 -82.324424227808876
116.179111617936385 -36.771851190800149 -74.637046022580805
116.806286577015626 -37.165888109081060 -75.287832642102316
117.262489829606409 -37.144390012175869 -81.808435250227504
116.462627696279228 -36.440029977423208 -81.400619748951812
117.075342746434046 -37.588865554886638 -75.402451385747398
117.582580053336201 -35.970353258247833 -76.233734052660182
117.701555979570188 -36.679102182623417 -80.086272679670387
117.237564337776135 -36.472863216520942 -76.549019615593181
117.822320854979623 -36.782341645021674 -80.831366524658762
118.126587379436884 -37.624488415072186 -79.948924168556672
118.201320937501350 -36.746477133748115 -80.042766570000254
117.660318272210063 -36.095329313691884 -78.917238490010732
118.210394477338411 -36.900174599030173 -77.215856936146849
118.729599640116902 -36.893490365611548 -79.037126857902550
118.459718899174206 -37.068758106396594 -78.278065023151640
45.031432584865101 -36.248566723841762 -60.293839491891021
45.029415225006296 -36.161796118079501 -59.171003405927962
44.633457927962183 -36.239256984138621 -58.145567831947730
44.798949832745521 -36.101663635626721 -57.174284545541639
45.182932649619197 -36.098677053104900 -64.305214169221543
45.089668304514568 -36.123981409708477 -62.961846715983071
45.039481900530276 -36.479433374900992 -55.428268422505127
45.053944149066396 -35.933866242628348 -54.759183426450761
45.662213968234219 -36.389217497971096 -66.216254618171632
45.654757583168490 -36.121183923681649 -65.037740651990873
45.379060114726428 -35.619852628929813 -63.189815530869410
45.685692173414743 -34.994450110324763 -61.164441215272646
46.019437790149347 -35.251774225207527 -56.709799546313704
45.516941771929801 -35.341066954810664 -55.231056250334817
45.807469666160557 -35.551649513166197 -54.560564163439921
45.631957938103724 -36.234493597589072 -52.387567886615741
45.837696851038395 -36.127617167509541 -51.520787574964082
46.342791212345745 -36.342006106214953 -67.903073104936226
46.171413782178639 -36.351837651468450 -66.522216170259966
45.683953435168881 -35.810603888170853 -67.145324534379370
45.725809829556198 -35.344064236877351 -53.732227871926497
46.392245987858054 -36.589852811431200 -67.994632366182486
46.603189809366455 -36.274563513944692 -69.223361785332571
46.303029710239869 -35.341305131604884 -51.383815806404101
46.172744446379653 -36.310762656807015 -50.224965177741723
46.725031574081150 -36.374437930774825 -49.704528156630957
46.464247044151001 -36.187856931856672 -69.592674850865208
46.975782305254612 -35.387530680305424 -68.815098073358698
46.675162795626669 -36.234933567254672 -49.288649150709126
47.222768814221574 -36.134867660805099 -70.150495668382760
47.210094520305908 -36.352067724961870 -48.587713541922490
47.913475694561420 -36.607246302937234 -46.154819515006203
47.593963031438641 -36.472767349761227 -44.767690236886381
47.748186481258557 -36.472074549666743 -43.168069299554467
47.778657146149293 -35.755354095063048 -72.650585714787425
47.523789739907720 -35.412591095970626 -49.477611624448301
47.968448793716995 -35.518974107277543 -45.240228646732810
48.063007456702998 -35.394639650787376 -44.185114610956752
48.107168571696619 -36.716449501570480 -49.604131273005706
48.698866805763103 -35.411001535699079 -49.932157551804707
47.704347811384515 -36.125879104989380 -46.615493185272697
48.270751421993758 -35.418582286005844 -46.372211896400550
48.326732075442891 -35.409424937393027 -42.950292334971621
48.149026596862520 -35.407117386994891 -42.053228637448981
48.635293780797340 -36.235473600349799 -73.889265515980256
49.042192426774314 -36.139486457102500 -47.245727411545481
49.105753413286003 -36.207743506150855 -75.343524149567713
48.601681981375123 -36.518933966445964 -49.973882387728096
49.203601984649694 -36.275310043990167 -46.875353615537804
49.038198977174588 -35.363178696774753 -46.272482397928101
49.216588857245995 -35.881351763060458 -39.308413835529436
49.015953931827148 -36.220121211341890 -38.034678966366272
49.471955636835155 -36.254564908669998 -37.497122899912434
49.487357889155483 -35.929485019486307 -50.374350726844582
50.075996867889486 -36.197457509636742 -76.160596898161913
50.476258983375203 -35.423171836297435 -75.821535020447897
50.162268656328600 -36.048248497367553 -50.120789535238636
50.308159984706485 -35.418096823298107 -36.998269054135434
49.993414076495490 -36.243928812281787 -36.327977654561430
50.612540249480602 -36.572238907569925 -76.888755790964566
50.374908206703523 -36.519398328405067 -49.769997392000903
50.241412732128566 -34.930803516968922 -36.390787572470543
50.606652856948003 -35.856916163117319 -35.655360478082905
50.932424350856948 -35.839945695409945 -50.474494048727365
51.469577497222616 -36.357227130800126 -77.821354935553501
51.316093668172378 -35.281561806252078 -77.587130977036381
51.742706525604540 -36.237242792456939 -46.773652873784471
51.200996990595691 -35.261556657575426 -33.602188252790377
51.284360900198138 -35.857581106802698 -32.399583435051298
51.348847828479840 -35.977687202102551 -50.668709466251570
51.717594580175039 -36.127421111923788 -50.841754139689179
51.525596319238460 -36.638885017684920 -46.794916311424480
51.449864682468018 -36.087042339913602 -32.474449719039249
52.241363254724675 -36.099685046826586 -79.300180204026034
51.679385276832825 -35.313315123347081 -32.806533281615280
51.573247837811579 -36.090529266890023 -31.684855137234081
51.894872707958960 -36.170858819547782 -30.701701512218150
52.006415191256870 -35.956597152028394 -79.085050369914882
52.659622470057982 -36.151722457367960 -51.131245030199857
52.360635113689966 -36.481014649425425 -46.934584458461593
52.036240267172275 -35.640823622819148 -30.439024778173831
52.392127104905057 -36.540768244602283 -79.281550662842605
52.739691270216731 -35.735226154572189 -79.409711372960231
