# This PCD file was generated using the MATLAB® pcwrite function
# from Computer Vision Toolbox®.
# .PCD v.7 - Point Cloud Data file format
VERSION .7
FIELDS x y z
SIZE 4 4 4
TYPE F F F
COUNT 1 1 1
WIDTH 1449
HEIGHT 1
VIEWPOINT 0 0 0 1 0 0 0
POINTS 1449
DATA ascii
166.447983 -61.911755 -33.721775
166.151825 -62.604923 -32.195728
166.100769 -62.549053 -29.196388
165.947983 -62.589275 -29.793482
165.816971 -62.463169 -21.917006
166.934738 -63.049721 -18.514137
166.315109 -62.530529 31.538834
165.610352 -63.616745 42.650658
165.330139 -63.958965 42.411392
164.971954 -62.628799 119.035805
167.469101 -62.792385 120.188957
164.799011 -64.105164 122.562927
166.128464 -62.806976 124.649590
166.713409 -61.292557 -51.488037
166.487137 -63.906483 -50.880005
166.716705 -63.304050 -50.376041
167.066666 -62.200184 -49.188713
165.954468 -63.250790 -49.123356
165.593323 -62.708263 -29.136953
166.443085 -62.064663 -19.721825
166.969025 -61.862030 33.374798
165.645615 -62.282478 42.794090
167.164886 -63.613091 119.215881
166.176254 -61.999676 121.898842
165.513290 -62.156796 123.615189
165.654099 -62.594330 127.909126
166.626633 -63.813557 -52.693897
167.043396 -62.086296 -51.463543
166.500610 -62.560722 -32.104961
166.870651 -62.869991 -17.336369
165.247849 -64.048943 122.947937
166.467926 -62.309406 124.489265
167.241806 -63.163792 -52.715843
167.977173 -62.789558 -51.873619
167.938171 -63.434395 -51.365185
167.579269 -62.348808 -50.002121
167.371201 -60.643608 -50.211559
165.352234 -63.766422 -31.566208
166.785629 -62.640965 -29.237303
167.312714 -63.892937 -20.406649
167.405762 -63.363487 -18.873417
166.456253 -62.521645 30.646986
168.263107 -62.353046 41.432102
167.218979 -63.892921 41.999771
166.871582 -62.501072 119.362526
166.328323 -62.717346 124.689705
166.259476 -62.122471 126.670410
167.398117 -62.865921 -51.973923
167.656906 -61.611549 -50.134014
167.694580 -62.873917 -48.123055
168.697327 -62.980095 -31.395285
167.500214 -63.278820 -16.862072
169.309998 -63.123730 32.856873
166.490601 -64.357224 123.359009
167.780243 -62.377594 -51.773918
169.157776 -62.136635 -51.176109
169.048340 -62.805061 -30.707809
168.377502 -62.202782 -30.819462
168.069641 -62.544094 -19.645979
168.488129 -65.046516 -16.902937
167.769073 -63.134338 33.056725
167.848801 -62.638912 40.758015
166.998428 -62.548393 41.091106
167.568176 -63.378033 118.738960
166.576324 -62.299229 122.208702
167.057999 -62.776047 121.462036
167.168121 -61.918339 123.395317
167.343567 -63.178574 127.339142
167.495682 -62.947060 -52.272995
167.178894 -62.852135 -50.313633
167.448120 -61.158310 -49.785748
167.873413 -63.630024 -49.034828
166.979263 -63.120060 -28.123207
167.287079 -62.483585 -16.833532
167.036118 -62.278988 30.041567
168.859848 -63.973953 31.423532
167.239029 -63.825272 39.973015
168.049347 -63.312267 42.102802
167.732254 -63.304955 123.751076
167.235931 -63.223156 126.642311
168.741241 -62.014149 -50.163284
167.276947 -60.765713 -48.937870
168.734253 -62.001591 -47.901436
168.931595 -61.779133 -47.883106
168.838547 -62.982475 -30.649176
168.334183 -61.520546 -27.842302
170.051544 -64.105453 -19.819269
170.018524 -63.600582 -17.066441
168.555847 -61.665318 29.091427
167.805801 -62.866657 119.650238
168.657059 -63.544743 122.156677
168.138931 -62.262413 127.582825
168.465393 -62.189075 126.641350
169.256332 -62.630669 -51.644806
169.291885 -62.874470 -49.439861
168.069855 -62.110996 -48.292767
169.280457 -62.532806 -30.241846
168.724350 -62.403488 -28.106794
168.656418 -62.393417 -18.813019
168.241714 -63.623329 -17.333855
169.164017 -62.199459 33.039265
169.064148 -63.019505 39.223679
167.763229 -62.942116 39.756165
168.047073 -63.288002 43.082310
168.321289 -62.769569 123.569115
168.007782 -62.894127 123.360954
168.469925 -62.131771 -50.787476
170.050812 -62.629673 -49.432827
169.711197 -62.306152 -49.411087
169.238022 -62.327389 -48.288124
170.297089 -61.984150 -47.865776
168.908798 -61.736393 -26.769619
169.249496 -62.681904 -15.821218
168.366440 -63.045383 30.443377
169.368912 -63.545334 31.616076
170.353714 -63.253242 40.254822
169.715759 -62.270947 39.849094
169.184204 -63.222641 42.052433
168.417664 -62.091408 119.817703
169.258652 -63.076740 122.277519
169.309448 -63.283920 126.440331
168.978485 -61.275558 -50.314552
171.191986 -63.278805 -48.298210
169.911530 -63.423340 -48.572720
169.306763 -64.314087 -31.156891
168.952271 -63.244476 -28.313110
169.484711 -64.182831 -18.322376
169.428040 -62.273426 -18.400919
169.457550 -63.650181 -15.945926
169.369858 -61.740963 122.868568
169.665894 -63.071430 123.515900
170.164536 -63.579075 -49.819927
170.524826 -62.928196 -49.024979
170.241486 -62.751469 -29.092115
170.566345 -62.342094 -27.110210
169.403137 -63.216091 -16.131523
170.581284 -62.302132 -16.814119
171.434647 -62.438381 32.799847
170.019913 -62.898552 39.780045
170.205429 -63.005768 42.411079
170.401733 -62.891163 121.925240
169.812607 -62.238033 122.212730
169.742371 -65.294205 123.209435
170.199753 -62.974457 127.704330
171.618515 -62.372768 -49.297115
170.912399 -63.655712 -48.047478
170.645905 -62.566292 -45.930870
170.751816 -63.480595 -28.379641
169.578873 -62.826336 -27.629398
169.898209 -63.340401 -17.916180
169.815659 -63.087997 29.857233
170.599228 -63.616402 39.203194
170.700226 -63.300442 42.520283
170.592880 -62.884552 120.173393
169.704681 -61.411674 119.530685
170.953796 -62.704853 122.216705
170.977158 -61.414516 124.637413
171.121994 -62.394138 127.692574
171.243042 -62.273933 -48.166924
172.335449 -62.477867 -27.500937
170.579468 -61.703194 -27.143124
171.157333 -62.254459 -19.393475
170.850464 -63.363678 -16.053341
170.595261 -62.452999 123.637573
171.744675 -63.816948 -47.680969
172.518890 -61.788296 -29.200804
171.485428 -63.368481 -16.871525
171.944046 -62.678886 -15.747761
171.090088 -62.774384 29.728659
171.972229 -62.425652 31.470989
170.528656 -62.396179 39.727287
170.927765 -62.739212 41.318741
171.033707 -63.320683 118.632004
170.456589 -63.869545 122.998520
170.727188 -62.895111 121.336967
171.132217 -62.174690 123.203201
171.728516 -62.701244 126.872673
172.902115 -61.805065 -29.248962
171.943604 -62.484947 -26.042603
173.035110 -63.289349 -17.527924
171.949753 -63.222076 -16.095579
171.263947 -63.333630 -14.741077
172.019394 -63.272518 30.210245
172.501984 -62.963966 118.137695
172.123260 -62.744717 121.673836
171.540909 -61.886002 121.594551
173.369095 -61.853310 -28.953638
172.607788 -64.577042 -26.200932
172.909698 -63.261955 -14.877305
171.402069 -63.952934 41.958431
172.724380 -62.685562 122.732079
171.493164 -63.861462 125.428818
171.905411 -62.466583 -15.530089
172.526062 -62.111984 -15.065536
173.223999 -62.769547 31.627544
171.718597 -62.790028 40.039055
171.672043 -63.199032 41.613884
171.875427 -62.329292 118.232010
172.359268 -63.164558 121.564316
172.626724 -63.135979 121.986839
172.386536 -61.968384 126.688942
173.502808 -63.180431 -27.688255
172.666611 -63.234680 -14.505918
172.592575 -64.243523 29.371162
172.539551 -61.928867 40.472462
173.072510 -63.497635 118.208519
172.637634 -63.271317 122.038033
173.948944 -62.862640 121.946342
172.634750 -62.154842 125.857895
173.716049 -63.204765 -28.657787
173.790741 -63.765293 -26.468950
172.734268 -63.970707 -16.536169
173.663651 -62.452145 30.801331
172.554062 -62.217682 40.692181
173.339386 -64.455147 120.955009
174.788788 -63.336060 -27.928087
174.536255 -62.781853 -26.099627
172.842361 -62.084820 -12.623631
173.840149 -61.577610 29.120567
173.901413 -62.986584 30.975563
173.181519 -62.261456 39.476871
173.409637 -64.787880 40.748066
173.535568 -63.531513 118.329788
174.498215 -63.461597 118.387436
172.901199 -62.451157 120.952980
173.137131 -63.540493 122.324760
173.421524 -62.625443 126.311943
175.186905 -62.891850 -27.655893
175.056915 -63.029263 -25.505810
173.716644 -62.319962 -15.837933
172.805374 -61.828892 -14.332260
173.923965 -62.250172 117.762733
174.574890 -62.964069 120.381699
174.085678 -62.918293 123.116554
173.102798 -63.434322 121.780960
173.119003 -63.378090 -26.601410
174.802795 -62.603455 -23.551222
174.257233 -62.363773 -23.684414
173.567490 -63.494171 31.132765
173.478500 -63.052139 38.182442
174.637955 -63.227524 41.088898
174.615662 -62.772461 120.102921
174.267197 -63.256371 -27.908434
175.062210 -60.810352 -25.750023
175.831726 -62.614563 -16.104448
175.505020 -62.491127 -16.979172
174.543076 -62.582130 -13.744767
174.781235 -63.773003 28.126417
174.274933 -62.643036 31.492720
173.885437 -63.462879 38.242199
175.150467 -64.249084 40.240566
174.765564 -61.710945 118.431854
175.238144 -61.320309 120.966141
174.549240 -63.720127 122.097755
174.623093 -61.485004 125.941124
175.602631 -62.210136 -137.161469
176.430389 -62.799274 -134.964493
176.293381 -64.097397 -27.078251
174.085388 -63.235813 -23.935234
176.810287 -63.833424 -12.221618
175.084045 -62.424988 121.089134
175.443771 -61.863716 125.032799
176.567825 -62.558533 -137.032990
176.057144 -62.048267 -136.347870
177.656113 -62.486511 -134.804184
175.876907 -62.008373 -132.807144
176.360901 -62.504192 -132.707138
176.124435 -61.237705 -131.487259
176.985138 -64.077591 -24.297054
175.835541 -61.921181 27.813692
175.377991 -64.252968 30.016178
175.949768 -62.784676 38.151382
175.021454 -61.722515 40.125217
173.828949 -62.811546 118.137985
175.052399 -63.376656 120.030518
175.067581 -64.136688 122.138420
174.941315 -61.971935 126.207161
177.188309 -62.261536 -138.416550
177.247604 -62.368340 -133.701874
175.552216 -63.148655 -132.042465
176.891296 -62.247849 -13.321249
176.285889 -63.590702 -12.598009
175.091980 -63.493114 28.468779
175.769196 -63.415455 30.980904
175.753571 -63.403339 39.324684
175.745621 -62.663059 115.944763
176.594528 -64.398712 125.197990
177.378586 -62.534477 -136.597748
177.552475 -63.524925 -136.954712
176.420853 -62.060085 -131.712341
177.296158 -62.990952 -130.208298
175.708176 -63.126694 -25.369802
176.984299 -62.797874 -24.649189
176.422882 -62.651440 -15.444557
176.103622 -64.272911 -10.749289
176.322510 -63.027267 27.540190
175.641739 -62.984600 40.183056
176.216888 -62.867928 121.143066
177.127136 -62.392479 121.731476
176.336853 -62.363739 121.261147
176.329117 -62.838814 124.904747
177.926666 -61.474194 -138.345535
176.858459 -61.917873 -137.598068
177.084412 -62.831776 -131.256943
176.747223 -64.114571 -25.479254
177.547714 -62.529907 -24.121529
177.737732 -63.257790 -14.253709
178.534576 -62.890583 -13.538863
175.965210 -63.870743 31.525249
178.374817 -62.115211 37.493103
175.710663 -61.844757 37.916958
176.408463 -63.269196 38.890724
177.551071 -63.021507 116.628609
179.910736 -62.284817 -129.254379
177.750183 -64.104294 -12.264729
177.491455 -62.324661 -10.477890
176.717361 -62.797832 38.727390
177.814163 -62.486118 120.809212
177.753555 -62.278278 121.101463
176.920914 -63.621819 124.063477
178.745651 -61.412075 -138.585587
178.439590 -63.041370 -136.415787
177.691513 -62.413757 -131.999359
176.920471 -63.380989 -25.637560
177.563187 -63.040291 -23.649633
177.525284 -62.162060 -14.267811
177.585632 -61.790741 27.631109
177.721115 -63.383724 40.279873
176.211060 -62.564304 116.521843
177.586884 -62.822918 120.046913
176.716995 -62.575649 121.995377
179.416534 -63.477039 -138.638168
178.436096 -62.007244 -136.582062
178.737289 -63.004555 -131.193176
178.257309 -62.437523 -130.669250
177.577469 -63.501781 -22.793814
177.318268 -62.900021 -11.614892
177.568817 -64.155876 38.126656
177.311249 -61.859093 41.149414
177.343170 -62.250862 115.764404
177.482880 -62.686779 119.352043
177.665741 -63.273388 120.103134
177.974442 -63.322716 125.729889
179.726044 -62.036732 -138.037476
178.050812 -63.441898 -129.488831
177.392838 -63.209297 -24.864481
178.576202 -62.910606 -22.361595
179.350693 -62.283855 -13.944218
179.045227 -63.104214 -13.235112
178.290161 -63.139336 -10.373712
180.013580 -63.103180 30.406548
178.473801 -62.095848 38.832161
178.095169 -62.504791 115.876808
177.414810 -63.125854 120.348167
178.841400 -62.846798 121.276482
178.547989 -63.301319 -131.563858
179.290100 -63.733631 -24.835981
180.109222 -64.060928 -23.173742
178.422607 -63.121338 -10.896260
179.186279 -64.374405 -10.478903
178.432968 -62.209511 27.016363
178.875107 -61.904697 29.597057
179.261093 -63.561096 29.128048
178.692657 -63.168064 38.322594
178.189026 -61.363525 120.212311
179.176285 -62.097439 120.909424
178.169357 -62.924576 124.628174
179.321259 -61.667404 -137.659653
179.638260 -62.792286 -137.194977
180.690918 -63.026321 -130.723007
179.349579 -62.421326 -129.621902
179.670929 -63.005482 -12.353621
178.158524 -62.447651 26.056618
178.204651 -62.471565 29.818687
179.821716 -62.928196 37.136364
178.895020 -63.113800 40.179550
179.321808 -62.864235 115.789017
178.626541 -64.020599 119.328232
178.896088 -63.043823 122.866936
180.426056 -62.848186 -130.952621
180.661575 -62.604462 -25.317904
180.395584 -63.543102 -22.866638
178.648315 -62.341423 -13.992702
179.742523 -63.013992 -9.214190
179.450623 -62.735878 116.579369
179.924973 -63.304783 119.467041
180.072052 -62.781662 118.611885
180.987930 -63.786049 -132.600693
180.595169 -62.849770 -24.509996
180.000671 -62.709106 -21.991377
179.738968 -63.529762 -12.633686
180.029343 -62.607731 -9.369841
179.912659 -61.947918 28.396112
179.901306 -63.637051 38.734730
180.979965 -62.869911 40.454746
179.319565 -63.420010 116.043488
180.378632 -63.593266 119.257339
180.482559 -62.055332 118.726196
180.466019 -63.385956 123.616508
180.977417 -63.087502 -138.316071
181.078140 -63.089722 -137.530167
181.225952 -63.427780 -131.535538
180.658875 -63.268322 -130.975876
179.630753 -62.558022 -12.864686
180.354004 -62.365387 -8.978684
180.346420 -60.876324 26.992865
180.688751 -64.311440 39.964935
180.187790 -63.088230 115.906059
179.659119 -63.123833 121.010590
181.519897 -62.545895 -138.454102
182.562393 -62.420910 -131.096710
181.156006 -61.820473 -130.726685
180.663544 -62.196533 -24.417755
180.037292 -61.861145 -22.337627
180.467087 -62.906796 -11.918676
180.565094 -62.546360 -10.886768
179.992065 -62.350628 -8.753277
179.528183 -63.882034 116.723946
181.172607 -61.968365 -131.175369
181.984909 -62.607464 -21.257713
181.819275 -63.438457 -10.108134
181.685410 -63.328098 27.108995
181.931442 -64.072380 29.109026
181.341431 -62.145351 36.381569
182.495590 -64.120117 39.628017
180.536331 -63.194931 115.495018
180.702530 -62.657127 118.851463
180.630814 -62.872978 119.271400
181.927261 -61.898834 123.780273
182.665024 -63.012127 -137.403824
181.806732 -62.683842 -138.209656
182.261932 -62.296379 -131.670181
181.472610 -61.665260 -129.605652
182.169037 -62.322479 -22.481358
182.515213 -61.956139 -23.388399
181.526474 -63.245964 -21.372168
182.752670 -63.147236 -11.406777
181.897537 -61.631767 26.747149
181.371338 -62.854324 28.439222
182.253250 -63.412434 37.859650
181.739471 -63.184704 38.724903
181.605789 -63.571869 115.044289
181.472427 -62.110565 118.178291
181.564194 -62.682747 118.667984
181.304962 -63.385597 119.931999
180.841064 -62.707710 123.561241
183.418442 -62.784523 -131.959473
182.894394 -61.239117 -131.070877
182.746170 -63.160076 -20.073456
182.871292 -62.587208 -11.745513
182.246323 -62.726429 -8.685915
181.703384 -63.978268 25.272846
182.176849 -62.703270 29.651022
183.314957 -62.943649 36.739487
181.192719 -62.117321 40.037937
182.676941 -62.069210 115.728172
182.068481 -62.955414 120.295212
181.268967 -63.798222 124.005096
182.426270 -61.038757 122.712715
184.219559 -62.675545 -138.479507
182.354782 -62.501068 -21.573057
181.272110 -62.768169 -19.588486
182.474991 -62.540459 -8.415927
182.125519 -63.444542 25.811817
183.077423 -63.415871 28.423840
181.919067 -63.346920 39.628296
184.184982 -63.301624 115.349236
182.652252 -63.585739 118.312874
182.070847 -63.080555 118.893608
182.945801 -62.444820 124.005707
183.141327 -62.886475 -131.226578
181.343002 -63.191261 -130.526886
183.263138 -62.991573 -20.325172
182.809906 -63.359509 -10.248250
182.878067 -63.407223 -7.730965
182.779968 -61.462032 -7.875545
183.523895 -62.166523 26.292717
182.931931 -62.187408 29.482386
182.141724 -62.944881 36.438560
182.896210 -62.337337 40.010639
184.515594 -62.213047 -138.305466
182.950150 -62.849342 -22.464848
182.933319 -63.096840 -19.361300
182.865784 -62.696850 38.802288
184.166168 -63.196720 117.276558
183.770264 -62.625500 120.525932
183.920105 -62.630432 -129.932816
182.830566 -63.116962 -21.713022
184.313934 -64.235893 -17.981535
183.438156 -61.662533 -18.851173
185.172653 -61.474831 -9.640533
182.976135 -62.610722 -7.487421
184.242676 -62.505295 25.941412
183.015305 -62.685440 36.381275
183.456497 -61.423935 114.900322
184.026138 -63.558548 119.358139
183.720108 -62.685543 118.459915
184.255447 -62.846729 119.466362
184.772446 -62.292576 117.766319
183.855133 -62.678707 122.195320
185.067841 -63.184505 -136.620209
185.203430 -64.635773 -131.665588
184.187195 -64.491409 -8.160505
185.308594 -62.484821 25.840342
183.520508 -62.402897 27.891876
185.598434 -63.432507 35.169121
184.376968 -62.109131 38.861824
185.293503 -63.270069 119.347847
183.740372 -64.125420 123.405266
185.046967 -62.112316 -22.231216
185.166977 -64.163635 -19.311344
185.461639 -62.620804 -8.787975
184.883575 -61.816986 -9.910508
184.968307 -63.071991 -6.978263
183.956055 -63.739845 114.524727
184.787277 -62.901733 117.842262
184.436295 -62.200279 118.083885
184.681763 -61.915195 -136.798325
185.657974 -62.389935 -131.050781
184.242538 -62.435635 -20.807531
185.447372 -63.476559 -18.691240
183.738678 -63.502960 -17.893698
183.216354 -63.483017 -9.591333
183.853836 -61.583260 -6.901878
184.234268 -62.829304 25.910322
185.363602 -62.803638 29.064634
183.681366 -63.037724 37.472485
185.207748 -62.136047 123.279747
185.679108 -61.948261 25.115326
186.243698 -62.901230 115.069359
185.318970 -63.205616 116.033371
185.213547 -62.524567 117.395340
185.961777 -62.961590 120.985435
186.167450 -62.546360 -130.636383
185.104568 -63.807747 -20.548923
186.174210 -63.017796 -17.823317
184.803894 -61.906391 -8.477025
185.057510 -64.071304 -6.558175
184.636063 -61.522476 27.642435
185.845932 -62.651176 37.393803
186.781876 -62.891136 118.034256
186.283936 -64.141769 -21.431131
185.990341 -62.575985 -19.881708
187.082047 -63.557449 -16.882854
185.151825 -63.033981 -7.083465
185.619263 -63.282578 25.678013
186.184830 -63.298397 35.889362
185.974915 -62.062294 37.975460
185.914917 -63.847038 116.700539
185.767700 -62.909763 118.170616
187.208679 -63.050755 117.685539
186.333878 -63.917686 -138.604050
187.057053 -63.890919 -130.056732
185.549896 -63.014381 -16.921896
186.827087 -62.530739 -9.168444
186.388321 -61.934536 -7.345332
188.169022 -61.365063 36.950703
186.611710 -62.738632 114.181694
184.523666 -63.931442 117.085960
186.154068 -63.374664 118.481636
185.430923 -64.221123 121.260239
186.375702 -62.235096 -137.903229
188.512787 -63.169228 -129.770660
187.821594 -62.699310 -20.350151
187.838211 -63.599812 -18.033613
186.729813 -62.438278 -16.532549
186.876099 -63.215858 -7.805257
187.993195 -63.346230 27.137571
187.251236 -61.960110 36.107918
188.735703 -64.304657 38.267891
186.450211 -63.534378 114.308571
186.078537 -61.967033 117.274635
187.217926 -61.560722 116.738564
187.087769 -63.426640 -139.465256
187.842346 -64.460800 -135.752686
187.955185 -62.613033 -134.833450
187.589752 -62.394844 -133.533066
189.197189 -63.743176 -132.502701
187.496857 -61.703499 -132.756683
186.971451 -62.548073 -131.373047
187.393784 -63.359486 -20.316660
187.770096 -62.292931 -17.870089
185.744492 -62.084198 -9.555847
187.431885 -63.859715 25.196712
187.495895 -63.489563 27.843834
186.038177 -63.120148 35.932030
189.770294 -61.461582 37.773243
187.381088 -63.731968 122.184952
186.715286 -61.878498 120.954124
188.386505 -60.268364 -137.052994
188.496155 -62.340405 -135.737534
188.501160 -62.362984 -136.025955
188.104080 -62.038322 -131.981277
187.609863 -61.744896 -19.288855
186.884537 -62.738152 -17.069399
187.267334 -63.554798 -7.466815
187.500214 -63.650944 -6.674872
187.802353 -62.297863 113.222893
188.247803 -61.937939 117.394768
187.496704 -62.353420 116.903290
187.377991 -62.851700 118.254593
187.689224 -62.677570 121.758972
187.892426 -61.593102 -135.259048
187.907990 -62.808342 -131.991440
187.590073 -63.428837 -17.766912
188.604172 -62.836437 -19.548706
189.024857 -63.429710 -16.145367
187.484055 -64.261406 -8.290568
188.118576 -63.211376 -5.162018
188.292114 -62.858990 25.481234
188.449692 -62.840866 36.057846
188.605713 -61.861423 112.192581
190.248199 -60.783585 -136.954330
188.876328 -62.645683 -135.371964
188.440231 -62.364479 -134.447205
188.614777 -62.829327 -134.637543
188.725082 -63.041142 -16.535316
187.659180 -62.160469 -8.017749
187.206558 -63.106251 -8.842878
187.721069 -63.450199 26.620155
187.700989 -62.147865 37.139053
189.064743 -63.825562 37.572670
187.905182 -62.297451 113.560333
187.021881 -63.376408 116.778976
188.132004 -62.436764 118.792671
187.841705 -62.875107 120.859055
190.445984 -61.362133 -136.263794
188.706528 -63.313038 -135.597427
189.336487 -62.094379 -18.256151
188.681305 -62.522240 -17.360811
188.948044 -62.552071 -8.363861
189.132874 -63.301540 -7.769654
187.168396 -63.054161 -6.082356
188.448685 -63.053780 23.963957
188.366486 -61.912598 113.175270
187.917206 -62.246059 116.115379
188.779495 -62.617100 117.231934
190.303268 -62.344574 -135.785522
189.078705 -63.283314 -132.464737
189.778091 -64.157463 -19.097048
189.026581 -63.342125 -15.173758
189.349762 -62.433998 23.922775
188.493896 -63.839108 27.273403
189.020325 -63.061672 36.253738
188.779984 -62.028927 37.273312
190.690002 -63.093922 111.752258
188.525146 -62.959743 120.755562
190.794495 -62.973362 -132.030991
189.996765 -61.450031 -133.632523
191.334900 -63.746601 -18.328342
189.909622 -63.453663 -16.360392
191.285095 -63.604889 -7.313775
189.713333 -61.421375 -4.752882
190.141144 -62.878578 26.637009
189.508957 -64.373894 35.644226
189.510986 -62.907436 37.439171
189.157898 -62.214241 112.541679
189.445709 -62.726128 112.292603
190.208191 -64.405693 116.132889
189.539658 -62.959423 116.327484
190.033844 -63.069923 120.823753
188.721390 -62.749191 120.095985
189.881744 -61.652790 -137.275269
190.717987 -62.764259 -135.269516
191.257599 -62.682163 -133.249527
189.819397 -62.104370 -133.225021
190.851501 -63.100941 -17.804729
191.013794 -62.083012 -15.694541
190.847122 -63.329296 -7.183652
188.780411 -63.110710 -4.549636
190.057770 -62.544865 116.056999
189.131897 -61.828644 115.527824
190.411331 -62.878616 117.040573
190.725922 -63.639160 117.542229
189.906219 -62.051788 -134.541168
190.748672 -62.395630 -133.138977
190.972214 -63.016781 -14.224243
189.303101 -61.724983 23.928595
189.631546 -61.687302 26.687794
189.875763 -63.012184 34.604946
190.417664 -63.881428 37.323811
190.877258 -61.759201 112.059021
190.957108 -63.164017 121.060013
191.404297 -61.342659 -133.175705
190.817123 -63.163788 -17.004894
191.699295 -62.873306 -16.072620
192.066269 -62.915497 -6.198788
191.822525 -63.086548 24.757921
191.260315 -61.708149 34.235992
190.737061 -63.586975 36.877712
190.846359 -63.345215 112.149628
190.074921 -62.931072 115.267593
191.175659 -62.575565 116.528008
191.388351 -62.425484 115.156197
190.786652 -62.857227 120.144302
191.951004 -62.103466 -136.851974
191.854935 -62.313732 -132.992599
192.377380 -64.807083 -17.876379
190.233414 -62.663296 -14.297871
192.032211 -63.240715 -4.983717
191.220551 -63.654545 -4.196971
191.161789 -63.633156 24.062286
191.114136 -63.581650 26.363188
190.621277 -63.614933 116.122337
191.251114 -62.158253 -132.732407
191.440887 -62.715157 -133.452698
191.750580 -63.016548 -132.001205
191.449005 -61.278862 -14.817959
192.258972 -63.088364 -4.349957
191.192276 -62.968952 22.313553
191.329865 -63.482647 34.566448
192.519440 -63.211464 37.458271
191.223923 -63.492214 111.437294
191.072922 -61.780563 115.583092
192.332413 -62.857952 119.796944
192.407471 -62.825577 -136.201599
192.812744 -63.272770 -135.411758
192.123291 -62.465485 -134.338898
191.760254 -61.424896 -134.759354
193.482773 -63.326920 -132.947418
191.353760 -62.292934 -16.939692
192.203705 -63.416759 -14.969995
192.294388 -61.802666 -6.457060
191.787598 -63.577389 25.262293
192.289307 -63.016796 36.602806
191.356506 -62.112679 112.099815
192.800385 -62.243439 115.057541
191.546295 -62.941822 114.648827
191.567093 -62.709717 114.942940
192.004272 -63.254196 118.018143
192.450027 -62.703156 -137.167465
192.702133 -61.759174 -135.949677
193.537460 -62.651321 -135.114777
193.574844 -63.397301 -131.821762
193.287170 -62.462955 -132.764923
192.562820 -63.256741 -14.638373
192.392685 -62.925106 -4.649574
191.238739 -61.076908 -3.798792
192.102020 -63.229202 34.252510
192.316086 -61.866676 110.253387
193.067429 -63.843567 114.741241
191.743317 -63.077633 113.718239
193.929001 -62.601471 118.984901
193.414154 -63.654488 -136.758423
192.543457 -62.920502 -132.913620
192.805649 -63.249660 -132.240723
193.816391 -63.572178 -16.309927
193.054337 -63.427731 -2.950220
191.841644 -63.001034 23.648615
193.125931 -62.668892 25.120434
194.213928 -62.532551 35.725792
193.391525 -62.515057 110.897896
192.510239 -62.742985 111.319809
192.652512 -63.035400 114.339874
194.128296 -64.079636 -137.088089
193.993698 -61.980030 -130.654617
194.846222 -63.126606 -17.019651
194.307495 -62.301487 -14.106574
192.629669 -62.738361 -5.674105
192.841293 -63.095760 -1.891654
194.000214 -62.464809 34.466103
192.887238 -63.157269 113.708099
192.729767 -63.872475 116.693306
194.637970 -62.113899 -138.874283
193.851196 -63.272686 -14.945753
194.187592 -62.428230 -14.263530
194.767548 -61.073296 -4.173505
193.688629 -62.913258 -2.916513
193.933823 -61.839714 23.528227
192.225342 -62.492050 25.709208
191.925995 -63.399467 35.873177
192.856430 -63.536678 111.107323
193.020691 -61.887032 113.714767
194.210526 -63.352287 119.838455
194.529694 -62.993023 -139.127380
194.564804 -63.995625 -130.643204
195.395584 -61.694187 -16.261053
194.765488 -62.834900 -2.032856
193.409851 -62.025475 22.028690
194.019791 -63.768894 32.800449
193.114410 -62.137932 110.663651
193.166061 -62.068790 113.234344
194.771271 -62.903027 -139.740753
194.279785 -62.268982 -131.021317
194.582672 -62.846218 -129.830643
195.039276 -63.599602 -15.652437
194.093460 -63.877045 -12.876199
194.357407 -63.174606 -3.915705
196.233932 -63.002876 -4.377312
193.541199 -62.518032 -2.662636
193.960693 -63.184315 110.765984
195.238953 -62.613628 113.690422
195.839813 -63.539322 113.010590
195.146881 -63.160603 114.244675
194.807495 -62.574444 117.871506
194.714767 -64.914207 -140.599533
195.626312 -63.801384 -14.888969
195.355850 -62.719025 -12.400444
195.776749 -63.305836 -2.168606
194.262283 -65.138573 25.153313
194.139618 -63.517296 34.515343
194.259232 -62.340862 36.367664
194.699432 -63.565765 109.860718
195.575989 -61.963223 109.961784
194.505173 -63.090118 113.812927
196.059021 -64.087296 -139.744003
196.050842 -62.829266 -130.051453
195.525742 -62.477596 -14.643674
195.309845 -63.717934 -13.269361
195.190399 -63.024231 -5.506608
196.132645 -63.314632 22.524210
195.373123 -62.763206 25.620676
194.847031 -62.261402 113.447281
194.767181 -63.056820 113.224525
195.065826 -63.150944 117.372932
196.864243 -63.357903 -141.320236
195.779602 -61.966400 -15.329606
195.373016 -64.027489 -12.798193
196.443481 -62.424847 -12.705834
196.248535 -63.065712 -5.032662
195.438004 -62.665638 -1.673562
195.793549 -63.311131 21.173895
195.513382 -62.079334 109.366211
197.065018 -61.994137 -140.403992
196.446198 -63.016052 -129.185440
195.920929 -62.175900 -119.545372
196.297760 -63.632984 -118.728294
196.261322 -61.782719 -116.746490
196.874664 -63.317898 -117.041435
196.350037 -62.013638 -115.794952
196.457016 -62.645134 -114.315086
197.313339 -62.194668 -112.443771
195.677933 -61.256546 -110.634964
196.416580 -62.007576 -12.426319
195.540253 -63.471306 -3.926709
195.709244 -64.553307 -1.412084
195.408401 -62.560276 32.517159
196.593185 -63.672039 33.923744
196.199554 -62.321869 109.409256
196.405670 -63.250042 113.067360
195.488724 -63.711060 113.370529
196.948792 -63.102291 113.536301
195.895721 -62.291740 118.953865
195.395523 -62.271488 116.661995
197.680878 -61.550476 -126.658432
196.602692 -62.381752 -118.799515
196.407547 -62.872559 -117.574913
196.949814 -62.690197 -117.831680
196.536621 -61.517223 -116.466782
196.670288 -62.096161 -114.418335
197.630798 -62.774101 -114.524078
197.492935 -63.360401 -112.423470
196.913696 -62.470314 -110.689613
196.160034 -63.631435 -14.486666
196.411484 -63.319382 -11.767147
196.706787 -63.241592 -4.374264
196.885361 -63.273880 -0.740969
197.264450 -64.089439 24.547268
195.824158 -63.504547 32.875519
195.413864 -62.820274 109.375252
196.537506 -62.166847 112.418716
197.477646 -62.968235 116.285309
198.346771 -62.670700 -128.818054
198.177841 -62.343243 -119.394867
197.947922 -63.053898 -118.745979
196.676544 -63.339394 -117.553772
196.935410 -62.463753 -114.694206
197.122803 -62.332069 -114.500359
196.831161 -63.084927 -114.452988
196.348526 -63.415173 -113.170425
196.576553 -62.802994 -111.247833
197.311905 -63.098232 -14.840670
197.576859 -62.670822 -10.864586
196.485947 -62.587162 -2.868062
196.409576 -63.068439 -1.990775
196.562271 -62.313526 34.739380
197.574677 -63.622761 113.450516
196.987808 -63.308121 113.673782
198.353973 -63.397884 -134.819412
197.899292 -62.504040 -134.339691
195.887360 -62.702431 -126.939529
197.720993 -62.485153 -119.648315
197.459961 -62.243610 -110.853081
197.525909 -64.666451 -10.437605
197.374191 -63.433903 23.948959
196.687073 -62.322575 23.895536
196.264175 -61.858276 31.734562
196.959641 -63.267067 109.236244
196.283569 -62.077240 113.788574
197.878784 -63.055969 116.831055
198.088730 -63.587715 -134.153931
197.195358 -62.986622 -126.059822
197.894821 -62.510242 -125.174889
198.235397 -61.907425 -124.428581
198.358246 -62.864956 -124.657265
197.740524 -62.420879 -121.824211
197.203003 -62.857590 -120.131203
198.491776 -62.031147 -111.220711
198.549133 -61.897526 -109.535896
197.474411 -62.649494 -12.905433
198.764969 -62.451363 -3.832473
197.855896 -62.097977 -0.942399
197.221970 -64.106224 35.466797
198.240860 -62.079296 109.848900
197.229065 -63.122147 111.983833
197.663727 -61.819927 112.133095
197.282913 -64.074455 118.042236
198.035202 -62.910721 -136.839233
198.267838 -63.171432 -133.210495
197.966217 -61.931538 -126.931992
199.406937 -61.674168 -127.396927
198.336197 -62.901489 -126.084541
198.228134 -61.990177 -124.269295
200.122345 -63.258251 -122.892967
198.408401 -61.641750 -123.059090
198.994308 -62.023884 -122.599892
199.416611 -61.473919 -120.750946
199.412094 -62.204220 -120.391090
198.128586 -62.403481 -112.094810
198.057587 -62.147476 -110.541939
198.239777 -61.815266 -13.130208
197.506790 -63.375145 -11.273890
197.324371 -63.376358 -3.062684
197.323059 -61.564228 -0.949092
198.258896 -63.957787 24.169958
197.722595 -62.163548 32.625820
198.719498 -62.232048 34.636158
198.603485 -62.910004 108.719795
198.122070 -62.439465 113.054535
197.309311 -62.527985 113.098595
198.445770 -62.808403 118.605736
198.659531 -61.669861 -125.892288
198.806671 -62.223007 -123.584305
200.476395 -61.990379 -124.081001
197.905014 -61.914291 -121.489471
199.482422 -63.167969 -121.333679
199.354553 -62.823936 -121.011734
198.289444 -63.003819 -13.884326
198.715927 -62.465561 -10.302446
198.401855 -62.941032 -3.386707
197.826889 -63.029396 22.852398
198.955215 -63.397121 23.657640
199.627899 -61.742634 32.448643
198.806412 -63.376091 35.494781
199.297379 -62.535580 108.694481
198.525787 -62.433346 112.469307
198.841507 -62.356030 113.007584
197.977676 -62.980888 117.088051
200.501526 -63.147369 -141.493240
199.390182 -64.171898 -133.330521
198.709000 -63.237129 -126.217636
199.465759 -62.962418 -125.255730
199.398270 -63.015873 -124.204712
199.754227 -62.255066 -121.422295
200.325867 -62.851921 -120.160126
198.604324 -62.777287 -119.753540
198.515549 -62.852806 -109.991348
199.827866 -62.367390 -12.955755
198.019714 -63.556000 -9.731630
198.371140 -61.370323 -1.677267
199.024078 -63.162376 32.348995
200.277069 -64.334770 110.986626
197.428482 -63.201157 111.524178
199.659821 -62.947575 116.339172
200.435608 -63.259212 -128.112488
200.138199 -62.788715 -127.699951
200.330627 -62.734348 -120.944214
200.311859 -63.476379 -121.164505
199.107544 -62.497726 -112.216949
199.585114 -62.417564 -12.932667
199.301804 -62.834705 -10.098993
199.158752 -63.341759 -11.184845
198.619751 -62.774078 -3.057755
198.719193 -63.156788 -2.054375
199.717133 -63.987572 -0.140216
200.041000 -62.620117 21.825241
199.581451 -63.419720 24.760092
199.124252 -62.886456 31.844915
199.904907 -63.287979 33.800117
200.536255 -62.744694 107.484436
201.216995 -62.025646 107.232094
199.453995 -62.555134 -132.804626
200.575134 -63.122761 -133.322235
199.619797 -62.153736 -128.036850
200.208054 -62.352501 -127.214226
199.994583 -61.634453 -126.494865
199.071503 -62.833481 -124.521622
200.297028 -61.882404 -122.340950
199.745178 -62.207478 -121.289284
199.888885 -63.132225 -110.030502
198.275284 -60.464684 -12.029251
199.846802 -63.001263 -3.270708
200.130981 -62.878498 1.270620
200.239929 -62.027374 21.321974
199.266418 -62.560307 32.183144
198.568283 -63.008316 110.612167
199.496689 -61.694958 111.538818
200.075684 -61.773075 116.613258
200.211639 -62.618843 -127.344856
201.742645 -62.536285 -123.879524
200.833511 -62.696644 -119.337326
200.373810 -63.588112 -110.531158
200.381027 -63.384117 -12.879609
199.726273 -64.008865 -10.766081
200.368027 -63.302025 0.039641
199.671875 -62.858463 106.866142
200.346619 -63.289566 111.811378
200.905182 -62.905251 110.591179
200.545853 -63.473175 -133.373444
200.828400 -62.282635 -127.806801
201.084961 -63.814732 -126.887489
200.921295 -60.691875 -124.419769
201.106720 -63.318245 -125.060806
201.543289 -62.233967 -120.890778
201.180725 -63.534756 -118.992424
201.160065 -63.157337 -121.483994
201.148254 -62.875397 -110.301476
201.088425 -62.119682 -1.022902
201.463699 -62.972771 21.509090
199.808151 -62.952690 24.172756
200.311661 -63.230305 31.109138
199.903030 -62.673222 34.146336
201.315506 -63.847431 106.625015
201.787064 -62.944336 110.678421
199.870529 -62.931770 110.496071
200.328842 -62.393150 115.186775
200.818375 -64.138626 -139.291611
201.289749 -62.219700 -134.692169
200.981445 -62.810909 -135.636047
201.527985 -61.405499 -133.270721
200.957672 -62.974609 -133.814255
201.538208 -62.366367 -127.017166
201.422653 -64.498032 -126.402122
202.095535 -62.715149 -125.527931
201.270630 -61.731628 -123.524719
201.408615 -62.119518 -122.797302
201.339203 -63.333511 -122.251816
201.294464 -61.209820 -120.303810
200.806900 -63.430614 -110.334892
202.269440 -63.725849 -12.331514
201.005875 -62.248852 -9.297091
201.292740 -63.442673 0.148606
201.141556 -62.191898 105.664490
201.322495 -63.225872 109.717377
200.833862 -62.472794 111.165771
201.850693 -62.936649 -141.562271
202.678360 -62.743572 -140.445450
201.209473 -62.372093 -127.521912
201.746811 -63.205097 -129.542679
202.270859 -62.293354 -127.182373
202.505951 -61.223362 -126.043274
201.662323 -62.523567 -125.326668
201.477890 -61.903183 -123.838776
201.088730 -62.495327 -121.191223
202.329071 -63.058231 -119.082405
203.017563 -62.994587 -13.108186
201.602692 -62.455883 -1.533174
201.273773 -63.467422 1.327950
201.806427 -63.233547 0.762880
200.773331 -64.246628 22.038980
202.614563 -62.379822 31.351377
202.055466 -62.173325 32.704727
200.778168 -63.836143 110.439018
201.304977 -62.564930 111.139397
201.785126 -63.137638 115.311737
201.934219 -63.037960 -128.753571
202.424942 -61.299961 -125.996597
202.839798 -62.633705 -119.652206
202.880539 -63.565395 -109.837303
202.299393 -62.622253 -12.327247
201.187500 -62.464085 -9.834214
201.636902 -62.732876 19.933067
200.996811 -64.134071 31.333063
202.399414 -61.306580 34.300526
201.930893 -63.016815 105.395729
200.783859 -62.564816 111.887726
199.535278 -62.623272 114.265022
202.418121 -63.228294 -129.449921
201.645447 -63.035412 -119.500870
203.761795 -62.431332 -116.951935
203.140915 -63.725731 -116.756279
202.410477 -62.905128 -111.489273
202.644867 -62.374622 -110.675400
202.265900 -63.731701 -10.744137
203.081619 -63.380688 -1.449815
201.927048 -62.197727 1.455590
202.190521 -63.077911 32.938091
202.533096 -61.608818 110.373032
201.645233 -63.827812 111.395210
200.748917 -62.633114 114.116844
203.680084 -62.475906 -140.769577
202.744186 -61.840504 -119.638847
202.697937 -62.468273 -11.229621
202.686752 -63.306305 -9.896800
202.281891 -62.605850 -1.203804
202.633881 -62.963547 1.781714
204.216324 -63.238819 22.818716
202.059677 -62.092075 107.550964
203.973389 -62.844532 107.106995
202.842026 -63.427361 109.222282
201.961823 -63.222267 111.326576
201.249832 -63.390900 110.672501
203.246506 -63.975750 -141.481262
203.179123 -63.410370 -140.809830
202.266220 -62.416130 -120.382484
203.159729 -62.283012 -120.618858
202.938705 -61.945644 -119.620720
202.275604 -62.469082 -116.668549
203.065567 -62.453480 -0.923752
201.882721 -64.252693 20.454081
202.403671 -63.034443 21.837591
202.838165 -63.218830 31.407223
203.894043 -63.202274 32.888763
203.236649 -62.876553 107.936485
202.678818 -62.983936 111.052078
203.049713 -63.040100 -130.650742
204.087631 -62.146721 -119.762978
203.951752 -63.006733 -118.237274
204.127823 -62.237701 -117.614792
203.798004 -63.210312 -116.149376
203.665283 -62.297005 -114.717926
202.803253 -62.138702 -113.207420
203.889481 -62.270592 -112.733475
203.868256 -62.319805 -111.864555
202.978516 -62.878189 -12.053860
203.668243 -63.587204 -9.066386
204.091415 -61.688660 -9.020943
202.391052 -63.159122 -0.550808
204.943588 -62.872597 1.333476
202.390335 -62.171402 31.831768
202.306305 -62.127232 106.130959
203.246078 -63.693966 110.169830
203.042297 -63.759521 109.343575
201.592636 -63.387821 112.894264
203.377472 -62.288692 112.901962
204.505798 -63.515339 -140.052658
204.707596 -62.775887 -10.991583
203.685379 -62.830929 -7.835773
203.759277 -62.868698 2.654475
203.885101 -62.993382 31.317211
203.718628 -64.103241 109.011604
203.305176 -63.267277 107.935875
203.926117 -61.955872 110.051674
202.926132 -62.429058 113.409950
205.073135 -63.249153 -151.496460
204.830078 -62.907608 -139.654297
202.795425 -63.540859 -131.633698
205.439117 -63.423882 -7.644951
203.884872 -63.043217 0.640117
202.913116 -64.029869 3.320918
205.288589 -62.783665 18.812763
204.351852 -60.967396 23.568808
204.857056 -61.942375 31.069172
204.214691 -62.593159 33.523113
204.375870 -62.526829 105.478333
204.580811 -63.138714 104.911224
204.341431 -61.609032 107.777206
203.701828 -63.111576 110.207626
202.868820 -62.218231 110.742577
203.520508 -63.477509 113.854324
204.777893 -60.927094 -150.411713
205.213608 -62.940262 -139.743530
203.871338 -64.180206 -8.814378
204.808823 -63.507385 -7.285540
206.120346 -63.209743 -0.866885
204.289505 -62.633354 3.009073
203.134094 -64.153198 108.027412
204.286499 -61.716183 109.742584
204.979141 -62.119774 -137.728653
203.807693 -62.871735 -131.732651
204.996460 -63.867935 -9.962687
205.136276 -63.947350 3.558045
205.613678 -63.298038 20.574955
204.872391 -63.434021 21.589161
204.973877 -62.000481 30.501200
204.213409 -62.321346 32.147438
204.182693 -63.274151 105.252808
206.046982 -63.813446 109.615967
203.508438 -63.167583 112.470947
205.671997 -61.948975 -152.298492
204.972275 -62.237827 -150.582214
205.382172 -63.670177 -137.154968
206.063705 -62.782127 -137.977295
206.518036 -62.560371 -132.190826
205.812744 -63.686588 -132.694702
206.393036 -62.877357 -7.324417
204.646774 -61.465729 0.567401
205.072006 -63.608181 3.042568
205.799683 -62.237240 103.197777
204.906601 -62.942795 107.955658
203.180725 -63.734123 108.141747
205.487305 -62.332035 108.972618
205.212006 -61.734741 111.833672
205.777390 -63.195267 -137.252670
204.879578 -63.725552 -132.567444
205.109253 -63.349251 -10.127254
206.160583 -62.687847 -8.358795
205.541534 -63.005657 0.166996
206.137680 -62.475727 4.472345
205.956757 -63.491806 21.361101
205.491608 -61.646568 32.872597
205.404434 -64.261398 104.874893
205.995819 -63.106464 108.084938
205.178116 -62.326038 108.243507
206.139648 -62.083218 109.011116
206.189270 -62.499172 109.573845
205.443527 -62.308613 -151.380127
205.909851 -61.493896 -150.484909
206.218094 -63.314911 -137.102951
207.056213 -61.059380 -137.604950
205.751328 -62.153057 -132.813339
205.459991 -63.823116 -9.202291
205.887192 -61.549374 -7.340850
206.390671 -62.880970 0.712187
205.871307 -62.380280 1.187464
206.419098 -62.605011 20.704029
206.690338 -61.996532 20.553520
205.505692 -63.092915 30.662643
206.648529 -62.897255 106.805534
206.034393 -62.071514 106.616806
205.892776 -62.383083 107.877831
205.982071 -63.050053 109.751503
204.433777 -62.545094 109.292137
206.538605 -63.409039 112.323372
206.443665 -61.935993 -150.884354
207.494553 -62.604404 -150.295715
207.166550 -64.328102 4.271820
206.488693 -62.547272 30.251595
206.530914 -63.104828 103.848633
205.496384 -63.535286 106.637177
205.789398 -63.771332 107.865952
206.343979 -63.502426 108.050247
206.364441 -62.333591 111.498810
205.927902 -62.668640 110.864967
207.308060 -63.150497 -151.008530
207.197861 -62.230476 -147.939758
206.660583 -62.626347 -137.465881
206.853729 -62.552883 -133.696976
206.449402 -62.227264 -8.833809
206.508636 -62.713036 -6.688730
207.233978 -62.308674 1.696572
207.368195 -63.042580 2.931883
207.719116 -62.932236 4.717203
207.246185 -63.244320 20.220030
207.274094 -63.387394 22.195099
206.571945 -63.335922 30.476606
206.266434 -61.926727 32.011917
207.242905 -62.690453 103.826241
207.011429 -62.008308 107.558701
206.529175 -62.560532 107.053673
206.789139 -64.018692 112.389709
207.022430 -61.554531 -150.509201
206.611984 -61.776169 -148.261169
206.833618 -61.875313 -133.474442
207.753708 -62.029400 -6.761211
208.594925 -63.015156 5.563102
206.647522 -63.291286 23.201159
206.626480 -62.037270 32.170532
206.792603 -63.662495 101.983513
207.612106 -63.195492 106.234688
206.712799 -64.179222 106.913086
207.560165 -62.781967 108.214073
207.236572 -62.234901 -151.241959
208.524475 -63.279800 -150.518921
208.456970 -61.117725 -149.110474
208.700882 -62.680012 -136.081696
208.493317 -61.561615 -136.992691
208.323853 -62.909874 -133.520828
208.369614 -62.152031 -8.364793
207.994507 -63.791252 -7.220555
208.172958 -64.246643 1.900899
207.673904 -62.874012 20.172106
207.397690 -63.673683 103.749100
207.251663 -62.717281 105.187645
207.850891 -62.827179 107.658417
208.015305 -62.646431 -151.285828
208.213165 -61.355537 -150.269638
209.464020 -61.809212 -148.912659
208.548157 -62.224152 -137.716736
208.641815 -63.002651 -7.767605
208.532318 -63.098900 -6.072900
207.359131 -62.807625 3.370346
208.715317 -63.300125 4.400790
208.211456 -63.246250 19.116699
208.559647 -63.534676 22.525000
207.422791 -64.541420 28.875755
208.735413 -63.500889 31.276194
208.711929 -63.271149 105.619240
207.647507 -61.558624 111.134567
208.560837 -62.252605 -151.649994
208.734039 -63.361107 -149.265167
208.840836 -61.070217 -147.725464
207.816177 -64.101013 -132.950775
208.942017 -63.706501 -7.944062
209.848114 -62.988865 -6.715329
208.231659 -64.245850 2.799496
208.640335 -63.081417 5.304739
207.231781 -63.228188 19.939306
207.969467 -63.751911 21.911211
209.069992 -63.201824 32.351181
208.562454 -61.889851 101.330872
209.096527 -62.402718 101.639496
208.690552 -63.168671 106.234459
208.592422 -62.822517 105.289719
208.167816 -63.378086 106.727295
208.066162 -63.073807 105.959091
208.356323 -62.666351 111.843246
208.428696 -62.179447 -149.265045
208.272476 -63.339539 -148.002121
209.115158 -63.414764 -137.170502
209.851440 -62.813686 -137.048111
209.100784 -64.205482 -133.862564
207.564087 -63.615891 -5.608643
207.883926 -61.988571 3.236784
208.884048 -62.419849 5.208316
208.889816 -62.828846 30.396461
209.721573 -64.145966 105.958862
209.294724 -63.832508 106.593987
208.450638 -62.429718 106.623245
207.602783 -63.522079 107.212891
208.524780 -62.487339 105.839607
208.199432 -64.801758 109.697075
211.694626 -62.013943 -151.059708
209.763901 -63.577198 -135.942062
209.609436 -63.121132 -137.549240
209.282059 -63.743774 -134.518448
211.442871 -63.081406 -67.266006
209.816345 -62.131828 -67.003616
208.222137 -61.102337 5.122012
209.630692 -63.267021 18.994682
209.893600 -62.596317 21.586754
207.814636 -61.295956 21.749086
209.860306 -63.464947 30.165613
209.726547 -63.272552 32.641544
208.431854 -62.147182 100.930801
208.085571 -61.918068 105.763115
209.886490 -62.503471 105.352707
210.101120 -62.731133 110.597290
209.678207 -62.290092 -152.353043
209.925461 -62.333652 -150.788773
209.798050 -61.167816 -151.658783
210.422119 -62.075462 -148.127838
210.343109 -62.732773 -66.655464
209.920609 -63.328739 -65.925697
211.558594 -61.861214 -63.823475
208.878342 -62.494286 -8.001206
208.885086 -63.304691 -4.610193
209.232864 -62.842205 5.055110
209.984604 -61.728073 21.239073
209.291382 -63.604397 29.718184
208.844849 -63.532265 31.805176
210.236206 -62.206741 101.749550
209.876572 -62.669178 105.592667
208.902847 -61.884518 104.767799
208.864166 -61.445820 105.932083
209.612366 -63.631588 110.942368
209.511505 -61.602116 -151.698502
210.819763 -63.060547 -151.351639
210.212723 -62.100742 -149.069916
210.138062 -60.651466 -146.858047
210.547623 -63.368801 -136.907501
211.478867 -62.764713 -137.814713
210.720459 -63.290024 -132.240738
209.834229 -62.011909 -67.947731
210.173981 -63.360294 -62.774509
210.441483 -63.298592 -63.424431
210.470078 -61.960884 -6.010568
210.432449 -62.800076 3.555901
210.321396 -61.137520 6.486839
209.977020 -62.240555 100.489456
210.200958 -63.766949 103.867088
209.807800 -61.848701 104.368050
209.674393 -61.376076 105.935295
209.941925 -61.991104 107.083748
211.475876 -62.538563 108.353592
210.970673 -63.009296 -153.171753
210.531738 -61.021503 -150.112488
210.986679 -63.037041 -149.753632
211.412689 -62.634865 -148.264725
211.785889 -62.809723 -147.311340
209.836960 -61.944965 -147.886673
210.203476 -61.561211 -137.118103
209.941681 -61.847935 -132.724411
210.325562 -61.275345 -66.407692
211.096390 -62.236435 -65.574432
211.212769 -61.492435 -64.260719
209.948196 -62.747292 -4.333873
210.706116 -63.677891 19.589462
210.682022 -63.098614 22.071285
209.126953 -62.262100 29.649673
210.447937 -63.227333 31.958492
210.747559 -63.548874 99.418427
209.690063 -62.995132 104.124893
210.673492 -63.780594 105.881233
210.589310 -62.080254 106.414436
210.036484 -63.451778 110.105690
210.193436 -62.494072 -150.879852
210.718735 -62.333370 -149.669540
210.846191 -62.250923 -149.105484
210.334747 -63.185375 -66.520126
211.228210 -62.706100 -6.415610
209.887314 -62.593349 3.483510
210.164597 -62.708183 8.114875
210.281693 -61.095432 100.038185
211.289703 -63.631245 103.716095
211.482071 -63.701015 103.087051
209.254044 -62.801739 105.504471
210.085373 -63.553955 108.744339
210.022278 -62.295979 -153.480545
211.145813 -63.331539 -150.377472
211.591385 -62.819859 -149.739685
211.523087 -60.318245 -148.041397
211.996063 -62.178829 -145.618195
213.063385 -62.807205 -145.346313
212.090439 -63.435619 -137.166458
210.527557 -62.553791 -134.377121
212.168335 -61.161961 -133.200943
211.619354 -63.225227 -66.145172
212.149841 -62.724667 -66.316116
211.963989 -64.454727 -62.765163
212.426453 -61.966862 -64.988579
210.437347 -62.033722 -65.393539
210.965302 -62.785793 -6.851432
212.210922 -62.839912 -4.683509
210.628616 -62.677498 6.772749
210.403107 -62.926517 18.438030
211.737244 -62.128410 18.761675
211.561646 -62.832256 21.448473
210.553604 -62.433430 29.203091
210.943954 -63.420738 31.427250
211.364807 -63.092579 100.770882
211.974930 -62.663929 103.747734
211.828568 -62.544994 101.999977
210.890472 -61.919220 104.341553
211.055954 -61.617661 104.749901
211.337906 -62.124321 104.395325
209.857193 -64.187729 108.827469
210.972153 -63.022003 -152.427109
211.283356 -62.488674 -151.115631
210.976532 -62.256359 -147.396667
212.322159 -62.164608 -148.345322
212.180557 -61.437706 -145.472061
212.487274 -63.473167 -137.253311
211.134247 -63.258930 -136.813400
213.220993 -62.538250 -132.809341
211.469681 -63.849976 -66.386314
212.701019 -64.688927 -66.843185
212.645477 -62.263214 -66.732468
212.522888 -63.375629 -65.534058
