# This PCD file was generated using the MATLAB® pcwrite function
# from Computer Vision Toolbox®.
# .PCD v.7 - Point Cloud Data file format
VERSION .7
FIELDS x y z
SIZE 4 4 4
TYPE F F F
COUNT 1 1 1
WIDTH 1481
HEIGHT 1
VIEWPOINT 0 0 0 1 0 0 0
POINTS 1481
DATA ascii
75.352058 -67.593750 -13.926547
75.519447 -68.284996 -73.081924
76.376343 -67.256851 -72.936279
75.787552 -67.080986 -13.594006
76.114326 -67.323669 -74.313309
75.717323 -67.547890 -13.860694
75.987724 -67.338493 -15.415475
76.932961 -67.010399 -73.879211
77.992874 -67.033737 -73.232368
77.399467 -67.755112 -15.349603
77.197159 -67.170708 -14.551758
77.744148 -67.335953 -15.031828
78.107552 -67.608223 -17.272503
77.977753 -67.438660 -74.637955
79.185089 -67.130157 -75.315796
78.959007 -67.011230 -15.970190
78.921005 -66.634781 93.258812
78.108147 -66.814476 94.271698
78.878769 -66.777359 -75.969345
79.259338 -67.094627 -74.567268
79.605156 -66.795532 -17.491068
79.426048 -67.489563 -18.089975
79.390099 -66.997482 93.721184
78.989662 -66.358643 94.581856
79.116234 -67.557915 94.581276
79.943855 -67.552841 -75.688210
79.986183 -67.113670 -74.597214
79.629654 -67.741875 -18.786472
79.917557 -67.473457 92.696785
79.907372 -66.710037 94.208847
79.055046 -66.947937 95.345268
79.329758 -66.888199 99.593681
80.144722 -66.461060 -21.178114
80.667267 -67.312912 -20.524439
80.312996 -67.350357 -74.645012
80.387924 -66.956604 -75.625397
79.825638 -67.279594 -20.874866
80.595184 -68.386322 -21.310429
80.890770 -67.266991 93.667313
80.119606 -67.423790 94.265564
80.964638 -66.521851 95.680290
80.147591 -66.332336 96.404610
80.967445 -67.666183 -75.694695
80.847054 -67.461670 -23.980236
81.086540 -66.930756 -22.460718
80.685623 -67.611702 -21.208214
81.120224 -66.002342 93.329651
80.249863 -66.637604 93.609306
80.021965 -67.235779 94.642769
81.153419 -66.871841 96.901550
81.099609 -66.553619 -24.686192
80.807869 -67.945076 -22.851555
81.242317 -66.379524 -22.282631
81.651001 -66.833519 93.319160
80.545525 -67.358513 94.690453
81.324997 -67.419319 95.097794
81.173660 -67.616257 96.439194
81.763168 -67.424438 99.787056
81.833374 -67.568726 -76.620880
81.860703 -67.661545 -75.165886
81.664246 -66.939941 -24.860468
82.002342 -67.108826 -23.772594
81.066971 -66.914612 90.434914
81.667305 -66.258545 90.885490
81.701126 -66.784378 92.742821
81.487152 -66.817337 101.237579
82.879105 -66.395615 -77.227760
82.661110 -67.382652 -75.430832
82.193832 -67.320145 -26.444054
81.916824 -67.621887 -25.074112
82.195084 -66.160294 88.971954
82.286232 -67.975128 90.482498
82.672333 -67.175537 91.133926
82.787971 -67.243637 92.642342
81.576950 -66.774620 92.217224
81.819115 -67.640930 93.780586
82.151222 -67.474380 94.821426
81.505188 -67.313171 95.853111
81.909271 -67.826042 96.352165
82.062355 -66.559395 97.718254
82.342094 -67.426254 99.463470
81.585373 -66.858452 100.239273
81.322296 -67.005249 100.775505
81.722229 -66.570076 101.676239
82.424263 -66.928032 94.702721
82.738243 -67.295944 101.357430
84.147202 -67.850227 -76.967751
83.296715 -66.826218 -26.646713
82.675285 -67.419800 89.895477
82.861031 -68.239380 91.984467
83.004883 -66.665016 96.800079
82.319786 -66.970222 97.706619
82.167099 -67.534943 99.899612
83.206207 -66.781944 100.717392
83.249809 -67.452522 -76.092453
83.187416 -67.217575 -27.169659
83.697838 -66.754509 -26.780466
83.500916 -67.982643 89.749115
82.843414 -67.069290 92.860710
82.810623 -66.560020 93.204315
83.400520 -67.175461 95.321976
82.830467 -66.223991 98.002495
82.784439 -66.712921 98.768738
83.149162 -67.577469 101.200333
82.998589 -67.133202 103.496559
84.293549 -67.910309 -27.529329
83.916206 -67.338806 89.254814
83.333374 -67.259537 90.639999
83.170815 -67.566010 91.294403
84.176079 -66.488556 93.660751
83.790894 -66.784996 95.783195
83.383438 -67.357040 95.550919
84.110649 -67.570915 97.586296
82.977859 -67.948212 99.139023
83.587669 -67.153717 99.944855
83.743820 -67.069252 101.687111
84.624123 -67.004242 -76.637482
83.945976 -67.031059 -28.274290
84.130783 -67.521187 91.234512
84.667618 -66.795578 92.342072
83.417595 -67.485184 95.878410
83.465935 -67.205048 96.976295
83.702301 -67.646576 98.551895
83.890068 -66.889290 102.711205
84.561623 -67.724335 -76.644043
85.461731 -68.073959 -30.497229
84.445679 -67.460114 -29.304667
84.188995 -68.095390 -29.991405
84.573761 -66.727501 89.989395
85.287529 -67.009415 89.697174
84.263908 -67.604713 93.305168
84.928406 -67.920105 95.879295
85.282715 -67.272537 -33.873875
84.599533 -67.572113 -31.841389
85.221153 -68.626358 -31.378508
85.127495 -68.106102 -31.471109
84.973724 -68.198738 91.486206
85.141190 -66.303665 97.250793
84.959702 -66.435028 97.591400
85.012291 -66.768066 101.100502
85.134209 -67.614670 101.975464
84.722290 -67.192200 101.801498
84.762001 -67.258217 -75.834000
85.817650 -66.713547 -34.481617
84.291985 -66.974312 89.490654
84.864105 -66.046265 90.031349
84.768990 -66.940964 91.650764
85.213219 -67.438965 92.356567
85.363602 -68.277496 92.428444
84.861160 -68.154877 96.427742
85.598869 -67.073784 99.083282
85.763290 -67.816849 100.346893
87.203270 -66.987000 -77.075783
85.852798 -67.950783 -34.083549
84.824532 -66.835915 89.861176
85.571793 -66.435303 89.371918
84.828415 -67.226334 92.734650
84.898537 -67.428009 93.926712
85.360275 -67.317970 95.850761
86.068596 -67.025879 96.076088
84.757439 -66.041611 98.298164
85.359970 -67.452759 98.333588
87.335045 -67.694122 -35.415188
85.805733 -66.685776 87.640854
85.550385 -66.728592 89.103180
85.865128 -67.633965 90.048981
85.961739 -66.771332 90.655426
86.130295 -67.729393 100.106789
85.906113 -67.384529 101.735649
85.938057 -67.124863 103.614555
86.556641 -67.658150 90.253380
86.071472 -66.787895 91.102219
86.379044 -67.072838 91.648514
86.288155 -66.596741 96.404411
86.429016 -67.008492 102.702545
87.928558 -66.844490 103.338348
86.638725 -67.741310 -77.116287
86.678253 -67.391212 -35.762863
86.453514 -67.448715 89.213692
86.423569 -67.471268 95.318291
86.874496 -67.262894 96.224075
86.489853 -66.133377 96.870956
87.075951 -67.364731 98.249207
86.652466 -66.792351 98.902855
86.360374 -67.431953 100.776436
86.596390 -67.298920 102.019699
87.705856 -67.332062 -36.121040
87.762398 -67.709534 -37.295055
87.265656 -66.582916 88.563622
87.482803 -67.694283 90.300560
87.477692 -67.303596 91.684311
86.318840 -67.657356 101.990753
86.944595 -66.755165 102.481728
87.482613 -67.131905 103.960861
87.291336 -67.394653 90.019249
87.496788 -67.426537 92.360664
87.191551 -67.892426 93.299095
87.748566 -66.931664 97.674927
87.744698 -67.722794 98.058556
87.462372 -67.419006 98.672249
87.854362 -67.556213 100.220703
86.795532 -66.049713 103.774101
88.551216 -67.969910 -77.432945
88.609123 -67.839874 -36.513908
88.660744 -67.497063 90.159286
89.037788 -67.237862 90.498962
88.625343 -67.471581 91.343964
88.061745 -67.794304 94.903389
88.187027 -67.682320 96.531219
88.357208 -66.253906 97.152275
88.018555 -67.557861 101.922218
87.415115 -67.319450 101.983620
88.591370 -68.791367 -37.216560
88.207283 -67.517365 89.414604
88.636833 -67.304382 90.571747
87.809715 -67.735771 92.009506
87.979584 -66.658699 93.157547
87.296524 -67.722382 94.151878
88.511841 -67.225594 95.546898
87.458572 -67.884575 96.634583
88.275024 -68.052231 97.499954
88.171242 -68.062080 99.250244
88.215942 -68.208885 99.738976
88.355911 -67.734604 101.345955
88.778503 -67.104225 -76.935623
89.590218 -67.433815 -37.957626
89.064674 -66.720474 90.172607
88.948586 -66.890312 89.506447
88.817970 -67.630745 91.578575
89.585640 -67.540306 103.045273
89.581047 -67.943535 -37.773529
89.011909 -67.656784 90.780106
88.837601 -67.411064 91.729027
89.102982 -67.552261 93.414055
89.143387 -67.409843 93.001335
89.160530 -67.423302 95.637398
89.752052 -67.163445 98.410713
89.395279 -68.849106 99.403641
89.013687 -67.887512 101.043289
89.888329 -67.135811 102.290268
88.926201 -67.283195 102.244141
89.152954 -67.509804 103.997917
89.948341 -67.611092 -77.407677
90.162804 -67.604309 -38.752907
88.936714 -67.609238 89.935966
89.165154 -67.398514 91.236465
89.577057 -67.246529 94.145943
89.577782 -67.003014 95.380318
89.264595 -66.761093 96.112755
89.271385 -67.959709 96.676956
89.593811 -67.175896 98.379204
89.714798 -67.691956 99.351913
89.880890 -66.792145 99.571053
89.163353 -67.104126 100.890144
89.812317 -67.784813 102.290062
89.495171 -67.108170 103.406624
90.008026 -67.121132 92.047623
90.189537 -67.380997 96.958702
90.995880 -67.463074 -79.057388
90.819321 -67.060974 -39.618301
89.886765 -68.700073 91.307312
90.673637 -67.443199 97.498230
90.785126 -68.416534 100.360191
92.313248 -66.452118 -78.053574
90.122459 -66.783989 91.796959
90.718407 -68.220139 92.087563
91.243835 -66.211151 94.372383
90.434746 -68.170029 95.839394
90.931343 -67.888672 96.705856
90.571236 -66.786911 97.869713
90.868820 -67.819138 100.170906
90.832642 -67.560463 101.185547
90.954910 -67.477379 102.562981
91.175743 -67.812218 103.898537
90.019035 -67.118584 104.161407
91.238373 -67.306946 -40.805355
92.007706 -66.655098 92.253624
91.209511 -66.675438 93.316055
91.331833 -66.908936 94.561333
91.507706 -67.324577 95.856064
90.488228 -66.824753 97.405411
91.322350 -67.476227 99.395950
90.884254 -66.674690 101.661942
90.828362 -67.687263 103.850693
92.192848 -66.590118 -79.213493
91.623901 -67.850166 -41.058384
92.030006 -67.630768 -43.094639
92.066978 -67.644562 92.306038
91.575943 -67.606453 97.308029
91.180344 -67.508217 98.208458
90.864853 -67.105667 100.237160
91.768372 -67.351540 102.759560
91.278122 -67.339363 103.666794
91.365601 -66.992760 104.734879
92.462593 -66.922485 -43.411724
92.001366 -67.012749 91.641037
92.245560 -66.769058 91.862564
92.522018 -67.433952 94.706123
92.140923 -67.274879 96.220901
91.784615 -66.979599 98.717216
91.972115 -67.041084 98.249252
91.297844 -67.526726 100.080711
91.675659 -66.999763 102.076088
92.228416 -66.982231 -43.887928
92.943863 -67.816269 91.872246
92.309784 -67.414818 92.838898
92.508621 -67.733177 94.497231
92.050339 -67.341660 95.537056
92.122696 -67.512474 99.349937
92.421341 -67.587074 98.752815
92.313675 -66.695007 100.939842
92.851662 -66.866180 101.449791
92.269417 -67.065849 102.757233
92.365913 -66.341461 103.624695
92.951118 -67.565407 -45.038441
93.957451 -67.706642 -43.564972
93.528976 -66.848495 95.638046
92.300560 -68.152725 99.645119
92.884575 -67.796913 99.342690
93.515694 -67.705978 100.055748
92.602516 -66.579750 102.366379
93.573448 -66.099724 -45.927597
92.989632 -66.987961 98.279205
93.550713 -66.365845 101.242088
93.292465 -67.167839 99.184120
93.505051 -67.856087 99.902267
94.034836 -68.023201 -51.697327
94.491196 -67.667931 -50.169044
94.412674 -66.856949 -51.103951
95.607376 -67.252029 -50.127457
93.702797 -66.579704 -49.959671
94.580818 -67.513931 -47.981270
94.352165 -68.111366 -47.686352
94.041176 -66.992355 100.312767
94.741325 -67.648476 -78.179062
95.650414 -67.476830 -77.660583
95.769318 -67.687996 -78.382309
96.386765 -67.398170 -77.410378
97.239914 -68.548386 -78.700279
97.224159 -68.054161 -51.514065
98.126587 -67.015770 -52.485100
97.432426 -66.138481 -52.502262
97.664215 -66.962715 63.704014
96.433105 -67.065880 63.861317
98.231407 -68.083481 -79.192047
98.056145 -67.895004 -51.759304
98.260597 -67.160599 -52.907368
97.117889 -67.533585 62.685970
98.087173 -66.353203 64.316536
98.556641 -68.063087 -78.861488
98.042000 -66.436348 62.125820
97.913658 -67.346069 62.703110
97.923820 -66.173157 63.899109
97.348671 -67.671997 64.350594
98.812225 -68.133926 -52.467674
98.834244 -66.693222 -53.419399
99.108322 -66.581970 60.707394
97.992828 -67.575600 61.611076
97.900024 -67.046227 62.384727
98.065224 -67.632370 62.954029
98.664894 -68.010796 63.942207
98.686356 -66.810982 65.674713
98.674095 -68.232994 -52.818802
99.054825 -67.158821 60.827103
99.068214 -67.443214 61.501446
99.858795 -67.565628 -78.666786
100.145973 -66.373871 -79.768211
99.877213 -68.441765 -54.860672
99.842842 -67.422737 60.013508
99.475868 -66.960876 62.253281
98.590324 -67.850914 63.815975
99.074310 -67.060951 64.994423
99.640961 -66.609924 65.258919
99.910248 -67.618530 -78.514412
100.503571 -68.103577 -55.065430
99.483032 -66.447441 60.322502
99.898224 -68.051575 60.785606
100.002228 -66.772949 62.003010
100.007042 -67.651360 63.300816
99.695274 -67.912277 63.903812
99.569191 -67.146080 64.228172
98.519051 -66.756088 65.170425
99.930817 -67.820969 -56.209816
100.158562 -67.517365 -57.176601
100.071373 -67.667358 59.136166
99.058182 -68.046585 61.518387
100.642159 -67.018997 -78.901085
101.005150 -68.471245 -56.477123
100.481102 -67.490921 59.240662
99.683914 -67.304268 59.788139
100.895966 -67.031906 61.338219
100.846733 -67.279411 63.737854
101.368866 -66.040413 -78.056076
101.057739 -67.565079 -65.871681
100.870758 -67.013046 -64.362343
102.278175 -68.284378 -64.151711
100.795197 -68.217606 -57.853642
101.516151 -66.641930 57.728165
100.679916 -66.866447 59.143780
101.093567 -67.684998 64.265297
100.535233 -67.152771 64.809662
101.052711 -66.687218 65.218094
101.557549 -67.020332 -78.486694
101.545372 -68.100441 -65.136658
101.546936 -68.036995 -65.774345
101.691093 -68.000160 -63.516651
101.578423 -67.010277 -60.055107
101.535362 -67.388031 -59.883446
102.337685 -66.514664 58.300972
100.842903 -68.027115 63.771034
102.363396 -67.412086 -78.891991
102.050102 -67.928268 -65.609718
102.122673 -68.155060 -61.737915
101.138641 -66.955696 64.164444
101.637054 -66.870842 65.438492
102.223625 -67.467384 -66.311806
101.540115 -67.701912 57.523457
102.570412 -67.996536 64.472931
103.488884 -67.503044 -78.741028
102.538445 -67.544571 -67.982483
101.742966 -67.250641 55.444290
103.531036 -67.318611 -79.497993
102.773468 -66.981888 -66.341293
103.189766 -67.915855 56.322216
102.318146 -68.343040 57.257175
104.053871 -66.709343 -77.635185
103.670265 -67.343758 55.434284
103.845642 -67.579529 -68.075638
104.364731 -66.096725 55.435062
103.615509 -67.510010 56.071129
103.057060 -67.278145 63.682976
103.863663 -66.720619 64.664795
104.499153 -67.770660 -78.832260
105.542938 -68.100319 -68.193703
103.567375 -67.212921 59.176018
105.231819 -68.173828 63.287075
103.344551 -66.354370 64.235939
104.555550 -67.901726 -78.735138
104.402542 -67.028809 -68.989967
104.506531 -67.205956 -69.136543
103.654648 -66.967720 54.174641
104.853317 -67.194778 59.738380
103.765388 -67.302139 59.945782
104.922462 -67.363205 61.030609
104.086937 -67.752815 63.775974
105.411148 -68.166191 -67.556686
104.600746 -66.592796 54.846050
104.645462 -66.833237 55.119812
105.120216 -66.538162 58.532398
104.643547 -68.229919 -77.841774
104.658554 -67.657455 -68.661278
105.974243 -67.621979 -68.848816
105.668205 -66.976410 59.027477
104.914307 -65.988037 60.108932
104.736656 -66.696777 60.838417
105.749237 -66.980179 63.223976
105.397690 -67.717697 -78.374924
105.052299 -66.896751 -79.227303
105.537491 -67.625359 54.832638
105.892227 -67.000160 56.867043
105.772499 -67.043442 57.567295
105.262939 -66.891708 64.702469
105.876320 -67.191185 59.314018
105.693504 -67.447632 59.937992
106.204201 -68.103546 61.465233
105.787430 -67.322922 63.017719
107.156364 -67.812889 -69.709999
107.311844 -66.932976 57.359890
106.377129 -66.913681 57.798714
107.044479 -68.435608 -78.391525
107.381966 -67.408241 -68.747375
108.578278 -66.899208 -69.371544
106.322296 -67.511581 53.260853
106.921036 -66.942131 55.329632
106.835762 -66.926552 57.840591
107.032112 -66.342209 58.317825
107.607216 -67.547417 59.797832
106.821228 -67.666031 -79.158752
107.164368 -68.007874 -69.161766
108.033257 -67.719017 -68.837395
107.976761 -66.282425 52.621429
107.536781 -66.865280 56.305920
107.569641 -68.111328 59.067577
107.527779 -67.740181 59.945023
106.973656 -67.395157 60.502567
107.489578 -67.604286 55.136574
107.026405 -67.207756 57.779217
107.101212 -67.615746 58.317966
107.384995 -67.711823 58.567871
107.923714 -67.179276 59.967270
108.045082 -67.041245 -77.160805
108.300873 -67.439552 -69.589577
108.499222 -68.141022 52.832474
107.591614 -67.901337 56.718533
108.017738 -67.609741 56.793587
107.739067 -67.108047 58.704216
108.793304 -67.996368 62.379417
107.994614 -67.628769 -70.536865
108.018311 -67.230072 52.157169
107.691696 -67.020210 55.965633
107.293663 -67.197136 59.654755
109.161407 -67.060608 59.191780
108.735062 -67.720245 -77.632301
109.065506 -67.807381 -70.221207
109.069916 -67.841927 53.556301
110.042656 -67.922165 -78.613556
109.767967 -67.232590 -78.562744
110.070572 -67.376297 -78.089249
109.065857 -67.667480 51.293015
108.829544 -66.990753 55.043503
109.428894 -67.739395 58.751366
109.933502 -67.701141 61.684074
110.056084 -67.098206 -70.664871
109.652443 -67.945641 50.796261
109.084213 -67.313690 54.862911
110.191193 -67.333916 58.320114
109.877197 -66.991920 60.016617
110.472702 -66.709213 49.748779
109.857742 -66.903236 53.417961
109.588127 -66.426872 59.847416
110.571709 -68.563087 61.565563
110.231491 -67.366531 -71.251099
110.587898 -67.400955 51.037464
110.538612 -67.570068 58.691650
110.332909 -67.055328 61.935787
110.498215 -67.998894 -78.568802
111.733650 -67.173325 -72.037392
110.890617 -66.837296 53.627117
111.287605 -67.784050 58.906414
110.213249 -66.976227 -73.039383
111.297112 -68.154922 53.732796
111.659119 -67.353874 61.276745
110.944656 -67.419022 -73.068939
111.449982 -68.325386 49.681850
112.056450 -67.358803 -78.100616
112.494789 -67.151527 -77.855621
112.713516 -67.194290 -77.885040
112.210541 -67.398254 -74.874969
112.441284 -67.521378 52.057079
112.401787 -67.413170 58.918941
112.286072 -67.877167 -75.934433
112.985344 -66.851791 -74.616379
112.913849 -67.101433 51.964935
111.926628 -68.474045 58.189304
113.566231 -67.471077 -77.087585
112.912636 -68.055504 -75.446770
112.950699 -66.684647 -73.639519
113.664925 -68.305977 49.559296
112.833366 -67.194550 51.997532
113.350624 -67.150429 57.898464
113.207314 -67.864059 60.684975
113.666031 -67.240181 -78.276367
113.484253 -66.982414 -77.736130
113.817078 -66.782860 -76.045326
113.037766 -68.022758 -75.171219
113.238609 -67.760551 50.015587
113.731705 -67.389351 51.166336
112.978218 -67.745102 59.596485
113.906311 -66.509521 -77.173706
114.145012 -67.370331 -76.367119
113.203171 -67.347054 48.558971
113.941589 -67.143715 51.789505
113.907295 -67.010132 60.022579
114.185768 -67.833252 48.516788
114.429985 -67.864677 57.646187
115.111160 -67.961945 47.633228
114.708076 -67.294167 50.558456
115.124603 -68.323349 59.867241
115.681824 -68.041519 60.792099
115.935425 -67.502953 47.658287
115.148560 -67.690536 51.300098
115.754089 -68.117661 56.720253
115.272705 -66.677986 56.610214
115.637436 -67.283417 47.337109
116.113739 -66.752663 49.026062
117.296547 -67.665382 50.418434
116.094109 -67.828011 59.543507
117.462799 -68.008942 47.313137
117.863022 -67.533264 49.395321
116.157410 -67.671341 56.736412
117.307495 -67.504242 46.750999
116.951851 -67.753601 49.231415
117.543571 -68.211105 58.691856
117.456032 -67.642418 46.659561
117.539467 -67.270279 49.290886
117.156448 -68.239532 56.165356
117.293427 -67.875717 57.831463
118.068054 -67.380180 46.364609
118.223404 -67.764030 58.142502
119.185532 -67.218010 56.146835
118.933914 -67.884293 58.222858
118.766945 -68.379501 49.287739
118.671570 -66.803307 48.204182
117.799095 -67.302017 58.036457
118.875595 -67.957314 46.426998
119.242752 -67.664642 56.246517
119.099297 -66.084167 56.344933
119.270477 -67.086769 58.061638
120.048317 -68.056969 48.404705
119.585426 -67.931755 54.716385
120.447327 -67.577560 44.449944
120.747520 -66.366356 45.010651
120.288368 -67.838646 54.300358
121.077682 -67.872421 48.080383
120.843193 -67.063576 57.709171
121.122871 -68.173706 44.318779
121.948906 -67.281479 47.831486
121.204857 -67.350922 56.701748
121.587532 -67.818283 47.485115
122.577003 -67.816292 57.115112
121.733330 -66.761421 56.585377
121.669952 -67.323906 44.630531
122.613503 -66.895874 46.640839
122.904251 -67.438904 45.961769
123.204033 -67.697372 56.696613
122.847893 -67.763840 43.643673
122.258194 -67.375839 53.888706
123.177925 -66.956322 56.453510
122.725922 -66.782684 43.473576
123.201088 -68.102966 46.927448
122.621735 -67.982933 53.831249
123.063515 -66.402908 47.117008
123.084869 -66.893242 53.796234
123.019814 -67.290695 56.643208
124.060226 -67.871429 42.957939
124.061943 -67.279762 55.873707
125.086342 -68.299278 42.623646
124.191917 -66.642197 46.617592
124.930977 -68.309631 53.732861
125.126274 -68.292648 43.008629
125.294930 -66.561531 45.911125
124.445183 -67.241982 53.377457
125.473640 -67.794197 55.742420
124.501823 -67.839012 55.154003
124.713295 -67.515572 46.368111
124.779716 -67.157166 53.086182
125.377037 -66.173706 53.486042
126.025803 -68.165802 43.147114
125.482819 -67.174889 43.291115
125.535515 -67.076630 45.013462
126.028824 -67.010323 52.868477
125.470673 -67.148178 54.995869
124.658104 -67.389282 55.825218
126.833092 -67.455864 42.987595
126.867851 -67.423164 45.609360
126.614792 -67.490875 52.369606
126.734077 -67.731232 52.334057
126.597618 -67.968460 54.185936
126.484779 -67.848114 42.514648
126.646774 -68.649590 45.517677
127.383507 -67.489334 42.413170
126.969727 -67.506981 51.886387
126.616875 -67.628357 54.146687
127.200928 -67.328888 44.297276
127.669327 -67.848618 53.573166
128.561234 -67.469009 42.472073
128.113724 -67.572853 44.396553
128.037155 -67.011490 54.264099
128.281693 -67.502083 54.006172
129.110260 -67.265038 42.653755
129.117477 -67.807343 43.904583
128.431366 -66.842789 43.203548
128.892548 -67.209625 50.325230
128.520813 -66.169487 51.613686
128.091660 -67.170021 44.406582
128.835724 -67.094879 50.717110
129.617218 -67.296936 53.791748
129.335709 -68.135262 41.708977
129.746429 -67.996277 50.632973
128.960190 -67.019539 50.971531
130.672745 -67.236740 53.321484
130.332794 -66.945900 43.776970
131.041824 -68.167824 41.623573
130.560089 -66.314957 53.565029
130.947983 -67.471451 40.930168
131.142273 -68.268562 49.963028
130.942184 -67.658859 52.845917
131.261185 -67.690002 51.617870
131.796326 -67.582489 41.040279
132.419174 -67.669655 43.415810
132.686096 -67.710419 43.351089
132.497620 -68.180977 49.835686
132.391037 -67.732445 40.700493
132.532166 -67.883881 42.494038
133.310730 -68.267303 49.335606
132.278519 -68.055984 51.420506
133.609360 -67.259018 40.045040
133.742752 -67.638489 49.839012
133.544159 -67.890610 40.623047
133.915863 -67.211266 39.873417
133.982529 -67.716644 41.416496
134.656799 -67.986641 49.143860
134.759369 -68.153809 50.548878
135.400131 -67.675400 40.544197
134.720901 -67.327034 48.788811
134.748108 -67.672401 50.410934
135.130920 -68.175011 41.997379
135.742065 -67.352776 50.653469
135.090195 -68.140358 39.373478
135.531937 -67.486687 41.991550
135.539337 -67.894974 41.786411
136.757523 -67.474327 47.905117
135.790863 -67.195831 39.174339
136.766754 -67.942841 50.233410
137.374756 -67.958862 38.504223
137.090942 -67.922287 41.210373
136.814774 -67.571953 47.983963
137.762741 -67.371941 50.928909
137.686218 -67.438141 41.327927
137.292786 -67.475929 50.240955
138.912079 -67.853378 38.557034
138.277832 -68.102219 40.523529
138.597229 -68.371819 47.625141
139.161942 -68.377365 49.972427
139.949432 -68.191208 37.817139
139.292236 -67.960190 49.061108
139.657700 -68.538956 38.260910
139.736221 -67.044189 48.026787
139.355225 -67.023941 47.669476
140.123245 -66.545395 38.052269
140.142914 -67.570786 48.846432
140.975922 -66.939217 -37.841988
139.633072 -66.785576 -37.551064
140.101807 -68.115730 40.014862
140.273209 -67.397552 46.984661
140.729431 -67.427528 -40.374535
141.236725 -66.918373 -38.141544
141.061493 -67.108414 -38.405930
140.530304 -65.917221 -36.905964
140.649475 -67.280037 -35.711845
139.816925 -66.643166 46.929482
141.569504 -67.764397 49.098667
141.944550 -67.687126 -35.844219
141.966812 -66.593956 -35.176392
141.546356 -67.434578 37.367775
141.432861 -67.234337 40.532284
141.997940 -67.754395 45.871647
141.932236 -66.628197 -39.830017
141.170197 -67.765732 -38.213081
141.995163 -67.383919 -37.439774
141.992416 -67.066048 -36.593182
142.427444 -66.540306 -35.093777
141.738678 -67.691795 48.738735
143.350449 -66.887794 -40.755604
142.865204 -67.590355 -40.338875
142.365524 -67.227058 -39.211781
141.909485 -67.653519 -38.985878
142.196259 -67.937981 -36.156845
142.101044 -67.867424 -35.839577
141.434235 -67.871552 -35.406109
141.932175 -66.114883 -33.408337
142.119766 -68.935638 37.300346
141.545364 -66.949669 40.246796
142.222580 -67.073601 45.904575
143.160919 -67.248215 -39.654869
142.255020 -65.761604 -34.395012
142.122269 -68.139526 39.862560
142.681046 -67.715965 48.126575
143.675522 -66.158768 -40.705719
143.177155 -67.653839 -39.972012
143.014114 -68.031792 -38.401932
142.848831 -68.203590 -37.263912
142.439102 -68.457497 -35.685932
143.014481 -68.474915 -34.921566
142.925568 -67.467606 -33.620502
142.893555 -68.480675 37.733242
141.746735 -67.380249 45.693447
143.750458 -67.624802 -41.470009
143.761978 -67.242485 -40.273800
143.175339 -68.153534 -34.443253
143.731857 -66.893791 -33.136444
143.364990 -67.610992 36.979935
143.488556 -67.081161 -39.561264
143.424561 -67.776016 -38.729263
142.811523 -67.532295 -31.972248
143.167999 -67.039001 45.169491
143.480530 -68.229843 47.197449
144.269775 -66.019844 -41.148228
144.759430 -67.232178 -31.883047
145.592377 -67.550987 37.180683
144.399643 -67.410324 39.343018
143.836151 -67.110199 44.890114
144.376160 -68.173149 47.324314
145.393127 -67.459351 -41.409325
144.777664 -66.513084 -39.651508
143.905182 -66.731514 -33.478874
144.005692 -66.956207 -33.405231
144.497040 -67.596664 36.961452
145.089493 -66.696175 38.685303
144.636993 -68.329224 47.941593
145.241638 -66.468758 -40.817993
145.622681 -68.008926 -32.440731
144.827927 -67.970711 45.257591
144.724426 -66.820450 47.319698
145.329758 -67.370667 -42.017937
145.109802 -66.868599 -31.400728
145.249435 -67.680374 36.685059
145.164902 -67.738350 39.838329
144.888046 -66.728584 45.750362
145.313095 -66.000008 -40.398815
146.187088 -68.466011 -40.121586
145.239975 -66.942657 -31.387625
145.829132 -67.406509 36.512661
145.335800 -67.036171 47.426819
146.617264 -68.110687 -40.982674
146.705322 -67.023659 -37.427017
146.943253 -67.086739 -35.761127
146.092926 -66.797264 -34.589123
146.028717 -67.490158 39.623604
146.274719 -68.258553 47.915497
146.709061 -67.324043 -41.458626
146.336624 -66.485458 -34.011669
146.829605 -67.042534 -30.536129
146.471024 -67.350334 36.545986
146.417709 -67.187775 39.613640
146.459335 -67.700737 47.592117
147.008240 -67.518654 -40.689178
147.329559 -66.329659 -37.099361
146.714706 -67.227600 -35.795448
147.528320 -66.866982 -34.953125
146.938477 -67.377167 -31.436195
146.515762 -66.835205 35.645466
147.519699 -66.841934 39.513481
146.626450 -66.986862 44.835541
147.138718 -66.164688 -36.553791
146.070038 -66.145897 -33.598480
146.736725 -67.209068 43.652710
147.105453 -67.982613 46.914455
146.911331 -66.648270 125.504204
147.605988 -66.796272 -40.670994
148.547440 -66.934532 -34.872711
147.647217 -67.699783 36.310364
147.777298 -68.167664 38.554783
147.833801 -67.129333 44.213943
147.469223 -67.173119 46.361717
147.748627 -67.336868 46.701637
148.359711 -66.825653 -37.316685
147.670914 -67.866714 -36.543587
148.023682 -67.382507 -35.370853
148.264816 -67.209778 -34.166809
148.286072 -67.041618 -33.593704
148.334290 -66.657654 36.119751
148.170975 -66.129356 38.415413
148.381104 -66.627747 126.893425
148.408234 -67.815613 -36.379948
148.078537 -67.526695 -36.025764
149.110504 -67.582870 -33.786674
148.512482 -66.828812 -33.151348
148.210251 -67.720924 -29.949997
148.178513 -68.033607 36.129436
148.797134 -68.071037 43.703411
148.419525 -66.145226 125.166679
147.406799 -66.271126 126.798164
149.176544 -67.659378 37.999233
148.780716 -67.959412 46.597027
149.168854 -67.139183 -37.013657
149.530624 -67.036972 -35.853706
148.951340 -67.484741 -35.594353
149.296585 -67.532753 -34.328339
149.653015 -67.103455 -33.761814
148.449265 -66.642906 -32.636009
149.321274 -68.168327 -29.003004
148.727966 -68.090858 43.731552
148.734238 -67.889137 45.757038
148.485092 -66.908791 124.555725
147.928650 -66.398888 126.452454
150.390884 -66.652557 -39.469055
150.669266 -66.877747 -36.972878
150.419083 -67.934532 35.795567
149.405594 -67.207680 124.931694
149.965668 -67.831413 -38.714981
150.675781 -67.049309 -35.617737
150.809906 -67.885132 -34.161846
149.577667 -67.393318 -33.598747
150.787735 -67.965164 -31.780132
150.771576 -66.702606 -31.241507
150.654068 -67.427315 -27.901314
149.726700 -67.762634 36.169640
150.286194 -67.514656 39.154217
149.504089 -66.836998 38.763020
149.934296 -67.768951 43.845322
150.075302 -68.089828 -39.352619
150.165115 -67.955742 -35.475010
150.490784 -67.030891 -35.077423
150.565720 -67.217529 -34.273212
150.324738 -67.371109 -32.400642
150.926941 -66.846413 -31.614809
150.730301 -68.136246 -28.923096
151.293320 -67.650345 35.409336
149.833206 -66.878433 125.848801
151.583664 -67.522934 -36.181591
151.322784 -68.041306 -36.501137
151.262558 -68.578552 -30.578571
151.406204 -66.774933 -27.469624
150.887421 -67.548584 35.905674
151.155823 -67.830421 37.842770
150.470734 -66.920471 43.502899
150.080231 -68.162910 46.065079
150.546326 -67.127785 125.214287
151.009476 -66.998291 125.559311
150.903381 -67.149040 -39.421566
150.838165 -67.007576 -31.394640
151.315735 -68.022919 -28.076464
151.084946 -67.632645 35.414413
150.503098 -66.900108 124.425903
151.880722 -67.209328 125.790466
151.234131 -67.759850 -57.299614
151.356216 -66.290749 -56.344475
152.113663 -66.950790 -36.803997
152.260696 -67.733849 37.870926
151.498734 -66.385643 37.343952
151.673965 -67.827080 43.054966
152.391571 -67.703087 45.459644
151.680679 -66.915253 -57.529236
152.101807 -66.759781 -56.702541
152.177094 -67.111649 -35.331337
151.704803 -67.210304 -30.691740
151.752640 -66.670959 -29.451719
152.153885 -68.208855 -27.683252
150.913528 -67.780319 34.796120
151.992493 -67.325264 37.814407
151.973175 -67.624229 43.826591
152.185287 -66.345642 125.009476
151.856842 -67.137619 126.433769
152.136902 -67.247139 -56.299736
152.557297 -66.318863 -54.587761
152.435562 -67.375061 -37.722580
152.411026 -66.983810 -36.740963
152.580139 -66.718719 -28.722498
152.496277 -67.672935 -26.756838
152.564774 -68.141823 45.180580
152.306793 -67.607788 -56.989330
152.916946 -66.574532 -36.335804
153.248779 -68.137634 -26.930895
152.897156 -67.623512 36.212116
154.266632 -66.686478 36.948811
152.958206 -67.358276 38.150753
153.097488 -67.497231 43.151016
153.319290 -67.938759 -57.620316
152.591736 -67.837959 -55.585075
153.365234 -66.587860 -55.363003
154.369614 -66.733452 -53.713676
153.583679 -66.520828 -35.616425
154.016205 -67.250710 -35.046379
153.412445 -67.465088 -29.951748
153.404175 -67.769463 -26.514786
152.917999 -67.444458 34.639771
153.276947 -67.406822 126.238632
153.197144 -66.992592 -54.520203
153.747101 -67.178864 -28.232523
154.255707 -67.888214 -26.341518
153.044739 -67.158562 45.500103
153.044098 -67.140190 125.498116
154.143463 -67.461502 -56.877838
154.847275 -67.007050 -54.608677
153.045395 -67.219841 -54.188175
154.395859 -67.355247 -37.891758
153.952057 -66.378998 -34.419788
154.334732 -68.039551 -34.576210
154.748474 -67.277206 -25.626062
153.441971 -67.263901 35.022816
154.390091 -67.096313 36.671413
154.766403 -67.881889 42.710236
153.855820 -67.701324 -57.256207
155.653137 -67.553436 -55.314861
155.122177 -67.956314 -53.596989
154.516144 -67.528351 -52.861462
154.865173 -67.402596 -34.706566
154.644302 -67.732178 -29.296848
154.222076 -68.323921 -26.648088
154.715103 -67.774162 34.849060
154.224655 -67.648628 42.659950
154.764999 -66.095062 123.693787
153.606583 -66.433685 124.808052
153.162231 -67.593704 125.601753
154.676880 -67.470718 -57.597580
155.485809 -68.048355 -53.305405
155.355850 -68.421097 -25.933018
155.228363 -66.619583 44.483364
154.992966 -66.911758 125.523918
155.004028 -67.293907 -56.550732
154.583649 -67.083099 -55.423977
156.617477 -68.007645 -54.034718
155.771637 -67.436852 -36.452354
156.472229 -66.031387 -35.296768
155.988312 -67.540749 -27.865728
155.632736 -67.070305 -25.956829
154.722366 -67.816750 34.349026
155.595657 -67.182915 37.176170
154.742477 -66.527184 123.158569
156.055939 -67.871887 -52.803093
155.470139 -66.932907 -52.875790
155.661407 -67.036552 -34.945354
155.980225 -67.636368 -27.509962
155.929459 -67.125450 -25.702614
155.037018 -67.782997 34.511501
155.187561 -67.283615 37.331436
156.019958 -66.696075 -57.056335
156.762131 -66.352188 -55.480503
156.897537 -66.986717 -52.022366
156.176331 -67.494598 -36.593822
157.211395 -68.285316 42.181488
156.184036 -67.381393 42.257343
156.829712 -67.935326 45.062180
155.820969 -67.840149 124.777016
155.990936 -66.758080 125.706108
156.686462 -67.064331 -56.937130
156.216644 -67.988464 -56.295124
156.716843 -67.663689 -53.075256
156.925278 -66.633186 -35.798744
156.242065 -67.814491 -25.526535
155.868896 -67.967339 34.197205
156.488373 -67.337669 37.304775
156.370300 -67.283073 37.484276
157.184753 -67.062134 44.606026
155.685623 -66.943565 123.757919
156.936066 -67.745087 -51.639668
157.462494 -66.477280 -34.279739
156.828262 -67.399132 -24.640583
157.628586 -67.899117 34.257366
155.726990 -66.420876 123.890305
157.067215 -66.739120 124.598244
156.133820 -67.403931 124.990166
158.114487 -67.196388 -51.124599
156.987183 -66.347328 -35.745678
157.335251 -67.065086 -26.775970
157.519684 -68.244263 44.153969
157.006958 -67.475586 125.501617
157.921646 -67.786980 -56.167778
158.173706 -67.953102 -55.688225
158.343658 -67.415627 -50.823051
157.594528 -67.430206 -36.252426
158.095718 -67.481827 -32.868252
158.242157 -67.809837 -34.021187
157.844055 -68.444328 -26.771051
157.445648 -67.435783 -24.489868
157.897720 -67.485550 34.424747
156.991364 -67.515411 37.008045
157.459198 -68.044350 43.650608
156.464798 -67.092270 123.714561
157.442139 -67.448929 -51.439777
157.650787 -67.479713 -27.752390
157.895798 -66.074699 -25.600496
157.606415 -67.246841 -23.862635
157.848541 -66.844803 37.839874
158.706757 -68.108086 40.832134
158.377960 -67.207558 126.027458
158.473816 -67.129723 -57.146351
157.680878 -67.829468 -33.414219
158.170410 -67.764809 34.444393
158.817963 -67.044800 36.933662
158.503403 -67.877914 42.161350
159.118896 -67.992592 43.520485
158.378052 -67.459267 124.247879
158.526108 -67.405296 124.513603
158.197693 -67.346336 125.030930
158.270599 -67.300705 -51.058929
159.725998 -67.921379 -35.414337
158.958130 -66.565048 -26.139114
158.213776 -68.426468 -23.509890
158.491440 -67.361496 33.775864
158.634796 -66.714905 36.182701
160.460236 -68.120056 36.476772
159.361511 -67.919205 40.881332
158.214493 -66.807106 125.335930
159.162338 -68.261513 -55.184856
160.794312 -67.540291 -50.162098
159.419769 -66.287460 -32.237122
159.220139 -67.633759 -25.946732
158.527344 -67.841606 -22.949995
159.927216 -67.051865 41.658447
159.594742 -66.859413 44.356548
159.420074 -67.529228 123.277977
159.295593 -67.242691 123.635902
158.636566 -67.338753 124.444069
159.003403 -66.752716 -56.628132
159.415283 -68.299759 -50.346973
159.642426 -68.489212 -34.527996
159.091339 -66.471123 -24.688860
159.359558 -67.617622 -22.274668
159.914307 -67.645287 33.714306
160.146744 -68.072754 38.138172
160.246933 -67.405724 41.417450
159.812775 -67.204933 123.019440
159.121048 -67.248314 124.285538
159.282227 -67.148621 124.236359
158.759888 -68.109680 126.191956
159.634781 -67.772377 -49.840038
160.856506 -67.803017 -33.962166
160.571716 -67.915390 -24.958155
160.320724 -67.445831 -23.026911
160.867004 -65.816925 35.895840
160.363510 -67.678650 43.956085
159.334854 -67.492027 125.242569
160.538193 -67.249321 -33.870201
160.864120 -67.103271 -32.488293
160.559189 -67.738449 -31.203569
160.469879 -67.699806 -25.311071
160.655640 -67.292343 -24.393789
160.940125 -66.899239 -22.088039
160.729614 -67.494606 15.676487
160.311783 -67.357697 15.979418
160.427673 -66.465919 16.938395
160.705658 -67.864906 37.810505
159.731766 -66.572319 123.508621
160.998474 -67.003128 124.880119
160.652069 -67.764366 -56.731396
160.973587 -67.872398 -49.781879
161.684647 -67.272995 -33.901661
161.304764 -67.070236 -22.041315
161.036331 -67.229980 14.409888
161.621094 -67.145668 14.941854
161.262390 -67.525185 16.213608
160.500000 -67.767036 17.707415
160.568863 -67.782394 33.623581
160.908844 -66.699669 36.662224
160.961655 -67.274605 41.473824
162.422241 -66.293045 42.408848
160.377167 -67.063362 122.344307
160.603104 -66.151222 123.613998
161.097626 -66.845657 124.984619
160.995346 -67.572128 -49.007710
162.455750 -67.321655 -30.219616
161.094147 -67.844566 -21.327009
162.364487 -66.706192 13.560819
161.249817 -67.197975 14.062240
162.049744 -67.551384 15.047930
161.021439 -67.728592 40.847126
161.565109 -66.419502 123.334869
161.944260 -68.829880 -33.467346
162.373489 -67.306480 -33.818970
161.757980 -67.608231 12.318079
162.181183 -67.163383 13.502669
161.695694 -67.780464 14.381951
162.448425 -67.026649 17.590681
161.550400 -67.547356 37.240627
161.914719 -67.535439 43.369217
161.442917 -67.219933 124.848610
162.039703 -67.988037 -54.704960
162.331100 -67.705261 -48.790920
162.384201 -66.115997 -30.644753
162.277634 -68.285286 -24.458981
161.990875 -67.381729 -23.080067
161.614395 -66.902557 -21.666481
162.125427 -66.995262 12.441753
161.949936 -68.301422 13.588341
162.098862 -68.114731 15.299184
162.033081 -66.697426 16.253031
162.068497 -68.106903 16.817221
161.897308 -67.888779 33.126625
162.874084 -68.008911 35.291851
162.070724 -66.630829 123.155968
162.718246 -67.616165 124.158989
161.794922 -66.267830 124.731331
162.678055 -67.881927 -54.524380
162.614334 -66.919479 -48.291325
162.487366 -66.641991 -32.794117
161.802826 -67.333405 -29.934175
162.333405 -66.750984 -23.929680
162.840912 -68.396324 -20.011368
161.609818 -66.591331 11.009089
162.315292 -68.744362 11.740352
162.125702 -67.708214 14.770370
163.087128 -67.320099 17.559177
161.429947 -67.033775 43.381084
163.076935 -66.561539 -51.675472
162.899933 -66.962677 -23.842684
162.652832 -67.955452 -21.230219
162.533203 -67.679146 12.083087
162.425415 -66.933739 16.404013
162.577682 -67.654961 32.698273
163.320633 -66.482071 36.834793
162.514297 -67.395790 40.875328
163.454544 -67.225258 123.907829
163.661591 -67.794922 -54.648407
163.506927 -67.874695 -48.360058
163.214569 -68.425476 -33.329517
163.842590 -67.135521 -29.585855
163.062683 -66.874649 -22.901266
162.706009 -68.199989 -20.799208
163.077179 -67.509041 15.274527
163.366959 -67.143738 36.853291
163.016998 -66.977707 121.739212
163.670349 -67.397102 122.554947
163.980042 -67.827560 -54.722282
163.906693 -66.097786 -51.447163
163.797546 -66.825806 -49.832245
164.034164 -67.502357 -47.073616
164.050278 -66.461472 -30.939980
163.773315 -68.340820 -22.109972
163.591537 -67.318756 -23.891529
164.167816 -67.928940 -20.312887
163.057938 -68.048347 11.608775
163.554871 -67.381889 16.455868
163.404785 -67.266518 121.815643
163.323456 -67.663078 124.956810
163.977509 -67.584732 -54.450985
164.332306 -66.558563 -47.694828
164.750839 -67.942947 -31.527437
164.252182 -68.223572 -29.070190
163.723450 -67.785416 -29.812473
163.935074 -67.765121 -19.207800
164.690109 -68.118248 10.443524
164.378204 -67.486359 14.742266
164.052536 -67.231491 16.690855
164.594864 -66.969528 35.340580
163.414551 -67.636940 36.376541
164.162399 -68.376579 42.888020
164.061829 -66.577072 121.204140
163.454376 -66.582703 122.622047
163.710678 -67.782585 124.653893
163.812149 -66.324226 124.916336
164.670639 -66.665512 -51.155449
165.664566 -67.337891 -50.945313
164.751404 -67.777992 -46.746433
164.402740 -66.924126 -22.867945
165.686676 -68.253677 -18.827477
164.102127 -67.150085 8.786028
164.043182 -67.868271 15.822663
164.407059 -67.622711 32.588451
164.062073 -66.825951 36.004055
164.566513 -68.056641 36.742378
164.676422 -69.000313 39.070019
164.799652 -66.941246 39.550701
164.634750 -67.448715 125.441643
165.434952 -67.419960 -54.416523
165.279587 -66.756454 -50.436356
164.611908 -66.468094 -49.928703
165.613785 -68.137962 -46.911346
165.173157 -67.970032 -31.206884
165.240570 -67.468925 -29.074339
164.810898 -67.184372 -18.897263
163.929077 -67.297150 15.131699
165.269974 -68.175148 42.781727
164.425842 -67.386337 120.982727
164.163040 -66.997612 122.849442
166.062469 -67.362442 -54.722733
165.961945 -67.523041 -21.201107
165.250305 -67.834320 8.146174
165.356445 -67.323814 14.555075
165.035110 -68.115112 31.817574
164.792221 -66.287636 35.961449
165.958176 -66.873085 -53.791664
165.624054 -67.389862 -54.405773
166.037994 -67.710541 -49.789753
165.902176 -67.689133 -50.350559
165.373871 -67.332596 -47.237259
166.053360 -67.788597 -27.777138
165.713654 -67.320801 -22.074696
165.356033 -68.065430 8.069777
165.971725 -67.125282 40.672901
166.204544 -66.955872 122.235489
166.375107 -66.991745 123.257004
166.533127 -67.660446 124.911423
164.485275 -66.396729 125.556709
166.123611 -67.473106 -53.890720
166.150620 -67.822418 -53.187187
166.182053 -67.248734 -50.912819
166.346069 -67.126060 -50.091888
166.441742 -67.396843 -45.628246
165.420746 -67.320686 -30.608242
165.550323 -66.625565 -21.519257
165.519867 -68.015991 -18.812443
166.068268 -67.212624 6.492413
166.795792 -68.548180 14.056847
166.183090 -68.373657 42.637341
166.172745 -66.526672 125.149498
166.666458 -66.985687 -49.473732
167.099777 -66.786194 -48.870789
166.597061 -67.431396 -45.719170
166.440216 -67.309135 -21.410511
166.809296 -67.952194 6.239785
166.731400 -67.861496 13.103061
166.636475 -67.553528 32.611095
166.650635 -67.913239 41.836880
164.695145 -67.206619 122.614151
166.540863 -67.497269 124.149750
166.925980 -66.328484 -50.756149
167.165802 -66.608574 -49.957539
167.325302 -66.405922 -48.230801
166.881622 -67.168579 -45.587429
166.829529 -67.662430 -30.468529
166.632492 -66.663177 -21.044479
166.681992 -67.926125 -17.997456
167.539032 -68.126694 5.631420
167.011581 -68.230217 32.919739
166.909256 -67.388535 36.817127
166.760712 -67.145363 39.746498
166.472870 -68.332016 125.244789
167.259155 -67.236488 -49.044235
167.290192 -67.743767 -48.402630
167.387360 -67.666367 -30.856575
167.426117 -67.284279 -27.874414
167.407608 -67.969658 -20.688536
167.101288 -67.674896 -17.593567
167.042465 -67.451042 4.949949
167.681305 -67.570358 38.372948
167.236572 -67.558662 40.071220
167.261124 -67.835396 42.108063
167.483643 -67.299217 121.476250
166.286819 -67.384201 122.547348
168.240112 -67.455521 123.034607
166.805069 -66.789909 124.167160
168.341812 -68.114090 -53.560600
167.536011 -66.561020 -53.523182
167.618820 -66.499374 -49.793655
168.300705 -67.430153 -48.794781
167.394028 -68.340950 -45.415035
168.186111 -67.753296 -17.951662
167.749741 -68.083885 4.951359
167.755173 -67.929863 12.802969
167.094574 -67.102875 32.609913
167.223969 -67.308182 34.859009
166.817703 -67.139351 39.461521
168.426437 -67.588715 -49.343021
168.401093 -67.002907 -48.428402
168.430542 -66.246284 -47.736492
168.367111 -68.123848 -45.278084
168.230850 -67.953194 -17.071049
168.058685 -67.279282 -17.585123
167.870224 -67.952530 3.715644
168.076477 -68.116852 11.527611
168.066574 -66.993156 124.970215
167.760040 -67.204712 125.149307
168.670258 -67.374435 -52.283504
169.016647 -66.999786 -49.365543
168.730331 -67.599197 -48.326900
168.391602 -67.425316 -47.324711
168.460297 -67.844055 -44.905937
168.226624 -67.476089 -30.756016
169.353363 -67.215492 -19.816889
168.839050 -67.633728 3.438134
168.775589 -67.383896 12.335559
168.327759 -67.999290 32.327156
168.916061 -67.333565 34.030113
168.034088 -67.768631 35.336037
169.329102 -66.886711 39.173431
168.775177 -67.954483 40.699345
167.867462 -66.822845 122.868210
168.218872 -67.080124 123.088905
168.582855 -67.176910 124.214043
168.673386 -66.629341 125.214867
168.537415 -67.428337 -52.049942
169.124451 -67.308975 -48.516010
169.572006 -67.425049 -47.867062
169.803558 -67.330124 -45.400303
168.915924 -67.237030 -29.091545
168.792282 -67.560097 -27.105839
169.529388 -66.843987 -21.192432
169.025558 -68.054619 -16.696060
168.983749 -67.205490 3.251841
169.366547 -67.476692 12.062518
168.521591 -66.707939 34.014393
169.463669 -67.375397 41.214657
168.996674 -66.977455 120.919731
169.865173 -67.987892 -51.932705
168.831299 -66.391045 -49.782299
169.126816 -68.073883 -47.379589
169.184769 -68.011711 -44.616131
169.248032 -66.668411 -19.350920
169.500900 -67.168259 -17.399775
169.799591 -67.620178 3.333915
170.123444 -67.218544 11.916137
169.223602 -66.777939 32.007496
169.908081 -67.528450 35.329044
169.089920 -66.953705 121.461975
168.413849 -66.656059 123.639061
168.993683 -67.128487 124.707077
169.093933 -67.845955 -52.277344
169.780212 -67.588539 -47.172264
170.258316 -67.198097 -49.384663
170.268372 -68.147408 -44.186623
170.469254 -67.492081 -28.570721
169.770782 -67.030243 -29.969898
169.998489 -66.508835 -16.044098
170.436707 -66.840454 1.960689
169.789795 -67.318283 10.479689
170.632233 -67.991440 35.977692
170.393463 -68.358757 39.059978
170.092865 -67.020226 41.352036
169.650543 -68.525780 120.592415
168.506470 -67.207588 122.860764
170.062836 -68.195381 124.577576
169.509933 -67.056763 -49.085445
170.142731 -68.086998 -47.048233
170.813889 -67.463234 -46.876808
170.599274 -67.797615 -43.521618
170.360245 -67.795982 -18.368122
169.442108 -67.719406 -15.938964
170.805847 -67.555656 2.268506
170.715851 -67.615593 2.510219
170.634796 -67.488861 10.531208
170.196503 -67.769417 10.296563
169.965012 -67.007370 32.494030
169.310837 -66.725731 34.737343
169.845367 -67.745415 40.744663
170.608688 -67.666321 120.703407
170.014862 -66.867668 -51.399097
170.339340 -66.996880 -47.986038
171.537521 -67.824760 -24.737309
170.296463 -68.065643 -19.156048
171.230789 -65.834282 -17.683321
170.589935 -68.160957 -16.173109
170.303497 -68.292618 1.373415
170.863327 -67.046082 2.117695
169.895432 -67.508499 35.107788
170.494202 -67.244354 38.326809
170.822540 -66.919754 38.444351
170.896805 -67.424538 121.882530
170.833832 -68.028114 124.195534
170.984970 -67.802361 -47.768032
170.344116 -66.499466 -49.661613
170.933228 -67.216454 -46.288414
170.855515 -67.742958 -44.034851
171.598145 -67.830956 -28.535463
170.584213 -67.545944 -25.941809
171.782761 -66.643417 -17.151138
171.529663 -68.012482 -16.148081
170.498993 -67.747910 1.723558
170.775803 -67.837448 9.371476
170.885086 -67.100853 9.506041
171.526489 -68.378944 31.305378
171.097992 -66.387085 33.622768
170.191879 -67.186737 38.059292
170.062515 -66.527832 121.179329
170.987244 -67.427399 122.801323
170.201080 -66.765564 123.524788
171.447983 -67.163887 -27.830217
171.498932 -67.714142 -18.176807
171.780045 -67.167976 -17.682638
171.723740 -67.371529 -16.035715
171.672852 -67.788551 0.750901
171.719727 -67.070290 9.344099
171.577835 -68.146828 121.569969
172.611099 -68.024460 -50.841103
171.770905 -67.732162 -43.410652
171.404449 -68.191093 -28.019880
172.023193 -67.355026 -24.924681
171.737198 -67.536003 0.083431
172.060852 -67.655136 9.396810
172.296509 -67.805130 8.929708
172.235229 -67.469490 32.710098
171.650604 -67.384323 34.507481
170.901703 -66.975975 40.133221
171.231705 -66.490456 41.636879
170.878281 -67.233566 121.704910
172.028152 -67.247704 122.527802
170.686066 -66.696846 123.129662
173.177811 -67.732040 -51.457043
171.973373 -67.888084 -46.916515
172.305252 -67.395615 -47.198402
172.030411 -68.152397 -46.424076
172.440994 -67.649597 -25.014343
172.301361 -67.802818 -17.609921
171.807953 -67.206657 -15.527479
172.520721 -66.804749 0.609913
172.585861 -66.841537 33.186138
172.167130 -67.678757 34.451927
172.414169 -67.332985 37.995884
172.331741 -66.872704 121.846443
172.392883 -67.000771 -50.873161
172.320541 -67.184799 -42.122860
173.384277 -68.212662 -26.871431
174.042419 -68.014442 -15.325240
171.961594 -68.497238 -0.851508
172.395767 -67.849045 7.359187
172.006790 -67.645226 37.031448
173.359879 -66.622261 119.708557
172.371002 -67.169960 124.330795
172.616669 -68.504387 -50.807610
173.576813 -67.287109 -46.087204
173.735550 -68.374275 -45.454292
172.868134 -67.636154 -42.111935
172.973099 -68.051041 -27.283821
172.801056 -67.273819 -25.837416
173.696198 -68.626198 -23.989708
172.503098 -67.920876 -14.547337
173.051468 -66.310829 -14.159465
172.956345 -67.697372 -1.034571
173.340820 -66.173927 -0.054573
173.301575 -67.170944 8.024003
