# This PCD file was generated using the MATLAB® pcwrite function
# from Computer Vision Toolbox®.
# .PCD v.7 - Point Cloud Data file format
VERSION .7
FIELDS x y z
SIZE 4 4 4
TYPE F F F
COUNT 1 1 1
WIDTH 1466
HEIGHT 1
VIEWPOINT 0 0 0 1 0 0 0
POINTS 1466
DATA ascii
206.569992 -70.162819 25.240562
206.255661 -70.124161 26.500957
207.588898 -70.472130 -58.156940
206.851303 -70.939423 -57.152290
207.293777 -69.571152 -44.562153
207.250443 -70.679535 -43.557102
206.831619 -70.257248 -43.817719
207.229416 -70.422913 -24.914051
206.997269 -70.670067 -23.497208
207.219894 -70.288322 -19.237984
206.842667 -69.469734 -2.747986
206.976028 -69.984871 -0.727403
206.756897 -70.204361 24.728731
207.057465 -69.705017 26.118176
206.399643 -69.495903 27.740887
207.667358 -70.766525 -59.027500
207.284653 -70.436012 -44.604156
207.610916 -69.907387 -24.715363
207.366074 -70.563789 -23.502460
207.459763 -70.239197 -18.618540
207.126343 -69.749840 -17.396746
207.143372 -69.784012 -3.069991
207.201126 -69.485550 -1.951985
206.972626 -70.122955 -0.010082
207.541702 -69.665733 27.329819
208.133942 -70.123116 -137.172867
208.179230 -70.470352 -131.949951
208.132858 -70.733421 -59.947033
208.153534 -70.566147 -45.157551
207.938370 -70.191368 -45.676212
207.788498 -70.323669 -23.555391
207.664566 -70.871719 -23.089874
208.110596 -70.001213 -18.264021
207.492676 -69.998230 24.204065
208.955887 -70.164238 -132.036072
208.450256 -70.600204 -60.256645
208.258942 -70.145699 -45.512432
208.339310 -70.806549 -46.531216
208.235992 -70.209442 -46.627110
208.364349 -70.349281 -23.266359
208.593903 -70.337959 -21.617430
208.444794 -70.462990 -19.140188
208.156281 -70.199821 -17.937805
208.359512 -69.668518 -1.098916
207.874496 -70.313988 0.248203
208.265778 -69.679153 23.992178
208.149750 -69.962891 24.807133
207.918823 -70.082161 26.021854
207.869064 -69.647385 26.628624
208.244965 -69.602715 27.851875
208.960800 -70.603439 -137.056992
208.617065 -70.723579 -61.030140
208.945282 -69.736221 -47.331268
208.779968 -69.877678 -23.791643
208.782501 -70.418716 -22.888828
208.708893 -70.420349 -18.470894
208.852707 -69.612869 -17.069025
208.361633 -70.104324 -1.685467
208.323349 -70.194077 0.066906
209.608917 -70.582344 -132.067078
209.021194 -70.462524 -62.568501
208.959396 -70.521896 -62.916176
209.416641 -70.456291 -47.734161
209.254333 -69.649002 -48.664715
209.533493 -70.514526 -22.766705
208.624176 -70.220222 -16.990896
208.980011 -70.144714 -1.152380
208.806091 -69.770500 1.211558
208.751938 -69.792244 26.213581
208.997284 -69.412994 27.573334
209.698730 -71.213058 -137.264343
209.676163 -70.651878 -131.425812
209.531525 -70.530785 -63.031048
209.767731 -70.566872 -47.932854
209.002533 -69.802658 -22.916914
209.340408 -70.103058 -22.119081
209.421631 -70.455017 -20.781878
209.363068 -70.585419 -19.060587
209.181580 -70.216805 -17.189955
209.439529 -70.056023 0.041875
209.432968 -70.091011 1.155439
209.269577 -69.518486 24.063488
209.082611 -69.726601 27.751152
210.405869 -70.632156 -131.705673
209.751205 -69.825134 -63.251030
210.266998 -70.452202 -50.522575
209.936844 -70.661407 -49.573215
209.697800 -70.229317 -21.646921
209.713364 -70.574364 -18.031231
209.530014 -69.776756 -17.302055
209.915802 -69.838142 -16.369965
209.781937 -70.336472 -0.898857
209.548767 -70.075302 1.620796
209.620728 -70.122597 25.363968
209.722427 -70.663872 25.864271
210.192902 -69.970177 26.640015
209.397232 -70.075287 27.634150
210.603989 -70.299507 -132.211929
210.348953 -70.238724 -64.883583
210.214340 -69.628792 -21.931181
210.243286 -70.223145 -20.904093
210.211685 -69.886818 -16.126257
210.031204 -69.924301 -0.745701
210.163544 -69.662918 23.155531
209.955948 -70.192131 23.961334
210.882431 -70.371750 -136.948532
210.839432 -70.356438 -132.446243
211.046387 -70.875168 -64.801735
210.772766 -70.033379 -65.311180
211.164673 -70.785957 -52.698662
210.482452 -70.703758 -50.946507
211.173584 -70.578064 -51.818645
210.574203 -70.328789 -20.753227
210.442764 -70.785622 -19.675701
210.660126 -70.553902 -19.259789
210.949844 -70.140327 -18.129223
210.603485 -69.906967 -17.014812
210.467331 -70.194664 -16.056969
210.934982 -69.892105 -1.045307
210.557938 -70.091614 -0.049059
210.318588 -69.627350 0.833734
210.419800 -69.893921 1.648029
210.416122 -69.948303 24.678133
210.834503 -70.382126 26.288671
210.403198 -70.231285 26.609743
210.898788 -69.608635 27.741316
211.471832 -70.237900 -136.689041
211.250229 -69.403641 -66.702469
210.900436 -70.465279 -65.180496
210.859055 -69.933853 -21.231546
210.749405 -70.091980 -19.698202
211.050400 -70.447472 -16.891247
211.115112 -70.359406 -16.160465
211.075531 -70.149452 0.488902
211.503998 -69.531815 2.248315
210.824448 -70.485046 26.071045
211.303253 -69.888481 26.630507
210.624237 -70.146805 28.087549
211.912842 -70.761475 -136.319427
212.091110 -70.488388 -133.218201
211.603058 -70.004959 -66.877777
211.494400 -70.565605 -65.371025
211.297211 -71.069229 -53.677849
211.883240 -70.993767 -54.515060
211.381927 -70.377220 -19.931997
211.660126 -70.662308 -18.103985
211.445679 -69.973991 -15.103602
211.591064 -70.110718 23.185022
211.406509 -70.034561 23.657949
211.031403 -70.297371 24.683281
212.267853 -70.717697 -135.514771
212.296143 -70.563332 -135.381256
212.380295 -70.482521 -133.954361
211.965546 -70.240211 -67.949379
211.949188 -70.127274 -67.019997
211.727264 -69.494843 -20.483551
211.404510 -70.348839 -19.057449
211.677963 -70.404823 -17.420996
211.749756 -70.408218 -16.208355
211.869507 -69.788635 -15.122752
211.368011 -70.044502 -1.051711
211.901215 -70.139450 0.031609
211.712158 -69.649406 0.916431
211.891251 -70.164513 1.703309
211.781326 -70.093040 24.013317
211.357544 -69.937492 24.837061
211.841568 -70.105034 26.806391
211.794373 -69.664848 27.671158
212.518265 -69.697639 -68.646393
212.022781 -70.733101 -66.261345
212.450455 -71.048737 -55.711327
212.419647 -70.685898 -55.681774
212.236191 -69.536392 -19.637869
212.121292 -70.169182 -19.126949
212.373123 -70.475197 -18.242847
212.166946 -70.016525 -15.237365
211.923157 -69.830986 -0.877033
212.143616 -69.986443 2.259567
212.431778 -70.152481 2.862481
212.050003 -70.320679 23.904730
211.982574 -70.437851 24.514776
211.982361 -70.175117 25.877256
211.908417 -70.663544 26.847435
211.555222 -69.767433 27.429094
212.451416 -69.921227 -68.327049
213.123276 -70.474426 -67.629387
212.615891 -70.542725 -66.861351
213.404343 -70.603966 -59.167667
212.649475 -70.588898 -57.891048
212.272278 -70.878723 -56.950645
212.866714 -70.110573 -56.702824
212.968262 -69.805534 -19.052387
212.210602 -69.891441 -17.560959
213.093979 -70.048065 -17.053820
212.619385 -70.731834 -16.008169
212.675873 -69.751350 -15.113761
212.697159 -70.195358 1.372974
212.596725 -69.702599 23.176687
212.507858 -69.740211 28.068737
213.063583 -69.751419 -68.737366
213.184998 -70.369301 -67.762375
213.244461 -70.120567 -66.455887
214.109070 -70.532555 -60.420609
212.793747 -69.832451 -18.152260
212.755875 -70.103783 -15.960845
213.076569 -69.845474 -15.105689
213.037369 -69.650063 -14.233561
212.799438 -69.796410 0.298024
213.075211 -70.279205 0.685228
212.979568 -69.881889 1.844539
213.170380 -69.801422 2.806611
212.624252 -70.374062 23.101826
213.074692 -70.140686 25.628073
212.608353 -70.301399 26.958242
213.694290 -69.950325 -69.167267
213.540176 -70.228783 -68.560822
213.175598 -70.196259 -67.386490
213.422379 -70.083176 -66.441391
213.488205 -70.811714 -64.753090
213.407013 -70.560509 -63.724674
213.861679 -70.625908 -62.511517
213.870132 -70.255356 -60.560925
213.287445 -69.791016 -17.940525
213.316132 -69.749939 -16.920128
213.557861 -70.583359 -16.087852
213.376236 -70.072723 -14.714060
213.641251 -69.678139 -14.233220
213.003281 -69.774590 0.356520
213.114639 -69.584343 1.987616
213.442520 -70.081528 3.121728
213.294281 -69.888039 3.725837
213.596558 -69.491928 22.075163
213.341675 -70.063217 23.918276
213.550629 -70.916977 25.022617
213.517181 -70.221504 25.719368
213.417328 -69.580360 27.448151
213.842377 -70.494003 -67.514435
214.088638 -69.809715 -66.772217
213.681335 -70.409264 -65.894295
213.879135 -70.497269 -64.838440
213.532013 -70.194794 -16.538105
213.733292 -70.394424 22.992458
214.036942 -69.754990 -69.022522
214.303604 -70.101814 -68.338867
214.151062 -69.922783 -67.979897
214.501099 -70.411224 -64.949348
214.561493 -69.968582 -63.948929
214.125076 -70.462700 -16.270294
214.023331 -69.745300 0.274011
214.273712 -69.592178 1.562166
213.837555 -70.016907 2.106032
214.024704 -70.311188 2.748601
214.086670 -69.837563 3.799665
213.861755 -69.953209 21.926079
214.477417 -70.270058 22.492567
214.071396 -70.753838 23.856340
214.247055 -70.262497 24.906786
213.949295 -70.383942 26.083679
214.420227 -70.579544 26.715693
214.837463 -69.958862 -66.940544
214.956009 -70.444672 -66.790390
214.709732 -70.074432 -65.854744
214.636215 -69.863510 -64.427330
214.229858 -69.788048 -16.125877
214.491882 -69.874153 -15.197922
214.406921 -70.243896 -13.817630
214.681717 -69.705978 -13.047816
214.841217 -69.878754 3.296514
214.395752 -69.877739 3.829252
214.310379 -69.594391 4.842065
214.412979 -69.723473 22.397385
214.358994 -70.287399 22.919600
214.794785 -70.252838 24.073643
214.629730 -70.106400 24.872227
214.693588 -70.465248 25.562222
214.928558 -70.282906 26.790619
214.587830 -70.222557 27.750248
215.108398 -69.575325 -14.912680
215.336426 -69.698761 -14.469356
214.913696 -69.389275 1.207037
214.744659 -70.543724 2.106615
215.581085 -69.280373 -15.338405
215.432495 -69.761276 -14.529767
215.399506 -69.502823 -13.313406
215.217606 -70.273247 3.049739
215.350784 -69.915680 3.983264
215.642136 -69.860703 5.009924
215.090714 -69.848206 21.819109
215.450821 -70.433624 23.246891
215.104950 -70.425369 23.699814
215.276016 -70.692307 25.860918
215.450836 -69.995743 27.672905
216.453140 -70.509682 -135.867966
216.307968 -70.611916 -134.886032
216.264114 -70.630554 -134.072510
215.640564 -69.816444 -14.272226
216.189560 -70.068626 4.727910
215.691650 -69.790741 6.250340
215.475891 -70.218170 21.966801
215.852692 -70.309006 23.055878
216.374023 -70.929199 23.793169
215.797165 -70.182465 26.967415
216.081482 -70.639290 -136.758499
216.340546 -70.575768 -133.065109
216.269318 -69.765114 0.823261
215.827759 -69.641762 2.194636
216.357010 -70.003471 2.653615
216.092758 -70.035240 3.716142
216.126434 -69.828255 5.424559
216.603928 -70.456161 -137.212021
217.036636 -70.561646 -137.209366
216.683029 -69.809540 -132.578079
216.494537 -69.799171 2.037336
216.542664 -70.206604 22.225430
216.863724 -70.711220 23.397888
216.649506 -70.055496 26.854242
216.385681 -69.809761 27.656216
217.047195 -70.362694 -132.746109
216.800476 -69.849304 3.031205
217.230453 -70.596565 4.983845
217.002914 -70.496803 5.533253
216.972870 -69.794640 6.631979
217.012299 -70.157562 21.812614
217.349258 -70.729469 22.863001
217.778824 -70.794258 -137.883408
217.467926 -70.541779 -132.555496
217.318436 -69.905586 1.583308
217.710098 -70.171707 4.239905
217.620163 -69.967056 6.109694
217.118759 -69.986328 6.713391
217.110931 -70.504280 26.268793
217.574936 -70.377167 26.635191
217.602219 -70.159340 27.973911
217.294632 -69.818001 1.947483
217.857697 -70.482552 3.307178
218.088989 -70.135071 22.277153
217.860504 -70.229980 22.732166
218.492493 -70.746017 -138.048737
218.652893 -69.534515 2.214149
218.184830 -69.544296 3.181364
218.253830 -70.361031 4.142157
217.959000 -70.478714 4.875384
218.048706 -70.201813 5.796165
218.154724 -70.019783 7.044319
218.129410 -69.685318 21.593357
218.140030 -70.273537 27.703037
218.827820 -70.564369 4.803389
218.622101 -70.334496 6.695456
218.680267 -70.083931 7.858259
218.378342 -70.631882 27.177425
218.512283 -70.310356 27.256016
219.082245 -70.370216 -137.884338
218.981033 -70.224937 3.847443
218.777649 -69.990654 22.064278
219.134277 -70.615463 23.467993
219.211319 -69.901901 3.035189
218.898529 -70.036346 6.192970
219.644394 -70.390541 7.193604
219.057236 -70.350342 8.047287
219.355042 -69.671928 21.198256
219.167282 -70.315506 28.060656
219.794403 -69.852158 3.032629
219.262650 -69.927704 3.594651
219.916351 -70.387894 5.038692
220.189346 -70.488632 7.910069
219.651474 -69.745590 8.669757
220.157791 -70.245514 22.857018
219.577499 -70.434883 27.620232
220.443924 -69.951942 4.174212
220.225098 -70.093643 8.257969
220.485306 -70.057281 21.078396
220.909531 -70.484344 4.923816
220.650177 -70.271034 5.741211
220.225800 -70.130409 6.994362
220.977402 -70.151802 7.729886
220.469711 -70.167000 8.502586
220.427460 -69.547752 21.164852
220.199799 -70.223076 21.660337
220.580124 -70.492950 27.795612
220.864029 -69.523613 4.300667
220.715256 -70.370895 7.874671
220.739594 -70.094002 8.778001
221.137421 -69.873474 9.879626
220.097336 -70.200714 27.672167
220.816299 -69.151924 28.875765
221.833755 -70.814438 -132.453949
221.460831 -70.226418 4.659471
221.026810 -70.380379 5.575158
221.329590 -70.003937 9.451204
221.420105 -69.851883 21.278183
221.099014 -70.066635 22.085405
222.452423 -70.596916 -137.444397
221.932800 -69.510597 4.843426
221.867416 -70.413391 5.703516
221.725510 -69.798500 6.528703
221.649170 -70.543098 7.727381
221.802734 -70.330276 9.049601
221.614090 -70.446968 9.325362
221.959549 -70.427551 27.989679
221.495834 -70.121048 28.837034
222.259644 -70.340225 -132.633011
222.351593 -70.516411 6.931358
222.137222 -70.246933 7.616862
222.218964 -70.308853 8.565606
221.866058 -70.150597 9.590981
222.142685 -69.853943 10.512685
221.977905 -70.206474 21.864819
222.197357 -70.521126 27.770880
222.030853 -69.820747 28.613764
222.636032 -70.008598 4.785294
222.473877 -69.990288 5.805168
222.234924 -70.085106 10.821376
222.328720 -70.093208 21.167442
223.131546 -69.972313 5.981348
223.129837 -70.061119 7.228703
222.804947 -70.291969 7.831438
222.657181 -70.081528 8.556826
222.735397 -69.980949 9.996941
223.126053 -69.507568 10.933230
222.880814 -69.890221 28.991104
223.437683 -70.357994 7.365365
223.428589 -70.246834 8.571565
223.234024 -70.464127 9.737972
223.289917 -70.146088 10.472523
223.152771 -70.132584 21.023005
223.491333 -70.493477 27.426571
224.217529 -70.694077 -137.795181
224.377914 -70.392952 -138.077209
224.043808 -70.509819 -132.775772
223.761658 -69.819695 5.680965
224.576935 -70.547447 -132.326248
224.268677 -69.909332 6.871427
223.984299 -69.907791 7.647275
224.208450 -69.837868 9.767242
224.242493 -69.815681 10.649163
224.085495 -70.213974 21.058613
225.282150 -70.825340 -138.576538
224.740372 -69.479309 -139.202820
225.290405 -70.682396 -131.565613
224.659439 -69.872955 8.800611
224.505692 -70.311485 9.534555
224.683029 -70.207458 10.787238
224.136353 -69.875137 11.682825
224.287231 -69.780640 21.037497
224.496628 -69.806816 28.316689
225.401367 -70.486870 -138.888397
225.198364 -70.451218 -131.300720
225.038452 -70.135788 6.793084
225.402512 -69.971321 8.116725
225.680069 -70.472801 -138.967743
225.554520 -70.609535 -130.872498
225.442841 -70.189308 8.085862
225.374466 -69.924599 8.520938
225.646683 -70.525650 9.256755
225.728577 -69.939453 10.819967
225.352951 -70.035248 11.557288
225.473511 -70.114510 20.822050
225.515610 -69.936340 28.572411
226.259796 -70.126190 -130.552444
225.926926 -70.639923 -130.254059
225.578064 -70.079575 9.847395
225.860260 -70.524452 11.654977
226.389511 -70.542809 -140.086136
226.612930 -70.416550 -130.215012
226.544739 -70.925728 -129.487488
226.241974 -70.827576 -127.437691
225.866165 -69.803886 7.957638
225.801971 -69.678299 8.882354
226.561218 -70.586067 -140.347321
227.000793 -70.551216 -123.422180
226.416519 -70.122490 8.802967
226.632294 -70.215996 9.563808
226.367905 -69.780151 10.466542
226.554062 -70.275116 21.294016
227.464874 -70.696808 -140.580124
227.550156 -70.530563 -135.534836
227.628876 -71.035187 -135.829514
227.521683 -70.363853 -135.171982
227.682785 -70.398842 -134.429977
226.914688 -70.359741 -123.227898
227.234543 -69.830132 10.912909
227.331924 -69.376350 11.679380
226.707092 -70.138153 21.231668
226.504868 -69.922668 29.152130
227.547119 -69.333885 -140.809814
227.613831 -70.489075 -122.040031
226.966080 -69.845573 8.970769
227.584122 -70.153595 9.993947
228.059418 -70.366669 -140.180450
228.240189 -69.599495 -140.525635
228.140442 -70.229202 -133.939148
227.843811 -70.562263 -121.923004
227.918777 -70.059746 9.992640
227.652817 -70.029419 10.568487
227.600861 -69.706841 11.762140
227.264847 -70.254868 21.120440
227.557953 -70.129539 28.380278
228.596176 -70.246872 -140.914688
228.218353 -70.181778 -122.395271
227.937927 -70.478867 21.162624
227.811829 -70.349205 28.969835
228.982040 -70.683632 -140.933044
229.150040 -70.743492 -137.000824
228.679306 -70.688499 -133.314362
228.598068 -70.258354 -121.919609
228.564865 -69.769310 10.847697
228.611496 -69.744659 11.810925
228.448349 -69.882133 24.791485
228.541412 -70.686958 29.148718
229.495224 -70.396355 -136.763504
229.744461 -70.488724 -133.880127
229.446198 -70.672363 -122.027565
228.811218 -69.829155 10.801071
229.503265 -70.677795 -140.873749
229.578033 -70.249619 -140.870651
229.721237 -70.428329 -133.344910
229.648804 -70.263657 21.657740
229.209015 -69.773125 25.243511
229.315155 -69.751717 25.676922
229.291199 -70.483315 28.750460
229.852585 -69.944435 11.560974
230.089722 -69.722633 24.839281
229.575989 -69.281754 25.924957
229.721146 -69.953186 29.687212
230.278336 -70.260857 -140.874695
230.352280 -70.011482 -140.576920
230.195328 -70.710060 -134.111130
230.471313 -70.357315 -134.116531
229.533722 -69.576653 24.125435
230.673691 -70.498749 -134.295425
231.190018 -70.338676 -134.555771
230.858688 -70.515251 -122.742363
230.579712 -69.865929 24.899691
230.616531 -69.642975 25.925165
230.515823 -69.785980 29.985193
231.490250 -70.595070 -140.190140
231.000259 -70.716072 -129.219406
231.576523 -70.573776 -124.554871
231.357208 -70.400322 -124.008644
231.068466 -70.487129 20.988354
230.975128 -69.948730 26.578409
231.666916 -70.279869 -140.088196
232.147766 -70.632622 -139.712112
231.380280 -70.563385 -130.102356
231.954880 -70.693649 -130.246445
231.832565 -70.589134 -130.721832
232.477859 -70.102325 -130.155258
231.755035 -70.428680 21.160810
231.914444 -69.814278 25.105957
231.831985 -69.920235 25.938873
231.890762 -69.078064 26.794758
231.581085 -70.164848 30.067509
232.794388 -70.276894 -139.355209
232.505508 -70.625053 -130.585251
232.653580 -69.512955 -130.411621
232.009979 -69.985985 23.791409
231.896957 -70.101700 25.625219
232.259674 -69.583450 26.392399
233.013199 -70.973145 -139.545242
232.696762 -70.616043 -131.415298
232.620483 -70.766052 20.890093
232.586151 -70.712044 30.019241
233.471069 -70.317596 -139.009857
233.438309 -70.409142 -131.527664
233.457138 -70.052536 -131.255432
233.014328 -69.678169 23.776119
232.466690 -70.098152 24.630852
232.895920 -70.122711 25.926367
232.509415 -70.361000 29.756500
233.668793 -70.265854 -137.967361
233.618027 -70.603722 -131.984253
233.842133 -70.569466 -132.541199
233.419632 -69.744850 24.108158
232.918442 -70.306633 24.880373
232.842041 -70.221832 26.285984
233.188828 -69.836349 26.744724
233.578857 -70.014244 28.120634
234.069031 -70.407730 -137.873108
233.684570 -70.451073 -132.492661
234.115906 -70.429840 -131.934280
234.760284 -70.578453 -137.903564
234.082413 -70.251541 -132.820984
233.854935 -70.006760 24.372543
234.692337 -69.905739 25.253195
233.785294 -70.403938 26.120872
233.319458 -69.721901 27.704386
234.539948 -70.271126 -137.976898
235.076721 -70.916031 -132.625290
234.441132 -70.979424 21.114532
234.608612 -70.123268 23.903748
234.614700 -70.299377 24.756817
234.790283 -70.392151 25.980965
234.581360 -70.083618 26.972124
235.106827 -70.600639 -132.812454
236.018417 -70.393707 -137.532578
235.110748 -70.499321 21.377270
234.938736 -69.974670 24.073856
235.140060 -70.434006 24.951548
235.723923 -69.913841 26.015705
235.142914 -70.475586 26.883940
235.558243 -70.851738 30.806894
235.989502 -70.420364 -132.597061
235.737946 -70.764366 20.987497
235.554916 -70.598450 25.183519
235.389694 -70.169868 27.849012
235.338287 -71.081688 30.601685
235.985367 -70.846367 31.240339
236.729294 -70.867554 -132.427475
236.388336 -69.902100 21.312866
236.649780 -69.605553 23.931818
236.295242 -70.633263 24.862385
236.547348 -70.127571 27.404772
236.183334 -70.845161 30.481421
236.219727 -69.777924 31.419592
237.506927 -70.461098 -137.745041
237.151535 -70.923111 21.175097
236.870712 -69.972054 24.309185
236.752411 -70.349007 27.898670
236.916702 -69.722954 28.751902
237.210083 -71.165916 31.177219
236.891846 -69.606987 31.943254
237.040298 -70.559486 27.568714
237.230225 -69.767036 28.619123
237.299866 -70.626831 30.921717
238.491882 -70.656296 -137.958893
237.992264 -70.483986 -132.033020
238.105301 -69.831772 23.846703
238.843369 -70.523232 -137.774109
238.876022 -70.360916 -132.975006
238.161789 -70.252899 21.599686
238.501358 -70.674210 27.430573
237.851364 -69.827286 28.502926
238.246078 -70.580757 31.419989
238.901749 -70.495163 28.642933
238.873550 -70.181961 23.763704
239.012650 -70.591660 31.660881
239.276505 -69.705330 -16.608480
239.245117 -70.934669 21.329443
239.398300 -70.459648 28.492428
239.099579 -69.339233 29.581409
239.157623 -70.598190 32.317921
239.864395 -70.010315 -19.460897
239.939606 -69.516785 -18.602968
240.253204 -69.945129 -17.351009
239.713272 -70.587547 28.211859
239.776688 -70.250084 29.757936
239.371643 -70.445015 32.014847
240.716919 -69.355301 -22.261127
240.027039 -69.578331 -21.693029
239.802841 -69.721756 -20.939766
240.331665 -70.254082 -20.116760
239.921494 -70.277115 -18.986206
240.206833 -69.464485 -17.052368
240.602036 -69.681099 -15.961070
240.395554 -69.863579 -15.004226
239.972198 -70.700829 21.698612
240.135574 -69.627808 21.072596
240.032303 -69.505997 23.990589
241.108536 -70.496780 -136.921448
240.405411 -70.480209 -25.566395
240.662155 -70.575714 -24.731596
240.060623 -70.276627 -23.653639
240.619278 -70.174408 -22.004934
240.562515 -70.563660 -20.799498
240.641266 -70.224442 -19.677195
240.790833 -70.164101 -16.835926
240.712570 -69.695831 -15.953732
240.782455 -69.772926 -15.420428
240.565140 -70.323814 21.929228
240.066711 -70.605614 28.717497
240.563751 -69.595772 29.701488
240.585342 -70.833008 31.956776
241.258377 -69.937019 -26.870558
241.160736 -70.353416 -25.270426
240.859772 -70.459633 -24.348921
241.148849 -70.065529 -20.845249
241.012039 -70.192451 -17.521065
240.650543 -70.233192 -15.935308
241.319168 -70.301216 -14.905425
240.743332 -69.957008 23.842892
240.669632 -70.107765 30.245855
240.791611 -70.266273 32.208992
241.974838 -70.493294 -136.764465
242.008377 -71.057457 -136.138733
241.451981 -70.627281 -132.855728
242.178284 -70.471893 -134.123001
241.635071 -69.410820 -28.750475
241.660843 -69.888512 -27.772671
241.333313 -69.896141 -27.194769
241.268524 -69.997658 -25.877090
241.811935 -70.587372 -24.134195
241.733658 -70.370682 -22.785311
241.390320 -70.443977 -21.587711
241.353516 -70.234734 -19.689957
241.695419 -70.535759 -17.791981
241.643372 -70.279747 -16.145199
240.967682 -70.863457 21.441578
241.063370 -69.785789 24.061436
242.101273 -70.496544 -135.097839
241.804138 -69.742569 -31.208429
241.822113 -70.054626 -30.244793
241.966446 -70.555687 -29.397348
241.698181 -70.068375 -27.393311
241.718231 -70.059258 -26.404186
242.069016 -70.082932 -25.540068
242.176727 -70.712357 -22.589001
241.495270 -70.493248 -18.010172
242.335266 -70.096031 -16.546579
241.826996 -69.927727 -16.572502
241.861710 -69.405624 -15.437178
241.571426 -70.525017 29.302233
241.532059 -70.616554 32.076717
242.074203 -69.994934 -31.413076
242.267517 -69.733986 -30.417511
242.377197 -70.344543 -29.689484
242.117752 -70.444344 -27.690395
242.088409 -70.496803 -25.637556
242.211304 -70.586479 -23.696369
242.137329 -70.218399 -21.451735
242.232773 -70.393944 -20.922955
242.221283 -70.038643 -19.829607
242.082993 -70.158592 -18.460588
242.069565 -69.521072 -16.643930
241.931961 -70.694679 21.878162
242.322571 -69.816238 24.108637
242.114120 -70.959717 29.849281
243.018066 -69.878220 -32.324013
242.741394 -69.960007 -31.303143
242.774445 -69.884712 -30.410160
242.671844 -70.454575 -28.603243
243.264984 -70.234741 -20.636816
242.611679 -70.338684 -19.994675
242.468338 -69.938744 -18.930206
243.036789 -70.556282 21.511717
243.220947 -69.927277 -33.310341
243.345978 -70.437325 -32.195568
243.369858 -70.210335 -30.998146
242.856018 -70.295792 -30.124573
243.112732 -70.304161 -25.445070
242.835327 -70.582047 -23.612560
242.971725 -70.403381 -22.595098
242.680817 -70.239586 -21.460297
243.373077 -69.942375 -20.175119
242.996552 -70.223984 30.786312
243.677094 -69.981522 -34.848461
243.433670 -70.264229 -34.227058
243.856552 -70.033478 -32.519638
243.775391 -70.629784 -31.676882
243.555496 -70.638031 -28.336239
243.270096 -70.040871 -27.263121
243.902252 -70.730560 -26.093241
243.212753 -70.159836 -25.730249
243.571213 -69.972977 -23.159760
243.503540 -70.151764 -21.323957
243.809814 -70.216675 -20.807270
243.035965 -70.195450 21.764194
243.390823 -69.637138 24.257866
243.228165 -70.085678 30.643980
243.660141 -70.235474 -34.932137
243.384430 -70.011848 -34.120762
243.484497 -70.016418 -26.679766
243.792877 -69.851952 -25.936563
243.919601 -70.263512 33.089542
244.022049 -69.829002 -35.177696
244.980865 -69.616356 -34.053482
244.077957 -70.176689 -32.072163
244.140640 -70.240395 -31.405436
244.450211 -70.479630 -29.183451
244.364700 -70.113640 -27.155621
244.051605 -69.715630 -25.663355
244.017303 -70.748901 30.285360
244.775970 -69.247360 -35.018665
244.804535 -69.643158 -33.977928
244.702011 -69.645157 -32.488865
244.597198 -70.117477 -30.244795
244.798203 -70.035797 -28.883173
244.743179 -70.336792 -27.346636
244.570511 -69.973106 -26.101643
244.901947 -70.409805 24.689926
245.099106 -70.924728 22.181068
245.117905 -70.486244 22.838106
245.702545 -70.139503 24.902485
245.555756 -70.442413 30.461283
245.166489 -70.642189 33.395767
246.202728 -70.456512 -135.887497
245.549866 -70.382484 22.504379
245.748947 -70.306816 24.923557
245.156662 -69.697449 31.740294
245.577286 -70.608643 33.828434
246.724396 -70.868080 -137.376434
245.726059 -70.638748 22.739075
246.273178 -70.335960 25.291180
245.872391 -70.499519 25.472940
245.658905 -70.544891 34.001392
246.029099 -69.546265 34.449249
246.672897 -70.845947 22.800385
246.693268 -70.996536 23.820902
246.319565 -69.823380 23.783720
246.487167 -70.351753 24.777521
246.631012 -69.923225 31.671181
246.515976 -70.346756 33.947330
247.567047 -70.518990 -138.370941
247.680466 -70.943497 -138.564041
247.427383 -69.247253 14.578574
247.526947 -69.439247 21.198275
247.693909 -70.069809 32.547184
247.507874 -70.954895 33.596321
247.047958 -69.643402 34.606209
248.147202 -70.423897 -132.332352
247.827805 -69.834061 13.211614
247.700821 -69.852318 14.691525
247.624191 -70.109879 15.377753
247.511673 -70.379654 16.773308
248.041458 -69.891380 17.527498
247.736664 -69.750031 18.896957
247.175339 -70.097557 19.929029
247.704620 -70.308388 22.137047
247.714539 -70.471664 33.698536
248.357361 -70.744835 -132.218338
248.222153 -69.867592 13.036956
248.241959 -70.227386 13.984200
248.755585 -70.680740 14.528901
248.129883 -70.861168 18.136984
248.349014 -70.545769 18.893242
248.110306 -70.344559 19.410480
248.146835 -70.290359 20.627768
247.885437 -70.057159 21.419052
248.063690 -69.725800 22.003071
248.416946 -69.283119 23.601969
247.906296 -70.482445 12.628013
248.608932 -70.355942 13.241323
248.774490 -70.452591 21.000458
248.609024 -70.429672 21.857740
248.593674 -70.332901 23.276342
249.249146 -70.232529 -133.111847
249.140656 -69.998535 11.652607
248.882843 -70.448250 13.630065
249.190918 -70.448837 22.255259
248.946075 -69.666962 22.707291
248.799118 -69.984352 24.069733
249.283432 -70.407288 8.793591
249.554474 -69.904503 10.388847
249.571899 -70.202629 11.524488
249.473251 -70.083069 24.084070
249.723862 -69.519867 7.506820
250.162552 -70.517258 8.846231
249.975403 -70.286339 9.763019
249.995972 -70.744843 10.539244
249.567566 -70.103607 25.373957
250.310623 -70.371620 25.020544
250.455276 -70.442886 -133.171738
250.679092 -70.430580 7.818779
250.355621 -70.278351 26.039690
251.238205 -70.559212 7.640764
251.051086 -70.308022 25.858515
251.027771 -69.490417 27.041805
251.975021 -70.718704 -138.517441
251.985840 -70.695290 -132.732666
251.500122 -70.591080 7.348716
251.231827 -69.813683 6.862028
251.477844 -70.108971 27.388077
251.951111 -70.498466 -132.948471
251.664185 -70.450760 7.377893
251.663666 -70.251793 6.986875
251.626831 -70.482056 26.861656
251.980835 -70.101379 5.847798
252.055969 -70.269272 6.863289
252.154526 -70.208679 28.212170
253.178757 -70.230705 -133.153015
252.182220 -69.997673 6.077388
252.518188 -70.616905 27.209955
252.712006 -70.392136 27.820721
253.581589 -70.478737 -138.809723
253.854263 -70.415260 -132.653427
253.273056 -69.439087 4.678999
252.873917 -70.091499 28.171865
253.606369 -70.399292 -138.290298
253.353333 -70.139320 -132.788071
253.638992 -70.455170 5.088763
253.230682 -70.683258 27.945688
253.584641 -70.196075 28.497524
254.156967 -70.142555 -138.861877
254.190308 -69.809784 -132.463516
254.058640 -69.850731 3.759952
254.021561 -70.221939 5.288748
254.070160 -70.385254 -139.820908
254.360992 -70.408661 -131.787445
254.241211 -70.569336 28.927563
255.163345 -70.239388 -131.654617
254.535492 -70.262344 4.481805
254.851883 -69.562302 29.747646
255.333496 -70.541534 -131.137360
255.005432 -70.533684 28.831488
254.731644 -69.622177 29.682608
256.018585 -70.890785 -130.350616
255.232574 -70.354744 4.344737
256.151489 -69.865189 -130.500732
255.613693 -70.662231 30.145050
256.649994 -70.235733 -141.318192
256.239563 -70.571617 -130.306030
256.666443 -70.372833 -129.521866
256.524506 -70.437859 29.384880
256.111572 -70.248589 30.843901
257.255615 -69.772255 -141.524109
256.930664 -70.479973 -135.822922
257.311432 -70.745964 -135.407715
256.403595 -70.997116 -124.238594
257.631775 -70.980888 -123.587273
256.896820 -70.427223 4.100373
256.602600 -70.551025 29.487434
256.287231 -69.945877 31.142302
257.417877 -70.449043 -141.447769
256.344330 -70.826736 3.665912
256.814789 -70.138275 29.385168
256.887817 -69.922867 30.568300
257.845978 -71.006828 -136.826981
257.754517 -70.749695 -134.813202
256.827271 -70.715332 29.387745
257.054413 -69.722527 30.778183
258.019257 -70.371674 -141.447815
258.427887 -70.538719 -134.251022
258.169434 -70.797676 -134.700943
257.451904 -70.354324 3.470030
257.549103 -70.372932 29.688814
258.729034 -70.109337 -142.006073
258.599854 -70.330032 -137.543274
257.925385 -70.538536 -122.367622
258.258820 -69.977356 3.144018
258.079285 -70.079590 29.976147
258.833618 -70.649818 -137.589081
258.897736 -70.384903 -134.317261
258.693359 -70.764732 -122.542770
259.500916 -71.022964 -137.744492
259.047241 -70.484840 -134.212692
258.962677 -70.667603 3.080889
258.881073 -70.312080 30.512302
258.561890 -70.065742 30.631210
259.579987 -70.341850 -133.921585
259.638885 -69.981209 3.028449
260.109863 -70.871895 -133.960175
259.970642 -70.655960 -122.919289
259.565186 -70.293526 30.128933
260.321350 -70.489777 -141.866959
260.794800 -70.378242 -136.691559
260.715088 -70.729523 -135.440521
260.245972 -70.416855 3.008207
260.281311 -70.710152 30.532141
260.771912 -70.849159 -135.706772
260.836578 -70.765694 -135.341156
261.133087 -70.657043 -123.361809
260.522278 -70.214363 3.393852
260.786499 -70.172150 30.062202
260.333923 -70.382240 30.625538
261.344574 -70.570908 -142.040344
261.283966 -70.461266 -129.495300
261.961761 -70.649979 -128.737946
261.317200 -70.645988 -126.773224
261.920135 -70.452187 -125.515236
261.445374 -70.443924 -124.505814
261.062592 -70.490997 30.776829
261.765564 -70.831345 -141.586411
261.375916 -70.861641 3.006580
261.384735 -70.998413 30.050812
262.198425 -70.651299 -141.159744
262.414795 -70.573021 -130.623337
261.554535 -69.981140 30.910639
262.187561 -70.260155 -140.900772
262.442688 -69.816093 -130.876587
262.260315 -70.628891 3.515741
262.796387 -70.637680 -140.542084
262.704437 -70.284615 -131.297867
262.606964 -70.447861 29.984982
263.352386 -70.457108 -140.423950
263.010742 -70.830017 -131.511017
262.734772 -70.430374 3.261010
263.727142 -70.601768 -139.611038
264.290833 -70.807617 -131.597977
263.124146 -70.398254 3.124973
263.960266 -70.075157 -131.937912
264.243164 -70.267418 -138.522278
264.792328 -70.487030 -138.555908
265.106079 -70.212471 -132.167236
264.125275 -69.780151 3.607166
264.826843 -70.391243 -133.099777
264.711487 -70.517654 3.259000
265.243591 -70.509758 -138.772522
265.113037 -70.665977 -133.378967
264.932739 -70.196518 30.140923
265.647797 -70.606155 -138.924637
265.141510 -70.646210 3.532085
265.815125 -70.377327 -138.747971
265.838318 -70.297058 -133.220062
265.611176 -70.108772 3.028254
266.392670 -70.196571 29.820461
266.986053 -70.301315 -133.200089
267.357239 -70.212723 -138.519318
266.819763 -70.657158 3.858249
267.614868 -70.425606 -133.215607
267.228882 -70.218513 30.162071
268.268402 -70.551514 -138.551270
267.733337 -70.268799 2.874906
268.573639 -70.454590 -138.527359
268.306000 -70.861320 -133.112167
268.916046 -70.768669 -133.305573
268.349213 -70.355461 2.780588
268.509155 -70.519165 4.164660
268.082306 -70.014565 29.514755
268.483673 -69.419586 2.853734
269.428986 -70.563591 -138.566879
269.568054 -70.732330 -133.038284
269.595123 -70.151588 -133.126251
268.691223 -70.190086 3.864896
269.318573 -70.494278 5.219442
268.629089 -70.500732 29.211975
269.862915 -70.515694 -138.440094
268.790192 -69.840118 3.847096
269.473846 -70.094826 29.724154
270.466125 -70.829636 -132.909988
270.131836 -70.381966 5.172898
269.655243 -69.835297 29.974981
270.109192 -70.389198 -138.640472
270.565765 -70.725014 5.794836
269.781769 -70.559669 28.826427
270.324188 -69.747826 30.308615
271.486664 -70.453964 -138.462997
271.199402 -70.934547 -137.959946
270.637329 -70.221413 -133.722916
270.377441 -70.192070 28.748381
271.415863 -70.738579 -137.972885
271.195190 -70.699219 -133.703400
270.948364 -69.922485 4.854041
271.104553 -70.306244 6.326802
271.752045 -70.252708 -137.486664
271.778015 -70.926491 -136.771591
271.706543 -70.462914 -134.347000
271.565125 -70.503662 6.365656
271.268341 -70.184349 27.895445
271.219788 -70.194008 29.072565
272.280548 -70.251495 -136.730530
272.678314 -70.322273 -136.230499
271.638000 -70.941780 -135.185272
272.280609 -69.786263 6.272348
271.765015 -70.856308 27.566906
272.333313 -69.593903 28.995861
272.279968 -70.770279 7.630067
272.190735 -70.013367 28.002445
273.180328 -69.954727 6.953513
272.903076 -70.664627 27.005571
273.225739 -69.686768 6.628540
273.063385 -70.652786 26.552626
273.564240 -70.672882 26.851870
273.853394 -70.136009 6.933383
274.179565 -70.704796 8.137818
274.222748 -70.372040 7.055951
273.917114 -70.571518 8.335806
274.149719 -70.395790 25.773085
274.410645 -70.201981 6.672075
274.553589 -70.329819 7.929829
274.710114 -70.235306 25.417425
274.542297 -70.096573 26.538528
274.791107 -70.964462 8.100845
274.842072 -70.002319 26.290087
275.605713 -70.637794 -136.728790
275.718811 -70.380882 -136.122543
275.350006 -70.711212 8.716926
275.675903 -70.544853 9.772905
275.131714 -70.599457 24.864340
276.162476 -70.542191 -137.442429
276.398712 -70.183571 -135.126022
276.788300 -70.731522 -134.247498
275.909485 -70.656395 7.725950
275.903992 -70.342613 10.550732
275.550568 -70.759430 25.035706
276.127808 -69.703491 26.019133
276.389526 -70.475380 -138.511337
276.611115 -70.565338 -133.786667
276.107727 -70.100456 8.002044
275.931335 -69.949799 9.300581
276.322144 -70.336197 25.144913
276.850922 -70.588104 -138.331512
276.969513 -70.431061 -133.687881
276.550507 -69.993683 8.929160
276.519653 -70.431107 9.793221
276.898468 -70.548874 11.875324
276.257629 -70.451714 24.285038
276.739868 -70.553230 -138.682968
277.459198 -70.296822 -133.307755
277.211090 -69.562813 9.292972
276.946808 -70.084877 10.613569
276.818970 -70.506905 23.717396
276.706329 -69.885353 25.055080
277.837708 -70.728088 -138.582932
277.639984 -70.782097 -133.303802
277.106201 -69.736580 10.820461
277.372864 -70.808899 12.227864
278.000122 -70.657730 -138.812363
277.769409 -70.274078 -133.343201
277.309235 -70.520180 11.706927
277.324280 -70.058334 24.394930
278.448303 -70.675598 -138.967758
278.474304 -70.255692 11.870943
278.681824 -70.491219 13.641802
279.024628 -70.778549 13.959798
279.083771 -70.567345 20.597935
278.310150 -70.616287 22.521362
278.280975 -70.188896 23.305923
278.398376 -70.070778 23.680738
278.994110 -70.537590 -138.716034
279.310059 -70.186600 -133.255844
278.886902 -70.063675 13.114626
279.477234 -70.596573 15.492312
278.796631 -70.306656 21.432816
279.145538 -70.382530 22.198280
278.749664 -69.920158 23.082745
279.367065 -70.182732 -138.721649
279.544556 -70.493393 -133.499832
279.345734 -69.911621 12.377418
279.743256 -70.308861 20.594048
279.815247 -70.335258 21.128975
278.987488 -70.157738 21.957935
280.266266 -70.137398 -133.781052
279.917725 -69.695465 12.872584
279.645020 -70.142204 13.505965
279.626678 -70.225510 14.558953
279.666809 -70.556068 16.513929
279.826141 -70.322975 19.139374
280.001984 -69.836021 21.070408
280.265747 -71.038490 -132.929489
280.328827 -70.048187 14.292274
280.139771 -70.064255 15.573026
280.824768 -70.421120 18.549772
280.376129 -70.236336 19.656158
280.137207 -70.216225 20.447870
280.602509 -70.557816 -138.929306
281.012512 -70.345581 -133.471985
280.638763 -69.553604 20.334471
281.108826 -70.309875 17.382965
280.883179 -70.711166 18.570560
280.820404 -69.932274 19.199587
281.420410 -70.466141 -138.661148
281.483307 -70.254692 -133.350723
281.186920 -70.112915 17.772264
281.550751 -69.697517 19.181581
282.072327 -70.230072 -139.075882
282.065338 -70.493073 -133.369217
281.510956 -70.121361 17.320234
281.385437 -70.015984 18.344524
282.220551 -70.544441 -139.123596
282.025116 -69.620415 17.694492
282.573059 -70.113014 -133.410843
283.213074 -70.403992 -139.402206
283.397736 -70.930595 -133.581604
283.395782 -70.816727 -133.242203
283.845459 -70.558456 -139.638519
283.469818 -70.170235 -132.593140
284.005463 -70.673508 -140.444504
284.371399 -70.732735 -132.169815
284.694061 -70.403854 -141.373260
284.270050 -70.680336 -132.071274
284.989166 -71.120163 -141.287018
284.724579 -70.525604 -131.103943
285.517761 -70.603996 -141.652115
285.390167 -70.693840 -130.711731
285.752869 -70.504692 -141.856491
285.742798 -70.614029 -130.381256
286.296478 -70.656525 -142.284241
286.500977 -70.884476 -130.587418
286.699127 -70.553421 -142.552948
286.364410 -70.384727 -130.230301
286.678558 -70.609695 -129.026260
287.023865 -70.725662 -127.354347
286.695251 -70.747520 -126.242088
286.892120 -70.397163 -125.301338
287.135559 -70.470764 -135.586212
287.019745 -70.574448 -125.035782
287.582336 -70.092163 -142.440430
287.161407 -70.665527 -124.613098
287.898987 -70.637169 -137.642471
287.829468 -70.405960 -123.726715
287.732635 -70.639877 -142.946075
288.226135 -70.717751 -135.162109
288.323914 -70.704651 -122.817184
287.698486 -69.211220 -123.672211
288.600220 -70.353050 -143.265900
288.589783 -70.634544 -134.363098
288.827972 -70.500282 -123.286858
288.803284 -70.675011 -122.901939
289.498932 -70.756645 -142.686340
289.477448 -70.772713 -134.640976
289.604706 -70.543320 -122.773849
289.470947 -70.702766 -142.738693
289.863220 -70.528198 -138.193817
289.380707 -70.534149 -123.111351
289.869385 -70.554146 -134.730011
289.887878 -70.923920 -122.914825
290.060242 -70.684151 -123.862785
290.074554 -70.064575 -123.609245
290.569946 -70.766014 -143.144836
290.797455 -70.899704 -136.738770
290.474701 -70.489769 -136.566254
290.926880 -70.494987 -142.696075
291.768066 -70.633888 -130.392807
291.650330 -70.759331 -128.996628
291.792603 -70.208252 -126.487564
291.197113 -70.489525 -125.728661
291.398102 -70.443588 -142.476212
291.451935 -70.454018 -130.729507
292.336456 -70.219185 -142.021637
292.589935 -70.310249 -141.949051
292.182526 -70.469612 -130.861649
292.520599 -70.880333 -130.780624
292.282654 -70.522141 -131.245407
293.458313 -70.741905 -141.385056
293.347321 -70.566780 -140.573547
293.424927 -70.969666 -131.158401
294.161041 -70.379913 -131.696503
294.198212 -70.380760 -139.777893
294.137787 -70.946831 -132.284119
294.520203 -70.822998 -133.106888
294.489838 -70.731224 -139.672592
294.738678 -70.433899 -139.245178
294.811432 -70.540726 -133.666321
295.588654 -70.675308 -139.546677
295.694794 -71.010063 -134.092087
295.648346 -70.691277 -133.909271
295.851837 -70.803215 -138.870682
295.817902 -69.217278 -138.710541
295.866211 -70.758217 -133.919724
296.472504 -70.892937 -139.170532
297.090546 -70.579521 -138.927612
296.376892 -70.475975 -134.271179
297.874878 -70.510994 -139.599594
297.386566 -70.535927 -134.136139
297.456024 -70.305237 -139.435486
297.886383 -70.524887 -139.313248
297.905060 -70.356277 -134.312637
298.545959 -70.424202 -139.602951
298.752930 -70.454178 -134.165405
298.610382 -70.273788 -134.304825
299.270630 -70.440514 -139.235733
299.303986 -70.284431 -139.649780
300.413818 -70.542229 -139.068588
300.382996 -69.467445 -138.598480
300.119720 -70.568993 -134.595840
300.122345 -69.975777 -135.508301
300.395294 -70.280724 -139.404526
300.658112 -70.466942 -134.169037
300.705017 -69.589249 -134.933365
300.849792 -70.232452 -139.057007
300.960846 -70.352905 -138.805878
300.754517 -70.549126 -134.484604
301.290863 -70.310608 -135.007294
301.520325 -70.362770 -138.455490
301.984772 -70.212143 -137.627319
301.905365 -70.677551 -137.779434
301.677002 -69.956406 -137.368698
301.908752 -70.670654 -136.667023
301.820984 -69.830284 -137.076141
301.920502 -70.520569 -135.648407
62.477524 -68.914963 -47.849197
62.075104 -68.777252 -44.696529
62.132530 -68.290588 -44.321892
62.641697 -68.783150 -50.762306
63.049400 -68.362343 -47.787319
62.981590 -69.127190 -46.049530
62.485790 -68.757912 -44.188221
62.643791 -69.168221 -42.352184
62.911381 -69.589577 -40.977303
63.098507 -68.301048 -52.596836
63.332146 -68.599854 -51.689083
63.559792 -68.983902 -49.828838
63.333740 -69.011261 -48.733925
63.261002 -68.612976 -46.818310
63.395100 -69.144127 -44.242813
63.189621 -68.917290 -39.013348
63.443542 -68.892212 -54.588383
63.437916 -68.538528 -52.525337
63.356102 -68.957664 -52.065514
63.867584 -69.099312 -48.678410
63.500099 -69.156769 -46.874134
63.289711 -69.275108 -45.197895
63.648659 -68.803604 -41.858753
63.714325 -69.447525 -41.326866
63.492535 -69.367607 -39.470146
63.524578 -68.874435 -38.411930
63.550938 -68.900826 -37.430347
63.778500 -68.686050 -36.037952
63.587051 -68.916801 -56.786354
63.570118 -69.017303 -53.475994
63.923512 -69.139961 -52.851925
64.096603 -69.663841 -42.324726
63.766922 -68.678398 -37.726887
63.908897 -68.654610 -36.309231
64.002403 -68.841431 -54.519619
63.987988 -69.316719 -53.039612
64.494186 -69.175407 -49.933315
64.096901 -69.259995 -46.690865
64.578751 -69.371719 -45.028187
64.644730 -68.931953 -42.818993
64.639450 -69.248749 -41.348843
64.095863 -68.432831 -36.625282
64.499413 -68.496948 -34.722687
64.824722 -68.714272 -58.234562
64.669319 -69.101837 -57.777905
64.744270 -68.996635 -56.091537
64.460785 -69.172615 -54.584816
64.234833 -69.550034 -53.804764
64.365211 -69.451958 -51.701889
64.800568 -69.616623 -50.022923
64.678482 -69.530518 -47.481071
64.774452 -69.853821 -40.312340
64.808372 -69.260361 -38.251213
64.839554 -68.686920 -33.534061
64.339279 -69.311302 -33.094032
64.579987 -69.288940 -31.506573
64.386841 -68.579384 -30.856558
65.310127 -68.797798 -59.425743
65.246071 -68.950737 -58.496777
64.628464 -69.519524 -53.431248
65.722435 -69.534706 -47.862549
65.140060 -69.473618 -45.899284
65.450165 -69.476501 -44.066059
64.948822 -69.696770 -36.728592
65.087517 -68.497520 -34.664112
65.256004 -69.724411 -33.825214
65.219406 -69.364777 -32.504021
65.117622 -69.409821 -30.483208
65.053040 -68.840782 -29.099127
65.269379 -68.609436 -59.902584
65.795242 -69.277710 -58.284374
65.373993 -69.346191 -56.544758
65.635223 -69.403786 -40.194355
65.445923 -69.234909 -28.954872
65.517235 -68.845253 -27.711983
65.612801 -68.658760 -61.121998
65.756226 -69.213654 -60.486004
66.036018 -69.180389 -59.060440
66.241837 -69.510368 -54.508060
65.999756 -69.510696 -54.083153
65.661682 -69.449562 -37.137558
66.160736 -69.418732 -35.807358
65.626602 -69.218491 -34.324459
65.719162 -69.410568 -30.984476
65.606331 -69.001831 -27.978401
66.580215 -68.552856 -61.302986
65.838440 -69.374832 -60.346870
66.458878 -69.208618 -59.266544
66.062401 -68.800011 -58.110249
66.292137 -69.543236 -56.432384
66.286194 -69.637817 -54.886314
66.133377 -69.463989 -37.249096
65.832687 -69.734901 -34.758827
65.994308 -69.302193 -28.649437
66.701637 -69.023369 -27.917809
66.367355 -69.068108 -26.718941
66.560081 -68.650520 -61.853249
66.650208 -69.132858 -60.742542
66.716789 -69.981003 -36.447853
66.595871 -69.746712 -35.454453
66.629333 -69.208260 -32.290466
66.662743 -69.669579 -31.705709
66.494423 -69.357635 -29.421432
66.984680 -69.510529 -27.703758
67.073135 -69.281784 -26.351847
66.477821 -68.837204 -25.616684
66.806091 -68.852066 -62.954784
66.934380 -69.205750 -61.355556
67.254166 -69.563591 -58.424473
67.182404 -69.689209 -56.800915
66.952942 -69.574097 -35.279137
66.557434 -69.608833 -34.724712
66.859215 -69.612015 -32.760262
67.177696 -69.235878 -32.027637
66.525002 -69.528610 -29.790237
67.063820 -69.168488 -27.377325
66.666313 -69.068459 -26.768038
66.905952 -68.990509 -26.021009
67.382050 -68.637466 -25.221403
67.322815 -68.598190 -63.235352
67.609718 -69.082497 -62.632317
67.411369 -69.461662 -60.639874
67.934525 -69.637772 -60.495552
67.617012 -69.728195 -29.055738
67.525459 -69.583549 -27.094503
67.698898 -68.922234 -25.087950
67.833351 -68.944939 -62.882137
68.059639 -69.545860 -25.867662
67.541664 -69.228264 -25.472637
68.089645 -68.924950 -24.020485
68.433136 -68.859406 -64.213066
68.206757 -68.919960 -62.838303
68.290779 -69.367126 -61.232765
68.369644 -69.843002 -59.848446
68.166283 -69.646179 -27.991562
68.338943 -69.761642 -25.722147
68.386154 -68.611359 -23.965475
68.496452 -68.795753 -23.348433
68.808502 -69.520660 -64.036919
69.115677 -69.529556 -63.349289
68.553307 -69.705559 -61.257839
68.388161 -69.204086 -23.914789
68.429337 -68.455109 -23.360916
69.115120 -69.158043 -64.180016
69.503540 -68.752098 -64.756714
69.768372 -69.674591 -61.836395
69.566040 -70.071526 -26.120678
69.488876 -69.431488 -23.091354
69.456238 -68.731567 -21.875914
69.830627 -69.202362 -66.138191
69.893562 -69.242592 -64.826637
70.024353 -69.147705 -64.012779
69.964882 -69.291298 -62.560654
69.979607 -69.513718 -24.732841
70.014084 -69.219147 -22.865345
69.709320 -68.931175 -21.395721
70.375038 -68.984596 -66.120140
70.213745 -69.147453 -21.646826
70.909019 -68.898712 -66.263206
70.572250 -69.110451 -65.642624
70.478745 -69.462746 -64.956223
70.396408 -69.502960 -24.050716
70.878769 -69.408791 -23.104259
70.714485 -69.550148 -21.094912
70.398376 -68.884224 -20.094410
70.547081 -69.006882 -19.296944
71.396217 -69.175537 -66.909431
70.810936 -69.302246 -65.809303
71.405464 -69.562210 -64.302322
70.748055 -69.570839 -22.682693
71.083618 -69.480934 -20.150679
70.918839 -68.855324 -18.241493
71.395111 -68.746910 -67.971367
70.855026 -69.293343 -19.379421
71.172974 -69.459312 -18.076426
71.636368 -68.562111 -68.058372
72.239136 -68.996010 -66.868446
71.739342 -69.625542 -64.871994
71.913391 -70.043488 -21.247137
71.901878 -69.261452 -21.208059
72.349602 -69.142502 -67.640549
72.396408 -69.090706 -67.081589
72.283081 -69.818680 -65.278694
72.176537 -69.469170 -21.021919
72.820786 -69.356316 -18.205326
72.200470 -69.158943 -17.369917
73.239029 -68.631714 -68.586281
73.291191 -68.950256 -67.745880
73.058678 -69.665123 -66.487534
72.909172 -69.731667 -19.968740
72.951118 -69.446381 -17.410412
72.875847 -69.031006 -16.477964
73.180534 -69.110298 -69.002945
73.880180 -69.155556 -67.789902
73.367348 -69.375671 -66.480759
73.275330 -69.329155 -19.739475
73.624443 -69.203835 -17.230774
73.665009 -69.515190 -16.273357
73.131241 -69.034172 -15.790115
74.634476 -69.008644 -68.936935
74.841148 -68.677490 -70.180214
75.201790 -69.437981 -69.089355
74.720757 -69.246384 -67.473640
74.135521 -69.499641 -17.830706
74.905487 -69.553589 -16.357121
74.062584 -69.204361 -15.550488
75.418900 -69.169334 -69.044975
