57.491241455078 -72.240386962891 -88.844772338867 1.678235054016
46.345344543457 -76.335334777832 -90.610710144043 4.047880172729
64.106140136719 -70.244422912598 -90.228317260742 1.845908522606
-64.434677124023 -68.753570556641 -92.831314086914 1.639412760735
71.600654602051 -70.754432678223 -87.265884399414 2.385401010513
101.636222839355 -65.344230651855 -98.362297058105 1.618588685989
75.321685791016 -72.113090515137 -100.550033569336 1.640363097191
95.086906433105 -70.378822326660 -101.991889953613 1.224386692047
-83.790725708008 -72.094635009766 -103.168853759766 3.957887887955
45.924018859863 -70.344093322754 -97.633193969727 1.546898365021
-85.721511840820 -72.506362915039 -101.986610412598 4.945495128632
51.940361022949 -72.762283325195 -109.846054077148 2.764228105545
38.541866302490 -76.355407714844 -103.109588623047 3.393475532532
102.930053710938 -70.506889343262 -102.710838317871 2.014844179153
37.961101531982 -71.121696472168 -105.491729736328 2.407411575317
43.357826232910 -72.465148925781 -118.078948974609 1.192588210106
43.507568359375 -71.184600830078 -112.586761474609 1.248357772827
110.853187561035 -70.204307556152 -111.824325561523 1.360869288445
-80.576545715332 -75.170524597168 -121.242462158203 4.579991817474
112.980545043945 -74.639732360840 -123.417419433594 1.419893503189
40.767471313477 -68.065032958984 -124.326126098633 3.525057792664
41.283058166504 -70.714103698730 -119.789855957031 1.289876937866
35.733543395996 -71.814834594727 -120.441787719727 1.978434205055
-55.027042388916 -75.400299072266 -129.246185302734 3.367356300354
30.907470703125 -70.561080932617 -123.046691894531 1.512351989746
-76.702674865723 -69.763374328613 -137.572494506836 1.820484042168
-54.653121948242 -74.574264526367 -132.302017211914 1.340664625168
-78.819366455078 -69.366127014160 -134.645950317383 2.135762453079
36.273418426514 -69.666252136230 -130.337356567383 1.639244318008
-58.940795898438 -72.451835632324 -133.330932617188 2.034788846970
35.831802368164 -70.780632019043 -132.967819213867 2.342448949814
-71.311668395996 -69.634559631348 -139.387573242188 0.849564254284
-58.586269378662 -69.123260498047 -140.506225585938 1.939962387085
26.354503631592 -72.247993469238 -142.243911743164 2.010328292847
111.566993713379 -74.150672912598 -142.609176635742 0.222305238247
115.941558837891 -67.786010742188 -136.673217773438 2.507721900940
31.379243850708 -71.548866271973 -141.120422363281 1.832733511925
-47.548320770264 -72.732650756836 -139.936859130859 1.169636368752
107.452316284180 -69.630561828613 -151.768005371094 3.354436159134
-74.930786132813 -71.271102905273 -142.844146728516 0.708252489567
-57.995861053467 -71.465560913086 -142.059783935547 1.756168484688
32.234588623047 -67.762062072754 -147.089996337891 1.553717255592
-76.928535461426 -72.692474365234 -145.937683105469 2.115298509598
-70.024971008301 -71.382652282715 -150.031127929688 1.790787816048
115.536598205566 -75.159965515137 -149.083602905273 2.022450208664
-64.051208496094 -70.858131408691 -154.883880615234 2.983252763748
-38.742965698242 -68.911811828613 -151.989776611328 3.344879150391
26.315603256226 -70.020942687988 -145.634780883789 2.513919591904
-72.597389221191 -71.831672668457 -145.821365356445 1.248228549957
12.996839523315 -71.088615417480 -149.440368652344 2.819123983383
32.445453643799 -71.012756347656 -156.589462280273 0.745385825634
31.589008331299 -69.329521179199 -149.896240234375 1.904851078987
15.815985679626 -75.721878051758 -153.793716430664 3.925112962723
-49.325359344482 -72.893432617188 -152.998657226563 1.809903860092
25.351051330566 -72.824691772461 -152.817993164063 1.417950034142
-45.621398925781 -70.601150512695 -149.938659667969 1.840273857117
5.301404476166 -71.727844238281 -153.750000000000 2.378692865372
21.037919998169 -70.738883972168 -149.645645141602 3.281161785126
-68.342109680176 -70.833900451660 -157.202072143555 1.936185956001
-46.097400665283 -68.721542358398 -153.888061523438 2.048014879227
-67.635437011719 -70.951995849609 -153.555114746094 0.932628512383
18.685417175293 -70.407913208008 -158.168792724609 2.401087284088
24.779182434082 -70.690765380859 -149.777069091797 2.297995090485
3.060204744339 -71.571784973145 -164.227218627930 0.771750211716
21.875520706177 -71.326744079590 -153.262130737305 0.744025886059
31.274288177490 -71.285476684570 -166.844314575195 3.839371204376
-46.806034088135 -72.778671264648 -162.979431152344 0.578360736370
-36.295200347900 -77.465049743652 -162.943572998047 1.742078065872
-40.344123840332 -72.234069824219 -160.586471557617 2.284704446793
28.344907760620 -71.826087951660 -158.366882324219 2.062674283981
-43.791328430176 -69.897941589355 -166.561447143555 3.421199798584
-39.296596527100 -70.085601806641 -166.149581909180 1.120490431786
21.846065521240 -70.268127441406 -165.458496093750 0.948740720749
-39.394298553467 -72.068641662598 -174.953155517578 2.658973455429
28.397657394409 -68.196876525879 -169.803192138672 3.083847045898
112.170043945313 -68.559837341309 -164.530227661133 1.616587758064
-33.067661285400 -71.441146850586 -171.760284423828 2.387315988541
103.226486206055 -69.344970703125 -172.874084472656 3.613584756851
-34.128932952881 -71.171524047852 -177.159591674805 1.953332781792
-36.973804473877 -74.400711059570 -181.140304565430 2.081573009491
21.604642868042 -74.283454895020 -176.684020996094 2.077791452408
106.273010253906 -71.976127624512 -181.615097045898 1.232949733734
-31.058462142944 -70.055923461914 -182.649169921875 1.413075923920
-34.746410369873 -71.007362365723 -177.246932983398 1.713793039322
-22.770660400391 -74.943962097168 -186.535888671875 1.655339121819
-148.618942260742 -72.169601440430 -188.746765136719 1.895969033241
13.374130249023 -71.328262329102 -183.059631347656 2.197096824646
105.422889709473 -70.298889160156 -190.731018066406 2.332016468048
-158.543594360352 -71.230819702148 -192.912719726563 1.724642872810
-22.553972244263 -68.668594360352 -189.270690917969 1.569115042686
-115.214973449707 -73.236732482910 -197.148468017578 2.682907819748
-130.381378173828 -73.001892089844 -195.396987915039 1.333785057068
-107.463081359863 -72.152214050293 -199.602615356445 3.216859340668
-113.232185363770 -70.862663269043 -200.043899536133 1.575487256050
-11.898387908936 -72.411529541016 -196.075836181641 2.564879179001
20.537614822388 -70.469947814941 -195.810714721680 0.836347937584
-15.379297256470 -68.074028015137 -201.627212524414 2.900463581085
-126.297828674316 -71.693977355957 -205.385345458984 1.945642948151
-20.414213180542 -68.077102661133 -202.757461547852 3.318862438202
-128.934677124023 -70.548553466797 -202.762741088867 1.918409705162
-14.979303359985 -71.747520446777 -199.982864379883 2.185408353806
-145.654388427734 -70.512191772461 -202.668365478516 1.062579512596
92.269012451172 -67.981575012207 -206.116073608398 3.210376977921
-164.102798461914 -66.980155944824 -201.376495361328 1.989354372025
-2.294054031372 -73.308601379395 -217.560668945313 1.489130139351
11.925745964050 -72.784584045410 -209.583740234375 2.398781061172
10.794375419617 -73.762939453125 -216.709503173828 3.754801273346
83.131225585938 -71.622047424316 -216.342407226563 2.759880542755
8.988218307495 -72.630210876465 -212.763839721680 2.240529775620
13.097974777222 -70.784606933594 -214.468322753906 1.371506571770
-15.357288360596 -74.853294372559 -215.615188598633 1.822542786598
-89.994888305664 -72.032920837402 -214.259841918945 2.079282045364
-97.522438049316 -71.774330139160 -216.404312133789 1.081457138062
0.493209660053 -70.644744873047 -218.861557006836 1.575611114502
-165.985641479492 -73.515144348145 -221.842758178711 2.564297437668
15.632895469666 -69.678543090820 -219.341003417969 1.394437074661
-144.147476196289 -71.041473388672 -221.122909545898 0.699307501316
13.466844558716 -72.004547119141 -224.658889770508 1.979951143265
-134.151687622070 -73.035896301270 -224.712463378906 1.271663904190
-115.425407409668 -72.663810729980 -227.022552490234 2.054688930511
17.267698287964 -70.915748596191 -220.596221923828 2.567945957184
78.907501220703 -71.686904907227 -221.007019042969 3.121649026871
7.250739574432 -71.670623779297 -223.190414428711 1.395511746407
-109.373588562012 -71.028724670410 -230.746429443359 2.673897266388
72.882537841797 -72.597618103027 -227.448059082031 2.024937152863
84.536056518555 -72.764709472656 -229.118423461914 2.231906890869
-124.696235656738 -71.533264160156 -234.938827514648 0.914227306843
-116.529220581055 -71.737915039063 -230.293731689453 1.000748753548
-9.524154663086 -68.584419250488 -227.575271606445 2.428457498550
72.514785766602 -72.418457031250 -231.044250488281 1.722161531448
65.180130004883 -72.318855285645 -232.861068725586 3.704682826996
73.811782836914 -71.216575622559 -229.153213500977 1.010351061821
-134.752914428711 -68.481010437012 -233.976562500000 2.013424396515
70.702842712402 -72.811851501465 -232.013198852539 2.222272872925
66.703376770020 -69.596138000488 -235.009857177734 1.393341541290
-165.633453369141 -70.333702087402 -230.442214965820 1.078873395920
1.969651937485 -78.071540832520 -240.655334472656 1.262517333031
19.894187927246 -72.995262145996 -239.211669921875 2.025102376938
-5.495735645294 -69.236351013184 -240.454742431641 2.572435855865
16.288518905640 -66.935661315918 -239.056976318359 2.976113080978
66.762565612793 -72.708297729492 -237.813369750977 1.619263648987
9.449644088745 -70.008728027344 -243.144470214844 1.283573508263
-10.410452842712 -65.898857116699 -240.601531982422 2.351032495499
-0.015208251774 -68.652542114258 -237.241973876953 1.349274873734
65.485839843750 -72.420326232910 -242.122833251953 1.369325757027
3.587960243225 -72.297035217285 -242.322387695313 1.620857000351
-6.464090347290 -72.524696350098 -242.905715942383 2.182337522507
14.809231758118 -74.132972717285 -242.631500244141 2.783789396286
-166.967727661133 -73.353576660156 -241.027694702148 1.734479665756
56.561203002930 -72.125122070313 -246.959320068359 1.404151916504
50.484169006348 -66.355224609375 -250.586120605469 1.986939668655
58.730335235596 -72.500320434570 -242.509704589844 1.810254693031
-11.637580871582 -70.117843627930 -247.700347900391 0.760683238506
57.721179962158 -71.615371704102 -245.393218994141 1.108321070671
-73.372932434082 -71.310104370117 -249.698272705078 1.514329314232
51.308540344238 -72.204551696777 -248.366180419922 2.025092124939
-88.232124328613 -71.597122192383 -252.334899902344 1.116199493408
-122.699867248535 -72.872611999512 -256.529479980469 1.839318990707
-131.892684936523 -71.733154296875 -252.809143066406 1.641379714012
46.648403167725 -73.358955383301 -251.573669433594 2.194993734360
-132.057434082031 -74.257850646973 -253.042266845703 1.565775990486
-108.690872192383 -70.027366638184 -254.952636718750 2.476140260696
-115.570564270020 -69.567794799805 -257.324798583984 2.145195007324
-83.241027832031 -72.187301635742 -254.507293701172 1.264194726944
-110.491340637207 -70.100151062012 -259.003326416016 1.489732265472
-123.571937561035 -74.993476867676 -262.268737792969 0.977419197559
-146.006179809570 -69.329254150391 -267.503601074219 2.261933565140
-14.794004440308 -70.499496459961 -265.409179687500 1.479218602180
-170.836547851563 -73.748855590820 -264.353057861328 4.623083114624
-14.081190109253 -71.288925170898 -273.563446044922 1.504749655724
-158.506393432617 -68.605545043945 -267.186157226563 0.961124539375
-152.205169677734 -72.027214050293 -273.312225341797 1.679892897606
-169.443191528320 -71.750259399414 -277.421386718750 2.387954711914
-13.737983703613 -71.905570983887 -279.119689941406 2.849363088608
-129.710510253906 -74.119422912598 -283.010681152344 2.100459814072
-157.565292358398 -71.551452636719 -286.106994628906 3.998569250107
-143.489242553711 -70.864334106445 -280.840087890625 1.880023479462
-134.409606933594 -74.578674316406 -280.354492187500 5.340189456940
-7.722237586975 -66.213935852051 -284.268341064453 3.496797323227
-125.398429870605 -75.229255676270 -283.263885498047 1.575590491295
-140.570312500000 -69.809318542480 -285.484832763672 2.601369619370
-115.267921447754 -74.660606384277 -285.562042236328 2.516023874283
-78.533073425293 -69.956443786621 -287.875396728516 1.617858409882
-60.245452880859 -72.459068298340 -286.865417480469 2.583827018738
-6.543647289276 -72.782409667969 -287.605285644531 1.486069560051
-53.467506408691 -70.639450073242 -285.523742675781 2.978403568268
-56.757690429688 -69.534851074219 -288.442260742188 2.172271251678
-69.954093933105 -70.094245910645 -290.142578125000 0.979051649570
-87.608642578125 -70.900184631348 -293.611846923828 1.770140886307
-94.593925476074 -69.572731018066 -288.827484130859 0.724009573460
-159.895767211914 -70.913619995117 -291.347198486328 0.724230587482
-160.654052734375 -72.716384887695 -293.586395263672 1.478707551956
-124.187652587891 -74.546401977539 -293.723358154297 1.891257524490
-144.224273681641 -71.992553710938 -294.848205566406 0.923121929169
-152.632812500000 -74.075241088867 -303.589843750000 3.104567050934
-150.058395385742 -74.179092407227 -311.997711181641 2.229866504669
48.402416229248 -69.062782287598 -14.359991073608 2.930644989014
17.225027084351 -72.210227966309 -29.505607604980 3.046288251877
42.420654296875 -67.241996765137 -34.394393920898 1.708475589752
-15.015007972717 -73.786582946777 -66.101593017578 2.479994058609
82.271766662598 -68.821624755859 -64.828613281250 2.853660106659
89.143424987793 -66.690353393555 -65.675506591797 2.243223905563
78.381645202637 -73.631874084473 -65.153411865234 4.091654300690
73.209053039551 -71.808258056641 -68.919891357422 1.083406090736
91.678291320801 -72.920936584473 -74.614761352539 1.863670110703
-95.671272277832 -67.682548522949 -70.062705993652 2.972765445709
68.290840148926 -71.217445373535 -75.096138000488 2.238944768906
-36.084781646729 -71.750495910645 -77.122238159180 2.057355880737
99.389213562012 -70.473861694336 -85.553604125977 2.496100187302
61.933559417725 -68.024452209473 -90.106903076172 0.865468204021
107.583534240723 -74.893554687500 -93.304473876953 5.106895923615
102.008064270020 -73.957672119141 -98.074645996094 1.725854635239
72.760543823242 -70.405174255371 -100.339157104492 0.309071779251
-79.753242492676 -69.620468139648 -101.300376892090 0.541942238808
54.788562774658 -70.495574951172 -103.937965393066 0.324101805687
107.543220520020 -67.904052734375 -105.717163085938 0.554058134556
47.491619110107 -71.217849731445 -112.101325988770 1.844422817230
80.329154968262 -69.407257080078 -105.109207153320 1.461431503296
42.051052093506 -70.179397583008 -107.157455444336 1.183037400246
104.672065734863 -70.060920715332 -102.911941528320 1.540223717690
47.967807769775 -69.962280273438 -107.494216918945 1.486931443214
107.670059204102 -75.098663330078 -109.560432434082 1.582023501396
110.556991577148 -73.233276367188 -110.988594055176 0.952379882336
-79.045028686523 -68.787361145020 -113.941848754883 0.907487571239
-82.584732055664 -68.995529174805 -119.136535644531 1.871625900269
44.320568084717 -73.436050415039 -119.738052368164 1.653058528900
114.197265625000 -71.903205871582 -120.961166381836 1.587315917015
114.072296142578 -70.049255371094 -123.255996704102 1.845193386078
-86.891532897949 -69.828681945801 -126.744384765625 1.442106366158
106.363601684570 -72.136909484863 -125.436340332031 3.289004087448
-58.985633850098 -74.805763244629 -131.529663085938 3.128547430038
-85.819664001465 -71.011474609375 -127.054580688477 1.471638798714
-72.191955566406 -70.837127685547 -126.900527954102 3.234004497528
-58.852970123291 -66.924377441406 -126.529403686523 1.097001671791
31.992298126221 -70.140144348145 -129.873733520508 2.286061763763
42.742248535156 -68.916618347168 -134.405593872070 4.071364402771
-72.786079406738 -70.331947326660 -136.361358642578 1.971507191658
29.096532821655 -68.584510803223 -130.650588989258 2.716596364975
112.062667846680 -70.305625915527 -142.569793701172 2.026976823807
-39.807502746582 -70.659622192383 -148.009368896484 1.733884453773
30.763597488403 -71.290412902832 -148.535140991211 2.070457696915
114.275543212891 -68.711906433105 -147.359237670898 0.213218927383
35.931377410889 -70.999885559082 -142.428436279297 1.711455821991
110.756103515625 -69.099655151367 -140.470581054688 1.861257553101
-51.961933135986 -70.863670349121 -149.121490478516 2.041172504425
-70.906806945801 -68.166191101074 -150.728363037109 2.420135736465
-54.740375518799 -71.106330871582 -152.280944824219 2.783334016800
-41.692531585693 -73.983055114746 -164.669708251953 2.678494215012
5.088062286377 -71.782974243164 -155.552307128906 1.867296338081
110.227203369141 -70.498344421387 -153.151123046875 2.672337532043
109.367340087891 -70.177413940430 -159.261001586914 2.192700862885
10.429214477539 -69.893646240234 -157.133911132813 1.675854086876
3.693164825439 -70.554336547852 -160.997009277344 0.612466573715
19.613010406494 -69.738685607910 -154.935180664063 3.451812028885
26.039014816284 -69.154235839844 -155.340789794922 2.551055192947
109.133293151855 -69.875503540039 -165.261871337891 1.214450955391
109.976051330566 -73.326850891113 -167.338455200195 1.843494772911
24.329233169556 -67.893127441406 -174.071716308594 2.350002288818
25.385286331177 -72.476478576660 -163.485687255859 1.691499829292
112.620513916016 -68.381866455078 -161.624923706055 2.496885776520
-28.713640213013 -69.443893432617 -176.888198852539 1.601851344109
110.614212036133 -70.502540588379 -167.387023925781 2.079774379730
17.930938720703 -70.956443786621 -167.272399902344 1.676182746887
22.024747848511 -70.342056274414 -167.396820068359 1.564903855324
108.948303222656 -70.472732543945 -172.482040405273 1.159400701523
27.143421173096 -69.604141235352 -170.048431396484 1.792206525803
112.709648132324 -69.624565124512 -183.332839965820 2.674196481705
-37.878044128418 -69.934700012207 -177.413177490234 2.546362161636
25.519245147705 -70.052909851074 -170.773590087891 1.068535208702
107.910797119141 -70.154846191406 -183.484375000000 0.743687629700
23.520248413086 -71.429382324219 -178.227996826172 1.279692411423
-151.452728271484 -69.335670471191 -186.252624511719 2.751894950867
-27.804431915283 -67.628189086914 -189.038253784180 1.790514945984
25.007583618164 -68.410697937012 -184.572204589844 2.197809934616
-113.339561462402 -72.081909179688 -191.610382080078 2.585103034973
-110.443763732910 -68.297019958496 -191.074737548828 1.102753639221
24.203653335571 -70.978294372559 -188.195114135742 0.719781100750
12.087718009949 -68.606719970703 -184.706634521484 4.280732631683
-26.476089477539 -67.992019653320 -189.923629760742 1.296208500862
-29.210987091064 -74.278717041016 -188.892776489258 2.326853752136
-27.587491989136 -70.850540161133 -186.880798339844 1.663635849953
15.219603538513 -68.462219238281 -179.660446166992 2.274061441422
-150.431442260742 -70.673614501953 -194.847824096680 0.974961221218
-144.934249877930 -70.348098754883 -192.617095947266 1.683450341225
-143.961029052734 -73.549530029297 -198.082641601563 2.068567514420
-22.496948242188 -69.564361572266 -191.085128784180 2.172800302505
14.073149681091 -68.302162170410 -199.250030517578 1.992550849915
99.285552978516 -69.468971252441 -192.989593505859 3.065101861954
-113.302993774414 -69.525306701660 -198.103240966797 1.455221056938
21.703727722168 -73.635009765625 -198.021560668945 0.597206830978
-14.894309997559 -69.433395385742 -195.252151489258 1.656151175499
-17.291507720947 -69.850402832031 -198.425216674805 1.457384467125
101.396621704102 -69.144218444824 -199.185760498047 3.482093334198
8.366526603699 -72.281707763672 -198.961288452148 2.698772430420
-21.544313430786 -68.784881591797 -196.196929931641 0.923762917519
-120.913330078125 -73.539154052734 -202.839340209961 1.608865618706
-133.753952026367 -70.793174743652 -203.064056396484 2.732241630554
-113.663604736328 -66.279838562012 -204.714675903320 1.744283676147
-141.741683959961 -73.398292541504 -203.151626586914 1.735067129135
17.940937042236 -70.036544799805 -197.442993164063 0.929720997810
94.252052307129 -71.518905639648 -201.511749267578 1.449311852455
-165.513107299805 -66.276695251465 -201.267883300781 2.117361068726
100.434677124023 -69.932975769043 -201.848693847656 2.258205413818
-21.197345733643 -74.044731140137 -205.763580322266 2.715658664703
95.038291931152 -68.292366027832 -210.232528686523 2.627545356750
88.511245727539 -71.715660095215 -211.204803466797 0.946573972702
12.572230339050 -72.082160949707 -205.682235717773 3.020561933517
20.205671310425 -69.849876403809 -211.715225219727 2.253987073898
13.265365600586 -67.637275695801 -207.584075927734 2.210565328598
-10.427122116089 -70.825767517090 -222.140563964844 1.248906970024
-93.987899780273 -72.506332397461 -218.368804931641 2.284563779831
-9.998597145081 -72.486373901367 -212.017959594727 0.371560126543
89.499290466309 -70.554306030273 -216.016601562500 1.801434040070
-93.108512878418 -72.706573486328 -217.445373535156 2.114182472229
-100.713401794434 -68.393730163574 -221.001937866211 0.748536467552
-94.013748168945 -71.232147216797 -219.275497436523 1.813396811485
88.678413391113 -71.930358886719 -221.682159423828 1.831562042236
-134.860382080078 -71.090621948242 -224.957824707031 0.834631383419
-132.006958007813 -74.514190673828 -226.505371093750 1.209893703461
-116.224121093750 -70.543991088867 -224.617095947266 1.975262880325
-112.686828613281 -68.052474975586 -222.993316650391 3.137237548828
-132.917907714844 -69.278602600098 -227.014068603516 1.825242519379
-111.257995605469 -77.185745239258 -227.277160644531 4.614390850067
-111.775848388672 -70.521171569824 -227.854858398438 2.509039640427
-6.421206951141 -73.695198059082 -224.388717651367 2.982509613037
-15.500422477722 -72.750366210938 -222.925704956055 0.462238967419
-0.535919249058 -68.615638732910 -230.219696044922 1.195041894913
-9.726686477661 -67.766647338867 -226.780212402344 2.488211631775
15.837762832642 -71.283294677734 -233.279769897461 0.902569591999
-18.418601989746 -68.925048828125 -228.913375854492 1.640709757805
-166.419143676758 -69.154258728027 -222.106292724609 1.225376605988
-3.662757158279 -70.555229187012 -233.242767333984 1.974177002907
81.254478454590 -67.705505371094 -230.958496093750 4.198676586151
11.417457580566 -72.312637329102 -233.420013427734 2.494883298874
-5.450495243073 -69.880470275879 -234.559967041016 0.326468586922
-156.432403564453 -68.568557739258 -236.331130981445 0.395536094904
-141.853683471680 -69.316932678223 -230.228088378906 3.413544178009
63.042243957520 -69.273849487305 -235.662704467773 1.433259963989
-5.208129882813 -71.511352539063 -233.894363403320 1.078329682350
9.760511398315 -72.572807312012 -230.491989135742 2.349803686142
69.886848449707 -72.646682739258 -230.031539916992 2.074288129807
77.414001464844 -70.904182434082 -234.065093994141 3.147812366486
71.498489379883 -71.656242370605 -241.130584716797 1.983397960663
-1.118106126785 -73.356483459473 -235.463882446289 1.299386024475
58.495571136475 -68.913078308105 -237.731124877930 3.245609998703
-18.560966491699 -73.147346496582 -239.499359130859 2.419727087021
-14.828475952148 -68.362777709961 -240.175903320313 2.279166460037
8.679090499878 -70.504524230957 -239.131683349609 1.131358265877
65.245819091797 -73.670433044434 -237.651473999023 2.024435997009
65.894325256348 -69.097969055176 -240.431884765625 1.412380933762
50.075557708740 -70.804275512695 -245.893615722656 2.671852588654
61.598682403564 -73.625381469727 -242.489746093750 0.901307046413
-15.063915252686 -75.046577453613 -249.419433593750 2.987784147263
-83.155700683594 -68.209991455078 -253.968780517578 1.641210556030
-76.406692504883 -68.765563964844 -252.726501464844 1.591239929199
44.728134155273 -73.352844238281 -247.540374755859 3.098439216614
-148.680999755859 -71.934997558594 -250.448303222656 3.092586517334
36.469985961914 -70.645584106445 -255.998626708984 2.267537832260
-91.585182189941 -74.198150634766 -251.669158935547 0.690427958965
-155.814849853516 -67.193733215332 -254.494628906250 1.904360175133
-139.897109985352 -64.788124084473 -253.120819091797 1.927145957947
45.629535675049 -70.463737487793 -253.284240722656 1.400767087936
-124.548355102539 -67.035041809082 -257.664978027344 1.127832412720
-116.431838989258 -71.041748046875 -255.127197265625 2.571817159653
-91.927993774414 -66.875373840332 -256.872192382813 1.729376673698
-13.251941680908 -67.534843444824 -250.170623779297 2.464728832245
32.335327148438 -70.347450256348 -256.974121093750 1.120938301086
25.402212142944 -68.145103454590 -259.240325927734 1.816581130028
-158.529693603516 -66.518188476563 -260.106262207031 3.651199817657
-114.296005249023 -73.400260925293 -262.439300537109 0.604886889458
-13.469978332520 -70.378547668457 -261.718719482422 0.950817108154
-132.349121093750 -70.598579406738 -265.157684326172 1.846708774567
-13.689433097839 -69.490249633789 -270.079589843750 1.120554447174
-164.459640502930 -70.085388183594 -272.296875000000 2.601989507675
-6.871069431305 -71.658439636230 -279.242004394531 2.663137912750
-160.463562011719 -71.181976318359 -287.571624755859 1.549816250801
-163.442214965820 -72.648979187012 -277.654846191406 2.973401308060
-142.198730468750 -71.055503845215 -284.979614257813 1.710496187210
-169.767425537109 -72.789817810059 -284.423095703125 2.638102054596
14.450757026672 -72.897132873535 -287.739837646484 0.824444353580
-102.763069152832 -71.807540893555 -286.316864013672 2.372736692429
-86.800605773926 -66.768135070801 -285.790649414063 2.356316328049
-167.390441894531 -68.125778198242 -284.361053466797 2.871005058289
-91.626251220703 -74.590309143066 -283.764556884766 3.359315872192
-153.325424194336 -71.309486389160 -288.249267578125 2.002294540405
-75.089408874512 -71.707153320313 -293.394378662109 3.578503847122
-70.253982543945 -70.115547180176 -288.500823974609 1.572916388512
-82.154037475586 -71.807678222656 -291.092681884766 2.379079818726
-3.329568862915 -68.177368164063 -288.728118896484 2.576607227325
-87.651412963867 -70.759582519531 -288.421112060547 1.715952157974
-98.628990173340 -72.198608398438 -290.707214355469 1.187735080719
-116.301506042480 -71.165092468262 -292.445922851563 1.557438135147
-116.228439331055 -68.209304809570 -292.594207763672 1.908910989761
-133.819961547852 -70.243980407715 -291.987915039063 1.387409448624
-142.461669921875 -71.127403259277 -300.582183837891 3.025605201721
-143.889480590820 -72.390563964844 -311.523345947266 1.052759289742
24.414638519287 -67.571800231934 -14.871004104614 4.357807636261
32.858230590820 -68.772056579590 -16.119062423706 1.698970556259
29.896278381348 -71.414428710938 -17.962087631226 1.505814433098
44.694862365723 -67.502746582031 -20.288440704346 2.867886543274
25.448783874512 -69.382270812988 -31.365188598633 1.930832386017
-74.363235473633 -67.768043518066 -46.779190063477 1.334209084511
90.246971130371 -65.251670837402 -65.191642761230 2.583947896957
-17.067926406860 -67.682617187500 -67.251396179199 2.554473161697
103.200859069824 -68.353553771973 -72.548904418945 0.813784420490
95.667953491211 -73.176773071289 -75.246238708496 0.786825776100
69.088272094727 -70.839561462402 -78.145668029785 0.770734786987
70.836860656738 -72.691535949707 -82.259811401367 1.989763140678
-44.105270385742 -72.754974365234 -82.128326416016 1.859071731567
61.740425109863 -72.760414123535 -82.041885375977 3.561890363693
-93.864433288574 -69.954124450684 -88.032569885254 2.940650224686
-48.657028198242 -67.332328796387 -84.960258483887 1.327475190163
-55.322402954102 -76.160194396973 -87.240394592285 3.512646913528
101.578254699707 -74.836402893066 -97.178810119629 2.021804809570
59.787849426270 -72.602661132813 -91.900726318359 1.835457563400
66.450660705566 -68.804374694824 -90.662025451660 1.586540341377
-95.170104980469 -64.322067260742 -96.651969909668 2.312287330627
108.432701110840 -70.894248962402 -92.696556091309 3.707321882248
44.665306091309 -68.268173217773 -98.601951599121 1.841523647308
101.988426208496 -69.238143920898 -97.730407714844 2.173378705978
107.326530456543 -67.473434448242 -105.611335754395 0.685454249382
101.855102539063 -69.847991943359 -104.151710510254 2.059059381485
74.446784973145 -71.725799560547 -100.329330444336 1.247265815735
87.883666992188 -71.577117919922 -106.155021667480 2.760981559753
50.588912963867 -69.369033813477 -110.838317871094 2.322422742844
111.214790344238 -67.378959655762 -103.208930969238 1.971266627312
46.784408569336 -72.108963012695 -105.056549072266 2.470037221909
41.131973266602 -67.718162536621 -101.219619750977 3.377825260162
113.337104797363 -69.916648864746 -109.953430175781 1.688785433769
-77.973182678223 -66.861007690430 -109.347526550293 1.716228604317
46.678428649902 -68.759460449219 -112.508148193359 1.235205531120
35.338928222656 -71.490821838379 -114.688240051270 2.023887634277
106.045661926270 -67.270286560059 -109.705421447754 1.940319895744
39.983730316162 -66.776885986328 -111.151031494141 2.153908252716
-87.493743896484 -69.045654296875 -112.541389465332 1.706513166428
-94.997657775879 -66.574974060059 -114.487159729004 3.952063083649
104.645629882813 -72.665412902832 -118.716552734375 1.832290172577
-94.198593139648 -70.744331359863 -118.289566040039 1.800918340683
39.558418273926 -71.565444946289 -120.888946533203 2.522440671921
37.552406311035 -69.248329162598 -120.392410278320 1.123651742935
-82.836975097656 -69.062652587891 -123.864654541016 2.331709384918
32.993053436279 -67.817443847656 -134.318832397461 2.559133529663
111.464553833008 -70.906990051270 -130.806610107422 1.171638607979
-52.036842346191 -69.174430847168 -135.682739257813 1.883524060249
-87.652648925781 -68.261260986328 -131.287536621094 0.573355257511
38.544277191162 -72.754806518555 -131.254364013672 1.383267879486
-88.501113891602 -65.232566833496 -135.536880493164 1.568346858025
-88.299850463867 -71.460289001465 -139.240524291992 3.822803497314
-49.059444427490 -70.608589172363 -136.420562744141 1.161200284958
-70.248146057129 -67.602294921875 -139.155685424805 2.528940916061
-50.097671508789 -68.471267700195 -133.088333129883 1.909366607666
116.034210205078 -66.997383117676 -137.156402587891 3.292956590652
-72.622116088867 -70.795043945313 -136.420898437500 2.307859182358
37.127212524414 -69.852668762207 -130.906967163086 2.059556961060
-78.083557128906 -68.312942504883 -139.769515991211 0.472744673491
-72.724479675293 -69.059158325195 -135.383163452148 0.915328741074
-90.777259826660 -67.362068176270 -139.775863647461 0.778603732586
-53.254623413086 -67.328475952148 -146.673461914063 2.147426128387
32.059387207031 -65.730102539063 -145.421890258789 3.040830612183
28.149196624756 -67.818206787109 -149.149398803711 1.197399139404
19.764806747437 -64.950767517090 -143.982955932617 1.727310180664
113.449180603027 -68.966186523438 -145.898605346680 1.098304629326
-92.884124755859 -67.853507995605 -152.116943359375 1.019559979439
13.629078865051 -70.962738037109 -152.011505126953 1.934091925621
-71.304641723633 -68.787193298340 -152.944305419922 1.823852419853
24.098131179810 -68.532188415527 -149.395690917969 1.281571984291
-48.532363891602 -68.338851928711 -155.049911499023 2.871878385544
10.198359489441 -68.104293823242 -152.880950927734 1.635237097740
15.741603851318 -71.764427185059 -158.011199951172 1.423413157463
18.435302734375 -73.602745056152 -163.496231079102 1.363419651985
-48.274250030518 -71.263916015625 -162.169158935547 1.384562969208
-38.552623748779 -68.387351989746 -154.474411010742 2.442111015320
-45.740901947021 -69.684432983398 -160.660079956055 0.760482311249
-103.047126770020 -69.798591613770 -171.563125610352 1.380679368973
22.383737564087 -70.475250244141 -173.670043945313 2.876970052719
-34.126342773438 -69.134506225586 -175.594085693359 0.489841401577
16.087438583374 -73.045478820801 -177.918716430664 2.012864351273
-143.003402709961 -69.274627685547 -175.369689941406 1.313956499100
-31.603734970093 -66.467643737793 -172.464447021484 0.839190661907
-154.385879516602 -73.687644958496 -177.424987792969 2.471232175827
24.064746856689 -65.335571289063 -181.470474243164 4.156182289124
-32.292209625244 -70.332260131836 -171.107315063477 2.330983877182
-107.047538757324 -67.676101684570 -177.327941894531 2.098908901215
-106.489219665527 -73.320625305176 -183.141708374023 4.115233421326
-29.370111465454 -65.127380371094 -184.878189086914 3.088825702667
-22.985122680664 -73.227951049805 -181.388107299805 1.750021815300
14.610321998596 -68.490539550781 -188.928390502930 2.329946994781
17.604610443115 -67.100875854492 -196.878021240234 2.362679958344
14.494032859802 -69.304168701172 -186.605560302734 2.489361286163
-142.240768432617 -68.294807434082 -187.110992431641 1.480918169022
22.201532363892 -66.091178894043 -189.607360839844 3.344767093658
8.182319641113 -69.275001525879 -196.394515991211 2.055709838867
-136.474197387695 -67.869697570801 -194.077835083008 2.801412343979
-113.714912414551 -68.993400573730 -195.057952880859 2.445893526077
15.524939537048 -67.856399536133 -200.850784301758 2.015465497971
-115.736579895020 -68.265930175781 -196.438751220703 1.099935650826
-107.151329040527 -64.726478576660 -191.837295532227 3.526444673538
-164.705215454102 -70.596260070801 -199.738479614258 1.357051849365
-23.681663513184 -68.386909484863 -199.677688598633 2.357123851776
13.535046577454 -67.954246520996 -199.912292480469 2.223386526108
-142.362335205078 -69.586532592773 -203.606536865234 2.011040210724
-135.163269042969 -71.170921325684 -206.005462646484 1.819325923920
-19.479455947876 -67.773773193359 -206.964035034180 1.253637433052
-11.277057647705 -70.452102661133 -204.204254150391 1.208547353745
-14.149777412415 -69.995460510254 -205.607650756836 0.963614702225
-140.190460205078 -72.515541076660 -204.084762573242 2.389822721481
-15.902768135071 -69.734397888184 -212.573715209961 1.125099778175
-9.838616371155 -72.993537902832 -213.940612792969 1.805252552032
18.184751510620 -66.966987609863 -210.685729980469 1.092199206352
-14.225117683411 -72.679969787598 -211.150177001953 1.951714634895
11.126162528992 -69.676177978516 -209.724441528320 2.074352264404
-9.748305320740 -70.311004638672 -215.271560668945 1.939743757248
-20.362779617310 -66.924522399902 -211.667877197266 4.031957149506
13.322132110596 -73.767250061035 -220.659729003906 2.312920331955
-0.925026237965 -74.189689636230 -219.444458007813 2.762946844101
11.852105140686 -66.158065795898 -220.890975952148 1.909830570221
-5.386580467224 -71.443931579590 -226.568252563477 1.049814581871
-158.145065307617 -70.056678771973 -225.020767211914 2.381596088409
81.489532470703 -71.702697753906 -219.788070678711 1.683093667030
-134.607269287109 -67.630584716797 -224.091949462891 1.380908370018
-134.374832153320 -71.075553894043 -222.864669799805 1.997505187988
-7.749567508698 -70.218605041504 -224.931823730469 1.769293785095
9.219501495361 -69.374107360840 -233.535476684570 1.926757931709
-156.244506835938 -69.145454406738 -229.287246704102 1.856626391411
88.701499938965 -68.201911926270 -219.709625244141 1.596982598305
-1.493535995483 -68.362152099609 -225.457138061523 1.166081070900
1.290598630905 -70.173248291016 -222.683792114258 1.052455544472
74.688339233398 -72.093536376953 -229.051376342773 1.187404036522
1.292616844177 -67.409111022949 -234.585998535156 0.939686119556
-14.053757667542 -71.366386413574 -226.854171752930 1.888967990875
-125.839164733887 -67.976722717285 -234.068878173828 2.150032758713
-3.593428611755 -69.295082092285 -236.608703613281 1.469224691391
3.134539604187 -67.420661926270 -231.697448730469 1.863168120384
66.709220886230 -67.751373291016 -238.000152587891 1.840596079826
-157.571044921875 -70.718955993652 -238.014892578125 2.582264661789
-11.816832542419 -69.059036254883 -244.429138183594 1.489708900452
-168.418853759766 -71.728050231934 -238.593307495117 0.522292971611
10.534653663635 -66.944648742676 -241.811767578125 1.914592623711
-163.906311035156 -70.240676879883 -238.772262573242 2.308866262436
-160.092559814453 -70.870857238770 -245.886566162109 1.871987462044
57.708660125732 -69.521545410156 -244.972976684570 0.987172067165
62.949054718018 -70.893211364746 -242.389541625977 2.150576353073
56.831172943115 -70.111671447754 -244.219528198242 1.124272465706
52.418849945068 -69.529487609863 -248.675842285156 1.033468961716
-154.773712158203 -70.269111633301 -243.835174560547 1.862343668938
-155.847427368164 -67.262535095215 -248.278778076172 3.715883970261
-12.676565170288 -72.374778747559 -249.153961181641 1.255505800247
-150.723236083984 -69.146133422852 -246.551086425781 2.030152559280
20.320461273193 -71.007179260254 -250.950744628906 1.302251458168
-169.068893432617 -74.054092407227 -250.889953613281 2.870278120041
-166.957946777344 -67.935867309570 -248.175750732422 1.476949691772
-81.475875854492 -70.971527099609 -248.691680908203 1.471391797066
-168.796066284180 -69.213172912598 -259.666717529297 1.627820372581
-84.741760253906 -69.213279724121 -256.535186767578 2.408967971802
43.189620971680 -68.797485351563 -252.987701416016 2.209544181824
22.918041229248 -72.882339477539 -256.031127929688 1.162839412689
-158.035629272461 -70.379981994629 -261.717864990234 1.875731945038
-100.190612792969 -64.264976501465 -259.473724365234 2.863891124725
39.905071258545 -69.855461120605 -255.527069091797 1.682925105095
-104.197700500488 -75.717201232910 -258.869537353516 1.848360180855
-153.470016479492 -65.470878601074 -264.811279296875 0.461561203003
-104.563850402832 -68.583061218262 -258.344238281250 3.570568323135
-167.215072631836 -71.488395690918 -259.511047363281 1.783509492874
-112.478393554688 -70.661567687988 -263.182342529297 2.816912412643
-152.657150268555 -71.689926147461 -265.618988037109 1.244768381119
-157.944107055664 -68.104324340820 -263.444183349609 1.253335952759
-165.426544189453 -69.014228820801 -263.649414062500 2.194669723511
-163.447799682617 -67.978408813477 -262.201629638672 1.842477798462
-165.090957641602 -69.665580749512 -265.607574462891 1.023053526878
-165.089477539063 -70.246826171875 -262.586425781250 1.943235754967
26.424209594727 -70.918144226074 -265.053894042969 1.186326384544
-149.210433959961 -72.857528686523 -263.539764404297 2.462903022766
-149.169906616211 -69.322074890137 -284.093566894531 2.082449913025
25.362134933472 -70.596138000488 -276.221405029297 3.057931661606
-11.035539627075 -71.373916625977 -274.274139404297 2.440405607224
-125.193893432617 -68.523094177246 -284.287231445313 1.644619941711
-135.738143920898 -70.730964660645 -285.968475341797 1.305167794228
-133.852630615234 -68.813850402832 -288.408538818359 1.051929593086
-126.243591308594 -70.352287292480 -285.789672851563 0.941417098045
-113.754013061523 -68.664207458496 -289.786132812500 0.826287806034
-104.720985412598 -66.476203918457 -285.449493408203 2.027725458145
9.913263320923 -72.595565795898 -292.252471923828 3.420058965683
-84.396865844727 -70.507064819336 -289.811309814453 2.124847412109
-148.515274047852 -70.434501647949 -288.236572265625 1.392837882042
-101.116188049316 -69.994171142578 -290.609436035156 1.085832715034
-128.665100097656 -67.403388977051 -291.790008544922 1.270147204399
10.209538459778 -72.278640747070 -287.973876953125 1.364571094513
-111.446083068848 -64.834495544434 -288.997253417969 4.230898380280
3.505305290222 -70.093208312988 -292.987396240234 1.261381149292
-142.610519409180 -69.363098144531 -288.696166992188 2.479150533676
-152.383346557617 -70.364349365234 -295.850830078125 0.779222309589
-157.439590454102 -69.520462036133 -314.044952392578 2.758097648621
-154.648788452148 -69.114120483398 -311.733673095703 2.869667291641
48.524303436279 -70.895339965820 -24.323295593262 2.435307264328
23.972743988037 -69.011932373047 -35.173488616943 0.888811945915
31.479272842407 -69.906822204590 -36.293426513672 2.036679744720
-44.245544433594 -70.780403137207 -47.170330047607 2.895029306412
-12.071626663208 -66.991348266602 -61.924224853516 2.226292133331
94.935211181641 -69.927543640137 -68.077484130859 2.256942510605
69.281166076660 -64.778244018555 -69.296966552734 1.428971529007
-23.594646453857 -68.723907470703 -74.099441528320 2.085832595825
-97.432449340820 -72.592567443848 -86.063232421875 1.447095036507
-41.909854888916 -68.844078063965 -82.249282836914 2.936339378357
62.135032653809 -68.063026428223 -81.130180358887 2.308496713638
62.808933258057 -71.127174377441 -85.631858825684 1.166418433189
54.057891845703 -66.579505920410 -87.263557434082 0.613564908504
-58.330757141113 -67.653671264648 -89.993339538574 1.472267270088
67.387390136719 -65.080429077148 -88.989280700684 1.538606643677
44.251468658447 -71.902740478516 -97.553649902344 1.752866387367
69.052688598633 -70.336662292480 -94.350158691406 2.146420240402
-61.699115753174 -66.945022583008 -95.705207824707 3.004942893982
50.721271514893 -70.562538146973 -92.852188110352 1.495731592178
46.259559631348 -70.345184326172 -98.058837890625 1.356223464012
103.901237487793 -66.047485351563 -100.215553283691 2.247629404068
-65.930534362793 -68.612770080566 -98.542015075684 0.964442908764
111.163818359375 -68.143234252930 -100.019241333008 1.461218237877
-78.458137512207 -70.688415527344 -100.765625000000 1.413078665733
55.071372985840 -71.262077331543 -104.633552551270 1.005883812904
48.567855834961 -66.993331909180 -100.373664855957 1.823642373085
92.398246765137 -66.967750549316 -103.469757080078 2.154529809952
85.061141967773 -67.224220275879 -106.292541503906 1.933728933334
55.371101379395 -68.596672058105 -104.202758789063 1.861245512962
-75.736816406250 -69.263420104980 -110.718032836914 1.427381873131
-76.256690979004 -67.901298522949 -114.577590942383 1.969092845917
-79.817184448242 -69.855232238770 -117.976287841797 2.021157026291
-92.615173339844 -73.267936706543 -118.083435058594 1.903650403023
105.456153869629 -63.764350891113 -116.150810241699 2.804784297943
-87.822975158691 -70.937667846680 -118.634231567383 2.509752035141
-76.121124267578 -65.148880004883 -120.893585205078 2.347571849823
110.114219665527 -67.451187133789 -115.664779663086 1.433089375496
-61.036518096924 -61.425327301025 -117.698448181152 1.785706758499
114.298660278320 -71.931343078613 -131.036499023438 1.572085618973
110.629447937012 -70.005821228027 -129.026489257813 1.305493354797
107.863807678223 -69.641815185547 -125.409057617188 1.388362526894
-92.872489929199 -69.124702453613 -137.386993408203 2.557644128799
-46.455013275146 -68.606559753418 -141.406417846680 2.381260395050
-78.569969177246 -66.702346801758 -144.101196289063 3.691981554031
-68.745941162109 -68.681152343750 -148.586288452148 1.700539231300
-69.683639526367 -67.318458557129 -147.549270629883 1.718374609947
-54.583896636963 -68.007652282715 -143.231597900391 1.422038793564
-46.356941223145 -72.278137207031 -145.586898803711 1.748646855354
16.974855422974 -68.719223022461 -145.990676879883 1.713093757629
-93.569396972656 -65.727172851563 -142.497039794922 1.991410732269
-45.129539489746 -67.281524658203 -146.876983642578 2.381462335587
-51.579143524170 -62.912254333496 -147.282211303711 5.357488632202
-41.514434814453 -66.921989440918 -154.452438354492 1.490618705750
28.121782302856 -70.754760742188 -161.467102050781 1.024049639702
-49.451328277588 -68.973022460938 -150.572982788086 1.645226955414
-99.852508544922 -64.742576599121 -149.079650878906 0.609289944172
-44.748836517334 -65.892234802246 -156.415756225586 3.047195196152
26.304941177368 -70.515663146973 -147.749038696289 1.083638906479
-97.945396423340 -73.402221679688 -162.612487792969 4.899958610535
23.311599731445 -70.625068664551 -157.242477416992 2.553858041763
-107.071685791016 -66.107475280762 -169.462982177734 1.253413438797
-100.484687805176 -68.959365844727 -163.277770996094 1.923449993134
22.792787551880 -68.495933532715 -164.528411865234 1.764403343201
26.784404754639 -67.017463684082 -167.445678710938 3.047797441483
-107.719535827637 -70.777900695801 -173.254074096680 1.413373351097
-141.500762939453 -66.744697570801 -174.239501953125 1.215185880661
-19.211967468262 -69.119712829590 -188.993118286133 3.492284059525
-26.809621810913 -67.925468444824 -181.295150756836 1.582898974419
-114.717483520508 -69.915512084961 -186.616470336914 1.598389387131
-143.179122924805 -64.491500854492 -186.694656372070 1.073392033577
-102.795295715332 -66.130706787109 -181.270553588867 2.556823730469
-157.398818969727 -68.912246704102 -190.194580078125 3.298217058182
-130.609481811523 -72.773803710938 -194.895645141602 1.891889452934
-132.588439941406 -70.621208190918 -195.856735229492 1.439663529396
-19.210714340210 -67.060005187988 -189.047103881836 3.837143182755
-119.695877075195 -69.312133789063 -197.669097900391 1.289317965508
-116.374977111816 -65.566467285156 -198.668563842773 1.428885102272
-26.289848327637 -70.623428344727 -194.192001342773 1.263487696648
-153.699966430664 -66.461608886719 -197.587936401367 2.788321733475
-131.588989257813 -70.552185058594 -204.531158447266 1.300156474113
-124.296287536621 -66.709571838379 -204.215087890625 1.475967526436
18.761821746826 -70.681900024414 -201.447402954102 2.076258420944
-161.359237670898 -68.210968017578 -202.896408081055 2.253413438797
11.864552497864 -67.855010986328 -214.912979125977 1.191474914551
14.575729370117 -69.812103271484 -214.316802978516 0.811752319336
-16.372867584229 -65.389518737793 -208.680175781250 3.068483352661
-4.394354820251 -68.948471069336 -216.024917602539 1.623365521431
-169.391876220703 -66.242607116699 -210.063217163086 3.887339115143
-158.453765869141 -65.494094848633 -212.685775756836 1.761239409447
-94.067306518555 -68.584030151367 -218.177261352539 2.286560297012
-97.979667663574 -70.293518066406 -222.491424560547 1.320570826530
-160.316162109375 -69.242538452148 -224.914001464844 1.432937741280
-105.853752136230 -67.021614074707 -219.039962768555 2.872754573822
-11.433565139771 -67.247161865234 -213.865234375000 1.624048352242
-126.805183410645 -70.363250732422 -222.065124511719 2.604326009750
-141.482879638672 -69.436698913574 -223.821624755859 1.892806649208
-2.481239557266 -70.226264953613 -220.972351074219 0.961186349392
-133.670837402344 -67.250900268555 -224.547851562500 1.544014692307
-123.111717224121 -72.598281860352 -222.954376220703 2.131270408630
-113.707870483398 -70.773422241211 -224.504943847656 2.815414190292
0.972470462322 -64.266357421875 -227.824752807617 4.451462745667
-106.628150939941 -67.368713378906 -230.449829101563 1.361510276794
-159.819274902344 -63.758209228516 -222.742279052734 1.773157596588
-146.035675048828 -67.901206970215 -226.566665649414 1.606228113174
-164.783950805664 -68.210090637207 -224.949371337891 3.158757686615
-7.304759979248 -68.323043823242 -226.378311157227 2.590112447739
-7.774242401123 -68.997955322266 -232.260269165039 2.065308332443
79.088851928711 -70.975448608398 -225.126174926758 1.535146117210
0.517132103443 -70.702178955078 -229.177307128906 1.424833297729
-142.350143432617 -68.621955871582 -235.986053466797 1.407255291939
-13.606594085693 -67.307075500488 -228.878387451172 2.252458333969
74.714492797852 -69.158966064453 -227.698745727539 1.785878181458
75.315063476563 -69.282341003418 -232.749633789063 2.668526172638
-133.950988769531 -67.425346374512 -232.261932373047 1.052525997162
-156.761520385742 -71.183609008789 -228.222854614258 1.232504963875
-113.566818237305 -67.500129699707 -232.727416992188 1.043841004372
-124.091148376465 -64.747604370117 -235.458297729492 0.439495176077
-163.070373535156 -67.523345947266 -234.694686889648 1.907367825508
-159.469863891602 -69.135787963867 -235.522964477539 2.057168006897
-146.104583740234 -65.265220642090 -233.991088867188 2.970930814743
-12.121944427490 -67.878845214844 -235.038772583008 2.312468528748
-4.566764354706 -68.239089965820 -240.166091918945 2.555380344391
-160.098510742188 -67.320892333984 -240.509750366211 1.587357521057
6.102985858917 -69.709030151367 -237.869201660156 2.892016410828
3.479785680771 -69.568305969238 -236.331909179688 0.965249657631
-159.466064453125 -68.473960876465 -238.659759521484 2.603104352951
