# This PCD file was generated using the MATLAB® pcwrite function
# from Computer Vision Toolbox®.
# .PCD v.7 - Point Cloud Data file format
VERSION .7
FIELDS x y z
SIZE 4 4 4
TYPE F F F
COUNT 1 1 1
WIDTH 1418
HEIGHT 1
VIEWPOINT 0 0 0 1 0 0 0
POINTS 1418
DATA ascii
-13.090221 -69.967293 -268.947144
-10.431143 -71.737724 -278.454651
-167.699539 -73.343201 -277.774292
-144.914108 -71.875450 -281.534271
-129.032669 -76.073769 -283.375366
-5.493701 -69.339058 -287.685822
-169.487457 -75.654205 -285.524628
-126.515976 -71.341354 -285.620209
-100.326866 -74.239799 -286.346069
-81.713982 -72.278198 -288.778259
-67.090248 -73.484467 -285.250977
-59.249451 -70.994598 -284.984070
-106.917694 -72.850380 -287.663544
-52.382992 -71.947403 -288.234650
-39.973286 -69.892876 -287.483307
-13.963378 -73.487755 -289.024384
-154.892990 -69.950867 -289.022156
-40.339386 -72.453995 -288.282410
-37.179855 -72.548279 -288.240936
-23.714724 -69.839592 -287.559448
-27.719175 -71.061234 -289.630676
-30.838861 -71.123138 -291.132507
-16.485481 -69.921806 -288.880890
-43.582527 -72.190048 -287.940735
-41.088017 -72.185509 -288.294952
-25.259089 -71.416824 -291.599274
-12.326233 -71.193222 -291.021362
-6.702450 -70.071358 -287.326782
-56.238865 -73.542290 -288.571869
-17.240244 -72.988754 -291.976654
-69.899483 -73.444839 -293.403839
-56.715218 -73.907722 -289.443420
-51.932682 -71.248055 -291.070251
-16.433445 -71.926613 -292.895935
-11.985920 -73.777031 -291.040161
-2.870818 -71.575516 -289.260681
-1.175003 -74.437042 -289.143799
4.188028 -73.628555 -294.132294
-105.689537 -71.511017 -290.250519
-93.693886 -74.423622 -291.983398
-88.894402 -69.912628 -292.901245
-163.527466 -74.486275 -291.532318
-141.967834 -72.279449 -291.997528
-114.553009 -73.814552 -293.010986
-137.424545 -72.306717 -291.771759
-146.046585 -72.014053 -296.009949
-152.653198 -71.086533 -295.737610
-153.092056 -70.645294 -298.070435
-146.072281 -73.179428 -299.344086
-156.247070 -73.245018 -303.911621
-144.079269 -71.790878 -303.393372
34.202068 -68.650345 -17.827511
37.747715 -69.530785 -18.458511
47.276409 -73.354042 -19.800091
43.603836 -72.096458 -20.603228
23.607651 -72.488152 -23.925501
47.920910 -72.423828 -26.454582
44.211441 -70.036789 -24.357267
19.796087 -71.640152 -27.703186
47.253712 -69.501038 -30.319714
29.877419 -70.421974 -34.759670
38.726513 -70.440758 -35.237183
47.115925 -68.330406 -35.393589
44.073582 -71.575729 -38.361576
37.026459 -70.351280 -40.831055
-65.575706 -69.316383 -48.556393
-55.572224 -71.719414 -48.244911
-48.931580 -70.366066 -47.095051
-78.183014 -71.841850 -49.592606
-30.791162 -67.594398 -51.394180
-16.881849 -70.168129 -66.691986
84.960609 -71.802567 -70.076904
87.012070 -74.572906 -67.777641
89.722168 -69.503418 -67.969139
-21.053448 -72.384331 -72.359093
97.528038 -73.762337 -72.204399
101.933121 -71.109085 -82.011139
-41.249767 -72.050354 -79.925201
96.624947 -75.011505 -80.387245
99.445320 -66.883812 -83.630913
58.471771 -73.627174 -88.968208
66.253082 -67.977699 -88.248245
58.034466 -71.445808 -91.973396
52.992100 -73.376709 -90.670464
61.490211 -73.451889 -92.511406
100.667145 -69.163208 -88.833832
-63.586018 -67.398895 -92.467575
72.852005 -73.712036 -92.688660
51.798862 -71.564972 -93.118904
55.348938 -72.680275 -95.891403
-67.443367 -69.273415 -100.298790
-76.992973 -71.209305 -100.343224
73.281639 -71.295113 -100.441650
104.101440 -69.104073 -97.239723
75.180336 -72.732224 -99.037590
105.663811 -69.130318 -104.736458
97.054237 -73.062447 -99.745399
-79.230240 -69.574684 -101.165939
43.084953 -70.648140 -99.326523
48.939026 -70.905754 -104.951683
75.496643 -71.270454 -102.068329
88.895775 -73.144379 -100.479324
94.148499 -70.702026 -102.778130
-83.732300 -71.469269 -107.833771
91.663017 -69.929848 -102.007004
53.907845 -72.268990 -107.358467
40.678612 -70.800873 -103.862160
39.660820 -69.968399 -106.747314
104.977150 -72.127159 -105.495728
-86.021935 -72.474312 -111.796318
106.361626 -70.454437 -107.104614
106.925674 -70.794930 -114.777107
35.615433 -70.276855 -113.092636
39.090694 -72.866608 -112.598686
41.615757 -71.232841 -112.601715
36.773418 -70.610245 -118.137558
-92.305138 -70.821625 -119.552048
42.601650 -72.246277 -115.250893
40.506325 -70.581268 -118.768669
111.817055 -70.577477 -115.681381
111.333000 -70.711884 -120.414833
111.720009 -71.495583 -114.720726
113.169800 -72.240395 -124.294807
-79.607681 -71.805862 -117.490257
-87.138931 -70.682587 -123.449944
110.434647 -70.280647 -120.234741
32.587208 -68.192673 -122.598007
110.031029 -72.956551 -124.711212
35.721729 -69.601639 -122.489929
43.666275 -69.390114 -122.820427
34.645103 -71.121559 -123.270302
31.365660 -72.178513 -132.497543
116.908119 -72.396286 -124.690201
-77.480499 -70.502975 -127.864326
-56.515972 -70.474174 -126.312309
29.958891 -71.063324 -124.112129
-84.944382 -69.893860 -127.635292
29.500971 -71.263863 -130.457199
-78.180000 -70.275513 -130.232056
-57.234875 -71.798553 -132.176041
34.605133 -68.274803 -131.169678
-49.493134 -73.723198 -133.081375
-54.399349 -70.628387 -132.346268
40.090405 -67.497787 -131.482178
-80.184158 -73.111855 -134.812378
-61.668781 -69.983879 -129.414490
-48.259560 -71.219948 -135.841934
33.848789 -70.417618 -128.568924
-74.003227 -69.786751 -141.196579
-57.426880 -70.660400 -138.676010
-46.131683 -70.644753 -137.678772
35.559990 -71.246246 -135.864182
-72.684959 -73.747559 -141.647324
-58.658432 -70.455528 -138.224579
29.902092 -71.452034 -140.039886
107.358131 -71.975578 -138.058670
-56.724064 -70.568764 -141.245895
114.471474 -73.486313 -140.650085
-57.159412 -72.504051 -143.235535
23.242918 -70.738800 -139.482468
-73.642349 -73.473549 -138.951294
31.750950 -72.043907 -136.739563
-45.150307 -71.361633 -139.692703
112.540558 -71.516922 -152.283783
28.983728 -69.326782 -145.326675
-74.706665 -72.805748 -143.015060
-56.686333 -72.015816 -146.203110
30.914879 -69.905190 -142.081207
-75.554588 -70.392021 -146.419052
32.500286 -71.747467 -147.504700
-72.514923 -69.565704 -143.575897
-76.073959 -70.190170 -147.062607
-72.950241 -71.459946 -150.293381
114.187729 -68.900490 -147.406006
-66.949394 -69.510262 -150.642166
-39.736893 -72.254066 -148.686951
27.126047 -70.684212 -148.435806
-72.639954 -70.369049 -149.973358
12.817975 -72.252144 -146.396088
37.436745 -73.971031 -150.445435
30.955601 -69.908829 -155.964798
30.796463 -70.354195 -151.558121
16.140343 -72.010284 -152.558655
28.026979 -72.165131 -148.696503
-51.810413 -71.611877 -152.957794
-47.796223 -68.608353 -151.276169
-68.553482 -70.263237 -152.640747
113.186653 -70.237091 -152.588852
16.739611 -71.413574 -153.257690
25.531206 -70.315849 -153.127045
-45.757927 -70.733192 -153.708099
4.606153 -71.414444 -158.458191
15.769935 -73.226387 -157.734467
23.710827 -72.635681 -150.374313
13.530330 -71.899689 -157.368500
-37.873913 -71.006630 -155.106079
12.922160 -72.733444 -159.109055
-68.265358 -73.434387 -158.811050
-43.135731 -72.133728 -153.943710
-68.265343 -70.320618 -153.282394
16.066980 -71.313530 -156.521866
107.767197 -68.378471 -154.864029
-66.649300 -69.818832 -157.491409
-50.170414 -70.391693 -156.211945
15.496763 -69.835289 -160.014450
31.765100 -70.726250 -156.692581
-51.870865 -72.649597 -156.731415
25.129681 -71.680298 -155.447052
2.340318 -72.699997 -162.421402
19.186745 -72.734146 -158.488998
-43.163391 -70.215508 -161.289032
32.537071 -70.103752 -163.416534
-45.691547 -71.914612 -164.469559
-32.867992 -72.479820 -162.858582
21.911200 -70.818161 -164.688217
-37.903484 -72.718147 -161.305923
-40.879116 -72.315407 -167.325104
17.815248 -72.845047 -165.758865
29.136677 -70.891380 -161.468475
-40.990509 -71.060875 -168.144989
32.661728 -74.259026 -162.951202
27.356089 -71.849457 -166.629211
-39.197525 -69.749573 -167.213898
17.196672 -70.872177 -168.776840
27.871572 -71.236267 -169.914398
115.647766 -70.529831 -166.484879
-40.788357 -71.769615 -171.676559
-33.807098 -72.111504 -173.928955
28.862391 -70.976814 -172.862076
109.949242 -70.121178 -173.185486
-30.400059 -70.452019 -172.463379
-23.204674 -70.471634 -174.519882
107.186340 -69.960297 -171.437225
-33.054600 -70.452728 -175.695129
-36.546646 -71.842308 -181.582214
19.525940 -70.799156 -173.740997
-23.761480 -70.095337 -180.986267
18.332958 -69.769394 -181.566879
-22.743538 -73.147522 -183.119507
104.101532 -72.504272 -181.941742
-28.613819 -69.953926 -185.463882
110.176727 -70.172760 -182.673203
-29.812437 -69.996101 -178.241760
-150.828766 -72.011589 -190.565384
109.187294 -72.250717 -187.982666
-23.917311 -68.934784 -184.064255
107.057304 -68.532227 -189.577454
102.889763 -69.577271 -183.988373
23.319050 -72.831703 -190.104462
-26.441555 -70.259323 -187.931976
-23.564156 -73.513771 -186.280807
-23.840017 -71.481140 -184.801849
-151.399734 -71.540123 -189.263916
-143.589310 -70.719666 -193.558945
15.666455 -71.407745 -187.235886
18.531727 -73.849319 -195.924622
-110.997398 -71.019005 -191.351028
106.870445 -70.603722 -188.928253
99.136230 -72.391846 -193.900284
-157.095398 -70.327080 -193.158432
-24.738163 -72.582176 -191.995178
7.370142 -69.611839 -198.252701
12.991850 -71.608818 -194.375626
-120.784660 -72.431953 -195.767517
-117.907654 -73.045044 -195.771164
-132.996521 -73.464386 -195.115158
-111.543617 -69.407280 -198.717865
-17.525244 -69.425926 -197.050751
-114.590584 -70.326195 -196.912476
-113.816689 -71.882072 -198.994461
-13.362515 -70.438591 -196.812347
12.315204 -72.148598 -197.927277
96.101685 -69.245468 -205.110794
21.010971 -68.836937 -197.715744
-166.602066 -71.928772 -201.349335
-17.301151 -69.984200 -200.592606
99.704788 -72.072845 -202.190704
-136.427811 -72.592796 -200.617920
-123.814377 -70.301865 -202.862808
-20.203632 -72.140633 -203.089417
-133.348953 -74.194717 -202.232117
-130.542450 -70.342255 -203.788803
96.238518 -69.791847 -201.907364
-11.241755 -71.544930 -206.457047
10.682732 -69.884567 -206.533218
-142.466019 -71.978584 -202.465897
15.376280 -70.403473 -207.476257
92.698631 -70.927750 -208.354004
-164.699982 -70.278061 -204.668518
-9.765988 -72.331375 -212.262756
-1.971884 -72.584496 -213.786438
11.996885 -71.080231 -213.705933
14.668847 -67.730865 -214.424866
-91.705406 -72.609329 -215.546631
85.554527 -70.228249 -219.836700
-90.332085 -70.039139 -214.744141
-90.272621 -71.858810 -217.267059
6.044458 -69.577003 -215.716782
16.117863 -70.439644 -214.758865
-13.802509 -71.039284 -215.911758
-16.451904 -71.931931 -211.660049
-91.562408 -71.286652 -217.194077
-99.188904 -70.388252 -218.593262
20.145176 -71.114273 -219.548981
-102.460403 -70.906357 -221.861465
-2.998068 -68.895821 -219.406387
-15.622400 -70.239006 -216.325821
-2.130966 -70.360527 -220.087387
-167.945648 -72.742195 -218.864487
12.371052 -70.586052 -219.593002
85.125183 -70.291489 -220.458893
13.778659 -69.110153 -219.424316
-143.695221 -72.662361 -223.079376
9.805896 -70.255341 -222.501022
-128.733414 -69.987823 -223.774948
-98.494667 -69.655609 -223.711044
-10.747572 -71.772034 -220.718552
-117.881531 -72.967140 -226.981079
-25.126816 -71.530876 -224.442978
-15.947707 -72.670441 -223.010635
-133.548309 -71.920364 -224.619446
-114.596245 -74.256783 -226.024216
13.458601 -71.516792 -226.577805
77.499588 -71.778595 -226.726135
7.849930 -69.590881 -221.876068
-167.447739 -69.691307 -228.352600
3.661197 -70.237389 -226.541336
-105.431900 -72.468887 -228.373932
75.140114 -71.844887 -227.981796
82.075005 -73.498085 -230.988770
-113.167259 -69.963852 -232.012772
0.198698 -73.490761 -235.158234
-123.176216 -70.509392 -233.692261
-117.197304 -72.648781 -231.263046
-5.669084 -70.061272 -234.721558
73.413277 -71.262749 -230.080505
-11.380845 -69.787895 -229.580460
-134.203201 -69.382095 -231.732025
9.382894 -71.002647 -236.172089
72.822105 -70.141693 -226.663742
67.879944 -73.715889 -235.889877
69.895279 -72.407890 -235.362885
-129.174622 -70.398987 -235.701309
15.744743 -69.781967 -232.181213
70.495125 -70.684708 -232.715866
-8.327085 -73.304123 -233.652756
-3.543825 -70.028351 -235.141617
16.208008 -68.895996 -236.819153
71.830704 -70.678993 -236.027588
63.651997 -71.337952 -236.517944
67.719650 -72.365456 -239.978088
-166.316055 -72.113449 -235.646729
-141.892487 -69.941322 -235.812302
11.628857 -69.923729 -234.624359
-0.557373 -73.796440 -236.550354
14.792257 -70.749870 -239.936020
56.295300 -71.068001 -242.485397
-4.369366 -71.168282 -239.183380
13.021484 -72.061356 -238.976654
60.571758 -73.360802 -240.114960
-19.092125 -71.505074 -242.453613
10.456491 -70.793648 -243.011353
-8.373224 -68.375977 -240.912277
2.087370 -70.158424 -243.754501
3.726606 -70.985062 -240.527542
69.096527 -72.062149 -240.743149
-10.782950 -71.463173 -240.835480
8.259428 -71.016586 -242.434357
-144.836807 -70.328873 -241.984818
-5.633063 -72.591385 -244.922531
-168.096176 -72.138741 -238.594910
56.705513 -75.901909 -243.048157
62.329784 -73.280991 -242.090698
11.381639 -70.484047 -243.613007
-166.225555 -68.313522 -246.950043
59.113022 -69.850021 -243.841888
54.429352 -70.635704 -246.444443
49.311207 -70.730255 -242.955322
-71.993988 -73.507095 -249.295059
-11.598319 -69.539650 -247.207611
55.782963 -71.237717 -247.719910
-67.595146 -72.196762 -246.695709
-73.785355 -70.317085 -248.041946
-71.235214 -70.290833 -250.714798
-84.344131 -69.439590 -253.503906
-71.417435 -69.864281 -251.784103
54.394981 -71.418449 -248.112823
-94.508705 -71.575394 -252.106735
-79.835503 -68.599869 -255.754730
-124.695313 -75.897232 -253.576691
-166.601578 -71.116135 -251.554855
-132.780502 -72.939789 -253.479919
-81.116592 -71.469963 -257.368896
41.180164 -69.532036 -253.539612
-136.733948 -74.377022 -254.982758
-110.975464 -71.006638 -257.924805
-86.415726 -72.088379 -256.916901
38.524555 -69.820930 -256.488953
-112.039871 -70.806061 -259.774658
-89.261436 -73.423958 -257.062531
-97.581665 -71.666611 -257.079468
37.924225 -69.410629 -258.547394
-15.221951 -72.922379 -262.854797
-109.191521 -73.182526 -260.246033
-142.296219 -69.367676 -260.875885
-125.645187 -70.778557 -261.142700
-157.692657 -69.050835 -266.934540
-126.618881 -69.408920 -267.697998
-167.939468 -70.255760 -260.577240
-144.870468 -68.181053 -265.919891
-152.500351 -70.807121 -266.482422
-14.034668 -69.839737 -264.324646
-168.776367 -69.441032 -269.267670
-14.182322 -69.450943 -273.980530
-158.289490 -68.142853 -272.125122
-153.883698 -72.784813 -273.664215
-167.693420 -70.167168 -275.873688
-162.050354 -70.637085 -274.907623
-11.416924 -70.472015 -278.297211
-159.262177 -69.514191 -281.935425
-153.393204 -70.693687 -280.619232
-133.951370 -70.313171 -283.534607
-160.670212 -72.428619 -288.468903
-147.780792 -70.713425 -284.779938
-133.460419 -73.333443 -286.388885
-8.064079 -70.047630 -283.778503
-126.391220 -72.247253 -284.478455
-143.603226 -70.638313 -284.096924
-136.658112 -69.129570 -283.088409
-114.964134 -69.805695 -287.892426
-97.710388 -72.538223 -286.809753
-74.983376 -71.725456 -284.812225
-74.153839 -70.306412 -287.680939
-62.697201 -74.463501 -288.036377
-65.415077 -70.790642 -288.568542
-56.835567 -70.152634 -286.361145
-5.766319 -70.960434 -286.234436
-53.657696 -72.077576 -291.004883
-51.230999 -71.479935 -289.549805
-53.100842 -69.880196 -288.380310
-67.702728 -71.214661 -289.628815
-59.435684 -69.537971 -289.627350
-64.179848 -72.504135 -287.038849
-90.502151 -69.898453 -291.254059
-81.654968 -68.676155 -290.712067
0.568311 -69.878929 -292.955933
-100.252617 -69.724571 -291.209930
-123.310341 -72.164047 -291.001404
-159.892838 -71.221123 -292.002899
-136.646606 -70.539436 -294.066132
-161.188461 -71.346260 -293.432312
-125.877357 -72.992218 -292.394897
-123.804520 -72.003746 -297.576477
-143.764313 -71.201241 -294.728149
-155.297623 -69.623528 -295.557678
-155.980576 -72.602234 -301.513184
-153.096634 -68.268883 -299.495544
-147.837982 -71.373421 -312.560211
29.039583 -72.485184 -11.753098
47.406960 -70.097038 -19.088827
19.722708 -68.389847 -25.271513
44.784634 -71.194450 -31.838524
41.732735 -72.258995 -31.594732
48.027302 -69.824295 -34.916435
24.395708 -71.270729 -38.954876
-56.230927 -68.580986 -49.214096
-56.950634 -68.479416 -50.278332
-66.967514 -70.987686 -43.899113
-72.457527 -69.737808 -50.888546
-90.344917 -69.878754 -62.738571
-14.966565 -72.063354 -64.318756
83.418732 -71.433472 -64.750488
86.659157 -69.875061 -65.886879
76.323692 -68.314865 -68.020737
71.427528 -69.914238 -69.197327
94.082031 -72.024597 -70.755272
93.791924 -72.872841 -71.487480
-90.131546 -72.096985 -71.612206
70.142258 -70.442101 -74.104187
-94.628899 -70.997993 -79.116089
-35.753597 -70.326439 -75.116264
-28.155348 -72.826836 -77.264091
-41.304317 -71.631325 -82.946899
-95.991257 -72.544197 -85.941956
51.294071 -68.331551 -88.011757
59.405621 -72.238281 -88.806770
99.025803 -74.456802 -88.333916
-55.222153 -70.946571 -90.226936
62.772442 -68.228317 -90.045662
98.260490 -72.228676 -96.963425
46.558990 -71.666306 -98.124580
99.976883 -72.399742 -98.716301
45.696156 -70.405426 -95.790253
104.453232 -71.066505 -96.394997
59.025322 -70.132492 -99.265610
69.828232 -70.918762 -98.193794
106.797081 -72.007675 -99.024376
73.768654 -70.192383 -96.551613
-75.665543 -71.134499 -98.236725
-72.997749 -71.893829 -99.764725
55.559265 -72.668495 -101.778481
95.619705 -71.076149 -101.138084
104.818016 -70.612984 -104.434708
105.577164 -69.242851 -99.168076
81.650978 -71.946960 -103.985870
110.300049 -68.969803 -103.928902
47.553825 -69.340111 -104.886787
86.593147 -69.553619 -104.790092
80.969643 -70.053841 -103.123810
42.377861 -71.227898 -106.717659
107.590897 -68.559250 -108.239304
48.385796 -71.777122 -114.557526
47.397793 -69.559341 -109.535942
-78.609253 -68.981255 -111.652321
104.238060 -73.346489 -114.175819
106.669060 -68.368965 -112.370171
42.978161 -70.415062 -110.160034
112.769516 -73.457275 -113.453384
44.193241 -70.193268 -112.261940
108.372093 -72.169022 -111.780228
110.044540 -71.142967 -112.387329
-80.205383 -72.207397 -117.769936
-77.231262 -69.866638 -111.937889
42.465286 -70.726639 -122.457893
-82.413788 -71.318497 -118.572800
47.411964 -71.449020 -118.283295
36.222626 -71.502815 -116.866676
114.595688 -69.753532 -118.144661
115.912865 -73.757179 -124.996284
-81.735252 -71.116974 -123.811363
42.490269 -70.317276 -121.861694
106.327431 -69.347733 -122.675804
-85.576004 -69.872414 -126.155197
-79.422836 -68.922554 -127.981041
-75.294548 -70.342812 -127.667572
32.980412 -67.242752 -124.740814
-55.458652 -70.984581 -127.966553
-58.620762 -70.869713 -130.198029
-55.470890 -70.253342 -129.418274
-88.127388 -68.458015 -131.033279
-71.897308 -72.254333 -131.213760
-78.451195 -72.140137 -132.684662
-50.851944 -71.945335 -132.160767
108.930901 -68.152855 -133.296692
-86.773956 -70.109573 -134.160172
31.315075 -70.718735 -134.093185
-76.915657 -69.703987 -135.765488
36.481876 -71.518005 -136.281845
-75.320229 -70.407578 -133.626205
35.354595 -69.489250 -141.867737
28.323414 -72.275963 -136.146347
111.710175 -71.693718 -135.835159
-45.548306 -75.218201 -139.306030
26.957836 -69.670387 -141.397644
-72.699440 -67.791855 -140.651917
-66.509521 -69.412277 -140.495026
-44.776665 -70.713547 -148.307587
34.350224 -69.659088 -144.778152
109.086060 -71.248047 -142.435867
-44.141460 -70.998886 -146.116669
25.327435 -68.264931 -149.640259
114.442032 -68.645638 -146.593811
30.825964 -68.450569 -147.785599
109.801361 -70.817192 -144.033661
-54.436573 -70.770325 -142.700775
25.662928 -73.288788 -144.807343
-73.531059 -69.403328 -147.195587
-51.753532 -72.419678 -150.544968
-69.957100 -69.139015 -147.483887
19.110596 -69.751945 -146.419373
-46.116234 -68.557762 -149.602676
-53.917435 -67.201775 -150.784439
-52.751328 -68.826469 -151.597794
27.006464 -72.437462 -153.759018
115.337013 -69.220329 -151.285980
-71.219276 -71.015549 -152.649460
-44.911400 -68.735588 -151.112381
-66.891823 -70.623436 -155.936691
7.663210 -71.681419 -154.908981
5.617664 -70.039436 -155.960220
-43.802433 -72.065125 -161.916733
-49.474457 -70.291733 -157.708389
4.718921 -69.021301 -156.828354
12.773805 -69.226784 -159.205734
111.268005 -69.204437 -155.762741
115.950691 -71.046120 -156.280777
110.158752 -73.999657 -158.192886
4.193194 -70.742546 -160.697571
7.597229 -70.800255 -162.052551
15.288422 -70.953712 -156.932556
12.005191 -69.037811 -158.732773
25.591578 -71.362976 -158.125305
111.404694 -69.827995 -159.992462
112.219009 -70.301277 -158.285400
111.049240 -67.780724 -165.396332
25.688654 -67.973412 -161.414810
109.648308 -69.408539 -164.266083
23.920694 -69.564148 -165.364990
25.774281 -69.001076 -164.683640
111.847572 -70.672180 -165.721039
111.748688 -67.575615 -169.710464
-29.072424 -69.752014 -169.410736
110.019684 -70.308632 -169.889313
17.924658 -70.209160 -171.623825
23.261141 -70.048180 -166.483643
112.691612 -69.875587 -177.306580
111.574219 -70.544472 -169.814621
19.661055 -69.633003 -177.759277
24.822603 -70.849480 -170.921692
-36.156548 -71.529526 -176.424774
109.810448 -70.492630 -173.256973
-106.407440 -69.702950 -178.362610
-141.310333 -68.411469 -176.301056
108.840530 -72.008461 -183.617889
-31.519997 -68.799423 -182.196426
26.279856 -70.587402 -181.227753
16.533985 -69.042862 -177.897888
108.288315 -69.570869 -183.748047
27.683971 -71.095985 -184.978577
23.487869 -71.731285 -179.471146
-152.470123 -71.614059 -184.973145
-33.761768 -71.754501 -185.456863
-109.511642 -68.117287 -184.751022
-26.279621 -69.599068 -183.330566
15.081224 -70.689507 -181.832825
24.411758 -68.388145 -187.144073
-109.426079 -70.026794 -186.682068
-111.126526 -68.886032 -190.439941
23.650364 -70.647743 -188.868286
103.807732 -69.471870 -188.601044
14.106354 -72.844124 -184.763260
-25.037632 -71.081100 -191.664963
-28.628757 -69.375313 -191.800903
-26.418062 -69.253853 -189.382904
16.544428 -68.306198 -184.854874
24.376781 -69.956467 -193.170837
-149.833832 -70.487999 -195.595459
-141.648499 -69.713669 -194.121857
-18.810480 -69.387581 -193.010406
-123.313469 -69.108704 -194.991089
-23.449936 -67.808899 -190.230011
-140.660461 -69.977913 -198.011185
-20.757172 -69.647827 -193.385498
12.572416 -71.870239 -195.935165
-159.395065 -71.327957 -195.247940
97.731575 -71.543259 -197.566803
-112.700920 -70.745949 -197.588257
-25.658504 -68.146141 -200.938705
21.067829 -72.401123 -197.075974
-18.661894 -69.189957 -196.660538
10.525926 -71.999596 -201.310486
22.114109 -70.400047 -193.985580
-22.296169 -69.073753 -196.649261
98.486549 -70.651573 -196.428650
7.908216 -67.785347 -197.915405
-113.878693 -70.795227 -202.234360
-25.196560 -67.501869 -194.749924
-120.987534 -72.101898 -202.120148
-133.459366 -71.685974 -205.629456
-123.585114 -68.679977 -203.857193
-115.202545 -67.065254 -204.954071
7.221951 -68.727051 -199.308441
13.647486 -67.669395 -197.409195
-144.644257 -70.189491 -202.600739
17.749905 -67.685455 -205.030548
-141.483170 -67.109749 -204.199341
-23.246307 -70.605591 -198.978943
-12.189132 -69.677353 -204.372986
16.134111 -71.101730 -207.156937
94.591316 -69.873497 -207.271088
-166.417572 -68.917053 -210.363083
-8.416100 -70.558784 -208.626862
97.474274 -71.923058 -206.001663
-19.057865 -68.182320 -205.856354
9.869639 -68.277977 -210.649170
93.246956 -68.006210 -212.133377
-20.127525 -70.127594 -208.502548
10.801146 -68.315216 -205.891937
94.956116 -70.138252 -212.259735
14.814365 -68.445915 -203.545792
17.799103 -71.441772 -212.386536
90.678658 -69.940399 -212.345505
12.052826 -71.822006 -212.041183
18.171686 -70.804321 -211.895218
-20.654364 -72.665237 -212.129654
8.433088 -70.958549 -207.901550
-144.525330 -71.440331 -220.690277
-12.590670 -69.499672 -218.172394
90.512749 -71.702721 -213.450623
-15.123261 -69.892151 -213.369537
-94.401222 -69.831612 -216.290359
14.665154 -72.135864 -219.193375
-95.301720 -73.559624 -216.573547
-8.047882 -68.790535 -215.230667
87.312691 -69.990379 -213.924561
89.479622 -68.396149 -218.328629
91.762917 -70.319084 -218.719055
-92.972557 -70.452377 -220.538940
-163.220749 -68.912735 -221.892731
-104.318359 -69.171593 -220.168182
-95.326797 -71.993362 -223.404922
18.331831 -69.019135 -221.961807
-0.802615 -70.809853 -219.742538
84.351837 -68.475548 -222.056213
-134.240219 -71.620682 -224.781631
-133.711639 -68.045746 -223.126343
-117.339874 -72.132683 -224.981537
-110.098991 -70.685692 -223.322906
1.308908 -70.500717 -223.683838
-131.915375 -71.690704 -226.019669
-111.075005 -70.445778 -225.446869
-17.403749 -69.751427 -222.495895
-7.481051 -71.796684 -228.254730
77.740662 -68.571068 -225.780014
-115.293228 -70.738937 -229.059875
-6.011971 -69.914330 -224.795532
-17.048817 -68.707581 -228.036835
-0.898805 -70.800301 -229.302383
-0.090318 -71.882927 -225.426590
-11.932120 -68.779884 -227.328491
-105.438560 -69.257614 -228.114090
14.366867 -70.818573 -228.754532
-14.868717 -68.240555 -226.752380
82.811104 -71.378990 -226.478973
-166.065781 -71.216736 -229.998016
-110.305489 -69.009071 -232.331924
7.786978 -74.933090 -229.529343
-3.203804 -70.700851 -230.640976
78.819412 -70.594917 -229.128021
7.770130 -69.385315 -232.265991
-13.906297 -68.661530 -230.947540
-112.407181 -70.273956 -232.870422
-134.442337 -70.306870 -235.792877
13.166147 -69.072716 -233.726196
-153.558838 -67.870674 -234.673386
-6.474875 -66.212379 -233.767166
-156.679947 -68.824997 -236.502625
-138.714127 -68.559464 -235.044968
67.192261 -70.595741 -235.848419
-5.233821 -71.328178 -234.956711
6.293268 -71.380074 -235.098312
68.429344 -69.672630 -235.492462
76.656982 -71.873360 -236.962738
9.026138 -69.022903 -236.948578
65.460144 -68.021797 -239.626801
69.659363 -70.083878 -237.281509
1.179584 -69.213181 -236.961441
62.835186 -70.655098 -239.043976
-1.413884 -72.995247 -241.268982
60.767521 -72.128387 -236.203720
-169.972565 -69.513573 -234.860550
-17.179926 -70.624947 -236.728317
11.160400 -70.701721 -239.225891
1.310971 -68.126633 -242.896393
9.604912 -70.306519 -241.119080
-16.894148 -69.707230 -240.143051
9.408676 -71.728638 -240.876038
61.414047 -70.679214 -240.898590
-154.873825 -69.760429 -245.623901
-152.656036 -67.227188 -244.389725
55.710289 -69.776733 -241.633408
-11.847612 -73.105873 -243.456635
53.994247 -67.936119 -245.805267
58.882874 -69.545731 -246.879196
-143.079269 -71.253380 -250.477783
-13.441010 -71.669373 -249.857040
54.561363 -68.563049 -245.557770
23.901430 -71.883827 -250.089142
48.328571 -68.224228 -248.021317
-77.803619 -70.882408 -250.567963
-79.120514 -70.838181 -250.172363
49.741001 -71.778900 -249.575577
-82.448891 -69.508568 -253.256256
-73.138687 -70.000740 -248.974472
42.090874 -71.274612 -248.798828
-88.068497 -71.318604 -253.403336
-75.579727 -69.841728 -251.895813
-79.848457 -70.370979 -255.005646
-16.340775 -70.295464 -250.293015
-145.727173 -71.009628 -251.719147
-155.195465 -68.953651 -251.522675
36.669590 -72.721848 -253.853043
-93.999626 -69.153976 -252.469315
-14.621297 -71.786774 -253.285049
-151.500854 -70.816513 -254.238266
-145.522049 -69.171005 -257.083160
48.658222 -68.644363 -253.705734
-134.793839 -70.494377 -256.528412
-121.564445 -70.821625 -255.831879
32.147980 -71.393524 -254.409790
-121.591621 -71.455338 -256.147095
-113.679909 -68.990814 -255.446671
40.343365 -69.614456 -258.748444
-95.305351 -69.826889 -256.947357
-155.917130 -70.674507 -257.697144
22.307388 -73.871857 -256.018707
-15.168480 -71.262192 -254.872894
-99.571915 -68.085785 -259.624451
28.637396 -69.914711 -255.171066
27.009069 -68.948746 -259.811188
32.456261 -70.280228 -259.967468
-101.541756 -71.308632 -260.712677
23.674143 -71.634674 -263.164215
-108.548660 -69.317192 -261.930786
-167.100540 -69.781082 -258.224945
28.454628 -65.931061 -262.641479
-119.010712 -69.787796 -262.504883
-157.935577 -69.346863 -263.280243
-115.747940 -71.733238 -263.413544
-14.031229 -70.581734 -262.458832
-121.552551 -72.419434 -263.764313
-130.791519 -71.443459 -264.637695
-161.017731 -67.762985 -265.345764
-160.107147 -71.157356 -269.825439
-13.353556 -70.930244 -265.340240
-166.018539 -70.076660 -265.476257
-14.117368 -70.519798 -269.967590
23.414383 -71.134453 -268.060913
-158.833389 -72.833336 -274.397125
-166.705002 -71.292107 -273.519318
-162.036545 -69.195259 -271.970337
-12.875907 -70.951820 -272.728027
-153.038742 -70.991753 -278.890472
-143.851334 -68.513878 -273.280457
18.778761 -67.521904 -278.894836
-9.513730 -71.324570 -281.787659
-167.887802 -71.122879 -286.104828
-164.947891 -70.542572 -276.192963
-160.986923 -67.308273 -286.553162
17.553705 -70.605972 -281.489655
-162.461472 -69.082161 -280.728302
-144.285324 -69.528931 -283.183105
-167.969940 -69.295212 -286.936554
11.444448 -71.234566 -286.167664
-114.420410 -72.300896 -285.352600
-103.566376 -72.696083 -284.268677
-96.974304 -72.116539 -289.021820
-99.179459 -68.885422 -288.222015
-85.985535 -70.348244 -288.409210
-164.833344 -68.994347 -285.335480
-80.027885 -70.204216 -288.442505
-161.385742 -69.133850 -286.827637
-148.883514 -69.028427 -289.128662
-75.763367 -66.862526 -287.776611
-76.459244 -69.584908 -290.859558
-76.677719 -70.334251 -290.050537
-69.152214 -69.924698 -289.607056
-149.450241 -69.744881 -291.283325
-81.392654 -69.603043 -290.623749
-86.424469 -66.786079 -291.444733
-6.428015 -67.956764 -289.813568
-164.554031 -71.250389 -292.226837
-160.143509 -68.639412 -290.153992
-90.730972 -68.192741 -291.671509
2.168139 -72.438820 -293.124146
-99.175377 -71.410706 -290.006226
-143.827637 -70.913475 -296.515930
-123.662140 -69.703766 -292.313721
-110.957344 -70.831589 -294.882263
-110.287415 -70.544685 -293.357513
-115.460632 -69.989319 -291.866180
-154.309219 -70.626053 -292.653168
-135.888138 -70.583458 -293.562286
-155.732849 -70.068748 -294.858551
-147.499695 -70.220406 -297.858398
-146.408813 -71.731911 -300.536499
-157.319626 -72.801033 -307.838867
-143.224747 -71.579117 -311.612701
-148.012985 -70.308128 -313.034973
25.387474 -72.856293 -16.709797
31.853367 -71.037865 -17.719837
43.392136 -70.024223 -17.910648
40.262779 -68.850204 -20.412601
27.424082 -71.897919 -25.602148
43.390713 -70.905754 -22.339449
25.889774 -71.866272 -28.591932
28.161804 -73.376396 -30.322601
26.954172 -70.887756 -32.081509
28.780235 -70.454811 -38.630226
29.646374 -72.305092 -40.959057
34.160759 -71.628967 -42.705791
-60.097160 -71.169937 -46.719921
-73.696701 -68.821289 -46.303249
-44.277416 -68.041382 -46.233345
-37.071419 -72.028099 -49.211403
-30.254280 -70.991074 -50.291790
-83.604675 -66.685135 -51.880222
-83.338112 -68.923790 -53.095932
-21.109156 -69.198944 -55.087559
-10.919486 -67.507462 -63.757957
87.252968 -66.769997 -66.880447
90.039146 -68.241104 -63.164520
-15.796965 -70.242149 -68.265762
102.817497 -68.810982 -73.102112
67.866913 -68.829620 -78.252167
95.352119 -72.464813 -75.134628
101.378899 -71.080177 -76.847328
-96.096985 -67.132347 -76.525421
68.828583 -70.908302 -78.868073
69.051483 -71.486145 -82.350723
-44.063519 -73.751457 -83.697220
60.507160 -72.285011 -86.793312
-95.029617 -71.930054 -91.348053
57.558319 -70.852135 -84.063446
-51.146191 -72.741547 -88.219833
-50.425148 -66.228577 -87.488121
66.824654 -68.520180 -88.322418
-55.400208 -76.154099 -90.752174
68.900452 -68.368546 -93.507271
64.382233 -69.735954 -88.051285
99.730850 -69.768631 -94.067001
45.623577 -69.657532 -94.647293
57.817928 -70.235260 -97.839371
61.086590 -70.973801 -94.931625
-96.473114 -68.658310 -96.270760
107.245171 -68.394363 -95.559357
48.806580 -68.744614 -98.002663
102.380264 -71.727150 -98.857193
106.234871 -68.679771 -97.797668
41.960140 -70.953087 -101.728645
101.547684 -67.955330 -100.538979
44.628960 -70.956657 -104.000137
72.575729 -70.652077 -100.359360
105.608086 -67.564606 -103.410164
73.593254 -69.411247 -104.897766
103.334206 -69.849136 -106.706940
75.821159 -69.590866 -102.665588
83.711380 -70.859833 -102.960442
88.032181 -68.734573 -105.275848
55.077709 -70.429756 -104.068748
112.379944 -69.735504 -105.268044
43.964832 -68.883308 -105.555603
40.390678 -67.431183 -105.778946
113.817863 -70.152748 -108.351830
-95.318657 -73.637093 -108.282265
-76.658409 -69.791100 -109.764282
47.530609 -70.742516 -114.626106
38.690609 -70.399071 -110.347885
-78.306145 -68.696228 -114.460770
108.029716 -67.072792 -108.392548
-85.395950 -67.160240 -114.242317
42.233410 -70.105331 -112.984581
39.894936 -70.846504 -114.930130
-89.351067 -70.254768 -115.379738
-95.793983 -69.509872 -118.809471
45.802799 -67.903564 -112.670776
105.102089 -69.510902 -113.468262
43.223454 -70.803398 -117.806198
-92.784851 -71.606674 -118.997383
-93.870636 -68.592484 -121.435356
-86.220352 -65.565567 -123.318489
37.615955 -70.254601 -119.896454
115.091942 -69.380913 -119.639534
36.552246 -70.093788 -119.910820
108.274788 -66.224686 -121.900894
-78.413879 -67.891777 -123.687653
109.001793 -70.248871 -124.895226
114.203293 -68.330925 -129.629654
-82.849815 -71.079079 -126.691795
33.594055 -69.013794 -128.430557
107.078163 -65.900009 -128.387085
-57.820057 -68.845093 -127.293060
-60.668438 -71.564537 -130.631317
-88.800026 -69.037605 -127.579979
-79.324501 -69.829872 -130.546829
-51.687332 -69.893219 -130.658707
-75.912689 -70.019974 -130.098557
36.857162 -68.407166 -129.464966
-72.935837 -69.185028 -134.501511
-48.397549 -70.904694 -135.348129
-89.767242 -71.507095 -131.233063
39.047359 -70.615540 -134.212021
117.259651 -67.384064 -133.740509
110.740814 -69.249359 -131.559021
-90.612549 -68.962639 -135.056885
-85.828362 -67.812660 -133.305206
-84.424911 -71.709908 -133.781906
-77.875793 -68.069115 -137.319336
-51.747456 -70.992355 -135.283905
-45.744965 -71.857430 -137.733688
-73.197235 -68.345383 -137.404144
112.850006 -68.424850 -137.482040
115.401115 -68.661385 -134.386230
-72.591911 -68.813759 -137.604034
-49.086010 -68.043060 -134.739441
112.640907 -69.737823 -133.109116
-73.586983 -70.927147 -140.094955
30.691393 -67.836929 -135.437378
35.385754 -69.266525 -134.976547
-80.279861 -67.992050 -137.573685
-73.687508 -70.260597 -141.277481
-73.151680 -67.886749 -135.846222
-91.113907 -66.694580 -139.993469
-77.338814 -70.626816 -142.040421
-88.682571 -68.048302 -143.798706
-58.870022 -70.037987 -138.819153
31.494762 -66.499901 -142.534805
114.448975 -68.415825 -143.901688
-52.426411 -68.056389 -148.516190
29.994370 -68.899651 -145.718445
29.141777 -70.444107 -142.067749
28.811142 -67.955330 -148.161072
17.976068 -66.519211 -144.649887
112.966331 -68.044800 -145.546219
-93.575569 -69.050316 -147.224762
-55.454178 -68.614799 -144.377716
-49.982292 -70.370316 -149.058182
20.744419 -67.367004 -144.263702
-97.832680 -69.704697 -149.845367
-71.182190 -68.281548 -148.102509
16.070080 -71.622955 -148.981491
-94.850952 -68.653908 -151.410431
-72.077248 -67.135872 -152.995834
-40.000751 -69.696053 -155.942108
24.524622 -69.241997 -151.893646
31.618479 -68.802094 -148.066101
-49.747105 -70.408340 -151.404510
10.538044 -66.876503 -153.906204
11.975188 -67.362770 -155.424423
-42.234066 -67.940910 -157.123642
-96.734650 -68.314545 -159.861969
9.945399 -68.291710 -157.224518
12.428042 -72.054962 -157.856781
21.687677 -70.207497 -162.026123
-101.253418 -67.799362 -158.033264
-36.321560 -70.128059 -162.593475
32.103516 -68.898796 -158.296356
-102.160812 -69.803482 -162.856186
-47.773937 -70.010841 -162.479813
-35.632626 -70.772324 -163.326767
-45.889954 -68.956367 -160.821442
-40.500595 -68.325844 -170.557220
26.897003 -70.038017 -167.836380
-38.223003 -67.796448 -170.509186
-103.659554 -69.328781 -170.077545
23.095100 -68.712341 -169.011505
-36.122211 -69.201492 -174.767563
-32.000244 -66.980804 -172.997070
17.878847 -67.909050 -175.315796
-143.496323 -70.416832 -174.946747
-152.591583 -72.016319 -177.731842
-31.943727 -68.260574 -175.715195
22.806522 -67.048279 -172.493713
-28.491541 -68.126549 -181.523315
-29.597567 -70.255699 -175.491577
-153.910538 -69.340263 -179.300705
22.341801 -72.963867 -178.109680
20.440096 -69.184830 -176.604950
-30.301382 -69.237213 -176.840378
-106.566391 -70.130028 -177.528168
-106.310822 -69.731834 -181.135742
23.567076 -70.697166 -183.796753
19.850033 -70.813194 -185.176086
-27.989475 -67.622681 -183.691528
-24.543037 -70.496719 -180.184433
-148.620804 -70.094826 -186.792252
19.541605 -67.871475 -190.578339
19.270889 -69.338570 -190.324860
-28.614109 -67.748238 -190.630722
16.259418 -67.748802 -184.275864
19.823250 -69.315689 -198.412827
-142.987579 -70.522118 -187.835724
17.733452 -69.843781 -192.122681
-106.576874 -68.391426 -188.470093
-114.951668 -68.343697 -192.356934
11.534564 -68.881081 -194.317383
-18.790100 -68.605072 -192.541519
-142.399002 -69.906708 -196.131683
-116.798378 -71.816109 -193.744583
16.224323 -69.566772 -194.410675
-115.346626 -67.261047 -196.657852
-108.629982 -68.625435 -194.825836
-163.726883 -70.301773 -197.326813
-16.268970 -70.334877 -195.453339
19.835829 -70.391533 -195.362579
21.487885 -70.850586 -200.873383
-23.593073 -69.709465 -205.095001
17.298241 -69.365623 -197.477448
-164.008072 -70.717697 -200.896423
18.842844 -70.662285 -204.792496
-139.497696 -69.955688 -201.587570
-131.988083 -68.096352 -203.947037
-14.341066 -69.292877 -204.755966
-19.659948 -71.275757 -203.601990
-18.503311 -71.196663 -205.610367
-166.980530 -68.493820 -202.625259
-13.337608 -70.443626 -205.346725
-17.626703 -70.078392 -208.127121
-152.235626 -64.890060 -209.072678
-143.318298 -68.041771 -210.155563
18.352379 -68.044395 -210.748917
-15.426873 -69.985397 -213.775391
-20.120134 -69.175835 -208.331802
-12.417155 -66.139015 -214.530136
14.783820 -69.957237 -213.545715
10.759621 -67.481277 -217.301010
-13.594356 -68.211578 -209.697968
-165.398087 -68.362686 -209.813324
11.787884 -68.210487 -211.034714
-157.275635 -65.927109 -213.921280
-10.269091 -67.461342 -217.495697
-14.590023 -71.136215 -215.183823
14.665524 -68.160454 -216.330032
-153.511475 -67.462891 -213.618698
-96.920364 -69.371674 -217.200363
-100.301666 -68.812668 -220.537964
-96.256889 -67.131660 -217.195801
-2.813157 -68.664085 -216.257843
6.062959 -67.283340 -224.844193
-1.581474 -71.536606 -219.039368
-97.874985 -68.979507 -222.570953
9.501418 -69.080612 -223.104568
13.321891 -68.642456 -223.692886
-6.116923 -68.485382 -218.137390
-7.280141 -67.742790 -223.372330
-143.968842 -68.938683 -223.895172
-8.453225 -68.452972 -221.519043
85.760124 -68.099564 -219.230667
-154.436539 -66.820610 -218.044998
-157.222916 -67.449760 -224.197800
-10.982368 -71.490845 -219.350082
81.475922 -70.776787 -218.382614
-134.348251 -71.714615 -225.530609
-126.480530 -66.982025 -224.929626
-133.089737 -69.554024 -225.217926
-99.605438 -69.882195 -223.471817
-9.441599 -72.068367 -222.818680
10.157531 -70.403069 -226.568878
78.992935 -67.014862 -226.596756
-164.130875 -70.550896 -222.673706
10.457806 -66.275414 -222.190826
-156.008118 -70.977951 -224.514099
83.075264 -70.451790 -225.098038
-0.335830 -68.422531 -225.582901
3.434276 -71.238388 -226.249985
-0.950052 -72.276161 -226.470474
-12.670889 -68.418144 -227.156891
79.163986 -70.235367 -228.196335
4.330933 -69.805130 -228.737335
0.260612 -69.784996 -228.056885
72.470413 -68.452888 -226.466064
-16.799351 -70.081871 -230.685837
76.349754 -68.441193 -227.689697
0.949200 -68.803001 -234.866043
1.692036 -70.837296 -233.156281
-123.474159 -69.282967 -235.416077
-11.433504 -69.165184 -232.610641
-125.047226 -72.855873 -236.216644
70.446533 -69.625954 -231.899689
-131.618912 -70.228020 -235.918640
-130.653717 -72.726936 -236.262955
6.558118 -72.650024 -231.417084
-167.671478 -69.490570 -240.070297
-143.300949 -72.526901 -235.388519
-2.490408 -70.179436 -236.208847
6.612877 -68.653900 -234.195877
64.201553 -69.380417 -237.655472
4.197865 -69.359421 -235.721634
1.309130 -68.954994 -237.370453
70.534340 -67.820648 -238.289841
-154.807602 -69.337090 -238.974258
-146.008896 -68.465439 -244.259384
67.921379 -68.440437 -239.201675
58.758129 -68.603958 -241.835876
-158.888992 -65.635254 -242.084030
-12.762958 -69.714005 -242.185455
65.910133 -68.406151 -242.594589
-165.198288 -69.813553 -244.264938
7.959589 -68.064003 -241.954956
8.906398 -72.747887 -242.080704
-166.538055 -69.458618 -246.257339
-160.709061 -68.723595 -240.933258
-165.585663 -68.318008 -240.621521
-161.095505 -69.295471 -246.015396
11.745695 -70.353271 -243.914307
56.767754 -69.228973 -244.912933
58.217972 -70.773438 -242.689651
58.576988 -71.164810 -245.934479
18.287968 -68.972610 -247.465073
50.929409 -72.744965 -242.623932
61.488102 -67.987434 -247.864670
55.269348 -68.969940 -245.852005
61.019936 -69.258766 -248.294510
-164.445343 -69.703758 -247.897644
51.498768 -68.709068 -248.827637
-160.305603 -68.372368 -246.907806
-159.978378 -67.296730 -248.652573
-158.233078 -70.128944 -247.491867
47.927235 -66.729828 -249.654617
-166.580811 -66.972160 -245.635971
-15.414446 -68.686974 -250.437195
-152.190002 -68.900986 -247.933121
22.838005 -73.308098 -251.539093
-165.807861 -69.160843 -248.888351
-166.241699 -67.752464 -250.623901
44.454189 -67.865288 -248.934006
45.025898 -69.338364 -250.691772
-143.420471 -68.196121 -252.242706
-85.468536 -69.475136 -253.481384
-169.143570 -71.266029 -254.450562
36.107319 -70.856369 -253.426575
47.383392 -67.156616 -251.485092
-85.910797 -68.593689 -253.849075
-102.615158 -71.322273 -255.114471
41.655273 -69.253998 -254.974640
24.587406 -70.156487 -254.358459
-11.807241 -69.011200 -252.402115
-142.881378 -67.128708 -255.306107
-86.276268 -68.495712 -253.570953
-86.934891 -70.078751 -257.029419
-113.505058 -70.344795 -258.800995
-110.502487 -68.233093 -256.799225
-149.972473 -68.558296 -258.668213
-163.025009 -71.490753 -259.036591
-161.771347 -67.687996 -258.900238
-98.133743 -68.576965 -259.749817
37.183590 -67.398666 -259.185333
-12.061000 -67.275139 -257.453705
-104.230637 -72.519958 -261.263580
-168.799728 -68.739426 -261.624176
-154.524277 -70.513809 -262.048035
-106.662437 -70.020462 -261.229919
-163.318756 -69.304420 -259.339172
-163.177429 -69.998581 -262.828522
-109.913589 -71.805832 -261.111511
-106.147751 -68.725159 -261.658325
28.842850 -71.117668 -262.579926
-113.191231 -73.164940 -262.105316
-164.981842 -67.075333 -262.676910
-149.906494 -68.086937 -261.734283
-156.371643 -67.928345 -263.981445
-168.239380 -68.456291 -262.005066
-161.503204 -68.986618 -265.339325
-164.062424 -67.273453 -268.569153
-163.514847 -67.003456 -266.740692
25.446840 -70.302841 -264.782745
-11.947916 -65.941490 -262.873657
-145.979065 -71.231491 -276.255219
-153.262085 -71.239754 -263.840637
-13.495523 -69.475578 -268.478668
19.915121 -72.294846 -276.574402
-144.515549 -67.822762 -280.013855
21.625814 -67.397484 -277.351685
18.565243 -72.744644 -279.081726
-7.561975 -67.013481 -277.326355
-125.196793 -69.453453 -285.643402
-136.633377 -71.679649 -285.923553
-133.776794 -68.518227 -287.401855
-123.312744 -68.891891 -287.574554
-117.327576 -70.173553 -288.093201
-93.985558 -69.849251 -289.106079
-107.823006 -67.038795 -288.388458
13.365294 -67.074829 -289.643372
-91.701492 -69.358864 -289.479187
-99.486092 -68.805428 -291.106232
-85.174911 -68.361481 -286.399414
-54.083836 -70.360878 -292.040985
-149.792725 -70.978592 -288.346497
-96.135658 -70.061996 -287.996460
-95.654037 -71.401756 -291.155029
-53.448563 -66.825287 -291.604156
-103.812431 -67.507240 -286.940521
-101.290955 -67.983368 -289.661163
-124.190575 -67.810516 -292.377838
-107.733292 -69.432129 -290.526276
-1.986227 -68.371460 -294.560028
6.006291 -70.314369 -287.775726
-141.284241 -70.806480 -290.655914
-108.097633 -68.590790 -293.658295
-119.557762 -68.154099 -289.664429
-113.452103 -68.217850 -294.181824
4.534376 -70.217506 -293.706177
-144.035370 -69.450554 -292.519318
-127.104836 -70.914803 -293.508820
-154.560883 -68.690758 -294.401978
-152.796219 -70.252632 -294.515320
-148.034088 -69.598648 -308.450470
-157.445969 -69.574120 -311.287384
-150.816849 -71.342850 -312.497772
36.291508 -71.129776 -13.424779
29.852947 -69.584618 -12.633256
49.906918 -70.407768 -19.981449
51.044811 -71.912086 -26.089584
19.946550 -73.114212 -33.296570
22.817543 -72.118286 -36.172340
36.209949 -68.330872 -35.308334
41.447983 -67.807289 -40.069611
32.077171 -71.064514 -37.858780
-59.787457 -69.934975 -47.027615
-53.796913 -68.454788 -47.337727
-48.881428 -66.984520 -46.874321
-17.671406 -66.392868 -58.531490
-14.218895 -66.751289 -62.476761
79.009430 -70.830116 -68.068489
90.480293 -71.827286 -69.440872
71.146141 -68.192482 -67.171486
-17.463974 -71.277733 -72.241714
-22.167168 -68.075447 -72.344612
71.917145 -69.272003 -69.807495
-23.933817 -70.801666 -74.349945
-28.741299 -69.544083 -75.381073
-36.323410 -66.944313 -77.796707
-95.310890 -70.718704 -80.416367
-42.145054 -67.860542 -79.137680
67.150352 -69.586388 -82.773071
66.537407 -68.287056 -82.321861
61.554840 -69.327263 -82.972527
61.179054 -66.751160 -83.544952
55.674042 -69.335083 -88.590607
-58.866287 -68.693298 -90.887741
-60.533100 -70.339844 -90.892700
68.026237 -68.321411 -88.164566
64.027832 -68.491776 -89.654320
-95.641144 -68.543495 -89.903625
47.246925 -67.475189 -97.299713
67.119667 -67.274773 -98.415375
60.958698 -70.732193 -95.744492
-63.902157 -64.773773 -94.683640
52.145264 -67.454521 -93.748741
43.771648 -66.333313 -96.131920
56.308449 -69.607628 -97.444672
-65.570114 -68.983292 -99.356239
60.206547 -69.824677 -98.401123
103.029175 -67.954254 -99.405876
-65.542038 -66.941483 -99.763855
53.963459 -68.613579 -101.610580
109.771439 -68.422096 -99.674751
-78.756660 -68.929420 -98.813438
57.378353 -71.336113 -102.876350
46.836327 -67.156403 -99.825134
47.984310 -68.481544 -107.359627
107.367867 -68.254662 -102.141029
95.295494 -68.645630 -102.911316
48.594666 -68.665405 -101.613579
-74.311295 -70.407806 -107.628891
104.035019 -66.801643 -106.507446
-85.098137 -67.578667 -104.318016
93.558922 -71.736626 -105.890602
82.847755 -68.675583 -104.866280
85.197044 -69.139252 -106.061256
51.638229 -67.334694 -110.002251
-97.860741 -67.332832 -102.167427
107.910072 -67.170029 -102.154549
-74.759834 -67.559158 -109.470200
-84.892387 -69.633301 -107.984787
110.571831 -67.989235 -114.417847
-95.905403 -67.421173 -108.750458
106.435234 -66.276855 -114.470718
41.940933 -66.934753 -112.036331
38.282169 -68.509033 -116.106415
-75.347221 -67.174370 -112.572334
-78.170563 -70.400185 -119.349686
-91.522293 -72.607491 -116.284233
105.567787 -66.200996 -114.766212
-90.297318 -70.085327 -117.445129
-85.627579 -70.528107 -117.489090
-79.366493 -69.603813 -120.604027
-59.121063 -68.592377 -121.470757
110.100952 -66.448532 -120.737549
-77.527847 -68.106514 -123.378113
113.354744 -67.630142 -122.131348
-59.996952 -68.353348 -122.395248
113.447754 -68.085274 -128.980881
-64.208687 -65.241226 -125.834274
108.956779 -67.540108 -129.711899
-80.974350 -69.279312 -129.051849
115.082474 -68.285370 -126.015488
-75.731728 -67.365227 -128.492371
-80.460289 -69.533005 -127.140762
-82.415558 -66.614372 -131.659760
-88.620789 -67.757011 -138.348022
-93.379578 -66.878487 -138.500061
-60.479660 -68.719055 -143.856216
-48.770042 -68.913750 -141.871902
-44.034328 -65.768753 -142.810593
-71.090271 -69.926178 -138.620956
-49.268993 -69.593048 -144.298416
-74.943893 -67.381081 -144.248245
-70.790047 -66.639725 -146.423218
-73.822563 -68.265068 -141.545624
-50.909565 -67.304657 -144.067581
-48.743233 -67.714073 -145.836426
17.536152 -67.304916 -146.777679
-93.260590 -67.876801 -147.005463
-74.884430 -66.631165 -141.778183
-68.914223 -69.479286 -151.131409
27.034927 -66.808655 -144.461609
12.736988 -68.137329 -148.994537
-54.397167 -68.921799 -147.990417
11.302975 -68.838692 -149.567352
15.806220 -67.625938 -147.803757
-48.070045 -68.981468 -148.684631
-43.320789 -68.882484 -148.144638
-48.753101 -67.610161 -151.174530
-41.451473 -66.957954 -157.286911
-94.221657 -68.763390 -151.944244
23.453320 -68.452751 -154.174393
-42.910645 -67.436760 -154.539352
29.524939 -70.294769 -159.086060
9.992549 -67.916977 -154.737000
-43.715126 -68.306854 -153.133804
7.399715 -69.432320 -156.295883
-100.663094 -70.332970 -152.454697
-41.324154 -69.630226 -159.214935
27.049496 -68.273552 -149.450378
28.762636 -68.695709 -154.681244
24.151417 -65.474762 -160.865875
-99.724411 -69.480682 -160.274490
23.169327 -67.604790 -158.356522
-104.994797 -69.432892 -166.970932
25.268059 -66.450790 -162.282501
27.191950 -65.677635 -162.876007
-107.226547 -69.326126 -171.580307
-100.792725 -67.749702 -166.004333
23.450794 -68.304817 -167.914185
20.284246 -67.596756 -168.237976
28.667793 -66.444656 -173.262360
-102.510048 -69.061287 -172.599564
