# This PCD file was generated using the MATLAB® pcwrite function
# from Computer Vision Toolbox®.
# .PCD v.7 - Point Cloud Data file format
VERSION .7
FIELDS x y z
SIZE 4 4 4
TYPE F F F
COUNT 1 1 1
WIDTH 1450
HEIGHT 1
VIEWPOINT 0 0 0 1 0 0 0
POINTS 1450
DATA ascii
35.298088 -73.699638 -3.137503
28.586592 -71.232094 -14.856133
17.367085 -71.919342 -21.591711
-71.076538 -52.213436 -108.615250
10.669763 -72.625580 -29.321918
23.945154 -73.965324 -17.410023
5.180425 -68.073570 -35.528278
-23.944483 -63.180939 -61.259392
-33.233879 -61.374245 -71.456413
-76.029373 -52.769245 -108.927864
-43.228390 -58.244686 -73.985657
-38.801273 -59.734695 -72.125114
-33.379391 -59.745319 -64.061066
-22.370752 -64.881805 -51.195393
-10.776278 -63.712929 -42.710758
33.600849 -72.056313 0.375996
32.828903 -75.523521 4.070940
6.549874 -69.417976 -20.366898
18.901367 -71.866608 -7.469006
20.862700 -74.854027 2.873642
9.518640 -70.638031 6.485727
73.293755 -58.376930 -339.991302
87.139633 -62.531761 -314.259888
65.186676 -57.550865 -325.504425
83.910789 -65.030670 -262.629150
16.722727 -51.640827 -332.273285
12.032292 -50.585712 -331.386139
20.476038 -51.657879 -325.616028
19.984098 -53.217789 -322.486725
3.886900 -53.107971 -331.516235
135.931519 -72.022743 -202.987610
15.541110 -55.593220 -315.066467
92.807396 -63.990772 -239.953934
-11.982498 -48.698051 -328.087524
15.420468 -54.009449 -297.362061
-21.326677 -49.373909 -324.441711
-21.901030 -46.608631 -321.429077
1.354032 -52.571392 -297.421173
107.198067 -73.714890 -196.562546
10.021165 -55.579754 -284.358673
-27.418070 -47.787876 -317.815063
9.654233 -57.973919 -274.041473
-10.516901 -49.765011 -299.799103
16.466368 -54.456337 -271.711517
-27.879435 -46.174007 -319.170685
11.202313 -52.591797 -276.917053
-35.286518 -47.314251 -315.522705
-37.216320 -46.768414 -313.091492
97.564384 -69.069649 -184.865753
97.733810 -69.876938 -178.399399
5.408698 -56.699295 -263.570282
-43.536766 -45.751869 -313.377350
-46.693916 -44.605659 -310.299347
91.989601 -70.479546 -169.413651
-42.443817 -46.696972 -305.622559
70.060997 -68.020195 -184.852890
94.916939 -70.486450 -169.227921
84.963631 -67.669846 -176.244247
72.027641 -64.436478 -189.248962
9.581663 -54.594948 -249.109909
0.609320 -55.315048 -251.160675
77.798378 -68.236572 -169.797516
6.930742 -55.581303 -243.271439
-55.949486 -45.934727 -293.601898
49.907887 -64.754539 -185.175552
0.214396 -52.364311 -232.171127
-63.824329 -43.250305 -295.368805
-3.575233 -53.547325 -240.609573
-56.443924 -44.277287 -293.000854
54.630116 -67.062096 -177.529282
63.767937 -64.363808 -165.564575
49.582539 -64.471733 -174.282745
36.502018 -63.876667 -172.686447
7.734059 -55.869225 -211.906616
-67.620918 -44.064007 -286.664246
-67.181725 -44.187763 -283.105194
4.090882 -55.298428 -211.823425
3.280542 -58.987526 -206.713837
0.963154 -56.503067 -218.256363
-5.696653 -53.515450 -225.138672
-73.635803 -42.523838 -278.418213
-72.030739 -45.873806 -274.059021
-15.947085 -52.646244 -213.215988
-9.413836 -53.628712 -223.603912
-73.688446 -42.936687 -282.029877
19.291744 -60.666645 -175.880569
-75.648392 -42.785954 -274.605682
-11.249052 -55.438236 -206.975433
-10.243081 -55.022602 -217.114883
-76.118652 -43.967960 -270.099152
-16.693069 -53.159603 -215.086121
-82.796837 -41.773319 -266.787659
27.900492 -61.470631 -167.536911
-19.962460 -52.509686 -212.827713
-81.741547 -42.565083 -262.063263
-23.224209 -52.817490 -206.321793
99.288528 -74.037613 -80.631920
10.669785 -57.888264 -164.184219
-26.009638 -50.682964 -203.958740
65.593422 -70.998955 -105.519363
66.304604 -70.191360 -109.044998
-25.967724 -51.784256 -200.179199
-17.509459 -53.944180 -197.309265
8.888001 -60.732502 -165.188461
7.780888 -61.616039 -163.776352
10.835887 -60.135700 -166.363831
-17.293884 -53.712387 -204.403336
93.754265 -75.231155 -76.380745
88.078590 -74.662155 -80.676468
85.350853 -75.327332 -81.162369
2.458343 -58.482845 -168.408051
-27.392179 -54.835064 -184.586243
-85.316025 -42.785667 -249.277527
62.836792 -70.830421 -100.540237
-33.749130 -54.021076 -193.102249
-3.784497 -59.047081 -168.421021
-3.489663 -57.608917 -163.743195
-87.185440 -43.090271 -246.017578
-28.040890 -55.071548 -182.385925
0.102451 -58.483578 -164.836914
67.986137 -71.130531 -90.260345
73.694656 -72.276718 -81.013336
60.220985 -70.925865 -96.508568
78.545311 -73.932724 -75.152451
-29.757412 -52.638256 -190.731094
-90.356842 -44.108463 -237.444839
98.161369 -74.455696 -59.047161
-92.015419 -42.788471 -243.195053
-10.151298 -57.605442 -158.066605
-94.592842 -45.752960 -232.366043
-91.283325 -43.497383 -226.166718
-35.158978 -54.162346 -177.679184
-39.865788 -53.758087 -181.159164
-32.295658 -53.469524 -180.197845
-24.394821 -57.289631 -154.581635
38.204788 -66.954147 -97.993309
-22.904655 -57.682777 -161.888443
-94.614090 -42.943314 -229.073807
33.899502 -67.103241 -99.033279
41.777020 -68.650009 -91.027420
31.978327 -69.284363 -99.050629
-94.937347 -42.728321 -221.074020
59.739258 -72.131660 -65.827927
59.587833 -70.533379 -65.210472
49.255146 -69.971756 -77.447166
44.251137 -68.472740 -81.790215
60.342403 -73.982086 -62.970222
41.611057 -71.467873 -80.414085
43.609673 -72.031471 -77.313194
-31.491852 -56.412949 -153.291946
-22.158323 -56.466331 -147.527817
-39.717426 -54.564735 -152.689377
-30.531406 -55.076370 -149.591049
-53.053467 -54.013004 -163.522797
-25.151457 -54.431416 -144.226608
81.876968 -75.837204 -42.908218
-40.580864 -54.243137 -151.770584
-96.596748 -45.614422 -211.353592
-49.261684 -54.234119 -158.634811
-38.228985 -55.575737 -147.695511
66.343613 -73.404808 -39.682667
58.202030 -72.416389 -53.620869
-88.891403 -46.246510 -195.294525
-39.104706 -55.548904 -146.379608
-45.467682 -53.605602 -156.091049
-93.029121 -45.534843 -199.692230
-98.524811 -47.095268 -205.384842
-96.075943 -44.698349 -195.499100
-43.327522 -55.593624 -147.293274
-88.265343 -47.218876 -186.119766
-31.775335 -57.059902 -134.585358
-35.271206 -57.223122 -133.994858
-53.183491 -51.527504 -152.614258
-92.454575 -46.074455 -192.287949
-89.961243 -46.804913 -191.169800
-87.048500 -47.215549 -177.309067
-90.344978 -47.599022 -186.912018
-42.448429 -56.570450 -128.580444
4.839972 -63.487110 -81.613747
0.418212 -63.777042 -85.955040
-82.769379 -49.294140 -171.022751
49.556820 -72.216919 -38.326576
-83.815773 -49.539639 -163.164734
10.646465 -65.911469 -75.924065
52.909756 -71.709320 -29.315823
44.447277 -71.983688 -39.661343
-89.161270 -47.816257 -171.407318
30.431034 -67.589455 -49.927425
27.027809 -68.335670 -55.997070
9.356171 -63.675377 -70.294853
-45.607960 -55.635406 -128.953186
-83.141060 -48.594978 -154.487137
-76.966713 -50.881584 -150.082703
52.535168 -71.794846 -25.152964
19.680544 -69.123856 -53.106937
-50.238503 -53.813087 -123.089066
32.581478 -71.981689 -36.445587
-57.281254 -54.044891 -115.641914
49.938835 -74.460625 -6.312091
-69.289558 -55.202587 -109.375092
35.856045 -72.751564 -0.606878
43.443092 -73.625259 -7.914547
25.639853 -70.486282 -15.447602
43.274944 -74.444267 2.374298
-87.454979 -49.906639 -122.105736
-2.548534 -65.388519 -41.485294
-16.996984 -62.084957 -53.853340
40.725159 -72.894829 0.737508
-13.023969 -63.398041 -50.146843
28.390581 -70.968697 -10.057656
-28.261702 -59.961323 -61.593693
-30.935226 -61.012245 -65.358910
-23.181879 -61.976974 -55.483585
-78.294945 -49.656193 -108.857834
-20.948896 -60.372662 -52.303291
-11.823993 -64.839409 -41.081203
-0.324143 -66.559601 -32.067181
1.720230 -66.899796 -28.453110
12.945426 -66.596451 -14.650256
13.092498 -69.731148 -2.769168
7.649731 -70.369980 3.257172
91.327850 -61.614422 -323.782074
86.205894 -59.669361 -329.013611
86.237061 -60.166466 -325.713531
72.839172 -57.061287 -332.647583
78.575378 -61.255409 -315.355804
140.678040 -71.426529 -233.516006
11.696603 -46.761143 -335.769836
82.452995 -64.106445 -261.867706
-1.268246 -47.016464 -337.761444
-2.892275 -50.810562 -332.694092
16.351433 -53.664986 -312.445740
14.853830 -53.746506 -306.845093
93.074966 -67.429916 -230.288422
18.262461 -49.698681 -302.661682
127.017120 -74.395248 -192.034027
97.335098 -64.670219 -224.604752
95.648224 -72.413300 -215.536942
-17.371935 -49.701477 -319.802185
12.606914 -52.806202 -291.705994
10.248163 -51.749157 -298.538879
122.598183 -68.328705 -183.762222
-25.643574 -46.497536 -325.876587
19.051016 -54.105614 -281.893311
-18.878260 -47.907024 -319.626587
-27.419559 -48.256744 -317.140228
-27.943432 -47.727566 -315.484497
-3.577111 -50.367691 -295.571777
-16.729057 -48.322357 -306.164520
7.786845 -55.374844 -273.269409
-31.751402 -46.011917 -319.878754
12.514858 -52.681759 -272.915588
18.618465 -51.741791 -278.630951
-37.935886 -44.300732 -317.072998
99.609032 -69.501945 -184.743561
7.072786 -53.478756 -271.029694
15.638425 -52.899830 -263.392914
-29.705860 -45.781143 -313.399719
12.221153 -51.789154 -267.361389
103.058189 -70.682617 -175.083374
108.144272 -71.819763 -172.636765
-37.512951 -44.694183 -309.982483
104.175140 -75.330673 -170.138519
9.412221 -53.061249 -258.636230
11.026905 -53.681202 -261.484741
90.788483 -67.431717 -173.766434
1.358066 -51.711002 -242.994324
-50.612713 -44.116364 -300.148834
65.188484 -63.281727 -188.579422
93.804558 -69.283546 -166.228424
0.240860 -55.153069 -248.447083
91.777176 -69.463753 -160.312408
87.289276 -69.851700 -158.245285
59.021641 -67.567970 -187.901352
72.611412 -67.298241 -172.006958
63.284641 -63.036449 -188.594666
-55.520378 -41.564983 -298.062592
77.186943 -66.458633 -168.230469
4.166075 -51.702171 -249.521667
79.245514 -69.073692 -165.551895
77.468819 -64.920906 -170.428741
87.687149 -67.087517 -159.698853
53.339462 -64.981880 -178.046738
-3.339036 -52.116749 -235.769577
-3.250607 -53.016479 -231.098831
7.665839 -54.253551 -227.128860
-62.446239 -42.107735 -293.571136
82.207756 -68.388252 -142.241913
1.848235 -54.535294 -221.154388
67.173294 -66.253014 -160.165909
0.391707 -54.273296 -227.555084
47.534103 -62.529793 -174.393005
8.691372 -55.991928 -217.374832
1.763168 -54.417690 -217.281601
-6.308912 -55.332664 -216.717499
38.665165 -63.700039 -171.945953
43.552605 -62.924404 -181.243225
42.230923 -61.710693 -174.769180
76.382431 -70.263725 -123.684151
-15.829058 -53.364513 -209.946899
25.668177 -59.023182 -170.628235
-13.415838 -53.490582 -204.139557
100.932343 -76.040016 -93.921944
24.659292 -59.916531 -172.351898
106.132774 -75.229027 -88.881828
-22.952139 -53.357376 -204.273331
22.443750 -59.190067 -173.365326
72.119850 -68.409698 -113.724831
69.345711 -68.966782 -113.011612
12.075647 -58.995144 -167.975693
10.187326 -61.036510 -172.539230
-22.794592 -53.203133 -193.845123
-28.108532 -50.466236 -192.405136
-19.341528 -52.178032 -195.357758
91.690582 -75.073250 -85.115326
-23.451191 -52.692677 -195.634247
-24.526804 -55.122646 -185.339188
83.290970 -71.422859 -82.402115
67.744843 -70.838623 -99.911720
-25.820484 -54.550110 -188.620773
64.993530 -71.186096 -101.127106
64.192398 -70.101105 -107.788673
98.521431 -77.599831 -64.829292
-1.560045 -60.397278 -159.995346
-33.008419 -53.193474 -186.672806
79.366615 -73.319366 -78.527626
72.308334 -70.181061 -82.617447
-9.834778 -55.993679 -159.812653
-13.204280 -56.625889 -164.969803
-11.487648 -56.679199 -159.632156
80.076332 -73.426956 -73.242386
-15.957347 -58.937771 -156.038315
-18.254229 -55.648228 -157.267532
-37.210285 -52.564850 -181.245377
-17.672171 -56.876091 -159.854553
-34.624393 -50.809025 -176.412140
-24.469339 -54.456108 -157.843201
-14.067228 -56.495461 -153.476547
-42.762463 -52.938400 -170.178116
-33.776749 -53.707748 -160.070862
-42.905045 -52.379635 -167.833694
-31.322540 -55.498482 -155.281586
75.655319 -75.124023 -50.849522
-91.531853 -46.086224 -217.889130
59.496841 -71.519241 -65.406387
60.366905 -70.014610 -65.662575
-30.325626 -53.400654 -150.543686
-47.399097 -53.595139 -160.534988
73.819839 -71.931740 -49.967640
-94.335968 -43.705418 -220.730789
-33.468174 -54.103073 -156.469116
-36.771423 -56.613228 -157.466003
-90.910088 -45.934734 -208.515640
-41.727631 -53.267330 -152.581512
-28.340300 -57.678211 -142.875641
46.940140 -72.379166 -64.693741
-40.021221 -53.113113 -148.078522
-44.228882 -52.628864 -154.349869
-93.775703 -44.350300 -193.214569
66.742928 -72.370346 -37.676910
-41.002487 -55.735664 -134.988968
73.154190 -75.382195 -32.360954
-54.787731 -52.116501 -150.520721
74.330933 -74.254044 -32.077126
65.842239 -73.641907 -33.282780
-89.031685 -45.182587 -180.893570
-93.476067 -43.852768 -188.767090
-88.948219 -46.318398 -186.678299
-88.539429 -46.045906 -176.238220
64.017998 -71.962105 -32.533405
57.137497 -71.794098 -30.107435
-42.401524 -55.124378 -129.129410
57.109882 -73.233589 -37.262470
-69.897545 -52.230125 -154.253326
65.140907 -75.133568 -24.127853
68.271927 -72.911766 -29.378033
4.273287 -63.910004 -84.577667
56.717789 -73.779915 -15.498021
4.322385 -63.637287 -79.360962
-85.667183 -46.157066 -167.103958
-72.692154 -52.649914 -152.477783
53.504734 -72.813736 -22.679327
11.597819 -64.832100 -64.613152
-85.636963 -48.487175 -161.682373
12.351159 -67.200752 -61.599739
48.671555 -67.403084 -22.578392
16.096743 -64.200615 -59.872154
58.597668 -73.040016 -18.567038
18.471062 -66.841866 -53.327610
45.084560 -71.687294 -25.078674
48.309040 -73.700981 -21.927551
55.118740 -74.098824 -14.044659
54.706497 -71.579430 -19.732338
51.023487 -73.805260 -14.218782
50.589222 -70.884026 -16.307144
-80.746155 -50.369854 -146.692444
45.133381 -70.137009 -22.381094
29.585428 -68.475090 -13.047148
-88.123360 -50.770866 -134.501648
-61.787983 -51.889664 -115.159126
13.972891 -69.358566 -28.367538
19.377363 -71.048203 -21.779440
19.056517 -67.329826 -20.099768
10.135451 -68.688408 -27.673004
3.583450 -65.754807 -34.496864
-1.387102 -64.794647 -38.153095
-88.153290 -47.904766 -119.307938
-17.250134 -60.370277 -53.389713
24.633902 -71.615051 -6.954745
-9.129750 -62.193989 -43.126328
7.222974 -64.195045 -23.455976
-87.462402 -51.017658 -117.245544
-0.775448 -64.974419 -31.512897
-84.314720 -50.955692 -109.698784
19.863897 -67.451866 -10.948262
23.095688 -71.152626 -0.953089
15.942109 -72.111168 11.949383
11.868660 -71.364899 12.528090
65.513596 -57.121113 -337.103699
78.834061 -61.695248 -310.507080
70.863235 -60.195518 -318.586731
121.295746 -68.661591 -254.063278
88.575981 -62.342129 -265.036713
3.271714 -49.177719 -334.690186
21.857622 -51.471184 -316.215546
85.208191 -64.612602 -251.270081
127.944725 -74.619469 -194.538574
94.233040 -65.106079 -234.990082
14.577147 -49.574005 -306.785126
18.372112 -51.598808 -297.384186
19.303432 -51.184830 -295.727753
100.022118 -66.752052 -215.691299
12.448986 -50.943676 -302.024109
20.393547 -54.541939 -282.472137
4.885100 -50.273129 -297.979523
100.409019 -66.204437 -206.821045
16.976627 -53.001740 -284.091553
19.849211 -53.897003 -280.581024
-23.263680 -46.661846 -320.897858
99.418083 -67.353996 -201.973572
-29.387081 -44.954117 -322.928894
109.016197 -69.179482 -195.273392
8.723639 -53.170956 -284.768005
15.959921 -52.912239 -281.708893
-18.356508 -48.684772 -310.173065
-15.021057 -43.479614 -300.780304
10.735811 -50.864075 -281.291443
97.358597 -70.819489 -190.234344
96.966927 -66.960800 -187.790955
93.877693 -69.115486 -180.548264
103.811462 -70.958855 -170.246506
-36.185005 -42.962574 -311.913696
99.771919 -69.448891 -175.911667
93.285957 -66.492310 -180.469147
-36.644112 -43.325085 -312.491119
84.693596 -62.789696 -190.197617
-52.054161 -42.543381 -305.172821
-45.889935 -43.057022 -300.557404
-44.028408 -40.845421 -307.261963
91.754723 -67.359016 -155.712601
57.627060 -63.905640 -183.302048
72.811584 -67.612061 -161.681488
66.049088 -65.198944 -163.962875
71.629852 -63.984100 -165.556046
59.698742 -63.092960 -179.294083
51.389179 -62.793236 -181.719269
5.274359 -54.164612 -230.100342
86.748184 -69.148849 -149.232285
48.416550 -61.074390 -181.345535
53.666130 -63.842175 -174.169556
42.482533 -60.799355 -179.338608
-15.598306 -52.271732 -221.649353
51.304195 -60.909798 -178.799042
84.987251 -68.325546 -145.035110
41.429932 -60.270679 -176.315842
-3.375701 -52.625523 -230.083008
80.493111 -68.630196 -131.746796
-4.701781 -55.078556 -222.776505
77.583473 -70.652611 -122.645576
79.398460 -69.640869 -132.854675
-8.876342 -52.209106 -218.180344
-14.185607 -52.969940 -217.204666
73.330078 -70.302132 -122.875298
99.116684 -71.994591 -94.921425
5.197643 -57.037548 -170.136536
12.283244 -59.778152 -167.117599
72.190598 -68.680244 -108.052338
92.155579 -67.759995 -86.068474
70.141220 -65.552147 -115.315155
98.090576 -73.369843 -74.419083
79.729218 -72.472466 -88.902596
80.249115 -70.222885 -87.593895
0.827552 -55.964840 -165.669678
71.908951 -68.769608 -93.514793
66.870056 -66.758804 -99.663208
-0.634492 -54.815216 -160.842209
90.351685 -72.750824 -68.800705
71.200050 -73.595589 -82.176735
65.701385 -69.920044 -86.490837
-31.061884 -50.392822 -187.695313
91.871696 -70.615288 -61.799706
-33.595173 -54.765217 -172.978195
-36.539127 -51.431957 -175.273254
-7.660903 -55.883087 -159.357559
-25.116295 -54.582912 -160.877426
94.889099 -73.936562 -54.611347
84.333572 -74.362892 -58.430195
37.364326 -65.862907 -98.789474
36.706161 -65.230591 -90.644775
81.717743 -72.113106 -50.028015
42.360085 -66.693512 -90.191551
-23.685450 -54.289291 -155.670258
54.679028 -69.199928 -74.063843
64.695961 -72.129425 -60.606621
-33.649822 -52.924519 -158.886719
59.208992 -70.393723 -66.061157
51.677605 -72.381691 -74.158821
44.653263 -65.849396 -77.353447
-38.716663 -51.723404 -159.873306
37.368275 -68.246727 -82.810760
79.502289 -70.882263 -51.821735
68.046745 -69.298843 -54.135265
82.854034 -72.265190 -43.926575
-33.943073 -55.211823 -150.344269
-33.741673 -51.377674 -147.278809
-91.640808 -43.209587 -210.714401
-41.567829 -53.441109 -155.960968
59.513752 -72.952438 -53.884537
-28.608322 -54.801605 -147.509415
-90.884369 -43.687695 -207.279831
-96.028175 -43.950859 -204.815521
53.987720 -69.612923 -60.093082
75.651848 -70.841080 -45.777199
39.447697 -67.477875 -71.987991
43.599609 -65.871170 -65.608109
74.745224 -72.328918 -38.030785
70.815201 -73.869514 -40.355022
60.407532 -72.707054 -50.816685
-36.610374 -55.243214 -143.033493
-42.523804 -54.014545 -145.583649
69.034889 -70.544235 -36.571354
-49.289402 -50.506611 -152.146042
-47.035591 -51.711945 -156.741531
68.351166 -73.224121 -35.622059
-60.263145 -52.674603 -153.803894
-85.665077 -46.012451 -179.462326
-87.702362 -44.758324 -181.178589
-39.719307 -56.794754 -134.330658
-86.393997 -45.640865 -176.378220
60.517437 -73.313705 -25.815577
64.959602 -71.650749 -29.665981
61.532879 -70.707718 -30.798384
-91.684425 -48.484669 -175.855957
9.831418 -62.846169 -76.860199
34.388008 -67.231438 -48.898140
19.505075 -66.412041 -62.841438
-78.613937 -48.271278 -154.161896
-86.412857 -46.359501 -168.978897
14.726865 -63.026573 -66.341225
11.165726 -63.945099 -70.131264
-86.825981 -46.508678 -168.417480
-87.886765 -45.536617 -167.198425
51.629692 -73.588287 -26.759083
-81.960693 -46.685184 -157.513199
37.591568 -71.366898 -30.712688
19.142372 -64.241325 -51.154716
34.601322 -72.307846 -38.139484
-82.862610 -48.575890 -151.688126
27.165707 -65.486465 -43.327160
-51.143044 -52.309525 -125.478264
-83.981628 -49.109844 -140.181290
-59.932293 -52.141899 -123.714378
-88.079918 -48.765259 -133.679276
31.429943 -69.295525 -11.585260
-67.682198 -52.131096 -113.035904
34.321629 -71.222893 -7.895701
11.724049 -67.165245 -28.163391
32.856167 -73.146439 -7.345724
3.395734 -64.613075 -35.006947
-3.663769 -63.206772 -39.112503
-73.144585 -51.656235 -108.990349
-2.383267 -64.043571 -34.641403
3.313340 -63.285069 -33.017048
1.512910 -64.795723 -29.455959
16.821098 -66.965805 -18.803070
6.561315 -65.348137 -22.704546
30.130232 -71.957237 -2.854225
17.953682 -69.605606 -8.952506
21.392147 -69.230392 0.997484
14.761734 -66.764885 9.425742
22.095932 -70.568741 3.447706
7.598049 -66.400871 4.771913
13.071192 -67.138664 9.035264
87.385246 -58.631683 -336.644928
78.600761 -59.288601 -340.422302
84.529312 -53.901165 -319.709961
61.920547 -56.677982 -334.253845
73.674553 -61.281841 -315.099304
68.569832 -59.798054 -318.209625
131.167282 -65.670067 -248.629608
15.679918 -48.716171 -333.170776
18.320992 -52.063931 -327.605255
142.744232 -71.661217 -213.377701
83.252182 -59.453964 -265.828979
138.083435 -73.573395 -209.023804
2.586294 -46.968170 -335.454620
83.598824 -59.963993 -261.376251
19.018385 -52.899578 -313.982635
94.219597 -67.235435 -240.538223
86.297104 -66.490822 -245.899490
19.684872 -52.709015 -299.374451
92.707520 -74.717522 -229.757614
13.389691 -48.736824 -303.572174
20.547436 -54.731197 -295.000519
20.305077 -54.477684 -289.294617
13.627341 -49.872784 -298.372131
12.253504 -52.325737 -291.390594
-20.012566 -45.221535 -320.683014
-20.620386 -46.324276 -323.729980
8.386314 -52.134205 -290.565948
-21.318920 -42.478886 -324.480988
104.152702 -68.221062 -195.967438
102.947433 -66.255920 -199.397415
-21.142366 -43.565674 -318.920471
13.380588 -50.562260 -284.113800
-0.023432 -49.507431 -297.387604
101.278618 -66.049561 -192.903976
107.429550 -67.768501 -185.705109
-19.150589 -46.088493 -309.201416
16.912186 -52.604511 -274.057587
-27.272032 -44.323250 -316.735962
9.754289 -53.375927 -270.224365
-30.126335 -45.384575 -320.096832
102.011620 -66.581009 -187.926086
-30.740566 -43.679554 -316.687164
98.491768 -67.392876 -175.788834
73.144096 -65.428078 -187.551056
70.957474 -61.512157 -191.970062
82.866112 -66.442917 -175.854584
66.458496 -63.148041 -191.467453
92.171211 -69.569855 -170.126938
82.336441 -65.287926 -170.144226
91.635101 -64.921448 -170.639984
63.569523 -64.762840 -178.181381
77.791031 -64.160873 -169.313644
66.962128 -61.475746 -181.210846
66.954575 -66.439552 -177.743195
5.644071 -52.955616 -235.715546
84.429878 -67.239708 -154.084946
53.906586 -60.784073 -186.194748
87.575066 -66.346268 -144.880142
86.276680 -68.001198 -142.394302
1.591991 -53.397789 -225.157654
2.151432 -55.902691 -217.638687
79.768898 -67.494270 -140.165680
84.072441 -68.524628 -136.111557
74.723831 -67.770401 -129.661057
-13.385696 -49.476295 -213.285385
77.158447 -68.093719 -123.466637
-10.327817 -52.800644 -212.599060
103.108818 -72.030243 -92.181564
-14.817714 -52.352745 -203.707108
-23.466223 -51.335213 -201.860840
99.867813 -73.410057 -79.224045
-19.293556 -50.598492 -205.425064
-18.092653 -52.052616 -203.695938
90.882767 -73.148384 -88.152222
97.699692 -74.234474 -80.961258
-23.921980 -51.808006 -197.833908
-23.659351 -49.712757 -196.058762
89.386429 -73.828712 -84.361893
60.116028 -67.496010 -104.586510
-29.928198 -50.949402 -190.146347
74.895538 -70.048393 -94.037727
-25.512304 -51.330853 -186.314545
81.902023 -69.959961 -89.496429
95.785271 -73.179962 -73.426888
100.079048 -76.183327 -65.884209
98.744370 -72.238319 -65.540291
-3.250532 -53.810833 -164.093948
99.581970 -74.254898 -61.168045
5.300934 -55.501816 -166.834473
-6.623397 -56.056000 -167.875183
-24.927280 -49.712959 -189.198654
95.892021 -73.003204 -64.610794
60.040634 -66.577324 -98.941612
-8.211052 -54.652977 -159.144409
91.839584 -75.671112 -64.189415
-29.624529 -50.944424 -186.209457
97.694183 -73.942444 -59.450928
67.633751 -70.608696 -89.778008
59.103931 -66.575493 -94.804146
65.092705 -66.800087 -86.646942
-13.095782 -55.506176 -162.228882
-13.082355 -52.865883 -163.024429
91.962646 -73.180267 -56.340427
86.869751 -73.297462 -54.344280
85.991173 -71.688690 -47.444725
73.813004 -71.484413 -65.921562
69.543610 -71.412109 -61.517769
-27.279442 -51.478764 -156.262863
-21.465588 -53.334240 -156.000244
36.569286 -66.792870 -91.782570
-33.263760 -52.721680 -152.058289
80.085197 -71.883842 -41.688946
39.758827 -65.412926 -77.437706
-36.127651 -51.140121 -156.898102
-40.959152 -50.279564 -156.296066
39.519661 -66.789322 -75.994766
-38.982735 -51.608849 -153.595764
41.481415 -66.617905 -72.182312
-38.857334 -51.635384 -144.168793
-39.867153 -51.677658 -149.899094
-42.625751 -52.546597 -150.763031
-91.802544 -42.352993 -198.006592
-34.936092 -55.174507 -139.827148
-46.968128 -53.368355 -148.469406
-54.151920 -48.617920 -155.342285
-49.251392 -50.655045 -151.933060
-46.035786 -51.324402 -147.926987
-89.019814 -41.442581 -194.997833
-95.183243 -42.248005 -195.923187
-55.612789 -51.139870 -150.378845
-88.163803 -43.784859 -184.154282
-86.896233 -45.016869 -184.865860
-82.802986 -45.877369 -175.273239
-82.311783 -46.420940 -167.749573
-82.182175 -45.152569 -166.280579
39.369556 -67.642174 -44.158413
-47.084476 -53.692642 -129.252487
-76.138954 -47.024929 -150.952728
-87.577980 -46.288212 -172.296616
-73.285065 -47.931179 -151.165604
14.556953 -63.714520 -65.547455
-80.810265 -46.252171 -159.942963
48.026581 -69.781128 -29.142527
23.997856 -65.505913 -53.684074
17.391600 -61.968781 -60.753647
-53.649876 -51.383610 -128.804474
47.303768 -70.822968 -33.022240
-82.860100 -45.276550 -155.426239
19.473146 -63.759789 -58.354908
-78.276039 -45.988430 -149.923416
36.454239 -65.351456 -37.991207
20.889769 -63.934963 -54.070934
15.955135 -64.603752 -59.093460
22.356749 -63.795197 -49.850479
35.938931 -67.632896 -36.542431
-80.409599 -46.201832 -150.100815
20.160580 -65.680382 -48.940418
40.721039 -70.707764 -30.394707
-62.752380 -49.303951 -120.216728
33.055500 -69.513138 -10.811819
-67.627136 -50.423706 -111.908745
-73.213333 -49.717525 -111.318298
18.290648 -65.559662 -21.101494
10.605178 -65.675339 -27.496870
14.192660 -66.497215 -14.860354
5.701553 -67.605492 -19.668594
23.139950 -70.129372 -0.482374
20.347437 -67.114578 2.033565
18.723820 -65.963310 -2.253136
19.796690 -66.899467 2.540668
13.235876 -68.194923 -2.146985
15.615974 -68.238251 -1.330994
8.854225 -66.806686 7.554146
85.364067 -61.184654 -312.711578
61.426670 -56.019333 -329.132416
72.688065 -58.866978 -311.508698
67.357849 -59.462120 -314.499084
119.451630 -64.661201 -256.054932
139.832993 -69.649193 -228.483902
21.650150 -46.951775 -331.993530
21.922911 -48.491070 -326.896393
24.352991 -48.063091 -319.461212
137.776199 -70.266685 -199.409653
-5.184589 -45.926647 -334.380219
90.977051 -59.050056 -240.060455
20.234385 -48.465076 -309.020538
98.404930 -60.763447 -230.455490
99.299072 -61.011421 -225.218246
20.368322 -52.035465 -289.985352
-15.894175 -46.229992 -324.879486
7.181112 -47.079082 -297.211395
12.773846 -49.073231 -292.561554
14.769360 -50.656010 -283.140656
11.601590 -49.564915 -290.694031
-21.213593 -42.144737 -321.522644
-0.862149 -47.538952 -294.509033
13.675762 -50.152340 -278.399658
-9.270646 -49.262638 -298.724152
-19.323856 -42.630463 -304.300262
102.984795 -65.232597 -191.530151
103.700203 -68.367317 -180.428528
99.545143 -66.885681 -181.525528
82.441673 -60.807362 -194.444672
73.517479 -65.574486 -190.138550
102.550224 -68.977791 -168.657852
92.736153 -64.833351 -180.999252
83.394455 -65.716545 -173.410568
73.694023 -63.248848 -186.091812
95.519447 -65.230247 -164.798981
94.509438 -68.407364 -166.142105
60.246788 -64.296707 -189.062393
64.567879 -60.599087 -187.320297
79.309227 -62.234646 -168.263794
59.894169 -62.785923 -181.415344
76.132988 -64.245918 -165.662582
8.177292 -50.649258 -236.925781
59.363903 -64.032043 -176.472794
59.860027 -61.169186 -178.882004
5.543581 -53.210350 -216.112839
5.444614 -51.303436 -220.541962
102.444138 -71.010063 -95.225891
73.684822 -68.112083 -116.274979
64.997978 -65.688240 -109.847244
94.688278 -71.156532 -76.703369
70.090363 -65.634064 -110.122269
93.914261 -70.500580 -73.130150
64.130211 -65.826653 -99.603706
88.339607 -70.087166 -73.031418
87.508011 -73.003342 -68.537331
80.425056 -71.419144 -62.366100
69.945091 -71.282883 -58.718445
73.445351 -72.604279 -54.831551
41.900692 -64.245598 -88.502586
39.324886 -64.328964 -87.436020
51.387653 -65.173485 -70.275223
41.435539 -65.654060 -80.531471
70.787476 -72.947449 -47.714596
-35.305981 -52.255531 -155.085236
56.510651 -67.210129 -59.582851
64.905998 -72.731644 -47.059944
52.823318 -68.458961 -57.570518
-35.189949 -52.166611 -140.209671
-52.504993 -48.357338 -153.458862
-91.190750 -42.803879 -190.618744
-65.310928 -48.815197 -155.438019
-91.551590 -43.263138 -184.375381
-81.776146 -44.925938 -170.540985
-89.507240 -44.979774 -178.783066
52.431591 -68.856590 -34.042168
52.913315 -72.000343 -32.570072
-86.549614 -44.800533 -163.821686
-81.100349 -45.688496 -157.474945
-88.198029 -44.741306 -171.664520
46.880215 -71.471077 -37.375099
36.342129 -65.836548 -41.572021
31.362944 -64.693176 -50.443851
39.532326 -70.163750 -43.354839
41.035030 -67.726959 -35.279270
29.515867 -65.803589 -46.438583
42.613773 -67.417511 -35.496410
27.569656 -65.573418 -46.473713
27.843124 -65.907852 -44.719234
27.655312 -67.447701 -42.953930
21.400856 -64.942314 -50.406464
-60.223900 -50.016701 -126.032974
-79.942215 -48.268200 -147.663589
40.950996 -67.133606 -28.006397
-82.360916 -45.661877 -145.830963
-66.350800 -49.362667 -121.360588
-88.317207 -49.080132 -127.142433
21.112268 -66.856567 -14.689886
11.875776 -63.024784 -26.587523
17.036777 -63.918461 -17.809978
30.315672 -65.825119 -1.963728
10.702116 -63.724617 -23.968922
5.596802 -62.761040 -28.851177
9.863407 -64.964630 -22.020592
19.856398 -68.382416 -3.688466
91.788422 -63.510975 -329.711456
82.903137 -60.948345 -333.400543
78.976540 -59.119839 -333.625397
67.913063 -50.214550 -336.760986
80.502426 -60.923634 -319.018524
77.708046 -61.780823 -309.478577
111.167862 -62.186695 -261.040985
142.687790 -67.708794 -225.464294
93.788246 -60.683483 -270.243988
25.483706 -48.219204 -320.814423
2.933131 -45.910610 -340.228546
16.766653 -49.227062 -305.985382
21.200390 -46.171585 -304.081848
-11.277666 -42.717167 -330.740967
102.985413 -62.691250 -211.837250
100.696396 -63.477798 -208.313614
19.513336 -50.332691 -284.501038
100.405357 -63.302414 -204.961548
101.349571 -64.665451 -200.050201
123.723488 -66.712219 -183.142319
103.741020 -65.327499 -194.138382
17.579679 -51.718937 -280.901428
98.994942 -65.973663 -198.737961
13.421545 -48.588219 -285.433441
-20.687031 -44.742260 -313.158081
-20.247641 -43.330338 -307.701050
93.623802 -64.012749 -186.512665
99.551582 -64.510231 -181.562698
81.332726 -64.524513 -191.214584
107.277824 -66.370865 -166.299515
85.371239 -65.919258 -174.660889
100.145966 -64.899078 -169.280807
81.165802 -63.186485 -190.675064
81.932732 -59.490623 -191.873245
94.170250 -64.669846 -168.009445
74.728821 -64.621201 -184.883087
89.760986 -63.137714 -167.707489
82.123299 -63.039768 -174.699020
74.584053 -62.171547 -181.379105
69.132042 -59.035954 -179.078003
62.897545 -60.165764 -182.079346
91.970001 -65.334549 -160.761810
90.546165 -66.407883 -149.731964
89.445160 -64.484077 -167.392395
2.744575 -52.290558 -231.536453
55.221783 -59.631622 -181.888336
5.837287 -49.923107 -224.307495
78.390358 -65.009300 -136.142441
74.010406 -66.539978 -125.577888
74.947609 -65.653236 -127.148048
81.744896 -66.869537 -127.444397
69.762703 -64.900597 -117.986755
77.546715 -66.287491 -116.062645
90.607780 -69.500725 -87.592102
70.135284 -64.624023 -109.194229
78.819321 -66.206139 -87.341713
85.871445 -70.167747 -77.135490
72.530167 -68.164597 -93.652557
93.006996 -73.126755 -70.646385
85.816109 -71.690704 -72.174370
67.913620 -66.508942 -90.122208
73.584869 -68.354263 -81.137115
82.141670 -73.229515 -74.098633
60.447018 -69.655029 -67.361580
43.886532 -64.953590 -76.984253
66.074768 -70.125862 -54.181179
45.373047 -64.007774 -74.400101
41.718197 -65.887131 -73.210892
48.508614 -65.741341 -65.452202
48.044605 -67.365967 -63.115826
41.478088 -63.747612 -72.157204
-43.420147 -48.562271 -153.130829
64.240112 -70.672043 -47.163342
-46.227558 -52.071609 -158.931580
-49.708824 -49.018761 -153.378784
-46.540955 -49.185074 -149.030380
-56.796452 -46.484585 -159.401459
60.846317 -70.399384 -48.532585
-46.284813 -48.790314 -143.023499
-61.790005 -47.971645 -158.521240
-84.118584 -41.431404 -172.260361
-86.820404 -43.744499 -177.088730
49.905624 -69.650787 -36.844025
-51.333298 -48.092735 -134.098831
-76.778549 -45.387856 -151.791824
35.384384 -64.447617 -38.369747
31.149193 -62.766273 -42.527859
32.063416 -61.465927 -48.536037
-77.708633 -45.938339 -150.513672
33.628109 -67.729134 -36.804966
-81.346680 -42.688267 -151.347382
-83.353912 -44.232018 -151.405624
44.654732 -69.796318 -22.696901
25.938145 -69.982903 -11.132618
26.556940 -65.525185 -8.143964
20.535204 -62.232430 -9.111166
-86.914719 -49.306332 -115.040192
27.311483 -65.314095 -0.467854
71.061134 -56.933361 -332.653809
66.669411 -58.400276 -317.479645
135.240448 -66.789940 -242.817001
140.612289 -63.607620 -236.990128
105.088196 -60.869789 -264.490936
97.947762 -60.476784 -268.472870
85.070580 -56.755535 -259.824860
89.613739 -57.896671 -255.075668
24.828932 -47.917198 -313.269928
137.142166 -67.584404 -196.627716
96.253441 -61.371178 -227.359436
22.134903 -48.938995 -296.062714
20.533165 -47.692116 -293.992920
11.409722 -47.306103 -298.599518
-18.144045 -43.833977 -327.041321
18.242903 -47.264942 -287.015472
-22.496611 -42.953064 -316.466125
105.069138 -67.683472 -192.540421
117.868713 -68.386406 -177.510422
-9.239068 -43.306892 -294.460297
103.139534 -62.355560 -192.879974
93.220695 -66.704643 -183.614914
98.004356 -64.775047 -177.837997
72.222549 -63.187675 -190.387604
87.435722 -66.534668 -172.495834
73.109512 -62.141243 -184.465225
83.908585 -64.149971 -167.385941
80.989471 -63.077133 -172.250198
90.681427 -61.651840 -174.751358
92.766922 -63.537426 -165.096420
74.336685 -58.969410 -181.762405
91.442436 -63.748566 -159.676041
61.700672 -60.507347 -188.801163
64.654747 -61.589676 -179.546112
7.508609 -49.474960 -241.266449
66.754059 -59.516533 -182.046066
7.691929 -51.208111 -224.312836
2.739365 -51.597149 -226.318649
4.432626 -48.365547 -222.262436
89.425346 -62.576141 -148.208939
81.567009 -65.371071 -146.138199
81.645355 -62.702831 -142.037689
83.803116 -64.867897 -135.583252
79.966698 -64.813583 -140.501266
106.300697 -74.891899 -89.254997
107.143082 -71.722710 -86.445328
70.237839 -63.053555 -117.604057
100.275314 -67.185402 -93.710655
74.962936 -65.283081 -114.773659
98.587822 -70.587997 -80.642807
64.616043 -63.027275 -104.700890
67.374649 -64.604195 -110.540802
84.857643 -67.658005 -80.500893
79.105217 -67.263176 -87.734390
62.329308 -64.508461 -102.350159
63.924198 -64.411949 -97.426659
62.711983 -63.604515 -99.151375
62.874577 -66.130913 -95.164993
78.655365 -64.521225 -83.363541
76.009178 -67.277321 -82.168655
73.547157 -68.095802 -81.827194
69.578568 -65.251007 -85.950943
68.592911 -68.113144 -82.766197
61.313637 -62.759460 -92.605072
75.479141 -68.326538 -64.171852
73.203461 -71.742523 -54.108311
74.538391 -67.050232 -52.975769
64.647324 -70.273659 -58.546360
59.085945 -65.079056 -66.011421
53.025120 -66.977852 -72.494568
61.889416 -68.331139 -56.483585
67.871010 -69.931488 -53.423100
58.811348 -66.170647 -63.375931
58.649708 -64.265076 -62.912285
65.235947 -71.034554 -51.987141
53.189163 -66.215958 -60.295097
52.232723 -63.905304 -69.613762
-38.936932 -52.274899 -145.830170
-48.741932 -46.472622 -150.701920
-56.599804 -44.965893 -153.854782
-54.843300 -49.434010 -150.795242
-40.699413 -50.745968 -138.618301
-41.934216 -51.924915 -134.210434
-82.311188 -42.267326 -166.367340
-90.325722 -42.352943 -172.535736
46.118259 -64.126541 -37.746128
-86.183548 -42.086372 -163.386642
-78.842285 -42.120876 -162.270050
52.283241 -68.967155 -25.505226
49.177860 -65.232155 -26.316961
42.452652 -70.490349 -29.870518
-63.635872 -46.519253 -131.060516
45.791519 -67.110008 -25.427774
-67.383499 -46.027847 -121.095284
36.167488 -67.842140 -22.376575
29.644495 -63.818748 -14.980556
31.619007 -65.870140 -11.839157
29.946865 -66.598534 -13.031978
27.049728 -63.451885 -12.751647
31.750006 -66.855820 -6.229187
29.685585 -65.773125 -8.599159
27.461287 -66.318336 -9.892805
27.733309 -64.818626 -11.001357
23.692287 -64.089035 -14.113579
-89.990997 -45.000629 -121.109512
24.754442 -66.548615 -8.209105
31.304449 -64.097580 -3.694862
27.595552 -63.986206 -5.640385
25.798019 -64.728912 -3.483926
26.110418 -64.268158 -4.364837
23.763308 -64.032028 -7.535542
-81.114113 -48.589397 -108.848656
20.770309 -66.628632 -9.046750
22.660257 -61.346737 -5.281816
86.980629 -48.245789 -325.323120
75.967491 -55.878414 -335.210236
74.034279 -51.155499 -333.690247
82.814041 -60.228706 -310.372345
74.969505 -47.275505 -315.075714
66.996254 -57.914131 -322.289948
130.626877 -64.250107 -248.962524
125.706909 -61.609055 -253.829834
14.177110 -45.081421 -335.811218
143.044937 -66.959641 -205.633057
7.894743 -47.133831 -338.766510
26.945826 -47.311539 -319.317810
-5.290871 -41.444046 -336.013031
20.845201 -47.951107 -309.803009
95.470612 -62.563721 -235.302567
23.378931 -44.281052 -301.478729
107.704498 -61.383911 -222.003143
15.984374 -45.525227 -301.425201
20.248556 -47.552540 -302.132294
132.829651 -68.210518 -193.726227
21.391977 -48.051220 -291.556549
19.702448 -50.119461 -290.447937
11.546661 -46.735302 -297.359955
16.444195 -46.055065 -286.762970
104.756546 -64.189995 -187.699921
-10.759512 -46.336296 -302.153076
96.002510 -63.290028 -186.741470
97.889076 -61.433670 -188.299530
92.251686 -62.759243 -178.025024
104.711342 -65.711929 -179.479065
101.717720 -66.749344 -171.296432
90.773926 -64.116241 -175.138580
71.411194 -56.915443 -190.461105
83.809860 -60.476086 -171.588287
67.089699 -56.547295 -184.006699
88.785660 -61.090069 -162.265472
4.514806 -47.554279 -242.011963
9.501636 -52.608646 -232.348312
89.414497 -63.245964 -157.331482
5.180579 -48.541466 -227.739868
85.276970 -64.353317 -154.429626
86.061676 -62.267860 -147.789780
0.046405 -48.647160 -224.831985
88.319916 -64.401802 -150.148590
87.481140 -64.443649 -147.131500
83.003975 -62.874382 -133.439484
77.972221 -64.419716 -137.679825
75.832603 -64.009010 -121.672203
80.607452 -65.707077 -126.712875
80.649689 -63.341507 -131.759613
76.638718 -63.140732 -121.157845
99.171242 -69.802040 -93.934814
72.767860 -63.816299 -117.529343
93.701622 -68.488693 -85.120567
96.205894 -69.237488 -82.639664
93.055656 -69.958878 -79.386909
74.146637 -66.511093 -92.762817
76.393921 -64.682014 -86.140450
69.584351 -65.723053 -91.699493
79.621170 -68.726387 -76.590370
68.254303 -66.005417 -85.928993
81.061226 -69.495407 -71.502525
83.750534 -68.983955 -67.347160
73.163673 -65.961586 -47.115265
61.073517 -68.069519 -55.866463
49.250942 -64.400024 -65.387077
71.958908 -64.970505 -45.491848
-41.961121 -50.770683 -146.324615
-54.788448 -46.344067 -155.443741
-46.806824 -49.624390 -140.723694
55.580425 -62.934711 -41.898144
-46.742947 -46.346737 -137.143280
50.525200 -63.592373 -35.766174
-46.828949 -46.863361 -137.863403
52.231689 -64.788620 -34.208794
-71.832695 -48.223347 -152.334702
52.247772 -65.362732 -29.583513
50.337780 -64.520599 -36.464676
54.632145 -64.611534 -29.562576
48.685299 -63.089363 -32.216423
-80.868942 -44.125237 -159.085281
-81.303734 -40.456333 -151.288742
45.945026 -63.732872 -32.603771
47.299297 -63.183998 -27.236303
50.997238 -66.713638 -25.184603
46.697018 -64.311981 -29.742777
-78.797729 -43.902519 -149.042755
-82.990540 -43.326714 -150.548065
44.190617 -65.447113 -24.705172
39.862919 -65.219490 -32.707008
47.140182 -64.385300 -23.255116
43.237572 -65.133018 -30.940538
40.001087 -67.237602 -26.482309
43.917267 -66.235817 -23.763903
42.860649 -65.057472 -25.559717
31.174803 -65.365898 -11.726463
32.090275 -64.110512 -11.832529
30.822758 -63.191818 -14.121951
-89.959755 -44.248207 -129.534744
33.251144 -63.436394 -9.966634
29.266905 -62.868347 -12.786567
-75.646477 -48.476685 -108.411163
-86.442963 -47.093693 -113.366150
20.723001 -66.501625 -3.656595
85.873871 -59.949451 -324.007904
71.298027 -51.246407 -329.726563
61.770012 -57.338657 -331.421509
69.215759 -49.313679 -325.085510
75.371284 -60.585316 -309.241241
60.658024 -57.806416 -321.016205
20.705400 -44.229527 -333.244110
25.166044 -45.855747 -328.248688
84.010193 -59.088375 -265.820740
26.695375 -45.295414 -312.611359
87.576340 -62.209488 -244.469086
87.750832 -60.006760 -241.701477
105.201637 -58.916412 -226.401993
100.188354 -60.340355 -226.786423
16.842281 -47.445568 -304.460693
-13.803772 -44.882999 -328.941162
103.701019 -61.346245 -213.497787
16.660439 -48.547604 -290.596832
13.541115 -45.380432 -295.912933
-19.692358 -43.480579 -323.029877
102.281113 -61.389286 -205.096268
13.985562 -45.377838 -288.567719
97.704857 -63.795685 -195.193970
5.032612 -49.450584 -296.758881
1.865331 -43.949116 -293.774139
97.286751 -63.161102 -192.329376
115.662964 -63.539242 -172.741074
96.707954 -60.359535 -192.973740
102.441025 -63.726536 -181.208206
89.569847 -60.330727 -195.710327
103.588921 -62.649197 -180.298584
96.174965 -62.360146 -182.690353
91.008018 -62.156334 -180.718033
83.473991 -61.461483 -187.746750
94.662071 -64.590340 -173.501038
8.781820 -46.790844 -252.962433
70.753342 -58.262508 -190.501297
8.744603 -47.999069 -247.429642
6.030034 -47.744339 -245.391678
3.793478 -46.787773 -246.553253
62.300491 -58.157017 -187.194092
6.265585 -48.798573 -229.869263
2.380934 -48.300236 -234.668686
101.082146 -66.811089 -92.858284
105.910461 -67.331734 -91.452606
106.544106 -68.999908 -84.918007
98.892342 -68.813072 -82.568710
95.881065 -67.044647 -84.897812
91.312981 -69.256737 -78.792915
89.491249 -70.292999 -81.833572
87.153023 -64.294472 -76.464272
70.842537 -64.491333 -89.406319
75.238693 -65.221848 -81.961624
80.023544 -66.402855 -67.683975
70.724739 -63.788048 -55.841244
73.654053 -64.038651 -52.589798
68.980240 -62.475220 -54.434853
72.924889 -66.038376 -49.997227
70.588356 -67.050156 -49.998756
70.179428 -63.836121 -53.097019
64.901840 -64.495583 -51.185497
61.270363 -63.643063 -52.738705
65.581932 -64.404549 -50.748558
69.008537 -65.395546 -45.212399
-51.836712 -47.965469 -150.992233
-38.347694 -52.959293 -138.172272
61.311832 -64.539955 -47.762573
65.422012 -66.704445 -45.059872
64.333305 -63.714752 -48.544781
-56.264336 -45.501701 -150.364609
60.518581 -65.985863 -41.859035
50.061340 -64.956749 -34.915352
-51.513916 -46.179016 -138.747467
52.982578 -65.256477 -36.064709
53.887032 -63.398247 -34.065876
47.528088 -65.914520 -35.836941
43.783981 -64.859146 -35.563583
-78.440544 -44.111786 -150.825638
43.292721 -64.623650 -25.195351
-83.943184 -44.204742 -143.464035
-89.994118 -46.767624 -125.251266
-79.404518 -44.478729 -110.696747
-85.622864 -41.679443 -113.604042
86.629967 -51.216087 -328.612823
60.235348 -56.974255 -324.730560
69.259094 -60.763813 -315.921875
120.455605 -59.836212 -256.726990
151.019775 -63.602249 -220.280609
147.918304 -65.216080 -212.294144
88.644318 -56.986446 -259.922302
-0.792336 -42.316952 -340.023834
-7.254641 -36.753223 -338.461365
-6.778082 -43.954269 -336.098785
100.071190 -62.307529 -224.590210
108.084282 -58.947140 -215.720184
18.396811 -43.764896 -297.643707
21.040636 -44.074802 -293.713562
100.759712 -61.301579 -207.894928
118.284363 -62.346287 -174.766281
-10.700978 -45.194859 -297.182983
99.242424 -62.223736 -185.849152
92.408112 -57.873310 -192.930511
99.487663 -62.626976 -181.885208
103.795952 -62.295773 -179.362289
97.924011 -63.052502 -180.455658
91.012466 -60.151691 -190.100311
83.787422 -60.777100 -189.238647
97.857445 -62.118721 -179.439133
95.528877 -60.746277 -180.802490
84.153931 -59.156025 -185.868729
99.895439 -62.966511 -174.926086
91.792252 -61.920517 -179.418167
86.450439 -61.534184 -176.955826
85.021004 -59.406319 -172.774582
10.908765 -45.769928 -247.170563
70.487480 -57.607262 -186.932922
9.373405 -48.124569 -241.789719
10.779099 -49.091682 -238.161484
89.624756 -66.477692 -79.242073
82.033974 -68.502777 -79.901123
92.365540 -65.522362 -68.120628
88.888260 -66.315964 -71.831543
91.614227 -67.915298 -66.382545
85.332924 -64.925934 -70.100586
82.803696 -65.495522 -74.197693
84.587288 -67.345169 -68.391411
73.705086 -67.338219 -57.117535
70.657402 -65.565819 -55.034256
70.818817 -64.275269 -59.451321
72.017685 -65.247932 -59.323399
69.884171 -64.117516 -54.956787
67.100906 -62.968460 -58.299442
66.089111 -64.352844 -55.585918
66.294601 -63.808002 -58.606705
61.919041 -64.884880 -57.123108
60.192238 -63.467628 -53.536064
62.941051 -64.677330 -47.339123
64.305115 -64.205482 -47.492714
-46.176579 -44.575462 -148.953751
-60.314304 -44.735088 -158.392014
-70.432709 -40.263309 -153.232864
-75.989494 -38.581059 -151.364746
-65.947617 -42.526169 -133.634460
-86.034668 -44.490791 -135.076797
-75.884125 -45.865925 -119.131805
-81.602432 -42.014408 -113.840828
-88.660667 -44.023872 -117.195168
69.763176 -58.224583 -340.698578
71.861488 -47.810566 -316.037903
108.934814 -58.730953 -265.171021
100.040817 -55.587055 -271.776093
89.225639 -55.710918 -271.188782
10.126921 -41.913898 -341.578064
144.148163 -63.598179 -201.757004
-2.554269 -40.028008 -338.790894
22.418432 -45.007710 -299.157196
12.486737 -44.102207 -299.987976
105.673851 -59.473545 -209.386963
17.745554 -48.207211 -290.697937
10.715838 -43.775112 -295.261841
-20.605738 -38.028175 -322.414917
100.734215 -59.422638 -204.334656
101.100044 -59.522572 -199.728073
-5.042999 -41.700146 -294.643311
103.174858 -61.622570 -191.168777
87.698891 -60.526772 -195.471771
11.339396 -44.196804 -263.831085
94.477943 -61.518536 -174.621307
9.986733 -45.938248 -260.525269
102.788498 -64.484734 -173.692139
103.105446 -63.531818 -165.746216
83.028038 -60.162735 -185.438965
7.560161 -44.548969 -256.807373
76.382202 -56.575417 -183.732788
70.369232 -57.835148 -183.600708
65.846237 -59.338543 -180.809891
86.451157 -65.963081 -77.226387
92.258972 -63.235565 -79.894791
91.761681 -65.663689 -75.540833
94.511108 -66.162849 -71.252716
91.494507 -65.311378 -74.006271
86.074501 -64.629196 -81.088753
83.576591 -63.863186 -77.274147
87.737236 -65.057396 -74.890800
85.627876 -64.334351 -72.046524
87.517586 -65.000458 -66.811295
81.264412 -63.255550 -72.398293
81.996147 -65.260063 -71.622330
82.296738 -63.391434 -69.474686
86.877815 -66.347832 -68.943573
70.605354 -65.252480 -56.166077
-40.046619 -46.667542 -144.478882
-48.734886 -43.411896 -149.794739
-55.411671 -42.574902 -154.876434
-52.904339 -43.612442 -147.177185
-66.506775 -44.302197 -155.435104
-57.163429 -46.034359 -135.761261
-71.643631 -44.063141 -129.231613
-83.335106 -40.051006 -146.052948
-87.895691 -42.896976 -128.366226
88.806419 -54.487484 -333.588898
139.606155 -63.219086 -242.002762
114.878029 -59.252304 -258.900238
27.585587 -43.241261 -323.665588
91.339615 -59.503578 -251.577515
91.715706 -56.268883 -239.358002
96.206230 -56.611572 -231.983780
11.465206 -42.150261 -300.625427
-14.071925 -36.033146 -328.201843
10.065627 -47.715519 -300.093292
102.663200 -60.387409 -197.032639
-21.466766 -39.851009 -317.274414
-22.021914 -39.314278 -313.141510
96.959854 -57.094189 -198.210083
-11.854300 -41.374325 -297.160675
-22.194885 -38.334934 -307.548523
86.590256 -58.703041 -197.998322
9.136091 -44.493324 -270.034760
85.448570 -58.237907 -193.333191
99.701447 -61.870380 -182.441879
77.587364 -60.932747 -195.496429
96.580070 -60.989033 -182.154648
10.457016 -44.981483 -255.276245
102.340256 -62.233845 -164.828079
67.626648 -57.235104 -188.930435
9.175976 -47.179806 -234.943726
-52.113602 -43.370377 -152.358932
-48.525166 -44.410679 -143.136200
-80.754105 -44.049076 -115.476105
91.181496 -56.240711 -322.753601
80.456329 -49.400131 -333.693939
90.814285 -52.108761 -317.217834
73.560623 -49.775158 -331.929810
124.544121 -59.938892 -255.420273
85.975487 -54.291058 -269.728851
132.701645 -61.812439 -189.088791
1.885098 -42.079712 -293.958527
-13.907315 -39.262554 -300.508728
90.780533 -57.614216 -190.354202
6.745501 -43.137398 -268.240173
95.209641 -59.402084 -176.912735
81.475578 -56.515766 -192.628220
74.737221 -56.351147 -180.109756
3.915746 -44.610546 -244.742355
-44.204163 -45.937050 -143.985138
-65.422729 -41.477818 -158.181122
-83.927582 -39.279034 -139.775543
-88.389893 -40.299606 -135.276596
-87.282837 -41.232803 -121.591118
74.785706 -51.099705 -339.689911
63.838394 -58.513096 -315.536652
128.983978 -58.928310 -252.733551
147.188751 -64.942688 -228.919205
19.004263 -41.763245 -334.887512
86.776581 -52.854069 -264.961639
20.173252 -42.499748 -305.079346
-17.880808 -37.296997 -323.743835
101.071404 -62.780846 -193.873871
-18.505018 -41.344227 -302.588562
107.812126 -61.200352 -166.498932
82.480232 -56.630363 -182.810013
-62.745361 -40.257545 -160.048019
-61.940723 -45.064873 -137.227875
