# This PCD file was generated using the MATLAB® pcwrite function
# from Computer Vision Toolbox®.
# .PCD v.7 - Point Cloud Data file format
VERSION .7
FIELDS x y z
SIZE 4 4 4
TYPE F F F
COUNT 1 1 1
WIDTH 1413
HEIGHT 1
VIEWPOINT 0 0 0 1 0 0 0
POINTS 1413
DATA ascii
32.244438 36.762665 -177.087372
-109.014153 37.275177 -171.106720
-42.285995 35.393250 -176.271149
-22.061268 33.111298 -175.783966
-18.596214 35.750427 -175.244644
6.588470 33.516449 -175.282837
17.178583 34.429443 -172.359207
-128.670273 40.703186 -175.585419
22.579044 35.610626 -173.701691
-139.135880 44.892639 -174.324188
-133.952377 48.125092 -175.502411
-139.261414 55.789276 -176.087173
-135.216675 57.124847 -173.357559
-35.328915 -197.250809 -171.192001
-40.695175 -198.963959 -171.393875
-47.125423 -195.987366 -171.690094
-28.495579 -193.406326 -172.960938
-21.822163 -197.867096 -173.595337
-6.244728 -188.686691 -173.171371
-65.567711 -186.819000 -174.516876
99.403618 -178.197006 -174.560150
-72.803642 -170.207489 -171.145096
100.434563 -173.046967 -173.077240
98.551247 -172.029953 -171.199478
108.024246 -167.012543 -170.127319
-44.312290 -161.345428 -177.976517
96.010597 -162.164459 -172.020523
93.541420 -164.593704 -170.278503
102.980263 -162.216415 -177.577362
-49.652962 -157.690704 -175.857758
69.966576 -153.730072 -171.033234
61.084827 -148.068604 -170.659241
57.852749 -149.380234 -174.253357
52.246723 -142.948578 -172.951050
-72.925743 -144.686951 -171.892715
50.400158 -138.820892 -174.224869
-67.908684 -142.009384 -173.812958
55.049961 -128.753281 -174.684891
49.853565 -131.867249 -172.706863
47.754536 -132.979553 -171.689041
58.060242 -133.538956 -173.865173
55.585716 -127.765854 -174.124512
-40.707504 -114.795547 -172.292419
53.313293 -118.385040 -173.514282
50.159756 -112.436188 -174.164871
-35.012085 -112.948486 -170.071609
-34.724941 -114.275513 -177.478546
47.373505 -112.591736 -174.430756
127.202538 -113.831375 -174.186279
130.858719 -114.366425 -173.431335
40.775932 -109.249039 -173.066452
-28.066448 -104.953140 -176.313782
127.588463 -100.519012 -170.713654
-25.906277 -97.251633 -173.359482
-54.158348 -96.423355 -173.888550
123.713120 -93.374786 -175.320892
38.372208 -94.383484 -177.198639
17.077614 -93.360565 -174.073410
128.507095 -96.861984 -171.247726
-49.048866 -88.881927 -174.980423
-25.245262 -95.556305 -171.969299
129.069366 -89.025711 -174.157135
43.143303 -95.419907 -172.451935
-50.613808 -90.293594 -172.187134
127.806618 -89.237442 -176.617966
-43.867035 -81.952682 -177.619064
-37.460751 -75.577072 -175.156006
122.702805 -80.702209 -173.191208
-46.133759 -85.593369 -175.183334
123.735352 -80.840805 -172.786331
-42.239120 -83.507782 -173.950470
1.782161 -76.387436 -174.364197
1.627316 -73.874100 -174.316742
125.786186 -81.839783 -171.906204
35.920906 -81.213623 -173.013977
44.531185 -80.819641 -171.246078
-39.893063 -76.190247 -170.819443
40.098953 -72.461258 -172.542908
-41.413811 -77.378601 -172.347839
-37.961864 -70.446014 -174.942154
31.130138 -74.645828 -176.125671
-44.400005 -73.589340 -175.219345
125.186234 -69.126862 -174.614899
38.839157 -75.344040 -172.221024
-16.752014 -68.529800 -172.502121
-27.768642 -62.116257 -175.067749
26.735645 -57.527481 -174.365616
0.612662 -64.507950 -172.599121
-34.409576 -57.729156 -176.423416
120.186363 -66.242355 -176.211914
30.617428 -63.609222 -173.156586
-120.586578 -55.399200 -174.072296
-25.599251 -62.049820 -173.544449
113.943680 -57.817871 -174.498871
-132.679733 -54.504669 -179.330612
30.564871 -62.620575 -173.442047
-24.103210 -51.892365 -171.915985
-20.965305 -46.932526 -174.670822
-19.321640 -51.922089 -173.052612
-25.399929 -58.567551 -174.662369
114.446938 -51.871323 -172.247925
-2.617750 -52.327850 -171.948990
-133.987610 -48.502228 -172.682877
32.600700 -46.589828 -171.928360
-60.318260 -48.905426 -175.292542
-130.724823 -45.301834 -173.658127
108.541130 -47.636322 -173.686569
-17.361835 -47.839874 -173.681381
-12.234009 -38.800705 -173.533127
22.655304 -42.718353 -175.051895
-55.102440 -42.969986 -176.736389
-15.189735 -41.721344 -172.273376
12.641594 -41.371857 -176.538300
-63.031258 -38.629593 -178.331345
-1.901012 -35.320526 -171.867035
22.637922 -39.653473 -169.826767
33.690643 -32.815109 -175.001541
-132.104584 -38.336716 -173.784012
5.902229 -40.125809 -174.390167
-77.481903 -33.419724 -171.333725
-5.811308 -34.056335 -174.687637
111.334610 -41.854477 -173.201279
24.129513 -31.916245 -175.903351
28.593647 -39.440094 -171.109634
96.865623 -33.636292 -173.025375
16.653303 -28.114349 -172.411484
97.912346 -34.774155 -169.457840
-1.766247 -34.607468 -172.941010
31.739672 -35.312454 -176.995605
-128.305069 -32.920624 -173.974289
-3.469109 -31.333084 -173.994583
17.362669 -27.892181 -171.752731
-139.299927 -26.427521 -173.165558
-120.834854 -26.039001 -172.523895
20.902134 -30.803925 -174.780518
9.408047 -25.071716 -173.303558
-120.323364 -23.044815 -173.632584
-126.505905 -22.325546 -175.313889
-129.244797 -16.986526 -172.160339
-19.091904 -15.050293 -174.787720
-133.320404 -12.681961 -173.802368
35.339832 -10.225998 -170.510132
21.568830 -8.627762 -172.463699
-134.735336 -15.885513 -174.806122
-135.436447 -12.707596 -174.032013
-29.898819 -13.148178 -174.819626
-13.509083 -7.489288 -172.413330
17.398825 -10.527344 -175.658478
-23.401711 -10.948944 -176.842422
38.825787 -7.148224 -172.434555
11.607998 -7.937073 -175.836609
-135.065765 -4.214111 -176.939896
6.997285 -3.715698 -174.503052
-131.773285 -5.054535 -175.001923
-51.582153 -3.585388 -173.564560
-135.305878 5.400726 -181.829742
-108.398369 8.130402 -173.187912
-132.642639 3.094238 -169.287781
0.045118 9.824127 -171.451599
-128.420258 11.968750 -174.025833
-133.485855 11.229370 -171.933685
4.290214 14.925079 -174.595901
-131.804337 19.024719 -175.103821
11.669510 27.223145 -174.126541
-30.184483 33.621826 -175.594070
-121.223572 33.793793 -175.397766
-118.554703 28.475372 -173.011490
-111.755707 29.919769 -170.237167
-39.022812 32.971985 -174.718781
-97.755638 34.575928 -170.233688
30.960920 38.935669 -173.020874
-46.344780 34.702148 -172.512177
-129.220444 34.348785 -173.532806
-49.802803 36.695831 -173.028076
-126.305832 38.626495 -175.841705
-104.201309 32.520203 -174.927780
-33.120529 36.372467 -172.840469
-20.025879 35.990570 -173.268280
-117.795258 34.613953 -174.113327
7.343102 34.881439 -173.662216
15.106695 33.334198 -174.928436
21.420935 35.203033 -173.369965
30.211512 39.530792 -175.933899
-134.615479 44.321625 -173.157227
-130.461578 44.946289 -174.770615
-53.289268 -193.390198 -173.989014
104.765846 -182.362915 -170.737534
91.208237 -179.651291 -173.333633
-11.223957 -179.709229 -175.575806
100.916618 -177.061508 -171.231308
-20.508121 -172.408875 -174.410263
104.309059 -175.286682 -173.040573
106.980240 -173.264526 -173.982101
-49.346252 -158.713684 -167.374573
90.304497 -158.762024 -172.062759
95.793129 -157.798599 -170.375336
109.405243 -161.221893 -172.192993
70.360771 -157.768372 -171.087967
-59.205597 -154.795975 -176.666687
-58.539490 -153.893280 -166.855606
65.111748 -148.521927 -174.484161
-76.208832 -149.869629 -175.508026
63.358482 -137.617386 -171.482788
125.604797 -141.099167 -170.763428
127.207268 -122.596603 -168.295639
44.722965 -116.930984 -170.325119
128.077606 -125.432419 -171.229996
40.763145 -120.379410 -175.011963
130.207443 -125.808655 -170.037796
55.139427 -117.475418 -175.774902
-35.311073 -108.671051 -175.151581
52.777122 -114.332138 -172.777298
124.317802 -113.895905 -172.156357
-36.653568 -110.052063 -173.499054
48.823402 -105.457291 -170.797485
-40.942005 -113.564636 -170.580612
-37.159115 -106.249542 -171.462677
-34.123062 -105.697525 -169.728516
-50.964066 -98.145737 -175.769928
128.819611 -105.270706 -173.843628
-31.700798 -98.857330 -173.397736
37.676552 -98.289948 -174.863449
123.331169 -97.831757 -170.865173
-54.397079 -99.032959 -173.496170
-35.961502 -96.041428 -174.820190
26.356661 -98.411438 -169.243622
-50.880501 -98.261627 -170.627792
-44.015045 -96.164581 -171.620743
14.249541 -92.470444 -171.661148
-27.127556 -85.170670 -173.076782
49.198723 -92.392166 -171.590393
-47.154575 -88.209015 -172.513412
-42.166988 -85.016556 -172.815521
34.073299 -93.649429 -173.727432
-16.620876 -83.421631 -170.715134
-17.897568 -87.662689 -175.560181
30.456415 -78.602600 -172.096436
-22.903893 -79.414154 -172.350449
1.843347 -83.309753 -172.671661
-43.536495 -84.528641 -172.802612
10.166484 -83.544724 -170.477814
-7.087208 -72.616653 -171.278412
41.495495 -74.357742 -172.688004
-24.723057 -83.772964 -172.450104
31.579844 -74.850983 -172.239197
-8.644989 -71.955933 -168.797684
-16.660084 -72.328064 -172.383621
-130.636459 -68.129562 -174.594376
-8.189041 -69.258163 -173.349304
-127.672989 -68.836258 -171.725479
-136.705490 -66.603348 -171.357269
-32.222668 -65.604691 -172.170044
111.514854 -57.661438 -169.675705
-130.467209 -60.828201 -174.955551
-136.210220 -59.485855 -174.560715
35.848476 -55.508041 -174.326981
-123.106689 -51.524292 -168.956619
36.023182 -55.572281 -169.528061
-125.872299 -56.787933 -171.781998
28.522814 -60.353989 -167.086197
-121.081879 -53.778259 -171.615372
24.000362 -50.207245 -171.340042
-137.444748 -49.619400 -172.325562
107.226685 -51.367126 -173.123474
1.549245 -50.530258 -172.664429
-15.866774 -47.269775 -172.157806
6.166285 -50.393082 -174.672134
-134.804428 -44.269165 -172.826675
-16.939651 -47.958923 -168.534164
-67.564964 -42.784729 -175.288956
-9.303785 -45.826111 -170.759659
35.832500 -43.926880 -174.867310
-133.943314 -41.341553 -174.010834
-76.567703 -39.132919 -173.851013
-13.866207 -43.049377 -173.627731
-8.853762 -37.735321 -170.195770
6.470764 -40.240692 -172.234924
-11.804523 -42.905441 -170.908371
-67.628098 -36.913406 -171.749527
-71.540146 -34.603867 -171.403809
-9.237179 -34.193069 -175.122543
10.426027 -32.795242 -173.284683
-129.576675 -34.313705 -170.804901
12.016540 -35.204483 -176.126343
95.451889 -29.941986 -166.962265
-129.729156 -29.637527 -173.391403
7.696333 -31.581726 -175.650604
-125.567932 -31.894119 -174.011185
-129.742783 -27.964874 -180.152008
5.295269 -23.519714 -169.720749
32.923592 -30.684647 -172.889694
-127.829376 -24.886414 -169.729355
1.485082 -27.373886 -169.890900
93.828705 -28.557678 -170.932831
90.048546 -25.000381 -170.552124
22.288677 -21.023727 -169.873001
-8.769630 -19.691528 -175.865082
-3.932743 -13.072021 -173.295120
21.846661 -11.606430 -174.330338
-29.813942 -14.332733 -175.356613
-8.704809 -7.796997 -172.462570
22.113741 -12.571030 -175.494888
-48.904442 -11.419769 -171.200623
-13.376307 -11.565811 -171.644592
-28.865757 -10.129929 -169.488785
-135.172775 -10.609344 -171.030975
-32.036762 -6.291687 -173.723068
-37.208771 -8.999222 -170.895508
-54.335571 -3.444458 -172.779434
4.753791 -3.224701 -172.020187
-67.259598 -3.608124 -170.173721
-136.575821 3.315674 -177.084427
-127.370438 -0.378357 -171.702621
-110.692955 3.858185 -170.711319
-139.166885 10.673065 -168.518784
37.909157 9.661102 -174.408279
2.174867 14.836853 -172.337097
-135.344971 13.436737 -173.199112
-134.427902 20.703888 -176.603638
-129.248489 29.675110 -177.902420
-42.583050 31.576782 -170.244629
-23.324894 32.769928 -172.563889
-14.883795 32.942383 -173.885513
2.453105 33.737488 -168.320160
-49.817932 32.685059 -171.141373
-63.964638 36.862335 -171.829636
13.231318 32.742340 -172.319855
24.471956 32.986084 -170.865891
-121.799347 37.387939 -171.199295
-64.929802 33.976166 -170.146713
-130.088791 33.280304 -174.242523
-82.577965 31.350647 -171.610092
-65.167076 33.302490 -173.371582
-66.000870 38.577148 -170.464066
-45.038025 33.596924 -173.157181
-9.309883 35.744812 -174.075134
11.390038 37.653442 -172.799835
-140.219467 41.940155 -174.460846
-137.377380 41.860657 -174.013184
-129.606461 45.738220 -175.205460
-139.811508 53.725006 -175.048294
-41.536068 -198.563232 -171.976669
-28.455429 -204.317734 -171.836060
-21.362785 -201.819687 -170.782639
-58.042618 -194.835373 -171.025055
-16.132473 -195.266632 -173.438385
-16.652086 -178.263947 -169.566086
91.353127 -174.321808 -173.701935
93.767998 -172.758377 -174.652588
87.756004 -170.574768 -173.721176
110.957054 -166.194336 -172.803864
89.373695 -165.247284 -169.497818
70.913055 -159.507782 -173.136963
63.430893 -157.059723 -174.234131
-52.767723 -156.078598 -174.125000
-54.131874 -154.953644 -166.498856
58.580330 -151.029922 -173.232635
-65.332970 -147.675507 -174.472275
-78.478058 -140.569901 -171.905319
70.266472 -150.493118 -173.370956
122.562790 -142.913940 -170.158295
47.020195 -134.415009 -174.075943
64.924225 -134.864029 -171.251831
62.402126 -130.698364 -168.348602
44.251923 -130.022522 -173.581970
124.326485 -136.714432 -172.331482
56.807449 -124.918991 -171.077209
45.698814 -122.292984 -169.599716
-30.690525 -109.461624 -171.625931
-56.858170 -105.798096 -172.011719
-40.429047 -108.620712 -169.045013
-57.141548 -109.395279 -169.544540
-27.313572 -111.727921 -169.636108
126.107819 -103.076233 -169.146973
-56.084564 -97.591919 -172.124161
41.896793 -105.310242 -172.194763
48.944241 -103.255295 -174.156006
132.655457 -96.157364 -173.916580
25.039257 -93.446640 -174.125687
47.176968 -96.578583 -174.626175
-48.900490 -97.064438 -170.169815
-29.810204 -86.186478 -171.382004
32.278240 -92.631317 -168.649704
-46.464787 -89.224365 -171.969315
-52.923508 -87.821243 -173.809448
123.915092 -87.723846 -171.831650
9.021577 -85.316162 -172.617783
-49.332069 -77.012238 -177.227448
-11.354959 -83.055511 -169.091064
-37.960655 -81.072571 -172.229965
43.271549 -87.227142 -171.413300
125.103325 -82.176559 -172.249405
120.689651 -71.358261 -172.029083
121.905357 -65.502686 -169.027588
123.542419 -77.249298 -170.369690
-40.584740 -63.508286 -172.822983
-36.773331 -73.863846 -170.756760
39.916267 -70.510040 -171.107986
-34.094543 -66.246063 -170.870743
-5.769880 -71.578903 -171.794434
-37.407646 -64.315186 -170.514694
-135.159607 -64.874420 -171.933502
114.894226 -62.088394 -172.768494
-32.659939 -60.555176 -170.174789
-3.691721 -57.190994 -172.004532
-127.182755 -56.976654 -173.559158
-28.893127 -57.427094 -170.010666
120.678680 -56.477554 -171.506836
122.796997 -67.754288 -173.399063
-30.705315 -56.184509 -171.458023
-10.932144 -62.727341 -171.881485
-132.907318 -54.691666 -177.757355
-12.440300 -57.080078 -177.039505
-136.707397 -50.210297 -172.848312
-138.441162 -53.547272 -173.108978
-126.841568 -53.648499 -176.158890
-23.418373 -57.151978 -170.851364
118.275551 -52.361771 -173.102158
-21.616875 -57.887039 -169.678757
-127.514771 -49.311005 -174.224411
-24.818115 -49.168289 -171.899551
-3.319361 -45.180969 -172.574356
111.200645 -50.799118 -167.525986
105.930695 -42.697266 -173.440002
-13.457718 -37.891922 -171.248535
-69.548889 -43.256760 -173.655075
-62.952835 -44.016937 -172.103256
0.488333 -37.168304 -172.413803
-135.691025 -43.518921 -171.746170
103.445564 -41.737183 -172.854507
103.597763 -35.948242 -173.001907
106.561378 -32.890472 -173.262466
-86.220825 -32.020554 -169.324371
-135.834961 -31.478073 -175.785553
-1.743563 -34.995148 -172.958832
97.509628 -28.995743 -170.836929
-133.859818 -26.595840 -173.684998
-11.770435 -34.600647 -170.621872
-117.528519 -25.840546 -175.679428
4.471177 -28.054398 -175.154144
34.020664 -33.172348 -176.315445
33.306973 -23.604645 -173.878784
-136.963501 -21.061050 -173.674911
-108.922615 -21.697647 -171.596512
3.956811 -17.903015 -168.657211
14.742249 -17.115784 -174.974991
84.975128 -18.152939 -171.009766
85.802589 -19.194504 -169.247528
12.993606 -17.060928 -171.482025
32.084690 -14.025970 -170.139297
-13.842413 -12.022827 -172.373642
-21.343929 -17.005737 -172.806244
-31.584702 -11.577225 -171.007507
-22.206451 -18.047058 -171.936295
-1.137049 -12.849014 -172.354095
-34.669552 -15.943039 -168.011017
16.467152 -9.391876 -170.598129
-53.217888 -7.525604 -170.952087
33.767731 -9.029602 -172.136490
-131.346985 -8.526611 -174.611084
-59.168541 -6.065460 -174.564590
28.066669 -8.452545 -173.290695
-148.670670 -6.659363 -173.148422
33.050861 -3.051025 -175.063385
-68.069153 -2.996246 -172.978607
-59.769226 -7.233704 -173.652542
33.344604 0.675690 -172.750641
-74.692268 -1.121552 -171.846985
-108.376785 3.051514 -173.423630
-117.166962 1.939392 -173.869034
-120.049774 3.263397 -170.976318
-134.052216 5.304779 -169.875931
-125.843567 5.874176 -171.497330
-117.456726 8.621613 -171.705246
-145.157043 5.997986 -171.002945
-109.284363 11.068024 -172.192093
-119.808090 5.706909 -172.064865
-148.627640 7.328613 -174.406937
-141.033691 9.688477 -172.414078
-136.338165 12.116486 -170.974503
-130.328506 8.887512 -171.207504
32.007851 24.912231 -171.715179
-151.085236 14.958191 -168.032608
-135.417770 20.834259 -171.215256
8.645979 19.337463 -176.173233
-146.308350 16.155365 -168.328522
27.276529 26.752899 -172.835266
-135.562637 26.405609 -174.579132
-147.171646 33.431915 -170.376709
-139.223206 30.076111 -170.948578
-150.486771 30.828308 -167.918182
17.395761 34.056519 -172.393707
23.044512 31.612000 -172.650696
-83.580650 30.444580 -169.292282
-137.399658 30.561493 -169.815155
-135.827179 33.131317 -169.076248
-96.317154 34.796875 -173.251572
-133.521271 35.484619 -169.593292
-135.451462 35.088776 -170.328568
-53.757225 37.601593 -174.973114
-147.110397 32.874512 -174.950516
-111.134987 37.378998 -170.674255
-28.901123 36.774872 -170.715500
-143.758820 34.778229 -170.775177
-122.192291 40.195404 -170.655777
-1.470310 41.662964 -169.808624
-111.797974 37.254669 -170.722137
21.788191 38.546387 -172.554474
31.071243 36.088165 -170.222382
-120.733536 37.056000 -169.571014
-131.788116 39.858002 -175.741409
-145.420944 57.943390 -170.596054
-53.965584 -200.722137 -168.693237
-9.016968 -193.531860 -165.619675
-4.345274 -189.055466 -171.739059
93.969543 -179.710052 -166.761673
105.692406 -180.738358 -171.671768
-24.381748 -177.737183 -167.450592
90.247849 -176.494293 -172.510468
103.607765 -177.812317 -174.178635
86.809486 -176.270294 -172.888702
84.030113 -169.007263 -172.081741
-34.604412 -166.081390 -174.970108
-78.645386 -168.634781 -173.030273
74.976776 -162.180298 -167.843826
67.119980 -159.156982 -174.493637
114.928085 -159.464828 -169.942062
-79.505852 -153.399353 -169.391342
100.385368 -158.670334 -173.103302
87.420937 -154.764557 -169.870926
106.484924 -155.660126 -171.698288
96.470200 -151.702972 -167.903320
100.401093 -156.179092 -173.867188
-64.118828 -151.135880 -172.909531
56.155010 -144.453598 -172.385345
118.317520 -143.716293 -172.759384
127.330978 -142.615662 -172.686630
61.900047 -141.104645 -174.077881
123.313065 -133.021088 -170.210709
128.545593 -117.845627 -167.821716
-38.130703 -119.983704 -169.186066
41.865715 -121.235382 -168.671509
55.096352 -119.393753 -172.777115
42.563507 -110.620316 -168.175964
131.536697 -114.759033 -170.422531
124.338585 -122.753525 -168.508560
-57.743675 -107.941666 -170.876572
-30.032066 -106.733276 -171.876266
-54.868767 -106.077576 -170.354309
36.276608 -100.988571 -171.330475
130.919800 -101.920517 -171.889557
-38.850723 -104.349457 -169.266830
-54.992523 -105.149979 -169.414490
-24.613026 -101.764786 -173.361191
52.053471 -102.357864 -170.602936
127.141022 -104.272079 -173.662659
127.955338 -92.366730 -173.480087
-52.537468 -106.042297 -168.138062
-52.542099 -91.578796 -169.894653
40.160564 -92.264938 -170.947128
-46.551552 -89.147644 -172.051926
-18.036728 -92.228699 -173.535416
21.737551 -92.250671 -170.618286
130.526276 -96.332245 -171.214340
19.350992 -91.772766 -171.728149
-18.721355 -92.124878 -172.562271
16.865705 -85.730789 -170.811966
125.568298 -82.683044 -169.657532
-21.968880 -86.610565 -170.871429
44.792336 -81.092590 -167.948578
124.361122 -82.297440 -172.272995
-40.917427 -76.490463 -170.194275
-12.886780 -82.642609 -171.588837
122.090691 -78.668564 -171.644577
43.937431 -81.183334 -168.902725
127.243958 -80.900162 -174.573868
-23.144356 -76.286819 -171.735764
123.714378 -76.486313 -172.384735
-46.264835 -76.877380 -168.822250
-11.734194 -79.628006 -177.802811
-130.871918 -72.765915 -169.703293
-38.073421 -69.822678 -170.646713
-130.004990 -67.038040 -172.328934
-15.727945 -68.823044 -170.803314
37.407070 -67.859924 -168.701248
122.051086 -69.274277 -171.312454
-14.247343 -67.370804 -173.778534
28.503166 -64.175247 -173.164917
34.933834 -56.171158 -170.787888
-128.743790 -59.747925 -172.795303
119.775215 -59.148682 -168.461761
-3.670595 -60.617966 -172.773819
119.042343 -62.599121 -172.351746
28.728313 -67.877731 -167.938828
-116.672546 -53.971924 -170.505859
-122.432800 -55.716965 -168.465195
112.040558 -55.814392 -166.843597
3.252363 -54.469009 -173.524704
2.437289 -52.000946 -169.348053
27.691376 -47.686523 -171.412247
-132.560226 -48.929199 -173.451431
-130.928940 -44.617035 -170.199341
111.072952 -51.019958 -170.483185
-62.987671 -45.894043 -169.627609
-24.591873 -51.974121 -170.568054
33.428974 -47.425583 -170.085876
-10.719067 -44.193558 -169.377441
-61.369568 -43.929825 -172.256622
104.824211 -46.214218 -171.777023
-66.748947 -40.292099 -170.090195
-132.054474 -36.004105 -173.529297
-64.522026 -44.261383 -169.639755
-0.761687 -39.932892 -170.393234
-6.891071 -35.113297 -170.849869
31.661951 -41.074707 -171.445862
5.636488 -38.985687 -174.975571
-70.253143 -34.971771 -169.422134
105.747429 -41.587585 -169.609192
-82.172447 -37.490479 -172.458038
-135.644196 -33.041794 -173.201843
-2.099281 -29.909119 -172.276352
33.205311 -38.554276 -171.312561
-88.245651 -36.175476 -172.886444
20.911522 -33.577301 -172.617905
-9.479084 -38.598358 -170.862930
99.881630 -33.149078 -169.951797
-131.508621 -32.923950 -175.018066
19.096170 -28.025909 -169.047318
3.832885 -31.667953 -171.129929
33.644135 -32.101990 -169.222412
100.558151 -33.793808 -170.982697
2.295056 -24.765350 -173.733810
-112.201241 -29.865051 -172.897568
3.470041 -30.142166 -170.086151
34.698025 -20.456207 -171.967514
-110.938606 -27.872513 -171.833908
-133.535614 -31.362930 -167.343994
-126.100128 -24.902435 -169.985611
-115.155243 -25.327515 -171.291534
-0.566955 -26.385345 -170.776260
87.334595 -24.008270 -173.462631
-126.495224 -22.894470 -171.504486
90.501228 -27.193298 -168.977829
-4.681011 -26.112015 -172.302612
-126.380783 -25.031357 -175.311188
91.906342 -24.183090 -167.565964
25.305485 -21.918747 -171.207733
-126.641479 -19.724426 -177.279770
-133.664154 -18.473221 -170.748138
28.211994 -21.235535 -170.023239
9.932315 -20.726837 -168.920425
-7.990486 -19.517624 -171.258667
12.037850 -13.632706 -168.497589
-145.234390 -20.474518 -171.283279
24.890804 -10.923706 -173.250336
-147.262589 -17.376556 -167.199341
3.582197 -15.731186 -171.824432
78.229736 -16.557739 -170.290207
4.667388 -13.443253 -174.711349
-11.205744 -13.996445 -173.273590
-13.573650 -12.304276 -170.851959
-5.188177 -10.900909 -174.021576
-130.769897 -19.523590 -171.094208
23.978563 -13.801163 -173.518433
81.818726 -11.402786 -172.026062
30.474241 -10.735474 -169.947968
-145.689636 -13.750412 -169.092133
-33.819546 -9.856094 -170.196609
17.300011 -10.815247 -176.448792
30.933472 -12.107010 -170.922485
-38.849243 -7.190857 -168.407043
6.809543 -7.076508 -167.414169
34.544846 -5.770508 -175.620209
-147.797562 -5.700256 -171.151367
-51.325836 -10.454285 -173.575851
-36.106613 -10.802200 -171.223862
-62.388885 -4.438904 -172.131256
-142.994751 -6.434906 -169.520111
-135.675598 -3.356323 -170.088333
-38.158215 -6.658478 -172.172775
-49.676453 -3.906921 -169.747803
-137.793640 -0.506958 -172.127701
-136.272232 -0.877075 -170.827499
-60.599945 -0.000366 -173.359695
-76.841263 -2.706268 -169.481262
-152.677185 -9.681641 -170.838394
-139.354248 2.526367 -171.202164
-119.309799 -0.774628 -171.437164
-69.214432 -1.909058 -168.545013
-148.613586 -2.681702 -173.277252
-125.281998 -0.610779 -165.791748
-71.226616 -0.606842 -169.414032
-79.333984 1.787506 -168.152023
-131.924973 3.990234 -169.456558
-82.214958 2.554199 -168.189514
-130.797958 4.952271 -170.219391
-84.965714 5.031006 -171.026886
-149.179031 3.260773 -173.069702
-146.961670 1.104095 -170.822922
-103.710579 0.721832 -170.928268
-134.890533 4.138641 -173.370605
-98.267059 5.119659 -169.787811
-0.071562 10.438995 -169.266373
-128.684143 5.574036 -170.493683
-108.970909 9.130127 -170.065491
-139.742508 7.554779 -169.716400
37.281975 13.053406 -173.840607
-132.586288 24.858856 -173.193954
-151.153641 22.742523 -172.739075
6.639517 25.182343 -170.705139
-134.003830 29.221344 -175.539139
6.806284 29.256653 -171.625534
28.715126 32.478088 -171.737549
-117.979065 32.313660 -169.973419
-57.899002 31.066742 -166.896805
-17.900723 32.133392 -171.355484
-97.458282 34.376617 -168.835159
-78.122124 37.255005 -175.597748
-76.070854 35.767578 -167.456299
-33.749577 39.397919 -168.556473
-97.923004 36.089600 -170.987961
-96.587105 35.077759 -170.545212
-15.981447 37.021057 -168.424637
-96.811127 35.746399 -172.044327
-108.530411 41.910309 -171.180069
-131.193451 37.114197 -171.998978
21.731638 38.996887 -170.684708
28.973177 40.664429 -170.232346
-141.409790 40.434906 -171.846497
-138.601868 46.496338 -171.610367
-125.321198 55.228241 -170.962265
-135.370026 57.736908 -166.437027
-137.336411 54.545166 -173.608582
46.808155 -235.668381 -168.382919
40.473312 -239.721664 -167.824905
37.215637 -230.127213 -171.522507
42.109070 -214.291641 -167.111969
-39.861706 -205.312912 -168.004852
-49.688728 -205.294312 -169.386032
-19.174572 -200.621674 -169.692841
-63.792221 -195.286850 -170.825989
96.545807 -180.639603 -172.951248
-2.622698 -183.709335 -169.327820
103.336571 -180.925797 -172.588425
111.380539 -175.244476 -169.669769
-78.632240 -176.562607 -168.051422
82.653229 -175.152420 -166.855850
-26.670307 -169.927750 -172.411362
114.325188 -173.357681 -162.730392
-38.627060 -163.857788 -173.202728
68.615242 -167.574631 -169.298859
91.084106 -163.247421 -170.834534
75.116615 -155.652390 -171.804611
69.061050 -155.982239 -171.265381
87.966423 -160.597870 -173.932312
60.710678 -154.975845 -171.492523
118.243362 -157.664032 -168.488815
123.916054 -148.697449 -171.164856
98.169922 -153.288940 -168.243942
104.469795 -155.020767 -173.336411
118.109962 -154.360580 -169.414276
122.515732 -152.999542 -169.059937
52.668667 -149.246094 -170.144012
125.745346 -134.957748 -166.856567
129.420364 -133.495712 -173.032486
48.786034 -132.774445 -169.505646
59.384377 -133.078110 -167.748367
130.702347 -124.749603 -171.732712
54.542080 -126.698929 -167.371414
129.934891 -124.645020 -169.550781
125.223969 -132.641815 -169.831207
39.504639 -116.028702 -168.661880
-31.104073 -118.828293 -170.486237
-38.292877 -116.434296 -168.840805
129.378937 -122.325790 -171.311295
-54.817902 -112.257477 -170.996231
-56.007607 -116.161072 -169.451889
-40.656521 -109.764786 -172.926636
50.910454 -112.530243 -169.464462
127.769783 -113.686340 -169.848511
-49.131813 -106.791595 -167.304031
-31.001385 -112.279022 -171.746429
51.835358 -107.630127 -172.538132
-52.940971 -105.004059 -170.573471
128.727493 -110.343582 -170.097336
128.749222 -98.934830 -170.294510
134.809708 -105.914307 -169.352142
-22.296604 -100.613754 -172.843155
-49.803764 -88.770554 -169.635788
-55.869583 -98.362183 -170.810562
49.226658 -104.221451 -172.752350
14.673306 -93.306503 -170.225250
122.480484 -94.832092 -172.171951
129.481049 -101.219620 -169.749924
128.238968 -98.781357 -167.638092
-48.454185 -90.229721 -170.306015
-29.209000 -93.121811 -172.218536
15.080791 -90.160294 -168.664841
-11.762562 -78.998093 -168.285706
123.245300 -89.506058 -170.478851
-20.976887 -95.354599 -168.032913
124.360023 -86.448273 -168.924683
-21.716759 -82.540710 -171.696747
128.451981 -86.308426 -169.270264
-135.253067 -72.159790 -173.258118
-12.059097 -77.120285 -168.612183
-4.409054 -71.048843 -169.481216
38.562531 -81.662552 -173.907501
31.853745 -72.431305 -172.087051
43.050896 -76.273239 -170.723053
123.565948 -69.912247 -171.540482
-135.448242 -69.259155 -172.423111
-7.947931 -65.067764 -173.828949
117.648529 -78.405853 -169.247116
118.211349 -63.446548 -170.249557
123.513634 -73.333801 -169.888763
111.403763 -62.840408 -174.774124
-136.683670 -66.242447 -174.060760
117.705368 -53.404922 -170.769730
-15.055983 -59.668198 -168.484421
112.935310 -59.075745 -170.206894
-110.030487 -58.269455 -170.657455
-16.241575 -61.418350 -173.241699
-125.050903 -56.740036 -169.171265
110.336800 -53.984665 -170.673523
21.016207 -58.184921 -172.403854
39.228600 -60.591476 -168.771744
-129.858856 -55.596481 -167.219955
-124.181808 -52.081619 -170.046783
5.059450 -49.109131 -172.171982
-111.245575 -52.657227 -168.309509
-129.504990 -52.627869 -172.918518
24.845402 -52.819763 -169.826981
-4.123808 -51.688477 -174.548462
35.435223 -47.580826 -172.021500
24.289465 -43.891922 -170.922913
105.307747 -44.389267 -173.072601
-2.171700 -43.299652 -168.332901
109.463615 -47.106354 -168.337479
111.573906 -48.803833 -169.890488
-135.742584 -40.636887 -171.964249
110.478630 -42.879562 -171.385117
17.701353 -44.490219 -168.841599
20.435072 -43.045578 -170.810196
-19.632786 -46.223862 -170.945221
-71.660347 -42.350006 -171.869339
-11.613970 -41.824341 -169.924789
100.246147 -42.132126 -168.446579
103.811066 -35.220215 -166.807220
-19.519661 -41.158234 -173.368988
-70.432388 -39.450027 -168.950134
11.513646 -37.642822 -172.939270
104.733109 -40.657791 -166.171997
-134.005768 -35.069443 -172.292587
-151.915543 -41.142746 -169.412369
-143.991745 -29.113083 -170.921219
-5.899368 -28.111221 -170.657928
-139.180313 -32.899597 -169.188492
10.492905 -27.406891 -168.393311
27.555212 -35.169006 -169.361984
-148.562851 -28.709549 -168.845428
-145.246277 -31.271713 -170.649353
97.096169 -23.839539 -170.547272
22.156641 -27.217239 -168.337662
-140.317276 -27.163376 -172.379578
-125.365036 -30.304443 -170.086975
-4.808842 -30.731262 -168.905243
21.887924 -28.740326 -172.068253
92.869614 -30.270859 -168.238602
-144.149689 -24.911926 -171.876266
-131.912674 -26.753036 -169.206650
-110.454636 -26.033356 -171.211243
96.513710 -29.186707 -168.837509
-99.712639 -26.863113 -168.410873
-135.667557 -25.115250 -170.147720
-136.032303 -25.201096 -168.366409
-132.920670 -23.689377 -169.732025
-140.393570 -24.607468 -168.306183
-150.493500 -24.247177 -171.658752
-123.721436 -17.997986 -167.180054
-115.614471 -24.875198 -169.967270
-141.923065 -24.298325 -169.775803
-128.631653 -21.245392 -166.736496
-138.367462 -20.466278 -168.653870
90.155815 -26.974762 -168.910172
82.583626 -19.230255 -169.514252
-144.089249 -21.470627 -171.597778
86.482986 -19.782852 -168.665741
-0.282182 -17.100525 -170.145554
25.428848 -18.670364 -171.243988
17.650379 -17.664673 -173.757126
-135.740280 -8.385773 -166.956879
29.039186 -12.702469 -172.420090
78.175331 -17.591751 -172.587189
28.103640 -17.062759 -166.669083
21.974735 -14.273834 -170.501694
9.336255 -14.859512 -173.934036
-4.900019 -12.549240 -171.592010
12.678648 -9.232513 -170.637604
17.313236 -12.469681 -173.254547
72.154182 -13.554779 -170.747375
-39.969707 -12.861984 -170.224884
33.650181 -9.496780 -168.432190
-46.109489 -11.684341 -171.793488
6.735806 -6.477844 -169.467300
-46.322235 -5.717560 -169.086014
-71.653862 -2.942230 -169.861954
-69.838264 -7.306610 -171.548218
7.278481 -3.200562 -166.144592
-109.649918 1.974945 -169.766388
2.755508 -2.347595 -173.492722
-103.680023 4.754761 -169.606339
-98.616951 1.057587 -169.874100
-87.636871 1.295502 -168.914017
-130.065811 10.300201 -169.522949
-128.400513 9.423889 -170.422394
-150.304230 10.551758 -168.449112
32.176292 24.281372 -169.292847
-36.604958 33.534760 -172.949966
-47.214642 30.126068 -169.024658
-25.760498 32.159821 -169.528717
-12.509338 30.203674 -170.876129
-79.894829 32.849182 -168.564621
-11.263456 33.360229 -171.074219
8.076810 30.518066 -169.330002
-152.170517 37.548889 -170.274887
3.486405 32.306549 -170.799362
21.424690 31.766907 -172.274612
30.797276 33.369598 -171.212418
-41.298855 35.682526 -169.916321
-16.124575 35.290985 -170.689224
30.879793 34.499451 -168.462616
-53.266823 35.121765 -167.156174
-18.514938 37.278503 -170.635635
-2.557714 37.693756 -169.464432
32.788834 35.519928 -171.397675
6.368829 39.468018 -172.715042
18.980543 38.138580 -167.022324
27.443434 37.952606 -169.600876
-116.587433 39.580719 -170.291931
-126.736008 46.359528 -170.384369
-136.075226 58.127106 -173.601242
53.172169 -240.020248 -168.388550
46.557396 -244.242783 -167.159729
50.910236 -240.371216 -165.969162
37.229389 -236.795380 -170.825272
60.301376 -233.502991 -168.156662
38.401234 -232.773392 -168.064301
38.199081 -227.436295 -170.840271
39.021721 -220.789291 -165.890701
60.040604 -228.273987 -167.207397
44.097820 -216.784622 -168.108871
57.714699 -221.432495 -166.605927
45.527195 -213.340164 -170.420044
51.636837 -218.432159 -169.472092
43.820736 -214.679459 -168.762390
56.240490 -213.965439 -167.390366
53.217693 -209.957062 -168.346542
-21.329189 -208.042099 -164.017365
-14.177624 -200.836227 -162.397491
-71.657013 -199.786621 -161.052429
-72.790245 -190.668472 -168.539597
96.720001 -183.612549 -169.933853
99.093697 -183.537537 -167.542038
-4.340780 -183.523438 -168.154633
-73.442932 -183.895676 -171.611481
-10.296841 -178.191559 -169.998581
-34.794521 -170.900909 -168.015427
83.235603 -168.773682 -163.505264
70.722313 -162.062897 -166.042862
116.969803 -160.220291 -168.009354
83.307907 -164.026932 -167.741852
-52.299843 -161.316910 -171.928085
-49.819580 -158.287674 -169.717407
59.759491 -156.776688 -170.159302
94.410362 -151.241577 -168.205231
69.121170 -147.333298 -173.576767
114.823616 -155.572235 -170.307816
-81.359428 -145.636993 -167.726593
54.828403 -140.030167 -174.338196
120.184883 -149.749847 -168.362625
62.846706 -143.977539 -168.504150
117.920670 -144.923538 -168.966476
-73.331062 -141.712799 -171.122879
48.398678 -147.092651 -170.074020
120.403519 -137.029785 -168.458511
119.426788 -141.108749 -167.355804
122.509262 -138.891235 -166.974869
125.924873 -139.195419 -171.187546
53.801189 -138.424469 -167.719116
48.674698 -131.426743 -171.356461
58.912109 -137.441223 -165.669128
125.338684 -130.069107 -170.043610
54.516003 -129.104141 -169.754929
119.928482 -123.213074 -168.891693
127.723213 -123.567642 -165.403610
49.721439 -131.792419 -168.105148
-59.671539 -127.994980 -169.558594
131.219238 -117.232147 -167.568451
-40.323650 -117.690887 -168.032089
52.036503 -120.825760 -170.630249
-57.004074 -115.484360 -166.994705
46.539761 -116.755157 -168.271561
-62.403862 -117.163544 -164.644714
-32.718029 -111.632309 -174.257355
-56.877411 -114.564911 -166.149689
129.096909 -117.280579 -168.676849
127.998001 -113.119080 -170.350815
132.514359 -109.386566 -169.539581
-56.297142 -112.149078 -164.349701
25.574076 -104.655991 -167.000626
-37.014877 -104.383316 -168.791107
-35.455303 -97.153824 -168.405853
123.264214 -96.383636 -168.586609
-24.368668 -103.337646 -169.032578
32.804264 -97.766144 -168.244385
38.835411 -99.231232 -169.817200
131.476059 -91.528091 -172.288116
42.352413 -91.239365 -166.434235
13.915173 -90.529984 -169.782867
48.635941 -96.207428 -168.235245
-50.797760 -93.769272 -165.488602
-51.965714 -94.222992 -170.826080
-54.844582 -86.839188 -171.721710
130.870850 -95.233231 -167.740326
-24.779179 -91.709869 -170.370697
39.416821 -87.266937 -170.216873
-45.478722 -85.142548 -166.979568
-42.293434 -85.400162 -171.588516
-23.912594 -96.122955 -166.980850
-16.151756 -84.477890 -170.078613
129.527115 -85.880234 -167.709595
-21.822067 -75.920944 -167.926208
31.534641 -82.379257 -169.408585
124.117882 -72.379852 -168.876999
-133.503494 -78.223557 -170.738220
-129.216782 -79.621063 -169.896255
-134.970505 -79.268265 -168.680618
-126.562302 -75.340195 -167.937164
-14.951078 -65.510559 -168.059036
-7.323412 -71.288757 -165.202682
36.543968 -63.183029 -172.044373
-124.128510 -69.812958 -165.637970
-127.981323 -69.642609 -171.069214
-2.872112 -70.870209 -169.485886
26.592733 -71.222672 -172.818634
-135.106888 -66.029694 -171.797272
-12.931988 -68.315277 -173.357452
119.544250 -68.673645 -167.957474
123.162575 -64.417679 -171.177750
36.917049 -59.931900 -166.706787
-4.198872 -65.936081 -172.773331
-11.119270 -59.635162 -171.094437
-134.921265 -55.081940 -170.006943
-115.541733 -60.684799 -170.528549
-105.257484 -61.011612 -167.622986
-108.591629 -54.796127 -167.387573
-4.981855 -58.157654 -166.543045
25.936123 -59.432693 -170.993088
110.276871 -52.879852 -168.575073
-132.655823 -57.583008 -168.491302
-132.821976 -53.099106 -168.389862
-132.007233 -57.882477 -170.694427
-138.303421 -53.738754 -167.182800
-9.905283 -56.764206 -170.514832
2.837754 -56.905640 -172.021545
-131.901245 -53.152405 -169.522232
0.231163 -57.097946 -169.480759
-147.135635 -60.271606 -169.223648
-116.465408 -57.418732 -171.057465
35.297577 -47.982025 -166.314423
-148.203232 -50.622696 -168.142395
-130.974716 -47.657913 -167.142792
27.504192 -54.769302 -170.172409
-136.278854 -49.827591 -168.256119
-7.124210 -51.824875 -171.178970
115.842743 -53.449677 -170.288895
-138.039810 -38.350082 -171.988861
-149.646393 -44.706879 -169.293915
-64.023247 -45.321884 -170.358780
104.881187 -44.173431 -169.008591
11.509056 -38.752670 -168.211319
-133.195282 -41.470459 -168.338150
-70.978882 -41.171402 -167.426102
9.404034 -45.146744 -171.105621
29.974249 -33.273636 -170.376297
-132.875244 -33.944183 -167.736404
9.150735 -32.000381 -169.897110
-8.913908 -32.619690 -168.539581
1.955846 -35.560547 -167.114273
105.206909 -37.711578 -167.988800
-7.237343 -35.628586 -167.069687
-14.318707 -39.009018 -169.781830
-92.231483 -31.014313 -165.653854
0.243272 -32.112610 -170.079681
105.991974 -37.999084 -166.788132
99.976128 -36.753403 -167.512741
22.313152 -35.501465 -173.541107
3.921502 -30.485840 -169.106140
97.053009 -31.428024 -170.912933
-110.354218 -31.538071 -166.302979
-8.773169 -33.847672 -167.927292
-86.101059 -30.085403 -170.326782
-91.629005 -28.360474 -165.999847
-119.747818 -28.467224 -171.200272
95.206863 -29.552628 -169.505188
-106.274155 -32.085297 -166.504150
20.472309 -25.250565 -169.532730
95.557953 -30.539261 -166.811859
-0.979469 -30.289490 -169.002609
2.344643 -24.316010 -169.573959
10.248933 -27.393814 -168.347168
20.090864 -28.893539 -170.998642
101.356766 -27.047989 -169.974411
26.515713 -20.347977 -171.675583
18.636084 -25.625778 -171.239975
6.163983 -27.616653 -167.247955
8.921117 -17.035507 -170.509293
29.935648 -20.878250 -164.371475
1.592082 -19.657227 -166.202423
84.069656 -14.892593 -168.172501
10.658993 -19.944565 -167.653152
34.040733 -18.724365 -169.668869
-153.195450 -14.360489 -169.413254
14.060691 -14.818268 -167.032486
6.509454 -14.294540 -166.516541
-152.736542 -2.709106 -167.312134
4.791997 -8.674469 -171.866989
31.759823 -13.987656 -171.370392
-131.102844 -3.673645 -170.942657
-54.054352 -6.766632 -169.130173
-43.979343 -6.537994 -165.359177
69.650986 -8.265656 -165.827850
-61.518585 -8.048462 -170.911331
32.546429 -4.405457 -170.465286
-58.224594 -2.176025 -160.835800
1.526585 -5.505859 -171.212555
-129.098297 -5.729797 -167.468323
62.853054 -7.924194 -170.688934
-62.355339 -0.734222 -166.274826
-84.709656 -2.032349 -168.664841
-85.517853 -0.014038 -167.774460
-100.984566 0.040619 -170.334763
-88.736855 1.115021 -170.999023
-91.649689 4.321838 -168.440750
38.214462 10.883331 -171.778519
-111.816589 11.698730 -167.088242
0.658981 20.284668 -170.299011
-131.882187 27.831940 -171.698029
-152.626526 33.038696 -167.953918
-108.929825 31.152344 -170.687393
-99.718689 31.773193 -168.776352
-59.282784 31.860748 -168.393768
-42.011738 32.178040 -168.967148
-25.498631 29.926178 -169.825836
-0.569300 33.550537 -167.960800
1.226969 32.065765 -170.811798
-23.041664 34.851532 -165.059784
-18.607132 33.520233 -168.495392
-3.886599 34.393951 -167.876022
-53.941483 34.549133 -165.768021
-39.444489 33.681854 -165.270676
-0.893934 37.106750 -168.135620
-0.922352 37.181030 -168.318771
9.027733 35.213928 -169.350601
19.336887 32.639252 -166.332748
-72.692566 37.411957 -168.409164
-126.620865 38.745331 -167.528122
-102.906769 35.492981 -170.026581
-135.941467 45.907471 -169.438202
-140.778000 44.139160 -172.432419
-132.230804 45.372589 -172.601227
65.386253 -234.107422 -167.268082
36.785824 -230.324905 -166.854294
67.725151 -229.096054 -166.552902
65.099525 -221.490738 -168.486404
103.244606 -187.804092 -169.622314
112.343025 -179.004562 -168.753845
118.177696 -175.836548 -165.567795
109.957993 -172.038208 -169.158447
72.678062 -165.661331 -166.097336
66.759773 -161.431274 -169.534805
76.079720 -165.350082 -167.972076
-48.961952 -166.033218 -164.093674
86.715988 -165.329224 -165.690216
118.626007 -157.023376 -167.351135
92.248802 -157.912094 -173.112106
110.118904 -153.451645 -167.340820
-65.067917 -152.235809 -168.138779
60.417267 -153.462662 -167.808365
-67.716911 -149.313126 -165.034760
67.920120 -144.721130 -167.363037
52.814793 -148.798355 -166.966278
122.990746 -152.102478 -165.646255
50.962025 -147.162964 -168.678574
55.139923 -140.438751 -169.628067
57.952400 -139.990295 -171.241959
121.118660 -138.586777 -168.946152
-70.662056 -133.172134 -166.278076
127.524338 -128.025131 -165.222488
54.962025 -133.361969 -165.879196
58.521221 -134.653091 -164.464066
55.005741 -132.052856 -163.556030
-41.072216 -124.288986 -171.128815
48.472084 -128.439133 -169.019440
-62.208939 -118.736862 -168.217590
-38.033566 -120.982529 -168.627029
-64.005043 -120.118210 -165.689087
50.684704 -123.298050 -167.107483
-44.173782 -122.236191 -168.766968
50.729355 -120.333664 -168.328735
-58.403847 -112.113968 -168.806015
-45.496658 -112.864105 -167.583710
45.029457 -116.240189 -168.285095
124.482834 -110.572861 -168.891769
132.320267 -117.778687 -166.091827
47.815849 -114.910263 -162.309113
-30.607216 -113.247284 -164.724106
127.549263 -103.454361 -169.050842
-60.242607 -112.117294 -168.343872
-42.038540 -112.441193 -169.604858
46.321178 -104.312881 -169.140686
-61.502281 -104.733322 -168.111359
-54.524658 -104.231064 -167.319565
131.979355 -103.259415 -168.417709
-47.032253 -100.015656 -165.634445
-21.605091 -100.525925 -169.168427
42.876041 -107.443100 -165.206070
-60.874702 -104.369217 -170.373444
27.599844 -104.359985 -170.941956
48.634407 -104.204132 -165.518646
47.961685 -108.675156 -169.495926
29.375275 -97.315735 -167.316208
-31.867558 -97.334427 -169.146179
41.833488 -101.003860 -165.310852
-30.192295 -105.452271 -169.340073
19.470293 -101.960571 -168.490524
37.082741 -103.859772 -168.040619
-53.290871 -97.976715 -168.094986
-28.500664 -99.526657 -165.567551
-52.396187 -96.901138 -165.060684
28.985411 -95.898773 -166.866760
42.342564 -104.075027 -167.269424
19.100485 -95.501602 -168.426346
39.228584 -97.302628 -170.233185
47.115959 -89.534760 -168.809723
-31.539108 -93.852127 -169.431000
-16.706678 -94.954819 -167.328430
-24.080322 -94.130325 -166.778091
45.006153 -94.338638 -166.044800
-27.742264 -89.607300 -165.745621
-26.658901 -90.971344 -166.309128
34.448891 -89.978256 -167.546921
-23.997807 -79.798355 -164.200684
44.098434 -83.682404 -172.853516
127.410652 -87.657181 -168.340759
-17.052525 -81.498245 -167.623184
122.993530 -82.785202 -170.494720
-20.825073 -76.447906 -168.558304
-22.224354 -69.824615 -168.498337
32.163689 -75.768677 -172.702591
119.784721 -72.904449 -165.930130
-9.703999 -69.227676 -164.549927
-15.205751 -77.222031 -165.379639
-9.264559 -68.192032 -167.485901
-128.863922 -65.010620 -169.761826
30.809841 -69.479324 -168.346542
120.663788 -65.436996 -168.438980
-138.677689 -56.215622 -167.937958
-10.266003 -60.306091 -168.090271
-98.153313 -59.263657 -169.400162
-120.578400 -56.531662 -166.628250
-95.724190 -55.358521 -169.692596
-93.595375 -54.556152 -167.353348
3.552872 -57.848358 -167.997070
36.642117 -60.650269 -166.150787
-0.187537 -52.200821 -167.249664
-105.258774 -49.071823 -167.793228
-9.236069 -49.664963 -164.705750
-117.490158 -51.934677 -167.035995
0.017986 -51.696808 -166.152374
-127.374802 -47.931885 -167.166336
108.902641 -45.120682 -167.298691
-149.769882 -53.674301 -169.063522
12.190050 -42.198395 -172.765686
25.089363 -47.033112 -169.671478
23.300440 -38.657303 -167.024002
97.295464 -36.337997 -169.811157
20.345860 -40.423172 -167.111938
26.789814 -41.103928 -167.360321
-0.529232 -35.626495 -168.605560
-75.866325 -35.780411 -166.353973
-80.485413 -39.087296 -163.725967
9.074306 -34.005188 -168.921143
-149.051285 -31.399353 -165.770935
28.977522 -34.795639 -167.940964
-128.148376 -28.132523 -167.035812
30.126205 -25.633102 -164.408081
-118.939178 -29.919952 -166.341919
-103.217216 -29.002960 -166.792740
28.778917 -32.727997 -164.294174
94.809959 -31.713394 -166.306992
22.814745 -34.084244 -170.005402
-95.007599 -25.945496 -170.916809
95.216980 -26.686218 -169.422623
98.125916 -25.903839 -170.626724
-109.092560 -23.115005 -169.218277
-97.181534 -23.969116 -167.304504
1.100780 -23.506653 -166.182587
86.999664 -27.462234 -164.778076
82.681274 -19.510605 -166.528046
90.721725 -22.850967 -169.502487
-122.120483 -18.120911 -165.689697
86.476273 -20.462631 -170.753586
81.048599 -18.166626 -165.203537
-151.485565 -27.513199 -168.529221
13.604616 -13.983292 -167.399780
34.148247 -14.499527 -168.093765
12.321180 -16.909485 -168.322433
33.495388 -13.085205 -165.085114
78.673477 -15.274765 -171.254471
31.999456 -14.837509 -166.526733
2.103671 -11.287170 -164.955185
17.172983 -12.769226 -165.176270
80.264168 -8.650116 -167.903839
20.246351 -10.415222 -168.949081
7.471467 -10.759201 -167.028442
28.744953 -10.272156 -167.119247
-150.490723 -13.625351 -169.939941
73.973091 -7.798157 -167.636536
67.135818 -5.220062 -166.973038
69.771706 -11.873459 -167.065384
2.265315 -5.431793 -170.071579
68.114975 -7.305267 -169.221573
-56.459404 -6.216675 -167.642853
68.186523 -5.787598 -169.252502
-76.885246 -0.678284 -169.146820
-111.246986 -0.233307 -169.147430
-117.551483 -1.251862 -167.711868
61.803234 -1.176544 -168.891907
-120.720825 2.302856 -165.519394
-93.977509 2.853760 -167.385162
-98.676994 4.020172 -166.530304
-68.638397 1.964142 -168.582932
-98.885330 2.177887 -171.794479
-107.305634 5.872833 -170.934647
-128.999420 9.711884 -167.107040
-1.377712 6.851410 -169.126907
-153.629318 11.634644 -168.143936
2.001431 15.977478 -167.888184
-143.888947 15.088898 -164.322479
-138.046677 21.879822 -166.388351
-157.798874 24.680359 -167.193207
2.186579 23.151917 -163.726303
-122.241272 30.345428 -166.121902
-143.255280 27.887543 -170.063446
-129.700531 29.383759 -167.666321
-125.271133 29.928772 -173.125717
6.526003 31.144806 -166.420959
-110.815720 26.338684 -170.880707
-127.826294 33.890411 -167.859711
-99.827896 31.442261 -169.134430
-60.878349 30.753937 -169.340271
-46.030235 30.562836 -166.969086
9.645720 35.867371 -169.239395
-41.818218 37.028290 -168.402710
-39.523743 32.297089 -166.455353
-57.507118 37.324921 -168.046402
-70.991653 35.825562 -171.619064
-81.186501 34.026825 -166.024734
-145.855774 35.364227 -164.014236
-148.421280 37.921631 -166.727234
-109.892609 39.230499 -169.227417
-128.569244 40.464966 -170.919144
-143.112808 45.955627 -166.967026
-135.232010 59.706116 -167.855331
64.392906 -235.290802 -167.030212
34.393425 -230.228195 -171.716827
54.042694 -220.598785 -166.699600
-0.868412 -186.969574 -172.516388
98.198082 -192.971893 -169.804199
102.571190 -189.753571 -163.170959
93.880829 -186.459457 -167.770203
86.461678 -184.374435 -164.592697
108.163101 -182.344986 -173.090088
-82.413132 -186.665405 -168.048965
86.549637 -182.820023 -167.848984
-18.938847 -178.132492 -166.822739
114.119232 -167.564377 -168.948685
75.584450 -163.634506 -169.695847
119.099449 -157.559555 -169.254349
119.356697 -156.332153 -167.578659
82.973595 -154.652847 -165.125931
-63.683479 -157.711273 -169.237045
68.053940 -153.913681 -168.297409
123.716316 -148.466003 -167.736374
64.846642 -145.751389 -169.836197
96.465240 -152.695786 -167.046204
57.328506 -149.308289 -168.704453
120.703003 -147.965866 -167.708527
63.330814 -150.868362 -166.188278
124.259453 -141.200165 -168.608856
123.404999 -140.662552 -166.963547
-58.269859 -138.630783 -164.206100
-66.011154 -134.815536 -168.541870
58.649090 -133.642609 -167.375229
130.399933 -138.138901 -169.325729
129.690598 -129.486435 -165.178665
-69.307182 -129.420776 -167.544800
123.903694 -129.961060 -167.353119
-42.316078 -122.663498 -169.397446
-69.555870 -129.293320 -165.428391
-59.705551 -125.855072 -167.124130
